ply
format ascii 1.0
element face 0
property list uchar int vertex_indices
element vertex 1334
property float x
property float y
property float z
property uchar diffuse_red
property uchar diffuse_green
property uchar diffuse_blue
end_header
-0.00674 0.08785 -0.97906 236 223 224
-0.00270 0.07717 -0.97633 254 254 254
-0.00345 0.08354 -0.96832 250 252 248
0.00058 0.07289 -0.96560 254 254 254
0.18598 0.02116 -0.92300 254 249 243
0.17614 0.01621 -0.92763 254 254 254
0.18312 0.01325 -0.92393 254 254 254
0.19877 0.01982 -0.92876 229 222 176
0.27672 0.03625 -1.03962 191 171 76
0.28414 0.03310 -1.03569 178 159 78
0.25687 0.02074 -0.97655 148 128 67
0.26113 0.00949 -0.97368 82 57 38
0.28655 0.02356 -1.00820 73 53 31
0.29089 0.01211 -1.00527 32 32 40
0.29910 0.01678 -0.99706 37 45 56
0.30343 0.00536 -0.99414 49 65 83
0.30403 0.01307 -0.98944 45 49 58
0.30748 0.00901 -0.97962 39 42 50
0.31595 -0.00345 -0.94785 31 38 44
0.30576 -0.00858 -0.95265 38 44 45
0.31299 -0.01164 -0.94881 48 60 64
0.32022 -0.01471 -0.94498 55 66 66
0.31990 -0.00728 -0.93912 37 41 44
0.32415 -0.01851 -0.93625 40 36 42
0.37483 -0.03231 -0.90462 35 40 48
0.38273 -0.03521 -0.90179 33 41 53
0.38760 -0.03873 -0.89473 39 42 55
0.40283 -0.04466 -0.88827 38 46 61
0.40816 -0.04807 -0.88193 68 92 96
0.42118 -0.05003 -0.88597 50 48 54
0.44425 -0.05458 -0.88981 34 48 57
0.47875 -0.05282 -0.92192 75 86 75
0.48054 -0.06132 -0.89715 50 52 52
0.48706 -0.06456 -0.89223 39 42 47
0.49578 -0.06743 -0.89014 53 59 62
0.53162 -0.06589 -0.92261 90 100 91
0.51103 -0.07356 -0.88310 61 48 45
0.52612 -0.07971 -0.87585 27 33 44
0.50977 -0.08642 -0.84256 57 72 74
0.52228 -0.08869 -0.84525 57 62 67
0.53160 -0.09146 -0.84394 41 46 51
0.54096 -0.09423 -0.84265 24 37 45
0.54942 -0.09714 -0.84023 47 62 65
0.54884 -0.10132 -0.82695 60 77 76
0.58068 -0.10513 -0.83984 28 27 33
0.58684 -0.10839 -0.83460 25 29 40
0.59115 -0.11977 -0.83169 36 42 47
0.60953 -0.12945 -0.78736 60 78 64
0.59935 -0.13457 -0.79215 32 31 35
0.61378 -0.14069 -0.78449 27 35 38
0.75029 -0.18004 -0.74062 25 26 26
0.76434 -0.18626 -0.73235 30 29 36
0.77462 -0.18109 -0.72752 25 31 35
0.77163 -0.18935 -0.72848 28 31 31
0.78970 -0.20243 -0.70223 21 27 47
0.79937 -0.20535 -0.70073 48 58 64
0.80245 -0.20868 -0.69288 52 57 41
0.80417 -0.21207 -0.68377 33 30 33
0.80843 -0.22331 -0.68090 18 22 24
0.84608 -0.23388 -0.64910 50 61 79
0.85182 -0.23699 -0.64398 62 69 72
0.86392 -0.23982 -0.64462 40 47 50
0.89011 -0.24211 -0.65786 36 36 34
0.89440 -0.25343 -0.65497 32 32 31
0.91139 -0.25137 -0.64583 47 56 87
0.92263 -0.25432 -0.64546 47 42 62
0.92127 -0.25768 -0.63407 35 39 37
0.92555 -0.26897 -0.63118 22 26 30
0.93452 -0.26386 -0.62529 37 49 49
0.94014 -0.26698 -0.62006 65 81 55
0.93399 -0.27996 -0.57536 55 65 85
0.94467 -0.28291 -0.57455 53 60 78
0.97349 -0.28556 -0.58869 52 42 38
0.98341 -0.28857 -0.58711 36 29 28
0.98767 -0.29981 -0.58424 26 27 26
0.98725 -0.29168 -0.58052 25 34 37
0.98938 -0.29479 -0.57259 49 53 51
0.99362 -0.30598 -0.56974 34 41 46
0.99936 -0.30401 -0.55194 15 30 77
0.98928 -0.30908 -0.55667 38 42 45
1.02018 -0.30696 -0.55900 123 156 185
1.01691 -0.31005 -0.54694 217 228 228
1.10900 -0.33758 -0.53351 238 233 231
1.10176 -0.33451 -0.53736 240 233 231
1.12371 -0.34072 -0.53522 237 233 232
1.13258 -0.34383 -0.53254 242 234 216
1.14669 -0.34700 -0.53369 215 191 144
1.16732 -0.35028 -0.53956 141 126 98
1.18516 -0.35356 -0.54329 160 176 168
1.17714 -0.35643 -0.52825 215 228 227
1.18363 -0.35952 -0.52376 232 230 233
1.19396 -0.35432 -0.51890 236 231 229
1.19095 -0.36262 -0.51987 236 232 231
-0.81762 0.63737 -2.07624 106 124 119
-0.69572 0.33678 -1.23768 86 78 84
-0.69155 0.32930 -1.21773 99 93 105
-0.68971 0.31758 -1.18271 109 110 118
-0.67942 0.30741 -1.15919 106 108 131
-0.67344 0.30397 -1.15323 108 107 115
-0.66927 0.29741 -1.13611 105 78 52
-0.66490 0.29136 -1.12073 93 46 19
-0.65660 0.29201 -1.12929 69 21 20
-0.65286 0.28213 -1.12676 54 12 10
-0.65031 0.28924 -1.12563 55 14 12
-0.64657 0.27936 -1.12310 52 15 8
-0.49128 0.23180 -1.07229 49 17 10
-0.50034 0.22724 -1.07655 31 10 8
-0.49392 0.22452 -1.07314 28 8 9
-0.48750 0.22179 -1.06973 29 7 11
-0.48359 0.23036 -1.07389 50 18 14
-0.47566 0.22914 -1.07632 57 26 31
-0.47374 0.22193 -1.05541 70 55 65
-0.46800 0.21857 -1.04949 83 81 84
-0.44361 0.21523 -1.05832 89 83 89
-0.43586 0.21367 -1.05958 89 81 94
-0.42942 0.21090 -1.05604 90 77 75
-0.42394 0.20729 -1.04914 90 69 54
-0.42013 0.19724 -1.04657 83 66 60
-0.41825 0.20389 -1.04305 90 57 38
-0.41240 0.20065 -1.03758 88 45 28
-0.40027 0.19456 -1.02819 89 33 7
-0.39365 0.19199 -1.02540 68 23 18
-0.38679 0.18959 -1.02336 29 9 24
-0.38058 0.18668 -1.01919 36 21 22
-0.37417 0.18393 -1.01571 91 57 27
-0.36675 0.18195 -1.01539 108 68 34
-0.35941 0.17989 -1.01476 84 45 29
-0.35283 0.17724 -1.01172 73 32 23
-0.34223 0.17753 -1.02094 113 61 35
-0.33309 0.17667 -1.02547 163 90 38
-0.32925 0.16651 -1.02287 176 95 20
-0.27762 0.17810 -1.07360 173 92 25
-0.28711 0.17332 -1.07806 181 91 15
-0.25941 0.18279 -1.10253 167 120 94
-0.24428 0.18527 -1.12215 191 193 194
-0.23737 0.18234 -1.11849 190 191 190
-0.22463 0.18308 -1.13083 147 139 133
-0.21021 0.18477 -1.14741 77 66 74
-0.20244 0.18225 -1.14571 68 68 84
-0.19450 0.17982 -1.14441 62 54 70
-0.19035 0.16886 -1.14161 41 21 41
-0.17916 0.17460 -1.14026 43 21 35
-0.15264 0.16866 -1.14268 45 22 27
-0.14264 0.17369 -1.13798 30 25 38
-0.14555 0.16565 -1.13892 37 17 30
-0.13852 0.16262 -1.13501 29 21 30
-0.13561 0.17065 -1.13407 35 34 47
-0.14143 0.15458 -1.13595 31 16 32
-0.12853 0.16765 -1.13031 41 43 56
-0.13227 0.15916 -1.12920 32 34 49
-0.12228 0.16419 -1.12451 42 47 64
-0.12642 0.15551 -1.12245 38 41 53
-0.11644 0.16053 -1.11776 42 45 49
-0.11935 0.15251 -1.11870 39 44 45
-0.09226 0.10872 -1.00387 87 45 51
-0.09906 0.11160 -1.00748 93 46 46
-0.08513 0.10598 -1.00097 87 45 63
-0.06049 0.09915 -0.99915 86 57 64
-0.05233 0.09683 -0.99835 71 44 62
-0.04304 0.09495 -0.99983 57 38 55
-0.03489 0.09258 -0.99889 81 71 81
-0.02919 0.08919 -0.99282 117 133 148
-0.02240 0.08625 -0.98902 168 193 208
-0.01778 0.08244 -0.98083 224 236 243
-0.01358 0.07849 -0.97187 249 253 254
0.18866 0.00990 -0.91787 254 253 243
0.17882 0.00495 -0.92249 253 254 254
0.19693 0.00729 -0.91628 244 247 197
0.21032 0.00602 -0.92289 230 221 141
0.28851 0.02155 -1.03273 181 156 93
0.30059 -0.00503 -0.95962 42 44 42
0.30486 -0.01630 -0.95674 29 32 43
0.36090 -0.03818 -0.90404 33 35 50
0.35372 -0.03514 -0.90785 45 49 57
0.35796 -0.04632 -0.90499 41 24 31
0.36832 -0.04118 -0.90057 35 35 63
0.37506 -0.04431 -0.89614 43 56 79
0.38171 -0.04745 -0.89160 52 70 61
0.38792 -0.05068 -0.88647 29 28 32
0.39376 -0.05397 -0.88084 19 24 51
0.40401 -0.05643 -0.88124 91 115 124
0.40990 -0.05971 -0.87569 48 55 51
0.42133 -0.06199 -0.87759 26 40 47
0.43788 -0.06340 -0.88625 10 15 35
0.46347 -0.06331 -0.90669 69 92 91
0.47630 -0.06549 -0.91002 69 90 97
0.46441 -0.07181 -0.88100 46 42 41
0.47163 -0.07490 -0.87709 24 24 28
0.48185 -0.07750 -0.87704 35 45 68
0.50425 -0.08245 -0.87928 58 64 56
0.50766 -0.08615 -0.87048 42 42 43
0.51608 -0.08907 -0.86802 23 25 35
0.51287 -0.09371 -0.85106 52 70 72
0.52188 -0.09653 -0.84939 52 63 64
0.52442 -0.10028 -0.83974 40 44 48
0.53238 -0.10325 -0.83678 35 36 43
0.54305 -0.10585 -0.83709 47 54 57
0.55189 -0.10872 -0.83515 50 63 76
0.55684 -0.11210 -0.82853 41 38 56
0.56112 -0.12340 -0.82565 45 29 40
0.56666 -0.11485 -0.82772 37 23 33
0.57094 -0.12616 -0.82483 44 25 34
0.57296 -0.11805 -0.82273 34 24 37
0.57724 -0.12936 -0.81984 27 21 37
0.59881 -0.13849 -0.77952 31 43 41
0.58868 -0.14359 -0.78428 51 47 28
0.62350 -0.14730 -0.77158 36 47 62
0.71633 -0.18702 -0.72121 47 55 57
0.70914 -0.18397 -0.72502 22 27 34
0.70618 -0.19212 -0.72598 26 24 32
0.72496 -0.18996 -0.71886 61 77 72
0.73068 -0.19312 -0.71354 65 76 60
0.74708 -0.19553 -0.71897 48 57 43
0.75996 -0.19821 -0.72078 38 39 43
0.77019 -0.19306 -0.71597 28 32 31
0.76721 -0.20128 -0.71693 34 36 42
0.76424 -0.20951 -0.71790 35 41 46
0.77031 -0.20462 -0.70898 36 39 42
0.77255 -0.20800 -0.70024 25 22 28
0.77935 -0.21109 -0.69601 25 24 36
0.79879 -0.21344 -0.70401 52 67 79
0.80032 -0.21684 -0.69465 55 67 61
0.79507 -0.22059 -0.67885 35 30 36
0.79931 -0.23179 -0.67599 15 19 26
0.83455 -0.24238 -0.64219 49 70 87
0.84754 -0.24518 -0.64372 75 101 102
0.85488 -0.24821 -0.64006 55 60 68
0.85911 -0.25939 -0.63721 25 29 30
0.88312 -0.25049 -0.65521 38 31 31
0.90089 -0.25654 -0.65042 26 20 36
0.89791 -0.26477 -0.65138 22 22 18
0.90703 -0.25965 -0.64557 40 49 63
0.91529 -0.26270 -0.64260 51 53 59
0.91491 -0.26599 -0.63206 39 38 38
0.92472 -0.27224 -0.62037 32 36 49
0.92898 -0.28348 -0.61749 43 48 49
0.93799 -0.28476 -0.59190 19 25 24
0.93505 -0.29288 -0.59285 22 29 27
0.93936 -0.28789 -0.58324 26 36 59
0.93390 -0.29110 -0.56897 43 61 89
0.94100 -0.29411 -0.56520 58 70 70
0.96288 -0.29695 -0.57360 41 35 38
0.96709 -0.30808 -0.57075 27 27 27
0.97609 -0.30302 -0.56514 27 37 42
0.98031 -0.31415 -0.56229 33 40 40
0.99021 -0.31213 -0.54792 19 24 57
0.98017 -0.31718 -0.55264 39 42 47
0.96484 -0.31522 -0.51834 78 105 147
1.00658 -0.31817 -0.54205 190 211 221
1.00923 -0.32118 -0.53475 236 234 228
1.01926 -0.31614 -0.53004 239 231 226
1.01634 -0.32420 -0.53098 239 233 227
1.01342 -0.33226 -0.53192 240 235 228
1.08141 -0.34253 -0.52523 227 223 225
1.07717 -0.33134 -0.52809 241 234 229
1.07423 -0.33948 -0.52904 242 237 227
1.09148 -0.34561 -0.52358 204 204 214
1.10679 -0.34878 -0.52580 193 200 212
1.12118 -0.35195 -0.52727 192 202 210
1.13867 -0.35519 -0.53096 189 181 181
1.15979 -0.35853 -0.53723 124 117 128
1.18074 -0.36190 -0.54325 120 141 146
1.19783 -0.36522 -0.54637 149 167 188
1.17842 -0.37071 -0.51402 204 217 232
1.18870 -0.36553 -0.50919 236 231 229
1.17903 -0.37363 -0.50541 229 232 234
1.18929 -0.36847 -0.50058 237 231 229
1.18630 -0.37672 -0.50155 237 233 233
-0.70403 0.33410 -1.24906 93 81 77
-0.71062 0.33690 -1.25256 96 74 70
-0.71333 0.32942 -1.25344 94 61 58
-0.69827 0.32963 -1.23961 96 83 93
-0.69660 0.31728 -1.20216 107 106 106
-0.69226 0.31047 -1.18423 116 120 124
-0.68670 0.30610 -1.17495 118 119 136
-0.68143 0.30128 -1.16405 118 116 133
-0.67620 0.29648 -1.15315 120 116 127
-0.67009 0.29331 -1.14809 109 92 82
-0.66529 0.28794 -1.13505 73 34 20
-0.66155 0.27805 -1.13253 56 15 7
-0.65857 0.28587 -1.13396 60 15 15
-0.65482 0.27598 -1.13143 53 14 7
-0.47757 0.22255 -1.08006 31 8 18
-0.48669 0.21796 -1.08434 26 6 8
-0.48022 0.21522 -1.08091 20 4 11
-0.46919 0.22167 -1.08402 43 24 39
-0.46485 0.21686 -1.07239 61 54 63
-0.46081 0.21184 -1.05983 74 72 75
-0.45354 0.20989 -1.05954 79 73 80
-0.44604 0.20812 -1.05999 80 70 80
-0.43876 0.20612 -1.05956 78 59 73
-0.43228 0.20339 -1.05618 79 56 67
-0.42615 0.20035 -1.05154 81 65 63
-0.41443 0.19386 -1.04053 83 58 51
-0.41063 0.18382 -1.03796 81 66 43
-0.40822 0.19093 -1.03631 83 48 28
-0.40197 0.18803 -1.03221 83 40 12
-0.39576 0.18511 -1.02802 68 24 15
-0.38927 0.18242 -1.02477 36 7 17
-0.38295 0.17959 -1.02093 27 10 16
-0.37915 0.16956 -1.01837 43 10 11
-0.37635 0.17698 -1.01802 43 22 21
-0.36930 0.17471 -1.01654 44 23 27
-0.36247 0.17226 -1.01432 58 32 23
-0.35430 0.17079 -1.01623 106 61 12
-0.34437 0.17054 -1.02342 145 82 18
-0.33431 0.17031 -1.03075 167 93 24
-0.28380 0.16821 -1.06464 175 86 31
-0.29325 0.16346 -1.06908 179 90 20
-0.26788 0.17136 -1.08732 172 109 98
-0.24748 0.17720 -1.12202 200 200 216
-0.24187 0.17347 -1.11478 208 211 214
-0.23134 0.17281 -1.12115 167 164 150
-0.21457 0.17590 -1.14433 68 60 60
-0.21101 0.17085 -1.13130 46 34 52
-0.20133 0.16950 -1.13481 46 29 52
-0.18335 0.16586 -1.13779 47 24 33
-0.17473 0.16379 -1.13818 53 30 36
-0.16589 0.16180 -1.13905 58 36 39
-0.15857 0.15895 -1.13594 57 39 35
-0.14952 0.15704 -1.13718 48 23 31
-0.13686 0.15024 -1.12599 24 21 41
-0.13976 0.14223 -1.12692 23 15 28
-0.13011 0.14708 -1.12146 28 32 42
-0.12371 0.14374 -1.11610 35 41 41
-0.11375 0.14875 -1.11142 42 44 49
-0.11665 0.14075 -1.11236 41 46 48
-0.10237 0.10970 -1.02624 79 43 33
-0.09511 0.10699 -1.02352 67 31 30
-0.08864 0.10391 -1.01904 63 21 45
-0.08324 0.10036 -1.01221 71 38 56
-0.07920 0.08970 -1.00949 86 63 26
-0.07770 0.09688 -1.00572 81 51 64
-0.06931 0.09466 -1.00547 84 59 60
-0.06108 0.09235 -1.00483 81 63 48
-0.05370 0.08967 -1.00232 77 59 39
-0.04590 0.08716 -1.00067 69 38 34
-0.03705 0.08506 -1.00117 94 66 90
-0.03229 0.08129 -0.99314 129 133 160
-0.02656 0.07793 -0.98716 134 155 189
-0.02039 0.07475 -0.98214 168 195 218
-0.01655 0.07069 -0.97244 223 241 247
-0.01253 0.06671 -0.96317 249 252 254
-0.00572 0.06383 -0.95956 254 254 254
0.18474 0.00171 -0.91707 252 254 254
0.19275 -0.00097 -0.91506 249 251 245
0.20177 -0.00340 -0.91466 245 240 209
0.24984 0.00408 -0.97670 203 182 138
0.25409 -0.00716 -0.97383 102 79 62
0.26344 0.00262 -0.98302 95 67 50
0.26772 -0.00867 -0.98013 38 34 33
0.29209 -0.00976 -0.96707 47 66 64
0.28186 -0.01491 -0.97187 49 54 30
0.29210 -0.01451 -0.95215 41 50 48
0.29635 -0.02574 -0.94928 34 31 43
0.34793 -0.04385 -0.90472 79 70 85
0.34371 -0.03269 -0.90757 52 54 54
0.33783 -0.04893 -0.90947 11 20 55
0.34499 -0.05197 -0.90567 20 30 77
0.36208 -0.04996 -0.89686 40 52 73
0.36507 -0.05379 -0.88721 71 93 120
0.37120 -0.05701 -0.88202 83 86 84
0.38425 -0.05894 -0.88640 44 24 27
0.38732 -0.06272 -0.87698 16 17 55
0.39436 -0.06577 -0.87304 62 76 93
0.40117 -0.06886 -0.86880 39 52 56
0.41031 -0.07154 -0.86769 39 36 41
0.41776 -0.07452 -0.86431 31 24 35
0.43541 -0.07580 -0.87443 37 52 66
0.44605 -0.07830 -0.87512 37 53 66
0.45316 -0.08138 -0.87115 34 36 49
0.45742 -0.09263 -0.86827 32 38 53
0.46600 -0.08355 -0.87461 30 29 43
0.47393 -0.08652 -0.87164 27 28 54
0.48082 -0.08965 -0.86733 21 37 68
0.49193 -0.09214 -0.86840 26 34 56
0.49471 -0.09589 -0.85886 35 49 58
0.50150 -0.09903 -0.85444 27 37 37
0.50665 -0.10240 -0.84798 22 33 44
0.51332 -0.10554 -0.84344 25 31 49
0.51578 -0.10926 -0.83372 34 44 51
0.52678 -0.11181 -0.83453 47 66 59
0.53194 -0.11515 -0.82818 43 52 53
0.54009 -0.11809 -0.82548 29 29 55
0.54435 -0.12934 -0.82260 23 24 36
0.54393 -0.12158 -0.81759 28 23 52
0.54818 -0.13281 -0.81472 28 26 37
0.62096 -0.15917 -0.76120 27 32 29
0.62518 -0.17034 -0.75835 31 30 27
0.72130 -0.19461 -0.73030 38 47 59
0.71111 -0.19974 -0.73509 24 22 25
0.71944 -0.19830 -0.71719 47 74 79
0.72521 -0.20145 -0.71194 53 74 71
0.72945 -0.21263 -0.70908 37 44 56
0.74474 -0.20368 -0.72056 46 60 55
0.74900 -0.21495 -0.71768 39 43 50
0.75774 -0.20638 -0.72250 40 44 52
0.76202 -0.21769 -0.71961 35 42 39
0.76360 -0.21305 -0.70624 30 40 45
0.76063 -0.22124 -0.70720 27 38 33
0.76621 -0.21638 -0.69788 26 27 28
0.76721 -0.21978 -0.68800 21 17 31
0.77144 -0.23096 -0.68514 19 16 48
0.77472 -0.22280 -0.68451 31 35 67
0.77895 -0.23399 -0.68165 15 19 45
0.77787 -0.22606 -0.67682 33 35 58
0.78210 -0.23721 -0.67397 21 22 31
0.78117 -0.22929 -0.66931 27 25 36
0.78539 -0.24042 -0.66647 20 20 27
0.80469 -0.24494 -0.63898 28 31 30
0.83460 -0.25037 -0.64588 17 29 51
0.83166 -0.25849 -0.64683 23 29 38
0.83839 -0.25353 -0.63900 37 60 74
0.84261 -0.26467 -0.63616 30 29 40
0.85249 -0.25633 -0.64151 32 34 51
0.88044 -0.26200 -0.64609 32 37 28
0.89462 -0.26814 -0.63819 30 31 47
0.89970 -0.27125 -0.63246 56 79 79
0.90560 -0.27434 -0.62748 47 47 52
0.90993 -0.27746 -0.62114 32 31 35
0.91418 -0.28868 -0.61828 28 27 45
0.91556 -0.29003 -0.58618 29 30 32
0.92627 -0.29611 -0.57567 23 27 45
0.93155 -0.29914 -0.57037 44 57 76
0.93804 -0.30215 -0.56610 53 55 60
0.94365 -0.30517 -0.56111 41 33 39
0.95835 -0.31118 -0.55401 26 31 33
0.95544 -0.31922 -0.55495 30 31 30
1.05027 -0.34735 -0.51404 241 231 220
1.04607 -0.33627 -0.51687 240 233 224
1.04315 -0.34433 -0.51781 242 233 225
1.05110 -0.35027 -0.50552 174 149 187
1.06600 -0.35341 -0.50762 103 77 138
1.07418 -0.35644 -0.50463 79 69 125
1.09949 -0.35981 -0.51434 78 77 125
1.12825 -0.36330 -0.52645 80 83 119
1.13881 -0.37225 -0.50676 42 49 89
1.16001 -0.37567 -0.51301 50 73 109
1.14511 -0.39220 -0.44914 238 236 233
1.15509 -0.38717 -0.44445 237 231 230
1.15218 -0.39520 -0.44539 239 236 233
-0.70703 0.32601 -1.24775 93 75 70
-0.71632 0.32134 -1.25212 91 39 39
-0.70060 0.32290 -1.24312 101 82 92
-0.69723 0.31388 -1.21720 110 99 97
-0.69305 0.30667 -1.19771 118 99 100
-0.68863 0.30012 -1.18052 122 95 89
-0.68368 0.29469 -1.16732 123 89 81
-0.67702 0.29242 -1.16554 119 82 60
-0.67268 0.28613 -1.14908 94 49 34
-0.66892 0.27620 -1.14654 57 16 8
-0.66691 0.28241 -1.14199 64 19 16
-0.66316 0.27250 -1.13946 55 16 4
-0.47312 0.21310 -1.07998 22 6 24
-0.48224 0.20850 -1.08427 29 6 5
-0.46511 0.21182 -1.08244 40 28 46
-0.45873 0.20895 -1.07855 60 55 61
-0.45426 0.20435 -1.06759 72 64 70
-0.44606 0.20318 -1.07056 74 57 66
-0.43875 0.20116 -1.07009 70 37 48
-0.43083 0.19966 -1.07180 68 27 43
-0.42723 0.19438 -1.05798 70 38 52
-0.42266 0.19002 -1.04784 75 51 62
-0.41652 0.18701 -1.04331 79 61 58
-0.40393 0.18129 -1.03540 83 62 34
-0.39707 0.17888 -1.03334 77 47 27
-0.39160 0.17536 -1.02664 58 24 20
-0.38562 0.17227 -1.02172 45 11 16
-0.38182 0.16224 -1.01915 68 19 5
-0.37255 0.16695 -1.01548 47 13 17
-0.37519 0.15965 -1.01633 73 22 9
-0.36565 0.16456 -1.01350 67 29 20
-0.35769 0.16291 -1.01477 101 54 17
-0.34674 0.16338 -1.02518 129 72 22
-0.28893 0.15906 -1.05866 175 83 32
-0.29835 0.15433 -1.06308 173 89 15
-0.27182 0.16293 -1.08492 173 104 99
-0.25032 0.16938 -1.12293 203 196 217
-0.25047 0.16206 -1.09955 235 240 236
-0.23758 0.16287 -1.11267 210 203 179
-0.22385 0.16408 -1.12771 102 86 72
-0.21558 0.16192 -1.12760 35 19 20
-0.20779 0.15946 -1.12614 43 27 35
-0.19945 0.15730 -1.12607 52 34 43
-0.18944 0.15606 -1.13031 59 42 45
-0.18072 0.15405 -1.13104 63 46 51
-0.17563 0.15001 -1.12235 67 50 55
-0.17150 0.13910 -1.11956 71 60 64
-0.17063 0.14594 -1.11352 68 53 52
-0.15817 0.14592 -1.12361 59 45 42
-0.14920 0.14397 -1.12474 38 19 38
-0.13609 0.13748 -1.11482 19 19 20
-0.13898 0.12950 -1.11576 20 19 14
-0.12793 0.13506 -1.11381 23 27 33
-0.11939 0.13282 -1.11366 31 37 45
-0.10943 0.13783 -1.10898 46 46 51
-0.10528 0.10799 -1.04629 49 26 35
-0.11501 0.10309 -1.05086 31 31 31
-0.10811 0.10016 -1.04720 36 21 31
-0.10103 0.10384 -1.03659 49 12 27
-0.09107 0.10231 -1.03986 40 6 12
-0.08855 0.09743 -1.02643 51 16 26
-0.08442 0.09332 -1.01671 74 42 43
-0.07183 0.08703 -1.00701 87 55 19
-0.06486 0.08418 -1.00365 85 42 32
-0.05665 0.08184 -1.00293 81 47 58
-0.04751 0.07987 -1.00412 95 72 65
-0.03434 0.07381 -0.99564 130 130 123
-0.02629 0.07137 -0.99444 110 107 108
-0.01952 0.06841 -0.99057 111 132 151
-0.02138 0.06217 -0.96922 163 194 221
-0.01691 0.05840 -0.96091 221 235 244
-0.01166 0.05494 -0.95421 248 251 254
-0.00208 0.05976 -0.94971 254 254 254
-0.00487 0.05207 -0.95061 254 254 253
-0.00485 0.04675 -0.93375 251 252 251
-0.00208 0.05440 -0.93286 254 254 254
0.00467 0.05154 -0.92928 254 254 254
-0.00135 0.04274 -0.92387 246 250 249
0.00813 0.04752 -0.91941 254 254 254
0.13515 -0.00435 -0.88567 252 254 254
0.13113 0.00626 -0.88838 254 254 254
0.12833 -0.00146 -0.88928 253 254 254
0.13794 0.00337 -0.88477 254 254 254
0.14476 0.00049 -0.88115 254 254 254
0.15094 -0.00483 -0.89703 249 251 253
0.16654 -0.00544 -0.90783 238 247 252
0.18020 -0.00662 -0.91522 220 239 244
0.18911 -0.00907 -0.91472 195 207 221
0.23372 -0.00254 -0.97187 197 195 195
0.28290 -0.02410 -0.94352 47 42 45
0.28713 -0.03528 -0.94066 33 35 41
0.35078 -0.05527 -0.89990 36 66 93
0.35293 -0.05925 -0.88901 24 32 50
0.35966 -0.06235 -0.88467 10 18 53
0.36692 -0.06535 -0.88108 12 25 57
0.37983 -0.07163 -0.87164 40 18 40
0.38744 -0.07456 -0.86854 11 19 27
0.39771 -0.07705 -0.86903 10 25 45
0.42191 -0.07722 -0.88824 69 76 100
0.43490 -0.07933 -0.89212 73 84 97
0.43133 -0.08416 -0.87389 34 35 44
0.43558 -0.09537 -0.87102 16 21 25
0.43983 -0.08700 -0.87179 18 23 46
0.45320 -0.08910 -0.87604 22 31 50
0.46963 -0.09494 -0.87090 27 32 43
0.47391 -0.10623 -0.86801 21 24 28
0.47773 -0.09789 -0.86814 22 27 40
0.48200 -0.10918 -0.86525 15 20 35
0.48420 -0.10517 -0.85027 33 69 40
0.48846 -0.11641 -0.84740 27 30 34
0.49797 -0.11138 -0.84179 27 32 35
0.50417 -0.11457 -0.83672 23 26 35
0.50842 -0.12579 -0.83386 26 32 33
0.50768 -0.11811 -0.82834 30 40 47
0.51722 -0.12086 -0.82741 48 60 60
0.52147 -0.13207 -0.82454 34 32 37
0.52073 -0.12437 -0.81910 44 44 49
0.52778 -0.12743 -0.81513 27 23 33
0.59213 -0.16234 -0.75675 25 32 44
0.58209 -0.16739 -0.76147 21 29 29
0.58921 -0.17041 -0.75770 23 27 27
0.60462 -0.16485 -0.75898 28 35 47
0.61175 -0.16788 -0.75519 30 30 28
0.61596 -0.17900 -0.75235 46 60 63
0.70778 -0.20351 -0.72039 26 29 43
0.69765 -0.20860 -0.72515 31 35 32
0.71202 -0.21469 -0.71753 27 33 39
0.71620 -0.20647 -0.71785 24 38 44
0.72378 -0.20949 -0.71443 28 43 51
0.72802 -0.22069 -0.71157 39 46 53
0.76292 -0.22456 -0.69850 27 33 30
0.75276 -0.22967 -0.70328 25 39 32
0.75996 -0.23273 -0.69946 30 41 38
0.76331 -0.22797 -0.68801 21 16 28
0.77838 -0.24404 -0.64925 20 23 31
0.78900 -0.24691 -0.64880 22 26 48
0.80689 -0.25280 -0.64469 28 30 35
0.81442 -0.25581 -0.64129 27 28 34
0.83990 -0.26150 -0.64401 32 30 40
0.85794 -0.26747 -0.63976 24 34 28
0.86731 -0.27046 -0.63792 35 45 36
0.87538 -0.27348 -0.63490 24 33 14
0.88173 -0.27975 -0.62018 57 74 89
0.89469 -0.28267 -0.62146 50 47 54
0.89724 -0.28580 -0.61361 35 38 40
0.90146 -0.29696 -0.61076 29 30 40
0.90797 -0.30123 -0.57337 31 34 28
0.91214 -0.31224 -0.57055 20 24 35
0.91085 -0.30426 -0.56609 23 25 44
0.91668 -0.30726 -0.56131 45 57 94
0.92666 -0.31023 -0.56001 53 63 69
0.93145 -0.31324 -0.55438 46 44 49
0.93730 -0.31623 -0.54965 35 34 30
0.94146 -0.32721 -0.54684 28 32 23
0.96741 -0.32820 -0.53620 43 42 49
0.95745 -0.33321 -0.54088 42 44 55
0.97478 -0.33119 -0.53271 18 27 58
0.98830 -0.33717 -0.52474 204 221 226
1.02305 -0.35212 -0.50561 245 237 223
1.01889 -0.34113 -0.50842 241 233 225
1.01599 -0.34913 -0.50935 241 234 228
1.01310 -0.35713 -0.51029 240 232 227
1.03840 -0.35526 -0.50817 228 204 185
1.05372 -0.35842 -0.51065 114 87 118
1.04322 -0.36108 -0.49363 45 36 68
1.05054 -0.36407 -0.49008 39 44 54
1.06840 -0.36731 -0.49438 46 51 56
1.07926 -0.37041 -0.49340 48 52 53
1.08875 -0.37348 -0.49139 44 51 55
1.11709 -0.37707 -0.50313 41 50 64
1.14695 -0.38362 -0.50670 38 53 68
1.14867 -0.38651 -0.49890 42 66 86
1.14098 -0.38909 -0.48443 71 92 131
1.14996 -0.39219 -0.48191 103 116 166
1.15415 -0.39513 -0.47601 133 142 189
1.14624 -0.39762 -0.46163 165 177 213
1.12556 -0.40231 -0.42987 230 234 236
1.13543 -0.39734 -0.42523 239 234 233
1.13256 -0.40527 -0.42616 238 234 234
-0.76428 0.59483 -2.09048 47 44 42
-0.75194 0.60104 -2.08468 33 40 61
-0.75553 0.59112 -2.08584 30 40 66
-0.70900 0.32003 -1.25402 93 43 40
-0.70296 0.31611 -1.24643 101 46 30
-0.68808 0.29870 -1.20291 122 68 37
-0.68286 0.29364 -1.19099 117 71 28
-0.67368 0.28168 -1.16021 64 21 9
-0.66990 0.27171 -1.15766 58 16 4
-0.47681 0.20477 -1.07679 18 4 12
-0.48592 0.20018 -1.08107 40 8 5
-0.47946 0.19744 -1.07764 26 5 4
-0.46821 0.20404 -1.08158 24 10 28
-0.46166 0.20135 -1.07841 45 35 47
-0.45402 0.19966 -1.07931 65 53 63
-0.44808 0.19640 -1.07378 70 53 55
-0.44230 0.19301 -1.06771 66 37 33
-0.43535 0.19067 -1.06597 62 20 24
-0.43152 0.18056 -1.06339 59 16 16
-0.42834 0.18836 -1.06437 62 18 29
-0.42215 0.18535 -1.05986 65 26 39
-0.41777 0.18085 -1.04906 69 37 38
-0.41208 0.17747 -1.04293 72 45 38
-0.40645 0.17407 -1.03668 77 49 43
-0.40056 0.17089 -1.03137 76 42 32
-0.39675 0.16085 -1.02880 67 20 13
-0.39514 0.16736 -1.02453 70 29 19
-0.39134 0.15734 -1.02197 67 21 9
-0.38861 0.16471 -1.02143 66 20 13
-0.38481 0.15468 -1.01887 69 22 6
-0.36847 0.15712 -1.01379 77 25 16
-0.37756 0.15254 -1.01806 70 23 8
-0.37112 0.14981 -1.01464 70 21 11
-0.36467 0.14708 -1.01123 71 22 18
-0.36131 0.15490 -1.01260 85 33 21
-0.35163 0.15444 -1.01918 100 51 27
-0.29295 0.15067 -1.05583 174 83 25
-0.30235 0.14594 -1.06025 164 85 23
-0.27857 0.15274 -1.07443 170 97 81
-0.25880 0.15802 -1.10781 195 178 193
-0.24553 0.15196 -1.09935 240 238 220
-0.24493 0.14532 -1.07854 173 166 140
-0.21998 0.15312 -1.12433 60 43 41
-0.20950 0.15222 -1.13015 50 17 16
-0.20444 0.14817 -1.12133 65 33 28
-0.19459 0.14684 -1.12523 71 44 36
-0.18675 0.14435 -1.12375 73 48 49
-0.18107 0.14067 -1.11666 72 53 64
-0.16942 0.13352 -1.10337 61 58 54
-0.15689 0.13347 -1.11364 43 32 44
-0.14955 0.13067 -1.11074 28 20 26
-0.13320 0.12588 -1.10896 14 19 22
-0.13608 0.11791 -1.10989 20 21 21
-0.12905 0.11493 -1.10616 18 18 22
-0.10294 0.09645 -1.03959 52 31 19
-0.09970 0.09191 -1.02769 100 81 31
-0.08980 0.09033 -1.03085 120 107 31
-0.08786 0.08527 -1.01621 121 89 41
-0.08287 0.08158 -1.00849 113 63 33
-0.07359 0.07970 -1.01019 108 74 38
-0.06646 0.07691 -1.00715 125 108 26
-0.05417 0.07623 -1.01516 133 113 37
-0.05023 0.07212 -1.00525 118 82 65
-0.04104 0.07012 -1.00647 117 85 89
-0.03671 0.06620 -0.99748 129 123 120
-0.02756 0.06417 -0.99854 98 94 67
-0.02087 0.06117 -0.99449 73 85 68
-0.01579 0.05758 -0.98718 101 135 152
-0.02420 0.04903 -0.95272 162 189 213
-0.01877 0.04568 -0.94647 220 231 242
-0.01467 0.04186 -0.93761 248 248 232
-0.01775 0.03553 -0.91474 241 228 146
-0.01657 0.03079 -0.90048 227 204 84
-0.00994 0.02797 -0.89695 236 223 162
0.07352 -0.00944 -0.84615 252 254 254
0.06961 0.00087 -0.84878 254 254 254
0.06690 -0.00664 -0.84966 254 254 254
0.07624 -0.00194 -0.84527 254 254 254
0.08286 -0.00474 -0.84176 254 254 254
0.08409 -0.01115 -0.84944 251 252 253
0.09347 -0.00644 -0.84504 253 254 254
0.09617 -0.01248 -0.85522 242 250 253
0.10910 -0.01362 -0.86229 235 248 252
0.12644 -0.01365 -0.87661 222 242 246
0.15225 -0.01154 -0.90484 204 213 236
0.15809 -0.01473 -0.89943 174 172 226
0.15170 -0.02102 -0.87393 136 124 178
0.15673 -0.02435 -0.86741 78 86 142
0.17227 -0.02508 -0.87797 129 135 159
0.26509 -0.02626 -0.95129 63 70 78
0.27123 -0.02954 -0.94588 82 98 106
0.27681 -0.03293 -0.93963 53 63 68
0.28103 -0.04408 -0.93678 24 31 40
0.34823 -0.06331 -0.90140 43 87 128
0.33813 -0.06839 -0.90615 19 28 32
0.34529 -0.07143 -0.90235 32 40 54
0.34614 -0.06804 -0.88447 22 40 34
0.35185 -0.07131 -0.87872 18 19 15
0.35604 -0.08238 -0.87589 14 21 32
0.35920 -0.07428 -0.87529 18 24 37
0.36807 -0.07698 -0.87399 58 62 96
0.37429 -0.08015 -0.86898 77 70 73
0.38919 -0.08607 -0.86237 14 28 34
0.40100 -0.08832 -0.86494 23 35 60
0.40521 -0.09943 -0.86210 31 29 44
0.41066 -0.09094 -0.86455 36 45 64
0.41488 -0.10208 -0.86170 31 28 35
0.42206 -0.09331 -0.86641 29 31 38
0.44367 -0.09829 -0.86837 17 24 37
0.44071 -0.10646 -0.86933 18 23 34
0.45330 -0.10099 -0.86772 22 31 45
0.46155 -0.10390 -0.86523 22 29 41
0.48710 -0.12060 -0.83283 38 30 34
0.49105 -0.12405 -0.82501 32 28 29
0.49933 -0.13087 -0.81002 29 34 35
0.51309 -0.13697 -0.80184 33 27 36
0.52074 -0.13993 -0.79870 27 27 32
0.52787 -0.14295 -0.79491 22 28 29
0.52494 -0.15103 -0.79586 24 30 41
0.59596 -0.17346 -0.75351 30 31 36
0.58593 -0.17851 -0.75823 25 28 31
0.59960 -0.17678 -0.74587 42 51 60
0.69765 -0.21210 -0.71394 32 34 42
0.68756 -0.21717 -0.71868 48 58 51
0.71212 -0.21815 -0.70652 32 41 46
0.71634 -0.22929 -0.70367 39 46 57
0.75522 -0.23634 -0.68392 33 33 36
0.74513 -0.24142 -0.68867 31 42 46
0.75944 -0.24748 -0.68108 44 48 56
0.75830 -0.23956 -0.67615 36 35 53
0.76251 -0.25067 -0.67331 41 46 53
0.76735 -0.25239 -0.64246 32 38 42
0.77151 -0.26339 -0.63965 39 50 54
0.79340 -0.26121 -0.63576 40 43 47
0.79757 -0.27224 -0.63295 44 53 52
0.80143 -0.26419 -0.63289 38 45 43
0.80561 -0.27522 -0.63008 44 53 54
0.81623 -0.26697 -0.63625 40 46 46
0.82042 -0.27805 -0.63342 48 54 58
0.82446 -0.26996 -0.63350 46 47 46
0.82865 -0.28104 -0.63067 47 54 56
0.83454 -0.27290 -0.63243 43 47 50
0.83874 -0.28400 -0.62959 46 51 55
0.83852 -0.27599 -0.62579 41 49 47
0.84272 -0.28708 -0.62296 44 50 52
0.84196 -0.27909 -0.61871 42 52 51
0.86643 -0.28807 -0.61019 50 59 65
0.87062 -0.29915 -0.60736 54 51 62
0.91552 -0.31525 -0.56370 24 28 58
0.90556 -0.32026 -0.56838 25 28 23
0.92299 -0.31824 -0.56030 40 56 58
0.92786 -0.32124 -0.55474 43 45 56
0.93261 -0.32422 -0.54910 34 36 34
0.93676 -0.33520 -0.54629 28 32 29
0.94493 -0.33019 -0.54018 31 36 43
0.95611 -0.33613 -0.53039 45 46 53
0.96290 -0.33911 -0.52646 24 28 43
0.96665 -0.34205 -0.52013 46 71 109
0.97498 -0.34504 -0.51744 164 191 203
0.98267 -0.34803 -0.51425 229 231 225
0.98682 -0.35897 -0.51145 240 234 223
1.01266 -0.35997 -0.50080 245 236 219
1.00275 -0.36496 -0.50546 239 232 223
1.03818 -0.36335 -0.51116 208 173 149
1.03838 -0.36620 -0.50218 93 52 58
1.03297 -0.36890 -0.48902 34 15 40
1.03711 -0.37984 -0.48622 25 22 36
1.04243 -0.37194 -0.48712 29 21 43
1.04658 -0.38290 -0.48432 24 21 36
1.04995 -0.37493 -0.48374 30 22 43
1.05410 -0.38590 -0.48094 25 22 36
1.05506 -0.37786 -0.47858 31 25 42
1.05920 -0.38881 -0.47578 27 23 35
1.06959 -0.38106 -0.48037 30 28 44
1.07375 -0.39206 -0.47756 26 27 38
1.09008 -0.38447 -0.48646 29 32 51
1.09427 -0.39553 -0.48363 27 33 39
1.11858 -0.39097 -0.48927 35 40 54
1.13341 -0.39426 -0.49100 37 45 65
1.12299 -0.39943 -0.46578 54 71 99
1.12913 -0.40240 -0.46134 67 84 113
1.11551 -0.40458 -0.44302 75 94 133
1.12813 -0.40778 -0.44321 110 134 175
1.11183 -0.40978 -0.42326 180 200 221
1.10463 -0.41212 -0.40978 232 233 232
1.11439 -0.40721 -0.40519 239 232 231
1.11155 -0.41505 -0.40611 239 232 229
1.10871 -0.42289 -0.40702 238 233 231
-0.77493 0.59485 -2.11797 73 92 107
-0.76658 0.58950 -2.10764 92 105 91
-0.76093 0.57503 -2.06544 53 49 43
-0.74867 0.58120 -2.05968 28 39 56
-0.75224 0.57134 -2.06083 27 39 62
-0.47777 0.19024 -1.05569 18 4 12
-0.48680 0.18570 -1.05994 35 7 3
-0.48040 0.18298 -1.05654 24 5 6
-0.47400 0.18027 -1.05314 28 9 17
-0.46873 0.18995 -1.06238 31 17 32
-0.45695 0.19205 -1.07917 54 41 50
-0.45086 0.18893 -1.07421 65 53 43
-0.44627 0.18452 -1.06375 64 43 22
-0.43998 0.18162 -1.05966 60 25 14
-0.43617 0.17154 -1.05709 54 14 10
-0.42620 0.17684 -1.05581 59 16 17
-0.42885 0.16950 -1.05667 54 14 10
-0.42238 0.16675 -1.05323 55 15 8
-0.42160 0.17256 -1.04579 61 17 15
-0.41779 0.16250 -1.04322 58 16 8
-0.41560 0.16945 -1.04078 65 21 19
-0.41179 0.15940 -1.03822 61 17 12
-0.41012 0.16595 -1.03405 68 23 27
-0.40632 0.15592 -1.03149 63 17 13
-0.40446 0.16261 -1.02798 69 20 21
-0.40066 0.15258 -1.02542 62 18 10
-0.35349 0.14765 -1.02254 78 29 25
-0.36264 0.14304 -1.02684 61 16 13
-0.29802 0.14163 -1.04993 168 83 25
-0.30074 0.13410 -1.05081 162 86 30
-0.28721 0.14143 -1.05840 168 92 56
-0.24924 0.14365 -1.09774 243 246 243
-0.24821 0.13733 -1.07810 209 197 186
-0.24162 0.13434 -1.07395 114 74 82
-0.21905 0.14048 -1.11299 85 49 36
-0.22821 0.12850 -1.06632 117 94 93
-0.21338 0.13008 -1.08400 134 126 108
-0.20799 0.12637 -1.07653 126 118 111
-0.19212 0.12834 -1.09633 85 84 91
-0.17947 0.12845 -1.10741 72 63 73
-0.17481 0.12429 -1.09784 60 61 65
-0.16581 0.12241 -1.09933 39 36 53
-0.15740 0.12019 -1.09926 29 25 33
-0.15329 0.10933 -1.09649 26 26 31
-0.14910 0.11790 -1.09883 24 23 23
-0.14498 0.10702 -1.09605 24 26 26
-0.10833 0.09352 -1.05415 25 25 39
-0.11525 0.09645 -1.05783 28 33 38
-0.11809 0.08860 -1.05874 23 28 40
-0.11117 0.08567 -1.05507 25 26 39
-0.10342 0.08968 -1.04586 69 58 38
-0.10175 0.08446 -1.03034 149 142 86
-0.09306 0.08234 -1.03078 140 84 65
-0.08589 0.07954 -1.02778 130 90 62
-0.07896 0.07665 -1.02423 135 128 51
-0.07026 0.07448 -1.02455 143 139 55
-0.06279 0.07178 -1.02212 144 138 97
-0.05596 0.06883 -1.01832 143 123 100
-0.04880 0.06601 -1.01521 118 92 92
-0.04253 0.06284 -1.01021 110 88 103
-0.03856 0.05879 -1.00041 141 144 144
-0.03110 0.05609 -0.99797 125 136 114
-0.02370 0.05337 -0.99540 60 92 63
-0.01740 0.05023 -0.99056 78 120 114
-0.02487 0.04212 -0.95789 129 159 180
-0.02661 0.03620 -0.93721 171 193 214
-0.02094 0.03298 -0.93153 223 235 231
-0.01910 0.02844 -0.91836 243 238 176
-0.01880 0.02343 -0.90234 236 220 78
-0.01552 0.01948 -0.89230 238 223 67
-0.00943 0.01650 -0.88776 247 244 174
-0.00660 0.01245 -0.87703 253 253 252
0.00270 0.01713 -0.87265 254 254 254
-0.00000 0.00966 -0.87353 254 254 254
0.05215 -0.01288 -0.84448 251 253 254
0.04826 -0.00261 -0.84710 254 254 254
0.04556 -0.01008 -0.84797 252 254 254
0.05485 -0.00541 -0.84360 254 254 254
0.06068 -0.01513 -0.84440 244 249 252
0.07091 -0.01692 -0.84722 222 242 242
0.08723 -0.01709 -0.86047 207 216 225
0.09068 -0.02079 -0.85137 184 184 232
0.09691 -0.02373 -0.84711 165 163 211
0.10420 -0.02639 -0.84464 136 133 172
0.10814 -0.03677 -0.84199 109 116 119
0.12184 -0.02641 -0.85949 100 111 141
0.12580 -0.03689 -0.85682 111 117 117
0.13403 -0.02788 -0.86502 92 102 137
0.14403 -0.02995 -0.86679 99 104 120
0.15507 -0.03178 -0.87017 91 96 113
0.25109 -0.03685 -0.93492 52 68 86
0.26395 -0.03861 -0.94009 63 79 96
0.27053 -0.04176 -0.93542 36 41 56
0.34096 -0.07651 -0.88218 34 25 34
0.33094 -0.08155 -0.88689 29 30 37
0.34716 -0.07967 -0.87716 21 21 24
0.35135 -0.09072 -0.87434 19 25 37
0.35921 -0.08605 -0.86665 11 22 56
0.36581 -0.08913 -0.86222 65 69 33
0.37070 -0.09249 -0.85545 53 42 35
0.44425 -0.11004 -0.86070 18 22 44
0.46017 -0.11592 -0.85508 37 41 40
0.48456 -0.12867 -0.83429 60 79 54
0.48233 -0.13288 -0.81874 50 55 44
0.48458 -0.13650 -0.80892 34 33 34
0.49023 -0.13968 -0.80335 26 30 35
0.49827 -0.14258 -0.80074 45 43 65
0.50314 -0.14585 -0.79425 54 46 70
0.51095 -0.14878 -0.79135 40 36 51
0.51513 -0.15983 -0.78853 26 31 34
0.58720 -0.18203 -0.74790 31 36 40
0.57720 -0.18706 -0.75260 25 27 38
0.58583 -0.18573 -0.73471 44 63 80
0.58999 -0.19672 -0.73190 38 54 70
0.59102 -0.18887 -0.72890 48 75 94
0.60095 -0.18387 -0.72423 33 34 31
0.59806 -0.19186 -0.72516 34 44 37
0.59517 -0.19984 -0.72609 31 43 41
0.70372 -0.22656 -0.70188 30 38 49
0.72421 -0.23567 -0.68963 36 44 54
0.72001 -0.22457 -0.69247 42 47 53
0.71708 -0.23265 -0.69341 41 46 57
0.73134 -0.23869 -0.68585 26 37 40
0.72841 -0.24677 -0.68680 26 31 35
0.86405 -0.30230 -0.59160 45 35 42
0.86822 -0.31330 -0.58879 33 32 35
0.87339 -0.31133 -0.57018 26 28 43
0.86349 -0.31631 -0.57483 21 25 33
0.87753 -0.32226 -0.56738 54 82 66
0.87977 -0.31431 -0.56591 40 46 47
0.88865 -0.31728 -0.56376 33 33 27
0.90496 -0.32324 -0.55821 21 26 41
0.92352 -0.32923 -0.55447 49 46 63
0.92732 -0.33219 -0.54805 37 35 40
0.94088 -0.33815 -0.54017 27 26 38
0.94472 -0.34110 -0.53385 43 47 59
0.94962 -0.34405 -0.52841 56 59 68
0.95429 -0.34699 -0.52281 47 49 54
0.96010 -0.34995 -0.51814 19 31 70
0.92927 -0.35228 -0.48448 116 145 177
0.97059 -0.35582 -0.50794 211 223 222
1.00682 -0.36787 -0.49945 240 225 203
1.00782 -0.37070 -0.49113 185 140 123
1.02551 -0.37395 -0.49554 77 37 37
1.02534 -0.37673 -0.48637 29 15 30
1.02948 -0.38765 -0.48358 23 21 25
1.10512 -0.41221 -0.43866 42 59 90
1.10327 -0.41478 -0.42876 37 63 109
1.09393 -0.41959 -0.40525 208 223 227
-0.78449 0.56291 -2.04193 27 41 64
-0.78802 0.55316 -2.04307 33 47 71
-0.77242 0.57160 -2.08087 74 79 87
-0.76351 0.56853 -2.07846 94 101 97
-0.75567 0.56192 -2.06350 43 35 46
-0.46667 0.17838 -1.05324 44 25 23
-0.47572 0.17382 -1.05750 37 8 7
-0.45802 0.17762 -1.05822 55 37 23
-0.45422 0.16759 -1.05566 50 13 11
-0.45146 0.17500 -1.05525 57 31 15
-0.44766 0.16496 -1.05269 50 11 9
-0.44428 0.17289 -1.05451 55 19 10
-0.44048 0.16284 -1.05194 50 13 9
-0.29394 0.13139 -1.04775 165 88 40
-0.28163 0.13202 -1.06043 174 112 85
-0.25473 0.12746 -1.06864 207 155 167
-0.24827 0.12443 -1.06425 182 148 144
-0.23548 0.12498 -1.07706 191 183 160
-0.22549 0.12386 -1.08198 195 194 186
-0.21602 0.12240 -1.08536 173 174 176
-0.20934 0.11940 -1.08127 135 135 147
-0.19356 0.12124 -1.10089 73 67 92
-0.18793 0.11762 -1.09387 59 54 78
-0.18237 0.11399 -1.08674 45 49 71
-0.17269 0.11247 -1.09008 22 29 56
-0.16361 0.11061 -1.09179 22 25 37
-0.10866 0.08080 -1.04126 19 36 30
-0.11837 0.07591 -1.04583 23 26 38
-0.10574 0.07617 -1.02857 111 136 58
-0.09689 0.07411 -1.02941 143 146 65
-0.08884 0.07169 -1.02840 129 124 70
-0.08111 0.06912 -1.02663 95 94 62
-0.07203 0.06709 -1.02779 113 122 113
-0.06577 0.06390 -1.02273 140 144 132
-0.05887 0.06098 -1.01907 150 145 126
-0.05058 0.05859 -1.01837 120 103 110
-0.04325 0.05582 -1.01559 102 87 109
-0.04038 0.05137 -1.00344 135 147 159
-0.03550 0.04770 -0.99560 161 170 172
-0.02582 0.04582 -0.99777 120 122 132
-0.02559 0.04050 -0.98049 108 123 139
-0.02704 0.03465 -0.96003 132 152 172
-0.02358 0.03061 -0.94974 142 166 191
-0.02923 0.02345 -0.92139 172 202 215
-0.02387 0.02017 -0.91523 223 244 224
-0.01907 0.01672 -0.90803 247 249 168
-0.01819 0.01199 -0.89327 242 234 80
-0.01375 0.00847 -0.88554 237 229 82
-0.00738 0.00559 -0.88157 243 246 186
-0.00661 0.00095 -0.86701 251 253 252
0.00265 0.00561 -0.86265 254 254 254
-0.00004 -0.00183 -0.86352 254 254 254
0.03147 -0.01614 -0.84368 246 252 253
0.02760 -0.00592 -0.84630 254 254 254
0.02491 -0.01336 -0.84716 253 254 254
0.03416 -0.00870 -0.84282 254 254 254
0.03927 -0.01857 -0.84243 222 245 250
0.04908 -0.02045 -0.84470 204 232 240
0.07877 -0.01690 -0.88192 182 168 212
0.07843 -0.02167 -0.86599 133 110 163
0.08534 -0.02444 -0.86283 104 107 132
0.08928 -0.03486 -0.86017 123 125 116
0.08893 -0.02809 -0.85395 102 116 144
0.09286 -0.03848 -0.85130 120 124 125
0.09486 -0.03111 -0.84915 103 113 140
0.09879 -0.04149 -0.84650 117 122 124
0.10307 -0.03354 -0.84823 107 113 130
0.10700 -0.04393 -0.84558 115 122 122
0.14335 -0.03712 -0.87116 110 116 112
0.13377 -0.04194 -0.87566 112 120 121
0.24281 -0.03690 -0.95754 45 36 36
0.25559 -0.04331 -0.94752 25 24 48
0.26049 -0.04682 -0.94021 34 24 59
0.26408 -0.05059 -0.93092 32 17 41
0.27126 -0.05360 -0.92724 32 23 33
0.28131 -0.04854 -0.92252 27 32 40
0.27800 -0.05669 -0.92288 37 30 37
0.28804 -0.05164 -0.91816 23 27 32
0.28468 -0.05980 -0.91843 32 28 33
0.29471 -0.05475 -0.91371 15 22 30
0.29111 -0.06295 -0.91362 23 25 23
0.30114 -0.05790 -0.90891 16 25 40
0.29740 -0.06613 -0.90863 22 22 23
0.30743 -0.06108 -0.90391 20 27 39
0.30451 -0.06914 -0.90486 38 32 54
0.33313 -0.08540 -0.87611 76 68 57
0.34339 -0.08786 -0.87687 34 24 35
0.34757 -0.09891 -0.87405 18 29 37
0.35086 -0.09497 -0.85997 17 21 55
0.36846 -0.09627 -0.87087 69 79 104
0.37326 -0.09965 -0.86392 68 77 86
0.37100 -0.10410 -0.84735 30 26 23
0.37516 -0.11508 -0.84454 19 22 35
0.43698 -0.12278 -0.84285 60 79 85
0.43531 -0.12697 -0.82766 63 69 73
0.43949 -0.13801 -0.82484 28 25 30
0.45628 -0.13602 -0.81601 36 39 51
0.45337 -0.14405 -0.81694 27 28 27
0.46046 -0.14706 -0.81319 21 29 51
0.45938 -0.13951 -0.80722 49 65 74
0.46354 -0.15052 -0.80441 22 27 39
0.46848 -0.14226 -0.80603 43 47 47
0.47266 -0.15328 -0.80321 28 24 24
0.47523 -0.14530 -0.80186 30 30 33
0.47941 -0.15632 -0.79905 31 25 25
0.48134 -0.14841 -0.79691 25 30 39
0.48551 -0.15942 -0.79409 23 29 35
0.48814 -0.15144 -0.79282 33 39 57
0.49421 -0.15454 -0.78786 39 42 63
0.49838 -0.16555 -0.78505 28 32 43
0.49933 -0.15775 -0.78175 35 37 48
0.57231 -0.19103 -0.73535 29 29 38
0.56238 -0.19602 -0.74002 26 28 47
0.56942 -0.19900 -0.73628 32 30 46
0.57646 -0.20199 -0.73255 30 30 39
0.75663 -0.27171 -0.62921 31 41 51
0.74962 -0.26874 -0.63293 33 44 47
0.76384 -0.27468 -0.62567 36 46 57
0.77086 -0.27766 -0.62195 42 48 63
0.77775 -0.28374 -0.60790 40 48 54
0.77076 -0.28078 -0.61160 41 48 53
0.78474 -0.28671 -0.60419 44 52 62
0.85683 -0.31929 -0.55932 28 41 50
0.84700 -0.32424 -0.56394 23 26 28
0.87553 -0.32521 -0.55598 40 43 37
0.88364 -0.32818 -0.55322 29 32 27
0.88776 -0.33907 -0.55044 22 26 41
0.89380 -0.33116 -0.55218 20 25 44
0.90722 -0.33418 -0.55383 51 61 56
0.92021 -0.33721 -0.55506 66 66 63
0.91876 -0.34011 -0.54430 60 48 47
0.92290 -0.35104 -0.54151 49 51 44
0.92097 -0.34303 -0.53663 42 34 35
0.92875 -0.34600 -0.53356 31 32 37
0.93283 -0.34893 -0.52746 56 74 78
0.93957 -0.35189 -0.52355 75 95 96
0.94802 -0.35488 -0.52102 70 80 73
0.94967 -0.35774 -0.51304 32 34 57
0.96379 -0.36085 -0.51500 64 91 137
0.95587 -0.36348 -0.49953 176 202 210
0.96545 -0.36649 -0.49790 235 235 227
0.97527 -0.36155 -0.49329 239 231 223
0.97241 -0.36944 -0.49421 240 232 228
0.96956 -0.37733 -0.49513 240 234 230
0.98099 -0.37244 -0.49178 241 233 222
0.98821 -0.37540 -0.48827 227 210 180
1.02189 -0.37913 -0.50503 162 120 94
1.01942 -0.38183 -0.49403 70 34 27
1.01863 -0.38456 -0.48440 27 16 24
1.02276 -0.39546 -0.48161 21 20 27
1.03283 -0.39321 -0.46820 26 26 32
1.02585 -0.39026 -0.47190 23 21 28
1.07475 -0.42143 -0.41167 29 34 57
1.10399 -0.42546 -0.42362 70 89 124
1.10134 -0.42792 -0.41326 180 202 217
1.08214 -0.42949 -0.39157 236 237 235
1.09179 -0.42464 -0.38703 237 231 229
1.08898 -0.43239 -0.38794 241 233 232
1.08617 -0.44015 -0.38885 240 233 228
-0.76778 0.55630 -2.07126 71 76 92
-0.75902 0.55280 -2.06731 77 78 85
-0.72641 0.29484 -1.23942 131 81 50
-0.73564 0.29019 -1.24376 10 12 39
-0.41201 0.14629 -1.02194 54 19 16
-0.41842 0.14900 -1.02534 51 17 9
-0.40604 0.14324 -1.01705 55 21 21
-0.39701 0.14778 -1.01280 61 20 8
-0.40227 0.13326 -1.01450 52 43 47
-0.30454 0.12591 -1.04856 151 85 36
-0.29725 0.12350 -1.04694 160 83 35
-0.28928 0.12149 -1.04725 174 86 67
-0.28007 0.12018 -1.05098 194 108 119
-0.27339 0.11735 -1.04744 200 114 123
-0.26168 0.11741 -1.05793 203 130 136
-0.24933 0.11774 -1.06985 216 186 180
-0.24252 0.11490 -1.06637 230 236 235
-0.22876 0.11586 -1.08164 206 209 224
-0.21884 0.11463 -1.08627 169 169 192
-0.21215 0.11163 -1.08218 120 118 137
-0.19998 0.11152 -1.09246 71 63 69
-0.19616 0.10700 -1.08082 63 52 66
-0.18881 0.10433 -1.07840 52 32 36
-0.16790 0.10203 -1.08911 28 11 19
-0.16060 0.09927 -1.08633 23 24 22
-0.15366 0.09633 -1.08265 25 27 30
-0.11345 0.07215 -1.03765 18 34 37
-0.12314 0.06727 -1.04221 21 22 36
-0.11040 0.06761 -1.02525 54 73 45
-0.10178 0.06545 -1.02565 56 73 54
-0.09773 0.05477 -1.02292 49 54 60
-0.09667 0.06183 -1.01809 42 55 62
-0.08268 0.06182 -1.03034 74 84 96
-0.07605 0.05879 -1.02608 116 138 160
-0.06955 0.05571 -1.02157 139 154 189
-0.06265 0.05279 -1.01791 135 151 179
-0.05211 0.05126 -1.02207 96 103 129
-0.04388 0.04882 -1.02119 84 81 112
-0.04325 0.04355 -1.00426 132 148 167
-0.03984 0.03936 -0.99335 164 178 193
-0.03503 0.03572 -0.98546 165 173 185
-0.03218 0.03140 -0.97362 159 168 176
-0.03366 0.02562 -0.95314 136 154 157
-0.02714 0.02267 -0.94905 128 154 151
-0.02654 0.01772 -0.93314 144 170 181
-0.03301 0.01048 -0.90343 173 201 219
-0.02467 0.00822 -0.90326 222 241 217
-0.02076 -0.00212 -0.90062 218 231 205
-0.02264 0.00392 -0.89076 245 242 141
-0.01923 0.00010 -0.88107 234 221 82
-0.01286 -0.00276 -0.87715 220 218 136
-0.00973 -0.00663 -0.86707 241 243 199
-0.00564 -0.01016 -0.85891 253 253 254
0.00359 -0.00551 -0.85456 254 254 254
0.00091 -0.01294 -0.85543 254 254 254
0.01245 -0.01894 -0.84562 249 252 253
0.00859 -0.00876 -0.84822 254 254 254
0.00591 -0.01617 -0.84909 253 254 254
0.01513 -0.01153 -0.84475 254 254 254
0.02011 -0.02140 -0.84420 233 244 250
0.03234 -0.02257 -0.85101 199 195 220
0.05037 -0.02220 -0.86807 133 119 151
0.05979 -0.02426 -0.86947 96 105 137
0.06788 -0.02671 -0.86844 84 101 139
0.07433 -0.02960 -0.86450 104 112 134
0.08040 -0.03259 -0.85990 123 128 120
0.14370 -0.04409 -0.87726 109 116 116
0.13409 -0.04892 -0.88177 114 119 120
0.15428 -0.04610 -0.87986 88 95 114
0.22267 -0.04421 -0.94612 117 103 73
0.23929 -0.04515 -0.95756 47 40 31
0.24606 -0.04827 -0.95314 34 35 45
0.25632 -0.05065 -0.95423 68 83 103
0.25936 -0.05455 -0.94397 108 124 138
0.26480 -0.05793 -0.93751 86 91 100
0.26963 -0.06141 -0.93017 63 65 83
0.26927 -0.06591 -0.91494 64 69 87
0.27345 -0.07695 -0.91212 27 33 49
0.27662 -0.06886 -0.91158 45 51 59
0.28420 -0.07177 -0.90857 27 34 30
0.28839 -0.08282 -0.90574 27 28 44
0.29045 -0.07493 -0.90355 24 35 43
0.29514 -0.07838 -0.89623 51 53 76
0.30512 -0.07336 -0.89154 38 41 71
0.29807 -0.08212 -0.88636 59 53 91
0.30801 -0.07712 -0.88168 24 27 27
0.30222 -0.09311 -0.88355 20 21 28
0.31094 -0.08408 -0.89114 25 22 28
0.32093 -0.07906 -0.88644 20 25 27
0.31803 -0.08709 -0.88738 17 21 29
0.31952 -0.09521 -0.86172 63 57 76
0.32366 -0.10614 -0.85893 17 26 39
0.33499 -0.09680 -0.87001 29 24 43
0.34268 -0.10380 -0.85351 23 27 46
0.34759 -0.10711 -0.84683 31 48 60
0.35411 -0.11016 -0.84242 36 45 64
0.35825 -0.12108 -0.83963 23 19 39
0.36096 -0.11316 -0.83847 26 26 37
0.44355 -0.14138 -0.81721 32 27 20
0.44773 -0.15240 -0.81440 51 42 24
0.48342 -0.16337 -0.77916 21 34 46
0.68366 -0.24666 -0.67825 29 33 50
0.67373 -0.25166 -0.68292 27 31 41
0.68077 -0.25464 -0.67919 30 31 39
0.73907 -0.27688 -0.62652 33 39 37
0.73495 -0.26600 -0.62930 37 46 46
0.73209 -0.27392 -0.63022 39 46 43
0.74319 -0.28775 -0.62374 21 23 23
0.74339 -0.27990 -0.62028 22 26 36
0.74823 -0.28290 -0.61456 24 37 49
0.74989 -0.28595 -0.60588 35 43 63
0.75399 -0.29677 -0.60312 32 39 42
0.82764 -0.32127 -0.55681 33 33 36
0.84117 -0.32714 -0.54919 28 29 46
0.84225 -0.33004 -0.54050 42 65 49
0.84632 -0.34079 -0.53776 33 37 44
0.86371 -0.33307 -0.54927 36 38 46
0.87211 -0.33603 -0.54681 30 31 35
0.87622 -0.34687 -0.54404 28 31 32
0.93413 -0.34833 -0.56034 64 77 80
0.93830 -0.35937 -0.55752 31 30 45
0.92306 -0.35672 -0.52278 24 29 46
0.92717 -0.36757 -0.52001 30 31 34
0.94043 -0.36550 -0.50887 23 31 43
0.97460 -0.38022 -0.48995 242 233 218
0.99861 -0.38371 -0.49943 213 190 167
1.01945 -0.38714 -0.50632 149 106 86
1.01418 -0.38971 -0.49317 70 36 27
1.01362 -0.39241 -0.48370 24 18 23
1.02444 -0.39822 -0.47392 28 25 30
1.01880 -0.40068 -0.46081 45 50 29
1.01443 -0.40315 -0.44875 61 65 36
1.06056 -0.42864 -0.40459 22 24 36
1.09247 -0.43289 -0.41849 57 70 95
1.07318 -0.43439 -0.39658 162 183 197
1.07110 -0.43679 -0.38679 231 237 233
1.07512 -0.44740 -0.38407 238 230 225
-0.79315 0.53745 -2.02275 31 41 71
-0.78360 0.53744 -2.03124 28 37 69
-0.76267 0.54266 -2.06746 82 88 106
-0.72826 0.28914 -1.24681 68 48 47
-0.73752 0.28448 -1.25117 7 3 31
-0.54489 0.17265 -1.01941 15 7 10
-0.53612 0.17707 -1.01529 15 5 7
-0.53687 0.17184 -1.02385 20 9 10
-0.52807 0.17627 -1.01971 13 4 6
-0.52973 0.17009 -1.02434 19 9 9
-0.52091 0.17453 -1.02020 17 5 6
-0.52250 0.16839 -1.02508 23 8 9
-0.51367 0.17283 -1.02093 29 8 8
-0.51665 0.16534 -1.02006 31 9 14
-0.50782 0.16978 -1.01591 38 11 5
-0.50923 0.16378 -1.02145 38 12 15
-0.50038 0.16823 -1.01729 40 10 3
-0.44034 0.14984 -1.03620 46 22 19
-0.43130 0.15439 -1.03195 49 16 7
-0.43479 0.14645 -1.02975 44 23 17
-0.42576 0.15099 -1.02550 49 17 6
-0.42877 0.14344 -1.02502 42 25 20
-0.42258 0.14056 -1.02089 42 27 23
-0.41644 0.13767 -1.01665 46 30 31
-0.41001 0.13498 -1.01337 48 36 41
-0.32763 0.11953 -1.03507 94 35 38
-0.32049 0.11710 -1.03329 106 46 41
-0.31007 0.11667 -1.04115 118 56 40
-0.30176 0.11490 -1.04261 147 73 56
-0.29068 0.11473 -1.05196 199 136 124
-0.28552 0.11103 -1.04412 231 200 187
-0.27799 0.10872 -1.04310 235 203 184
-0.26361 0.11026 -1.06112 238 214 194
-0.25460 0.10868 -1.06387 244 234 221
-0.25062 0.09818 -1.06118 254 254 253
-0.24798 0.10575 -1.05993 247 249 251
-0.23849 0.10438 -1.06379 238 238 242
-0.22701 0.10401 -1.07282 222 223 224
-0.21683 0.10289 -1.07814 195 196 191
-0.20876 0.10063 -1.07776 186 186 168
-0.19964 0.09887 -1.08001 183 184 168
-0.19251 0.09610 -1.07706 169 165 144
-0.18314 0.09442 -1.07978 147 140 108
-0.17821 0.09055 -1.07119 100 75 14
-0.16458 0.09086 -1.08443 49 28 8
-0.15491 0.08921 -1.08752 29 13 14
-0.14511 0.09415 -1.08291 23 23 22
-0.14868 0.08593 -1.08207 25 18 17
-0.14174 0.08299 -1.07839 19 21 30
-0.11775 0.06373 -1.03513 25 25 42
-0.12743 0.05886 -1.03968 22 21 34
-0.11133 0.06064 -1.03048 42 48 46
-0.10475 0.05761 -1.02620 48 53 54
-0.10071 0.04693 -1.02347 51 54 64
-0.08515 0.05414 -1.03205 51 59 81
-0.08798 0.04632 -1.03297 45 53 70
-0.07633 0.05197 -1.03264 59 83 118
-0.06924 0.04911 -1.02935 85 106 147
-0.06090 0.04671 -1.02876 91 91 148
-0.05301 0.04414 -1.02716 49 45 98
-0.04673 0.04096 -1.02210 59 57 104
-0.04140 0.03744 -1.01504 125 143 168
-0.04217 0.03176 -0.99528 167 187 198
-0.03665 0.02837 -0.98884 169 183 195
-0.03233 0.02459 -0.97998 165 176 189
-0.03353 0.01894 -0.95994 154 166 170
-0.03249 0.01414 -0.94474 137 150 151
-0.03320 0.00881 -0.92621 139 154 165
-0.03198 0.00418 -0.91177 152 172 195
-0.03238 -0.00091 -0.89432 175 197 213
-0.02045 -0.00691 -0.88482 237 232 139
-0.01624 -0.01044 -0.87672 226 212 86
-0.00870 -0.01294 -0.87504 236 229 130
-0.00629 -0.01698 -0.86363 249 252 199
-0.00083 -0.02009 -0.85808 240 253 253
0.00375 -0.02344 -0.85093 220 242 249
0.01648 -0.02446 -0.85887 203 199 236
0.02762 -0.02597 -0.86373 166 138 209
0.03370 -0.02892 -0.85926 125 134 152
0.04749 -0.02978 -0.86869 123 128 135
0.05563 -0.03220 -0.86783 126 130 125
