ply
format ascii 1.0
element face 0
property list uchar int vertex_indices
element vertex 1328
property float x
property float y
property float z
property uchar diffuse_red
property uchar diffuse_green
property uchar diffuse_blue
end_header
0.17651 -0.00501 -0.92358 218 230 233
0.17856 -0.01108 -0.90717 205 192 210
0.18776 -0.01331 -0.90685 213 192 198
0.21610 -0.00558 -0.94851 237 233 234
0.22497 -0.00813 -0.94702 251 253 254
0.23443 -0.01039 -0.94677 254 254 250
0.25278 -0.00821 -0.96547 242 216 204
0.26587 -0.00876 -0.97265 135 92 91
0.27981 -0.01594 -0.96101 85 89 99
0.28707 -0.01937 -0.95587 91 91 84
0.29340 -0.02322 -0.94885 74 72 66
0.30586 -0.03093 -0.93464 67 75 82
0.31332 -0.03420 -0.93009 78 76 93
0.31872 -0.04588 -0.92770 98 105 101
0.31997 -0.03782 -0.92398 93 72 67
0.32568 -0.04183 -0.91607 81 60 57
0.33342 -0.04493 -0.91219 68 64 90
0.34223 -0.04757 -0.91040 85 81 125
0.34997 -0.05067 -0.90653 98 79 97
0.35297 -0.05574 -0.89369 77 70 61
0.36081 -0.05876 -0.89013 55 61 60
0.36946 -0.06144 -0.88809 54 62 85
0.37902 -0.06377 -0.88771 72 66 87
0.38577 -0.06722 -0.88215 72 51 77
0.40518 -0.07179 -0.88182 39 47 63
0.41637 -0.07353 -0.88425 57 55 78
0.43425 -0.07276 -0.89851 73 101 121
0.43374 -0.07896 -0.88003 51 59 55
0.43913 -0.09060 -0.87764 36 34 55
0.44230 -0.08173 -0.87769 36 44 65
0.45261 -0.08386 -0.87837 45 52 63
0.46352 -0.08580 -0.88004 108 77 112
0.46890 -0.08972 -0.87217 67 48 75
0.47430 -0.10138 -0.86978 44 42 38
0.47776 -0.09240 -0.87028 45 41 70
0.48315 -0.10407 -0.86789 51 45 56
0.48663 -0.09508 -0.86841 46 41 74
0.49882 -0.09663 -0.87207 81 81 125
0.49902 -0.10226 -0.85573 86 72 111
0.50454 -0.10605 -0.84834 54 43 55
0.50945 -0.11002 -0.84002 37 39 69
0.51940 -0.11231 -0.83999 80 89 81
0.52645 -0.11556 -0.83522 113 107 55
0.52777 -0.12062 -0.82131 64 52 62
0.53310 -0.13214 -0.81895 47 43 47
0.53155 -0.12484 -0.81147 50 38 74
0.54029 -0.12750 -0.80958 65 60 69
0.54561 -0.13900 -0.80722 68 54 55
0.54392 -0.13173 -0.79965 81 69 54
0.55015 -0.13513 -0.79387 57 52 45
0.55691 -0.13837 -0.78894 46 44 38
0.56311 -0.14175 -0.78320 47 44 51
0.58782 -0.13975 -0.80568 73 105 88
0.58874 -0.14984 -0.77674 63 58 48
0.59402 -0.16127 -0.77440 52 53 59
0.59840 -0.15223 -0.77625 53 51 54
0.60586 -0.15524 -0.77246 72 73 77
0.61115 -0.16667 -0.77012 59 52 61
0.61434 -0.15797 -0.77018 80 79 77
0.62220 -0.16086 -0.76699 57 60 52
0.63169 -0.16828 -0.75165 55 54 55
0.62887 -0.17685 -0.75211 59 57 58
0.63429 -0.17252 -0.74101 64 69 74
0.65120 -0.18273 -0.72249 62 54 56
0.65642 -0.19401 -0.72018 58 60 47
0.65792 -0.18583 -0.71792 72 72 52
0.66256 -0.18944 -0.71049 91 92 80
0.68918 -0.19247 -0.71950 73 59 75
0.70915 -0.19717 -0.71916 63 69 71
0.71873 -0.19963 -0.71840 77 89 99
0.72399 -0.21100 -0.71607 68 65 73
0.72898 -0.20195 -0.71850 80 86 94
0.73425 -0.21333 -0.71617 69 65 74
0.79928 -0.22775 -0.69025 47 49 43
0.78839 -0.23350 -0.69350 43 48 61
0.79646 -0.23631 -0.69071 45 47 51
0.81017 -0.22200 -0.68700 44 48 40
0.80735 -0.23055 -0.68746 44 44 31
0.81248 -0.23393 -0.68103 52 51 53
0.81773 -0.24528 -0.67870 64 57 64
0.83245 -0.24312 -0.66756 60 49 45
0.84117 -0.24579 -0.66559 55 48 51
0.84584 -0.24920 -0.65877 53 59 78
0.85107 -0.26050 -0.65646 70 70 64
0.85223 -0.25228 -0.65404 70 71 86
0.86118 -0.25491 -0.65237 62 49 45
0.86545 -0.25835 -0.64517 59 58 44
0.88271 -0.26782 -0.62904 73 68 83
0.87195 -0.27350 -0.63225 56 50 50
0.88790 -0.27905 -0.62674 93 105 124
0.88714 -0.27117 -0.62220 100 100 120
0.89563 -0.27386 -0.62006 72 64 72
0.90081 -0.28506 -0.61777 56 56 54
0.90703 -0.28010 -0.60946 55 51 56
0.90426 -0.28851 -0.60991 58 52 53
0.91139 -0.28341 -0.60268 85 105 113
0.92131 -0.28586 -0.60218 84 74 74
0.93201 -0.28021 -0.59898 62 52 55
0.92647 -0.29703 -0.59989 66 64 49
0.93487 -0.29563 -0.58271 56 57 52
0.92423 -0.30125 -0.58589 52 50 46
0.93594 -0.29935 -0.57254 107 104 102
0.94243 -0.30228 -0.56834 102 85 90
0.94957 -0.30510 -0.56487 71 65 44
0.95468 -0.31615 -0.56260 59 53 55
0.99921 -0.32115 -0.55126 27 45 74
0.98861 -0.32675 -0.55442 77 70 72
0.98074 -0.32717 -0.52124 165 182 194
0.99637 -0.32889 -0.52669 244 248 249
1.00143 -0.33984 -0.52445 252 254 254
1.04416 -0.34500 -0.51168 254 254 250
1.03909 -0.33404 -0.51392 254 254 254
1.03637 -0.34229 -0.51437 254 254 254
1.05425 -0.34745 -0.51128 236 224 233
1.07205 -0.34909 -0.51846 202 197 213
1.08199 -0.35159 -0.51781 186 194 206
1.09472 -0.35381 -0.51987 184 194 206
1.10657 -0.35614 -0.52102 183 191 203
1.12584 -0.35774 -0.52929 178 180 195
1.13805 -0.36008 -0.53066 177 160 176
1.12324 -0.36503 -0.50621 140 120 149
1.14473 -0.36647 -0.51644 145 143 163
1.16323 -0.36823 -0.52371 184 195 214
1.17571 -0.37058 -0.52522 220 228 242
1.18744 -0.37302 -0.52598 240 244 247
1.19820 -0.36733 -0.52277 254 254 254
1.19201 -0.37609 -0.52006 247 251 251
1.20276 -0.37042 -0.51685 254 254 254
1.20595 -0.37835 -0.52282 250 253 254
1.21673 -0.37266 -0.51960 254 254 254
1.21394 -0.38113 -0.52006 253 254 254
1.21115 -0.38960 -0.52051 239 242 248
-1.06916 0.70223 -2.19265 104 101 110
-1.08361 0.69459 -2.19696 90 95 94
-1.06542 0.71359 -2.19204 133 127 108
-1.07290 0.69087 -2.19326 77 80 104
-1.05470 0.70986 -2.18833 100 100 91
-1.05844 0.69850 -2.18895 92 90 104
-1.04737 0.69264 -2.17917 94 97 117
-1.04364 0.70398 -2.17856 96 90 102
-1.03294 0.70026 -2.17487 110 120 134
-1.03667 0.68892 -2.17548 124 134 162
-1.02558 0.68265 -2.16449 136 143 164
-1.01491 0.67894 -2.16080 144 150 160
-1.00257 0.66298 -2.12203 106 103 119
-0.82326 0.57146 -1.97379 57 60 108
-0.81277 0.57671 -1.99647 82 87 135
-0.80201 0.58495 -2.02821 123 130 147
-0.79135 0.58534 -2.03663 127 124 125
-0.78067 0.58473 -2.04213 97 92 90
-0.77014 0.58061 -2.03713 78 74 77
-0.75958 0.57694 -2.03349 69 65 86
-0.72785 0.56660 -2.02459 73 72 94
-0.74209 0.55908 -2.02884 63 61 69
-0.73153 0.55541 -2.02519 67 68 85
-0.72097 0.55174 -2.02154 63 66 87
-0.69277 0.25975 -1.14090 103 38 8
-0.68764 0.24866 -1.13863 91 27 6
-0.48295 0.17995 -1.04817 72 26 13
-0.46729 0.17459 -1.04301 52 23 28
-0.46220 0.16359 -1.04076 82 30 37
-0.45901 0.17277 -1.04328 85 46 55
-0.45391 0.16176 -1.04102 88 32 28
-0.45017 0.17195 -1.04688 99 54 45
-0.44506 0.16090 -1.04461 89 33 24
-0.44233 0.16921 -1.04414 98 47 31
-0.38048 0.14601 -1.01776 108 46 23
-0.37231 0.14380 -1.01680 109 44 20
-0.32647 0.13922 -1.03456 146 70 43
-0.31929 0.13544 -1.02829 179 90 48
-0.30598 0.13971 -1.05000 216 118 38
-0.27462 0.14041 -1.07349 241 124 68
-0.26096 0.14431 -1.09435 248 218 210
-0.24874 0.14626 -1.10846 253 252 252
-0.23946 0.14459 -1.10986 254 254 253
-0.23284 0.13983 -1.10030 243 219 206
-0.20565 0.14597 -1.13703 91 51 50
-0.19459 0.14596 -1.14457 115 82 90
-0.19200 0.13680 -1.11925 129 97 59
-0.18319 0.13439 -1.11813 125 88 32
-0.17509 0.13123 -1.11432 117 83 63
-0.16966 0.11949 -1.11191 106 87 92
-0.16782 0.12724 -1.10747 111 85 76
-0.15827 0.12556 -1.10904 99 73 65
-0.14838 0.12418 -1.11170 74 42 38
-0.12818 0.11086 -1.08611 39 38 54
-0.13938 0.10495 -1.08946 52 43 44
-0.13108 0.10206 -1.08659 48 39 34
-0.12268 0.10539 -1.07366 49 46 54
-0.10942 0.09669 -1.05700 56 54 50
-0.11229 0.08796 -1.05747 51 57 50
-0.10160 0.09346 -1.05278 87 68 48
-0.09996 0.08489 -1.02854 173 150 55
-0.08509 0.08777 -1.04724 223 175 43
-0.08200 0.08059 -1.02809 208 135 55
-0.07668 0.06907 -1.02573 183 155 99
-0.07112 0.07998 -1.03373 194 135 83
-0.06235 0.07758 -1.03263 202 163 89
-0.05465 0.07431 -1.02821 210 171 92
-0.04658 0.07135 -1.02496 198 148 99
-0.03270 0.06370 -1.01181 177 144 125
-0.02494 0.06054 -1.00775 189 172 140
-0.01777 0.05695 -1.00203 172 146 134
-0.01539 0.04986 -0.98270 202 206 208
-0.02320 0.03552 -0.93494 241 247 250
0.04423 -0.01479 -0.83218 252 254 254
0.03921 -0.00394 -0.83440 254 254 254
0.03653 -0.01211 -0.83484 254 254 254
0.04692 -0.00662 -0.83174 254 254 254
0.05463 -0.00930 -0.82907 254 254 254
0.05369 -0.01642 -0.83382 250 253 254
0.06411 -0.01092 -0.83071 254 254 254
0.06422 -0.01744 -0.83800 249 252 251
0.07427 -0.01878 -0.84091 241 239 243
0.08477 -0.01990 -0.84475 228 234 241
0.09627 -0.02049 -0.85088 224 234 240
0.10901 -0.02044 -0.85972 219 233 235
0.11811 -0.02248 -0.85989 215 211 223
0.12785 -0.02420 -0.86148 201 185 212
0.13299 -0.03530 -0.85920 162 155 156
0.13977 -0.02476 -0.86796 179 160 178
0.14493 -0.03591 -0.86567 165 159 150
0.15142 -0.02552 -0.87366 161 152 162
0.16029 -0.02780 -0.87298 142 136 159
0.17342 -0.02788 -0.88171 182 168 179
0.21204 -0.01493 -0.94638 232 230 232
0.21741 -0.02653 -0.94400 253 254 254
0.22091 -0.01747 -0.94492 252 254 254
0.23001 -0.01991 -0.94392 254 254 242
0.23975 -0.02205 -0.94425 223 189 174
0.25703 -0.02053 -0.96055 115 71 74
0.26016 -0.02592 -0.94673 68 58 79
0.26919 -0.02846 -0.94540 103 111 134
0.27786 -0.03117 -0.94330 93 94 106
0.28425 -0.03494 -0.93651 60 60 69
0.28964 -0.04660 -0.93412 47 52 64
0.29075 -0.03864 -0.93002 52 55 65
0.29613 -0.05028 -0.92763 47 53 61
0.29792 -0.04201 -0.92495 44 51 67
0.32185 -0.05100 -0.91468 90 87 67
0.32723 -0.06263 -0.91230 45 46 60
0.32427 -0.05637 -0.90045 42 37 63
0.32963 -0.06794 -0.89808 44 49 64
0.33266 -0.05916 -0.89794 39 40 81
0.33801 -0.07073 -0.89557 46 55 71
0.34428 -0.06060 -0.90162 85 94 83
0.34929 -0.06480 -0.89262 88 104 47
0.35464 -0.07637 -0.89025 37 44 49
0.35238 -0.06974 -0.88011 46 51 38
0.35771 -0.08126 -0.87775 41 40 51
0.36132 -0.07228 -0.87869 43 37 54
0.37214 -0.07409 -0.88075 92 82 105
0.38032 -0.07695 -0.87787 114 98 120
0.39002 -0.07923 -0.87776 79 64 73
0.39580 -0.08302 -0.87049 44 35 38
0.40807 -0.08433 -0.87499 52 66 80
0.42853 -0.08264 -0.89396 72 109 144
0.42595 -0.08953 -0.87182 48 54 51
0.43132 -0.10112 -0.86945 46 39 38
0.44662 -0.09375 -0.87344 43 41 73
0.44374 -0.10251 -0.87391 46 45 61
0.45200 -0.10539 -0.87106 52 43 62
0.45564 -0.09636 -0.87189 82 62 90
0.46304 -0.09954 -0.86754 57 36 63
0.48405 -0.10943 -0.85262 51 48 66
0.47293 -0.11530 -0.85594 55 54 53
0.48964 -0.11318 -0.84537 49 43 57
0.49622 -0.11658 -0.83981 44 37 36
0.50157 -0.12814 -0.83744 60 56 60
0.50382 -0.11963 -0.83597 46 49 55
0.50644 -0.12427 -0.82402 51 69 64
0.51241 -0.12781 -0.81763 55 66 55
0.51850 -0.13129 -0.81150 44 46 48
0.53183 -0.13786 -0.80117 56 52 57
0.52900 -0.14648 -0.80163 58 49 59
0.54240 -0.14520 -0.78667 67 49 45
0.54879 -0.14852 -0.78122 55 46 40
0.55406 -0.15991 -0.77889 52 50 49
0.55565 -0.15169 -0.77654 43 47 47
0.56466 -0.15423 -0.77516 55 65 61
0.56993 -0.16562 -0.77283 86 63 42
0.57388 -0.15673 -0.77409 68 65 60
0.57915 -0.16812 -0.77175 75 54 52
0.59951 -0.16480 -0.76770 53 56 65
0.58859 -0.17057 -0.77097 53 51 59
0.61369 -0.17097 -0.75914 65 49 47
0.61621 -0.17523 -0.74826 63 52 48
0.62453 -0.18282 -0.73150 63 61 69
0.63467 -0.18985 -0.71763 74 68 78
0.64301 -0.19254 -0.71538 64 60 51
0.66266 -0.19722 -0.71495 60 59 69
0.67324 -0.19940 -0.71574 64 53 73
0.68527 -0.20126 -0.71845 64 49 59
0.69642 -0.20334 -0.71989 59 48 45
0.70166 -0.21469 -0.71756 60 53 58
0.70490 -0.20605 -0.71768 56 53 56
0.80024 -0.23994 -0.68255 53 45 43
0.78937 -0.24567 -0.68579 70 67 73
0.79743 -0.24847 -0.68301 71 64 68
0.80564 -0.24324 -0.67648 60 49 58
0.82803 -0.25194 -0.66603 69 57 51
0.83603 -0.25473 -0.66323 68 60 53
0.84192 -0.25791 -0.65787 65 64 67
0.85642 -0.26375 -0.65050 72 64 50
0.86157 -0.26702 -0.64435 69 66 51
0.86654 -0.27030 -0.63802 71 75 57
0.87492 -0.27708 -0.62369 68 65 82
0.88531 -0.28348 -0.61187 67 65 66
0.89047 -0.29463 -0.60958 59 56 51
0.90433 -0.29246 -0.59829 81 91 114
0.89367 -0.29809 -0.60147 59 49 45
0.90157 -0.30084 -0.59874 70 62 78
0.90947 -0.30358 -0.59601 73 69 76
0.90885 -0.29571 -0.59177 83 87 97
0.91399 -0.30681 -0.58950 65 63 52
0.92828 -0.30453 -0.57893 51 51 47
0.92146 -0.30931 -0.56014 91 91 114
0.92765 -0.31225 -0.55569 79 69 95
0.93642 -0.31483 -0.55405 70 64 56
0.94150 -0.32581 -0.55180 58 53 57
0.98874 -0.33043 -0.54364 35 48 79
0.98284 -0.33842 -0.51596 231 241 244
1.02855 -0.35110 -0.50968 254 254 254
1.02349 -0.34017 -0.51192 254 254 254
1.02079 -0.34840 -0.51236 254 254 254
1.01808 -0.35663 -0.51280 254 254 254
1.05095 -0.35577 -0.51115 178 129 159
1.04761 -0.35963 -0.49745 119 76 125
1.05564 -0.36230 -0.49506 101 88 121
1.06742 -0.36459 -0.49633 98 93 117
1.07633 -0.36717 -0.49476 95 91 113
1.08490 -0.36980 -0.49285 90 79 117
1.09064 -0.37269 -0.48821 84 69 112
1.10144 -0.37511 -0.48844 86 78 109
1.12459 -0.37642 -0.50037 89 91 114
1.11535 -0.38066 -0.48152 108 116 147
1.15092 -0.38094 -0.50498 150 156 191
1.16259 -0.38336 -0.50580 186 192 212
1.18679 -0.38474 -0.51824 201 212 221
-1.06319 0.69271 -2.20549 76 78 102
-1.07771 0.68504 -2.20982 58 51 89
-1.06694 0.68130 -2.20610 39 37 72
-1.05618 0.67755 -2.20238 29 29 63
-1.05147 0.68346 -2.18599 74 80 109
-1.04449 0.66838 -2.18290 25 22 64
-1.04032 0.67707 -2.17462 77 76 125
-1.03335 0.66202 -2.17153 29 38 64
-1.02808 0.66346 -2.14241 86 94 136
-1.01794 0.66295 -2.14794 120 134 160
-1.00625 0.65174 -2.12253 108 109 133
-0.99937 0.63686 -2.11948 62 53 81
-0.79512 0.57178 -2.03001 107 110 141
-0.78445 0.57138 -2.03620 124 120 138
-0.77384 0.56901 -2.03651 97 94 88
-0.76311 0.56798 -2.04085 70 68 74
-0.75254 0.56430 -2.03719 62 61 75
-0.54882 0.19177 -1.06489 54 18 14
-0.55389 0.20275 -1.06714 49 20 13
-0.55661 0.19448 -1.06758 47 15 9
-0.54610 0.20004 -1.06445 42 17 18
-0.53830 0.19733 -1.06175 36 14 12
-0.54127 0.18843 -1.06014 51 16 14
-0.53076 0.19398 -1.05700 40 14 12
-0.53351 0.18565 -1.05722 42 11 19
-0.52300 0.19120 -1.05408 42 16 18
-0.52628 0.18162 -1.05017 37 14 29
-0.51580 0.18715 -1.04704 38 16 18
-0.51859 0.17873 -1.04689 44 18 27
-0.50810 0.18427 -1.04376 46 19 9
-0.51091 0.17582 -1.04350 43 15 18
-0.50043 0.18135 -1.04037 60 26 12
-0.50207 0.17543 -1.04847 43 22 23
-0.49392 0.17347 -1.04826 67 29 22
-0.48596 0.17109 -1.04668 77 30 17
-0.47803 0.16862 -1.04480 75 25 14
-0.43700 0.15857 -1.04323 89 35 23
-0.42918 0.15579 -1.04035 90 36 16
-0.42137 0.15298 -1.03738 90 36 18
-0.41363 0.15008 -1.03405 88 42 34
-0.40596 0.14706 -1.03037 91 47 35
-0.39848 0.14377 -1.02573 92 49 41
-0.39078 0.14083 -1.02227 98 54 40
-0.38254 0.13873 -1.02173 104 65 33
-0.36588 0.13471 -1.02127 98 41 12
-0.33810 0.13230 -1.03332 118 37 28
-0.34086 0.12390 -1.03377 109 40 15
-0.32973 0.13015 -1.03270 146 61 22
-0.32090 0.12857 -1.03411 160 77 27
-0.30987 0.12981 -1.04546 189 110 26
-0.29743 0.13269 -1.06273 222 128 49
-0.27736 0.13192 -1.07434 240 126 24
-0.26799 0.13061 -1.07693 244 165 96
-0.25514 0.13336 -1.09406 252 216 194
-0.24692 0.13052 -1.09128 254 229 218
-0.23853 0.12789 -1.08924 252 225 209
-0.22422 0.13186 -1.11105 246 192 191
-0.21296 0.13226 -1.12005 244 228 195
-0.21000 0.12358 -1.09615 245 238 212
-0.19792 0.12477 -1.10809 238 232 189
-0.19030 0.12116 -1.10259 177 153 119
-0.17914 0.12122 -1.11050 120 88 84
-0.16242 0.11548 -1.10496 102 86 83
-0.15364 0.11302 -1.10370 74 56 50
-0.14636 0.10912 -1.09708 58 47 45
-0.14094 0.09740 -1.09468 56 47 46
-0.12679 0.09549 -1.06994 45 44 42
-0.13793 0.08961 -1.07326 52 45 36
-0.12967 0.08674 -1.07041 40 43 42
-0.10590 0.08349 -1.04854 50 57 46
-0.10536 0.07404 -1.02067 123 132 67
-0.08681 0.08002 -1.05142 198 193 85
-0.07884 0.07692 -1.04767 203 181 95
-0.06610 0.06817 -1.03036 185 160 128
-0.05903 0.06441 -1.02404 205 202 180
-0.05083 0.06156 -1.02121 204 203 187
-0.04409 0.05760 -1.01404 175 150 158
-0.03686 0.05404 -1.00843 170 149 161
-0.02845 0.05138 -1.00631 207 209 193
-0.02577 0.04449 -0.98758 194 188 184
-0.01907 0.04064 -0.98072 193 193 198
-0.02604 0.01866 -0.91016 246 249 252
-0.01542 0.02427 -0.90699 254 254 254
-0.01817 0.01592 -0.90744 254 254 253
0.02637 -0.01746 -0.83855 252 254 254
0.02134 -0.00660 -0.84077 254 254 254
0.01865 -0.01478 -0.84121 253 254 254
0.02906 -0.00928 -0.83811 254 254 254
0.03449 -0.01989 -0.83693 250 251 250
0.04229 -0.02251 -0.83449 233 239 239
0.05117 -0.02451 -0.83469 219 230 238
0.06139 -0.02573 -0.83813 216 226 225
0.06643 -0.03663 -0.83589 167 158 164
0.07530 -0.02485 -0.85042 202 169 188
0.08528 -0.02631 -0.85296 183 164 179
0.09037 -0.03732 -0.85071 177 172 149
0.09512 -0.02789 -0.85506 176 168 174
0.10022 -0.03892 -0.85281 175 167 151
0.10416 -0.02995 -0.85520 168 162 168
0.10926 -0.04099 -0.85293 174 167 150
0.11394 -0.03161 -0.85701 161 157 163
0.11906 -0.04268 -0.85475 170 165 151
0.12522 -0.03249 -0.86221 159 153 164
0.13036 -0.04360 -0.85994 168 161 153
0.15851 -0.03572 -0.87566 152 145 152
0.14776 -0.04139 -0.87887 166 160 150
0.17287 -0.03520 -0.88718 193 177 177
0.20896 -0.02377 -0.94639 238 233 231
0.21432 -0.03537 -0.94402 253 254 254
0.22543 -0.02950 -0.94070 254 253 238
0.24715 -0.02580 -0.96682 197 170 158
0.24555 -0.03348 -0.94276 91 64 63
0.25402 -0.03626 -0.94033 65 69 77
0.26293 -0.03883 -0.93884 103 109 130
0.27325 -0.04076 -0.94023 88 84 97
0.29975 -0.05520 -0.91545 49 56 65
0.28864 -0.06107 -0.91876 55 54 60
0.29688 -0.06393 -0.91592 48 49 49
0.30512 -0.06680 -0.91307 44 51 49
0.30619 -0.05884 -0.90902 52 64 73
0.31234 -0.06259 -0.90209 53 57 69
0.31769 -0.07415 -0.89972 52 53 52
0.36419 -0.08477 -0.87174 50 38 71
0.35316 -0.09060 -0.87503 46 52 48
0.36134 -0.09344 -0.87221 53 54 69
0.37331 -0.08725 -0.87068 83 70 90
0.38324 -0.08943 -0.87106 102 93 104
0.38763 -0.09370 -0.86131 51 32 28
0.39844 -0.09556 -0.86325 43 42 62
0.40772 -0.09800 -0.86240 69 51 76
0.41835 -0.09997 -0.86389 61 35 41
0.45424 -0.11033 -0.85783 54 47 57
0.46087 -0.11373 -0.85226 53 49 55
0.46622 -0.12530 -0.84989 53 51 43
0.47511 -0.12017 -0.84289 61 54 55
0.48002 -0.12410 -0.83456 66 68 64
0.48559 -0.12778 -0.82741 70 66 65
0.49986 -0.13411 -0.81841 56 58 62
0.50565 -0.13767 -0.81177 68 67 68
0.51417 -0.14039 -0.80957 73 74 83
0.51771 -0.14461 -0.79941 63 56 57
0.52953 -0.15155 -0.78686 65 69 69
0.53491 -0.15514 -0.77985 97 90 79
0.54058 -0.15864 -0.77332 78 65 60
0.54583 -0.16998 -0.77100 51 49 39
0.55696 -0.16417 -0.76817 55 52 45
0.56221 -0.17551 -0.76584 73 62 57
0.59431 -0.17402 -0.76463 48 51 67
0.58340 -0.17978 -0.76789 53 51 50
0.60228 -0.17686 -0.76167 79 79 88
0.61242 -0.17914 -0.76188 114 109 75
0.61383 -0.18850 -0.73489 60 53 54
0.61905 -0.19979 -0.73258 63 60 66
0.61635 -0.19265 -0.72422 60 56 63
0.62123 -0.19619 -0.71703 70 68 72
0.63343 -0.20263 -0.70626 77 78 65
0.64317 -0.20497 -0.70602 56 59 63
0.65374 -0.20713 -0.70690 48 54 64
0.66580 -0.20896 -0.70978 64 68 68
0.67101 -0.22022 -0.70748 99 85 104
0.67333 -0.21185 -0.70638 80 72 79
0.68754 -0.21324 -0.71209 81 66 73
0.69277 -0.22454 -0.70978 58 47 53
0.79232 -0.25370 -0.66385 76 73 74
0.78155 -0.25939 -0.66707 76 75 75
0.79753 -0.26494 -0.66155 85 87 91
0.79854 -0.25680 -0.65890 82 81 77
0.80374 -0.26803 -0.65660 89 89 89
0.80621 -0.25962 -0.65577 87 81 74
0.81141 -0.27086 -0.65347 81 84 82
0.81429 -0.26238 -0.65313 83 78 69
0.81948 -0.27361 -0.65083 81 86 85
0.82170 -0.26525 -0.64969 82 82 75
0.82690 -0.27648 -0.64739 86 90 91
0.82785 -0.26834 -0.64473 85 87 85
0.83304 -0.27956 -0.64243 88 89 88
0.83512 -0.27123 -0.64114 88 88 86
0.84031 -0.28244 -0.63885 84 84 77
0.84442 -0.27377 -0.63998 84 83 76
0.84961 -0.28499 -0.63769 83 83 81
0.84836 -0.27721 -0.63246 82 80 75
0.85507 -0.28017 -0.62824 77 79 69
0.86084 -0.28328 -0.62296 60 55 60
0.86098 -0.28726 -0.61115 64 66 67
0.87371 -0.28926 -0.61400 100 108 97
0.90903 -0.31134 -0.57252 52 52 40
0.89846 -0.31692 -0.57567 67 60 47
0.91706 -0.31403 -0.57004 49 41 43
0.90987 -0.31878 -0.55086 77 76 101
0.91648 -0.32163 -0.54693 83 70 91
0.92528 -0.32419 -0.54537 71 62 62
0.93034 -0.33512 -0.54313 63 51 47
0.94330 -0.32928 -0.54267 58 53 62
0.94601 -0.32104 -0.54223 60 56 50
0.95378 -0.32374 -0.53954 72 76 68
0.95392 -0.33163 -0.54302 71 75 74
0.96443 -0.32608 -0.53989 81 75 79
0.95977 -0.33457 -0.53828 85 80 84
0.96631 -0.33743 -0.53429 82 72 75
0.97138 -0.34837 -0.53205 63 55 63
0.97424 -0.34011 -0.53176 47 50 72
0.96603 -0.34467 -0.51243 114 122 149
0.97284 -0.34745 -0.50885 214 232 239
0.98087 -0.35009 -0.50652 250 253 254
0.99126 -0.34460 -0.50342 254 254 254
0.98857 -0.35277 -0.50386 254 254 254
0.98588 -0.36094 -0.50430 254 254 254
1.01776 -0.36017 -0.50199 254 253 248
1.03224 -0.36217 -0.50608 199 159 191
1.02861 -0.36601 -0.49207 103 52 76
1.03636 -0.36869 -0.48944 71 39 72
1.04138 -0.37954 -0.48722 71 58 64
1.04406 -0.37137 -0.48677 73 60 77
1.04908 -0.38222 -0.48455 72 59 59
1.04774 -0.37443 -0.48016 71 62 71
1.05275 -0.38526 -0.47794 73 60 61
1.05748 -0.37692 -0.47949 70 58 66
1.06249 -0.38776 -0.47727 70 59 61
1.06645 -0.37948 -0.47806 68 57 66
1.07147 -0.39033 -0.47584 70 61 62
1.07468 -0.38211 -0.47590 67 55 69
1.07970 -0.39296 -0.47368 68 64 65
1.08366 -0.38468 -0.47445 68 62 75
1.08868 -0.39554 -0.47223 71 66 73
1.10300 -0.38636 -0.48286 74 68 83
1.11859 -0.38839 -0.48759 79 79 96
1.13139 -0.39069 -0.48962 89 95 127
1.11140 -0.39566 -0.46087 105 109 142
1.11641 -0.40650 -0.45865 93 93 104
1.16807 -0.39780 -0.49379 142 142 171
1.15316 -0.40227 -0.47008 193 194 215
1.16365 -0.39674 -0.46695 252 252 253
1.16093 -0.40498 -0.46740 242 244 247
1.15822 -0.41322 -0.46784 224 227 232
-0.78823 0.55799 -2.03003 112 106 144
-0.77770 0.55446 -2.02680 125 116 137
-0.76686 0.55594 -2.03893 79 72 81
-0.75997 0.54107 -2.03588 72 71 92
-0.75615 0.55409 -2.04087 60 62 77
-0.74926 0.53919 -2.03781 69 75 86
-0.57657 0.18698 -1.05818 40 11 16
-0.58161 0.19789 -1.06041 45 15 21
-0.58431 0.18967 -1.06085 40 11 19
-0.57386 0.19519 -1.05773 47 14 11
-0.56612 0.19250 -1.05506 43 14 6
-0.56808 0.18632 -1.06218 39 14 18
-0.55963 0.18541 -1.06539 54 29 25
-0.55118 0.18442 -1.06835 66 42 26
-0.54418 0.17968 -1.05896 64 37 26
-0.53646 0.17684 -1.05581 54 31 37
-0.52945 0.17231 -1.04708 49 31 45
-0.52078 0.17167 -1.05125 55 36 45
-0.50420 0.16845 -1.05321 59 41 45
-0.49636 0.16581 -1.05076 71 43 41
-0.48904 0.16207 -1.04463 80 41 31
-0.48094 0.15996 -1.04396 82 39 26
-0.47297 0.15758 -1.04239 84 37 36
-0.46488 0.15538 -1.04146 83 38 50
-0.45653 0.15367 -1.04217 84 42 47
-0.44741 0.15328 -1.04744 84 49 47
-0.43937 0.15089 -1.04588 84 52 49
-0.43150 0.14818 -1.04323 84 54 42
-0.42376 0.14526 -1.03985 81 57 44
-0.41621 0.14202 -1.03539 76 62 58
-0.40836 0.13930 -1.03270 81 67 62
-0.40048 0.13662 -1.03017 87 72 67
-0.39200 0.13487 -1.03087 95 84 73
-0.38334 0.13334 -1.03236 104 97 78
-0.37463 0.13185 -1.03400 106 97 70
-0.36596 0.13024 -1.03522 97 78 53
-0.35865 0.12665 -1.02954 91 56 37
-0.33144 0.12315 -1.03816 130 45 23
-0.33421 0.11473 -1.03862 106 43 39
-0.32626 0.11197 -1.03587 122 44 37
-0.32220 0.12208 -1.04145 137 55 32
-0.31701 0.11087 -1.03915 131 32 21
-0.31360 0.12013 -1.04161 153 65 29
-0.30549 0.11752 -1.03944 185 93 25
-0.29412 0.11894 -1.05177 225 118 56
-0.27768 0.12637 -1.08581 248 205 166
-0.26384 0.11782 -1.06973 254 246 229
-0.25855 0.10640 -1.06739 254 254 253
-0.25554 0.11521 -1.06768 254 248 238
-0.25026 0.10378 -1.06534 254 254 253
-0.24579 0.11423 -1.07159 254 249 240
-0.24049 0.10277 -1.06924 254 254 254
-0.23566 0.11360 -1.07685 254 250 248
-0.23034 0.10210 -1.07449 254 254 254
-0.22504 0.11344 -1.08385 254 253 251
-0.21970 0.10190 -1.08149 254 254 253
-0.21582 0.11168 -1.08503 251 250 249
-0.19925 0.11761 -1.11465 218 208 224
-0.19320 0.11237 -1.10307 152 119 161
-0.18167 0.11277 -1.11242 115 67 97
-0.17465 0.10855 -1.10461 121 67 78
-0.16498 0.10700 -1.10674 110 54 52
-0.15730 0.10346 -1.10146 67 40 29
-0.15059 0.09903 -1.09280 54 46 44
-0.12544 0.08028 -1.05389 40 47 47
-0.12830 0.07157 -1.05436 44 37 46
-0.11953 0.07540 -1.04332 49 52 50
-0.11179 0.07217 -1.03899 40 54 52
-0.09730 0.06491 -1.02728 114 106 88
-0.09046 0.06098 -1.02022 107 96 103
-0.07645 0.06290 -1.03590 121 122 136
-0.07022 0.05846 -1.02688 170 186 193
-0.06133 0.05617 -1.02622 194 210 217
-0.05343 0.05308 -1.02248 181 182 189
-0.04596 0.04968 -1.01748 138 134 149
-0.03935 0.04565 -1.00993 140 142 167
-0.03189 0.04229 -1.00505 209 219 220
-0.02846 0.03599 -0.98844 225 224 218
-0.02303 0.03124 -0.97792 203 199 195
-0.01887 0.02564 -0.96393 195 194 195
-0.02847 0.01054 -0.91151 228 231 238
-0.02806 0.00266 -0.88799 249 250 252
-0.01753 0.00822 -0.88485 254 254 251
-0.02026 -0.00006 -0.88529 254 254 248
0.00856 -0.02007 -0.84513 251 253 253
0.00354 -0.00922 -0.84735 254 254 254
0.00085 -0.01739 -0.84779 252 254 254
0.01125 -0.01190 -0.84469 254 254 254
0.01694 -0.02234 -0.84418 247 244 248
0.02477 -0.02496 -0.84180 233 239 244
0.03983 -0.02321 -0.85770 226 226 225
0.04490 -0.03417 -0.85546 187 180 169
0.04425 -0.02792 -0.84659 195 179 173
0.05311 -0.02997 -0.84663 170 158 169
0.06247 -0.03174 -0.84788 164 159 165
0.08209 -0.03486 -0.85228 179 172 161
0.15816 -0.04291 -0.88161 150 144 150
0.17108 -0.04319 -0.88987 194 178 177
0.17630 -0.05449 -0.88756 240 234 232
0.20379 -0.03365 -0.94179 240 234 232
0.20915 -0.04522 -0.93942 253 254 254
0.22023 -0.03936 -0.93611 254 251 237
0.21737 -0.04808 -0.93658 254 249 230
0.24459 -0.04133 -0.94734 84 52 64
0.25163 -0.04479 -0.94186 61 45 55
0.25995 -0.04764 -0.93910 68 60 69
0.26750 -0.05084 -0.93474 62 45 50
0.27369 -0.05465 -0.92760 57 46 48
0.28061 -0.05811 -0.92203 58 57 61
0.30630 -0.07263 -0.89627 53 63 59
0.33703 -0.08483 -0.88108 84 86 94
0.32600 -0.09065 -0.88437 53 60 60
0.37153 -0.09551 -0.87313 99 94 122
0.38068 -0.10387 -0.85432 53 47 40
0.38598 -0.11533 -0.85197 50 46 65
0.39031 -0.10616 -0.85420 51 50 61
0.40088 -0.10812 -0.85573 95 84 80
0.40909 -0.11094 -0.85298 100 85 66
0.41910 -0.11314 -0.85342 53 46 44
0.42975 -0.11512 -0.85493 50 50 57
0.43743 -0.11815 -0.85120 64 74 69
0.44381 -0.12160 -0.84525 71 96 81
0.45306 -0.12409 -0.84426 62 72 66
0.46733 -0.13046 -0.83507 60 61 59
0.46448 -0.13912 -0.83554 52 50 51
0.46743 -0.13589 -0.81874 79 94 121
0.47817 -0.13789 -0.82028 86 81 109
0.48654 -0.14064 -0.81786 59 51 57
0.49218 -0.14424 -0.81096 49 52 60
0.49777 -0.14783 -0.80405 81 84 85
0.50200 -0.15182 -0.79499 88 86 92
0.50935 -0.15485 -0.79102 63 56 61
0.51511 -0.15834 -0.78453 54 49 56
0.52136 -0.16166 -0.77889 58 64 66
0.52041 -0.16703 -0.76199 85 85 93
0.52562 -0.17830 -0.75969 52 52 53
0.53005 -0.16935 -0.76178 72 64 60
0.58436 -0.18445 -0.75447 52 52 61
0.58155 -0.19298 -0.75493 63 55 61
0.60493 -0.19373 -0.74092 81 85 79
0.60598 -0.19824 -0.72802 63 63 65
0.61477 -0.20552 -0.71222 70 70 69
0.62091 -0.20872 -0.70690 81 90 68
0.62881 -0.21149 -0.70411 94 87 66
0.64130 -0.21320 -0.70774 79 49 48
0.65261 -0.21521 -0.70964 72 50 40
0.65738 -0.21870 -0.70244 94 85 70
0.68143 -0.22247 -0.70802 86 65 87
0.68664 -0.23374 -0.70571 57 50 53
0.77845 -0.26415 -0.65048 78 82 81
0.83704 -0.29099 -0.61070 79 80 74
0.82642 -0.29660 -0.61387 82 81 81
0.83810 -0.29478 -0.59999 64 59 61
0.83916 -0.29854 -0.58938 58 60 56
0.84424 -0.30954 -0.58712 90 85 93
0.85817 -0.29958 -0.59966 102 97 82
0.90730 -0.31950 -0.57408 57 52 38
0.91169 -0.32268 -0.56758 49 40 42
0.91234 -0.33004 -0.54580 106 84 89
0.92086 -0.33264 -0.54396 78 52 54
0.93044 -0.33875 -0.53223 59 53 60
0.94543 -0.34057 -0.53731 86 91 92
0.94983 -0.34367 -0.53106 106 104 109
0.95886 -0.34621 -0.52973 100 91 96
0.97181 -0.35189 -0.52171 77 85 106
0.96808 -0.35584 -0.50713 193 220 229
0.97601 -0.35849 -0.50473 248 253 253
0.98102 -0.36932 -0.50251 254 254 254
1.00309 -0.36611 -0.50080 254 254 254
0.99807 -0.35525 -0.50303 254 254 254
0.99538 -0.36343 -0.50347 254 254 254
0.99269 -0.37160 -0.50391 254 254 254
1.01179 -0.36869 -0.49913 251 239 228
1.02020 -0.37473 -0.48681 73 44 44
1.02548 -0.37763 -0.48176 69 52 55
1.03048 -0.38844 -0.47955 71 59 61
1.10468 -0.39755 -0.47742 74 69 81
1.09423 -0.40307 -0.48054 76 68 67
1.10198 -0.40577 -0.47787 76 69 74
1.17319 -0.40887 -0.49153 136 141 170
1.16258 -0.41448 -0.49469 64 66 99
1.17831 -0.41995 -0.48926 214 217 224
-0.59638 0.17925 -1.04783 38 10 18
-0.60139 0.19008 -1.05005 33 12 17
-0.60407 0.18193 -1.05049 29 11 12
-0.59369 0.18741 -1.04739 32 10 16
-0.58800 0.17857 -1.05177 47 13 28
-0.57929 0.17871 -1.05843 56 27 39
-0.57038 0.17920 -1.06631 67 49 53
-0.56306 0.17527 -1.05954 77 66 61
-0.54645 0.17255 -1.06316 76 65 54
-0.53829 0.17073 -1.06342 71 59 63
-0.52990 0.16938 -1.06533 69 58 66
-0.52084 0.16950 -1.07219 72 59 66
-0.51229 0.16830 -1.07464 75 62 64
-0.50434 0.16575 -1.07255 79 68 65
-0.49669 0.16254 -1.06824 81 68 65
-0.48912 0.15922 -1.06352 86 73 63
-0.48129 0.15641 -1.06055 89 74 65
-0.47342 0.15372 -1.05796 87 71 68
-0.46557 0.15096 -1.05517 82 69 71
-0.46045 0.13990 -1.05291 86 82 83
-0.45744 0.14873 -1.05416 83 70 71
-0.45232 0.13766 -1.05190 86 81 85
-0.44935 0.14640 -1.05285 82 72 76
-0.44423 0.13532 -1.05058 82 79 86
-0.44140 0.14382 -1.05067 82 72 78
-0.43627 0.13274 -1.04841 81 76 81
-0.43356 0.14104 -1.04779 82 71 68
-0.42843 0.12996 -1.04552 79 75 82
-0.42601 0.13775 -1.04317 79 71 70
-0.42089 0.12668 -1.04090 77 74 80
-0.41894 0.13372 -1.03592 77 72 75
-0.41383 0.12268 -1.03366 79 75 83
-0.41299 0.12794 -1.02252 80 76 80
-0.40531 0.12502 -1.01910 86 83 85
-0.30683 0.11087 -1.04644 141 36 27
-0.28944 0.10698 -1.04703 250 249 246
-0.28422 0.09569 -1.04472 254 254 254
-0.27990 0.10600 -1.05087 254 253 247
-0.27466 0.09467 -1.04855 254 254 254
-0.21041 0.10018 -1.08290 252 249 246
-0.21327 0.09147 -1.08337 252 254 254
-0.20506 0.08861 -1.08053 254 254 253
-0.20017 0.09939 -1.08784 251 241 230
-0.19061 0.09786 -1.09001 250 238 212
-0.18146 0.09587 -1.09047 250 227 191
-0.16911 0.09697 -1.10269 191 164 116
-0.16067 0.09419 -1.10026 107 67 28
-0.15566 0.08817 -1.08545 67 20 14
-0.14737 0.08530 -1.08263 53 34 27
-0.13909 0.08242 -1.07977 47 40 35
-0.13493 0.07585 -1.06268 43 37 44
-0.12283 0.06634 -1.04228 46 41 47
-0.11623 0.06214 -1.03420 50 45 56
-0.10953 0.05807 -1.02655 62 63 71
-0.10123 0.05536 -1.02424 71 70 86
-0.09592 0.04389 -1.02189 84 82 89
-0.09294 0.05264 -1.02186 75 74 93
-0.08763 0.04116 -1.01951 79 80 85
-0.08381 0.05059 -1.02212 83 91 101
-0.06838 0.05349 -1.04204 107 125 145
-0.06269 0.04864 -1.03133 142 160 188
-0.05703 0.04383 -1.02067 149 152 165
-0.04329 0.04517 -1.03462 102 84 106
-0.03278 0.04399 -1.03854 113 105 133
-0.03408 0.03411 -1.00745 203 215 219
-0.03071 0.02781 -0.99060 233 235 231
-0.02879 0.02058 -0.96990 222 215 210
-0.02759 0.01298 -0.94753 200 197 201
-0.02239 0.00172 -0.94522 205 196 204
-0.02543 0.00618 -0.92830 207 211 219
-0.03055 -0.00545 -0.88911 235 239 242
-0.02701 -0.01103 -0.87461 251 254 252
-0.01653 -0.00550 -0.87149 254 253 240
-0.01924 -0.01373 -0.87193 252 254 250
-0.01482 -0.01861 -0.86020 251 253 251
-0.01212 -0.01041 -0.85976 254 254 245
-0.00438 -0.01310 -0.85708 254 254 254
-0.00885 -0.02244 -0.85278 249 248 251
-0.00060 -0.02478 -0.85152 233 242 245
0.00625 -0.02802 -0.84655 228 234 238
0.01757 -0.02849 -0.85324 218 198 218
0.02262 -0.03939 -0.85100 187 180 178
0.02557 -0.03103 -0.85119 194 181 197
0.03062 -0.04194 -0.84896 190 181 169
0.03395 -0.03335 -0.85012 186 178 188
0.03901 -0.04427 -0.84789 192 186 174
0.05045 -0.03817 -0.84721 184 177 167
0.04774 -0.04640 -0.84765 188 185 171
0.05551 -0.04911 -0.84497 197 195 171
0.05969 -0.04003 -0.84815 187 178 168
0.06475 -0.05098 -0.84591 199 199 178
0.06931 -0.04170 -0.84996 189 182 173
0.07892 -0.04339 -0.85167 191 187 173
0.08866 -0.04505 -0.85358 184 182 163
0.09375 -0.05607 -0.85132 182 175 164
0.15105 -0.04673 -0.89317 166 158 149
0.14303 -0.04394 -0.89594 170 162 154
0.14023 -0.05244 -0.89640 170 163 153
0.14825 -0.05522 -0.89363 166 158 150
0.16191 -0.04807 -0.89684 150 143 147
0.17330 -0.04919 -0.90158 195 178 176
0.17855 -0.06055 -0.89925 241 236 232
0.25074 -0.05263 -0.94658 106 115 137
0.26195 -0.05419 -0.94985 136 156 169
0.26656 -0.05874 -0.93926 117 118 133
0.27358 -0.06217 -0.93381 86 90 108
0.28057 -0.06561 -0.92831 72 84 84
0.28425 -0.07045 -0.91615 58 61 60
0.29248 -0.07331 -0.91331 55 54 55
0.29457 -0.07875 -0.89821 56 64 60
0.30021 -0.08265 -0.89033 63 86 79
0.32119 -0.09859 -0.85666 78 96 86
0.31029 -0.10435 -0.85992 46 47 46
0.32646 -0.10997 -0.85433 51 45 53
0.35760 -0.10832 -0.85304 75 73 93
0.36489 -0.11144 -0.84873 66 58 85
0.37455 -0.11370 -0.84877 49 43 58
0.39470 -0.11795 -0.85020 50 56 75
0.40475 -0.12012 -0.85078 51 61 70
0.41312 -0.12288 -0.84835 45 48 45
0.42263 -0.12526 -0.84791 50 48 33
0.43183 -0.12775 -0.84689 52 58 63
0.43990 -0.13062 -0.84390 56 69 78
0.44619 -0.13408 -0.83785 60 47 65
0.45614 -0.13634 -0.83807 56 48 44
0.46701 -0.14374 -0.82326 43 48 66
0.47028 -0.14808 -0.81234 51 41 59
0.47900 -0.15071 -0.81055 61 44 36
0.47628 -0.15680 -0.79000 60 50 52
0.48686 -0.15884 -0.79135 57 53 77
0.49376 -0.16198 -0.78669 55 62 79
0.49666 -0.16628 -0.77564 62 40 48
0.50797 -0.17320 -0.76262 56 43 26
0.51318 -0.18445 -0.76032 43 43 49
0.51102 -0.17735 -0.75211 49 52 51
0.52449 -0.18356 -0.74279 59 52 53
0.53244 -0.18633 -0.74004 60 53 57
0.58441 -0.19708 -0.74445 61 58 67
0.57360 -0.20279 -0.74768 74 62 65
0.58963 -0.20837 -0.74214 53 48 50
0.59092 -0.20024 -0.73945 60 61 70
0.59253 -0.20459 -0.72732 60 60 71
0.59803 -0.20796 -0.72097 68 64 74
0.60339 -0.21134 -0.71448 70 65 71
0.60688 -0.21515 -0.70534 64 59 66
0.61224 -0.21850 -0.69897 55 55 71
0.62215 -0.22079 -0.69907 75 73 95
0.63276 -0.22294 -0.70010 108 99 99
0.64288 -0.22521 -0.70042 113 104 78
0.65306 -0.22748 -0.70077 97 93 90
0.66454 -0.22949 -0.70287 69 63 94
0.66973 -0.24072 -0.70057 58 53 55
0.76101 -0.27512 -0.63261 63 62 73
0.77119 -0.27746 -0.63277 75 80 92
0.78642 -0.27895 -0.63912 81 86 97
0.82008 -0.30150 -0.59435 81 78 73
0.80955 -0.30706 -0.59750 82 81 83
0.82417 -0.30477 -0.58728 67 56 53
0.82475 -0.30855 -0.57618 47 47 50
0.89963 -0.33216 -0.55769 47 41 42
0.90008 -0.33579 -0.54694 84 94 84
0.91143 -0.34168 -0.53708 103 73 75
0.91468 -0.34490 -0.52957 73 55 49
0.91970 -0.35575 -0.52735 63 59 59
0.92183 -0.34764 -0.52632 63 60 59
0.93938 -0.34919 -0.53417 90 103 103
0.94693 -0.35190 -0.53128 106 116 124
0.95241 -0.35485 -0.52621 102 106 109
0.95255 -0.35837 -0.51556 76 61 61
0.96070 -0.36100 -0.51336 45 56 75
0.96728 -0.36380 -0.50953 174 203 216
0.97445 -0.36653 -0.50633 245 250 252
0.97947 -0.37737 -0.50411 254 254 254
0.99907 -0.37441 -0.49989 254 254 248
0.98867 -0.37990 -0.50299 254 254 254
1.00612 -0.37716 -0.49657 232 197 188
1.01720 -0.37952 -0.49729 118 68 66
1.02222 -0.39038 -0.49507 59 43 48
1.01846 -0.38280 -0.48818 64 43 43
1.02368 -0.38569 -0.48307 65 54 55
1.03536 -0.39135 -0.47415 74 66 57
1.04173 -0.39413 -0.47024 78 68 61
1.05266 -0.39652 -0.47077 76 64 65
1.06034 -0.39919 -0.46812 75 64 65
1.10038 -0.40916 -0.46636 78 72 78
1.08998 -0.41465 -0.46946 76 70 67
1.09769 -0.41733 -0.46680 74 69 69
1.10540 -0.42001 -0.46413 73 68 73
-0.60771 0.17077 -1.04099 32 12 16
-0.61270 0.18156 -1.04320 32 11 11
-0.61537 0.17344 -1.04363 36 11 9
-0.59932 0.17032 -1.04570 45 24 30
-0.59013 0.17205 -1.05776 64 43 48
-0.58118 0.17280 -1.06657 76 64 67
-0.57612 0.16186 -1.06432 87 84 87
-0.57327 0.17046 -1.06511 85 81 80
-0.56594 0.16659 -1.05849 89 84 83
-0.54065 0.16331 -1.06680 86 80 81
-0.53205 0.16245 -1.07040 85 79 81
-0.52694 0.15142 -1.06814 91 86 89
-0.52282 0.16289 -1.07846 84 76 81
-0.51523 0.15953 -1.07363 87 77 82
-0.51011 0.14846 -1.07136 98 92 92
-0.50766 0.15616 -1.06874 90 83 81
-0.49988 0.15328 -1.06551 88 82 83
-0.49209 0.15043 -1.06236 93 91 90
-0.48431 0.14753 -1.05910 95 92 94
-0.47634 0.14503 -1.05716 91 88 87
-0.47123 0.13397 -1.05490 87 85 90
-0.46848 0.14232 -1.05453 86 85 83
-0.46336 0.13126 -1.05226 85 82 88
-0.40770 0.11725 -1.02137 85 81 90
-0.41825 0.11168 -1.02452 79 74 75
-0.41043 0.10897 -1.02182 89 84 88
-0.40261 0.10625 -1.01912 102 102 98
-0.31679 0.10623 -1.05354 128 58 31
-0.32480 0.10901 -1.05630 95 50 32
-0.32760 0.10052 -1.05676 78 67 47
-0.30454 0.10871 -1.07014 146 91 93
-0.29324 0.09728 -1.04305 254 254 254
-0.28803 0.08601 -1.04074 254 254 254
-0.19612 0.08647 -1.08043 254 254 253
-0.20722 0.08062 -1.08374 253 251 252
-0.19899 0.07776 -1.08090 254 254 254
-0.19077 0.07490 -1.07806 254 254 254
-0.18676 0.08473 -1.08187 254 253 247
-0.18140 0.07313 -1.07949 254 254 253
-0.17799 0.08238 -1.08100 254 253 226
-0.16649 0.08260 -1.09005 254 231 183
-0.15537 0.08236 -1.09742 176 141 106
-0.15219 0.07476 -1.07625 98 66 29
-0.14364 0.07215 -1.07441 73 35 16
-0.13984 0.06531 -1.05606 56 20 26
-0.13369 0.06066 -1.04617 44 27 45
-0.12657 0.05690 -1.03974 40 33 53
-0.11999 0.05271 -1.03162 45 40 57
-0.11244 0.04937 -1.02678 64 63 65
-0.10376 0.04697 -1.02570 81 80 80
-0.07572 0.04127 -1.02851 73 77 81
-0.06504 0.04033 -1.03340 73 66 79
-0.05639 0.03780 -1.03186 71 51 76
-0.05104 0.02622 -1.02949 114 103 141
-0.04683 0.03594 -1.03310 62 50 90
-0.03547 0.03537 -1.03959 100 110 146
-0.03472 0.02705 -1.01447 193 210 220
-0.03383 0.01900 -0.99023 235 241 242
-0.02854 0.00757 -0.98789 244 249 249
-0.03056 0.01277 -0.97338 243 241 236
-0.02954 -0.01123 -0.90000 216 219 225
-0.02778 -0.01798 -0.88044 239 248 250
-0.02235 -0.02223 -0.87126 235 244 247
-0.01566 -0.02562 -0.86566 230 236 243
-0.00789 -0.02830 -0.86304 223 214 229
-0.00284 -0.03922 -0.86081 191 189 184
0.00127 -0.03012 -0.86410 195 188 197
0.00633 -0.04105 -0.86186 192 191 183
0.00842 -0.03320 -0.85978 186 181 188
0.01347 -0.04413 -0.85754 192 191 184
0.01448 -0.03694 -0.85266 183 183 187
0.01952 -0.04784 -0.85043 192 190 180
0.07601 -0.05177 -0.85167 198 188 176
0.07329 -0.06005 -0.85211 180 171 162
0.08110 -0.06276 -0.84942 177 171 168
0.08543 -0.05361 -0.85284 185 176 171
0.09053 -0.06463 -0.85058 179 174 167
0.17379 -0.05612 -0.90947 197 182 177
0.17906 -0.06751 -0.90714 242 236 234
0.24637 -0.06209 -0.94389 91 69 114
0.25176 -0.07374 -0.94150 99 97 140
0.25582 -0.06444 -0.94352 112 94 144
0.26350 -0.06759 -0.93939 98 83 127
0.26877 -0.07178 -0.93028 74 63 93
0.27313 -0.07633 -0.91941 64 53 60
0.27880 -0.08027 -0.91135 62 59 55
0.28258 -0.08498 -0.89957 58 56 50
0.28875 -0.08865 -0.89271 48 46 43
0.29448 -0.09248 -0.88507 48 44 50
0.29978 -0.10395 -0.88272 68 84 59
0.35679 -0.12194 -0.83946 40 30 54
0.36702 -0.12398 -0.84063 47 52 58
0.37574 -0.12657 -0.83898 58 53 58
0.38592 -0.12865 -0.83995 50 46 59
0.39504 -0.13112 -0.83897 44 47 59
0.40374 -0.13374 -0.83722 63 62 63
0.41403 -0.13583 -0.83826 70 62 69
0.43036 -0.14146 -0.83276 49 49 66
0.43707 -0.14474 -0.82752 73 72 80
0.44752 -0.14682 -0.82870 98 104 106
0.45185 -0.15084 -0.81943 64 63 54
0.45713 -0.16226 -0.81709 48 45 35
0.45973 -0.15902 -0.79992 48 50 50
0.46540 -0.16254 -0.79318 106 88 82
0.47562 -0.16469 -0.79398 87 81 91
0.47144 -0.17107 -0.77123 53 49 57
0.47651 -0.17469 -0.76376 40 38 65
0.49542 -0.17434 -0.77860 88 87 102
0.50694 -0.19107 -0.73533 54 56 58
0.51209 -0.20220 -0.73305 68 74 78
0.52514 -0.19594 -0.73354 70 58 60
0.53583 -0.19030 -0.73035 59 49 59
0.53307 -0.19870 -0.73080 58 45 55
0.54927 -0.19933 -0.74064 58 49 50
0.55205 -0.19088 -0.74018 59 50 56
0.55724 -0.20210 -0.73788 72 64 61
0.58431 -0.21434 -0.71981 58 54 56
0.59349 -0.21681 -0.71887 83 76 76
0.59713 -0.22058 -0.70988 89 75 65
0.59725 -0.22512 -0.69593 65 53 45
0.60238 -0.23622 -0.69366 48 47 53
0.60262 -0.22843 -0.68962 48 44 59
0.61324 -0.23055 -0.69081 61 60 90
0.62657 -0.23210 -0.69574 90 91 109
0.63172 -0.24324 -0.69345 65 54 87
0.63713 -0.23428 -0.69671 99 94 101
0.64230 -0.24544 -0.69442 62 57 80
0.64278 -0.23752 -0.69080 83 79 93
0.64793 -0.24867 -0.68851 60 61 69
0.65227 -0.23994 -0.69023 60 60 75
0.65743 -0.25110 -0.68795 63 61 58
0.73495 -0.27932 -0.62885 76 75 67
0.72985 -0.26830 -0.63110 76 75 77
0.72712 -0.27660 -0.63155 81 77 78
0.74055 -0.28242 -0.62335 62 62 51
0.74564 -0.29342 -0.62110 49 51 43
0.73202 -0.28790 -0.60019 48 48 49
0.75160 -0.28861 -0.61226 64 68 73
0.75667 -0.29958 -0.61001 84 68 65
0.79619 -0.31290 -0.56973 85 80 76
0.78579 -0.31839 -0.57283 80 78 83
0.79350 -0.32107 -0.57017 85 82 82
0.80106 -0.31599 -0.56374 72 61 49
0.80768 -0.31882 -0.55981 47 40 37
0.81268 -0.32964 -0.55760 95 108 72
0.81423 -0.32539 -0.54431 74 58 68
0.85494 -0.33471 -0.54516 75 91 92
0.84993 -0.32388 -0.54738 61 75 79
0.84725 -0.33204 -0.54782 56 62 73
0.84456 -0.34019 -0.54826 66 60 70
0.88341 -0.33842 -0.55444 62 55 49
0.88846 -0.34934 -0.55220 55 55 33
0.89163 -0.34830 -0.52992 81 94 118
0.90754 -0.35001 -0.53622 96 92 102
0.91256 -0.36088 -0.53399 64 59 61
0.90615 -0.35374 -0.52369 74 63 57
0.91115 -0.36455 -0.52147 62 59 58
0.92332 -0.35888 -0.52031 55 55 64
0.92063 -0.36703 -0.52075 56 54 55
0.92832 -0.36971 -0.51810 57 58 55
0.93001 -0.36166 -0.51659 54 62 68
0.93501 -0.37248 -0.51438 61 64 58
0.93689 -0.36442 -0.51309 59 66 66
0.94190 -0.37523 -0.51088 68 63 59
0.94558 -0.36699 -0.51150 70 61 58
0.95408 -0.36958 -0.50969 28 37 69
0.95744 -0.37269 -0.50253 160 177 203
0.96968 -0.37490 -0.50461 240 245 249
0.97469 -0.38573 -0.50239 252 254 254
0.99429 -0.38278 -0.49820 254 253 237
0.98390 -0.38826 -0.50130 254 254 254
1.00801 -0.38490 -0.50163 194 148 147
1.01336 -0.38780 -0.49658 97 46 44
1.02371 -0.39360 -0.48620 65 52 55
1.02537 -0.39678 -0.47759 73 64 54
1.02258 -0.40031 -0.46465 89 85 64
1.01579 -0.40413 -0.44791 107 96 78
1.03122 -0.40614 -0.45296 110 90 75
1.04833 -0.40804 -0.45954 98 79 65
1.05863 -0.40260 -0.45646 76 66 63
1.05821 -0.41053 -0.45906 88 71 67
1.06585 -0.41319 -0.45641 81 69 68
1.09596 -0.42701 -0.43565 50 49 64
1.08834 -0.42436 -0.43828 75 69 69
-0.61929 0.16123 -1.03041 43 10 14
-0.62426 0.17196 -1.03261 44 15 16
-0.62691 0.16388 -1.03304 35 10 10
-0.62957 0.15580 -1.03348 43 11 7
-0.61097 0.16078 -1.03517 53 27 32
-0.60087 0.16561 -1.05773 64 55 54
-0.59281 0.16390 -1.05836 77 73 73
-0.58427 0.16349 -1.06340 83 80 83
-0.56872 0.15816 -1.05827 89 86 92
-0.57143 0.14994 -1.05871 94 92 93
-0.56367 0.14724 -1.05603 97 96 100
-0.56008 0.15771 -1.06325 95 93 95
-0.55501 0.14675 -1.06101 100 96 101
-0.54371 0.15423 -1.06448 96 91 89
-0.53863 0.14324 -1.06223 96 92 95
-0.53509 0.15342 -1.06835 95 90 89
-0.52999 0.14240 -1.06609 93 90 97
-0.51820 0.15070 -1.07235 94 88 92
-0.52094 0.14237 -1.07280 96 90 103
-0.51309 0.13963 -1.07008 97 92 103
-0.50323 0.14369 -1.06155 95 88 95
-0.50596 0.13538 -1.06200 96 92 101
-0.49812 0.13265 -1.05929 101 105 105
-0.49596 0.13979 -1.05476 98 100 99
-0.49087 0.12877 -1.05250 99 103 106
-0.48845 0.13645 -1.04989 99 101 100
-0.48011 0.13473 -1.05069 93 91 95
-0.31444 0.10421 -1.07803 130 107 91
-0.32535 0.09844 -1.08128 73 70 70
-0.31175 0.09472 -1.05039 194 197 201
-0.30480 0.09066 -1.04286 244 244 240
-0.17106 0.07224 -1.08436 254 254 249
-0.18221 0.06635 -1.08769 254 254 254
-0.17394 0.06348 -1.08483 254 254 254
-0.16568 0.06061 -1.08198 254 254 254
-0.16149 0.07057 -1.08623 254 253 225
-0.15141 0.06933 -1.08980 254 243 199
-0.13525 0.07346 -1.11468 237 219 161
-0.12558 0.07166 -1.11620 161 109 55
-0.13793 0.05079 -1.04189 88 38 17
-0.13041 0.04740 -1.03687 55 33 22
-0.12441 0.04275 -1.02678 51 34 41
-0.11648 0.03975 -1.02328 60 47 63
-0.10559 0.03916 -1.02950 72 69 74
-0.09593 0.03750 -1.03149 86 80 76
-0.08621 0.03587 -1.03358 97 86 76
-0.07665 0.03407 -1.03505 101 86 74
-0.06646 0.03272 -1.03836 107 90 94
-0.05466 0.03252 -1.04649 126 113 131
-0.03862 0.02640 -1.03926 110 110 157
-0.03513 0.02011 -1.02219 177 190 203
-0.03903 0.00872 -0.98374 222 228 234
-0.03388 -0.00446 -0.94639 246 245 240
-0.03666 -0.01292 -0.94685 250 252 251
-0.03255 -0.01172 -0.92470 228 223 217
-0.03121 -0.01884 -0.90344 214 209 210
-0.02579 -0.02316 -0.89395 225 227 225
-0.02169 -0.02828 -0.88100 204 198 208
-0.01661 -0.03926 -0.87875 199 195 189
-0.01495 -0.03167 -0.87540 191 186 197
-0.00988 -0.04263 -0.87316 200 198 190
0.15637 -0.06508 -0.89792 153 146 150
0.23380 -0.06862 -0.94418 83 52 76
0.24649 -0.06952 -0.95079 91 92 130
0.26059 -0.07637 -0.93982 88 84 116
0.26397 -0.08135 -0.92676 69 70 83
0.26933 -0.08544 -0.91797 77 82 73
0.28212 -0.09266 -0.90489 81 82 77
0.27950 -0.09990 -0.88033 51 46 45
0.28458 -0.10394 -0.87147 47 53 54
0.34993 -0.13193 -0.83245 51 44 50
0.33909 -0.13766 -0.83568 42 46 55
0.34713 -0.14046 -0.83290 47 44 51
0.36109 -0.13364 -0.83539 79 84 123
0.37370 -0.13487 -0.84087 79 69 98
0.37897 -0.14626 -0.83854 49 43 42
0.37840 -0.13884 -0.83194 51 39 34
0.38580 -0.14187 -0.82795 35 36 43
0.40347 -0.14149 -0.84224 88 101 79
0.41492 -0.14323 -0.84529 99 90 76
0.42023 -0.15470 -0.84294 48 50 54
0.42489 -0.15092 -0.82865 45 53 49
0.43471 -0.15320 -0.82880 73 74 87
0.43864 -0.15733 -0.81881 90 108 134
0.44391 -0.16872 -0.81648 52 53 55
0.44192 -0.16162 -0.80785 57 63 53
0.44752 -0.17037 -0.78467 56 53 56
0.44473 -0.17885 -0.78513 59 56 57
0.44415 -0.17650 -0.76302 95 78 105
0.44931 -0.18766 -0.76073 56 49 68
0.45440 -0.17858 -0.76410 78 60 83
0.46621 -0.18526 -0.75200 45 44 52
0.47137 -0.19640 -0.74972 60 52 60
0.47350 -0.18818 -0.74826 63 60 74
0.47866 -0.19933 -0.74597 59 47 57
0.47916 -0.19156 -0.74190 74 69 62
0.48430 -0.20268 -0.73963 57 49 49
0.48862 -0.19388 -0.74165 50 45 45
0.49251 -0.19771 -0.73258 43 44 44
0.49811 -0.20106 -0.72627 56 60 65
0.50324 -0.21214 -0.72400 66 67 74
0.52710 -0.20791 -0.72634 59 46 55
0.53992 -0.20942 -0.73110 63 44 46
0.55261 -0.21101 -0.73554 76 53 47
0.56335 -0.21310 -0.73697 79 56 49
0.56935 -0.21635 -0.73125 66 51 51
0.57882 -0.22339 -0.71627 60 57 56
0.57605 -0.23180 -0.71672 55 59 58
0.58398 -0.23456 -0.71398 59 58 56
0.58431 -0.22671 -0.70998 74 79 77
0.58832 -0.23035 -0.70158 78 77 67
0.59260 -0.23390 -0.69365 59 51 40
0.60496 -0.24012 -0.68340 54 52 74
0.61296 -0.24281 -0.68090 62 55 86
0.66841 -0.25757 -0.67587 63 58 55
0.66051 -0.25482 -0.67860 61 58 55
0.67116 -0.24919 -0.67542 58 54 53
0.67906 -0.25194 -0.67269 57 55 54
0.67265 -0.26102 -0.66823 68 62 54
0.68328 -0.25541 -0.66505 57 57 59
0.67886 -0.26408 -0.66326 68 62 56
0.68947 -0.25848 -0.66009 57 56 53
0.68673 -0.26682 -0.66054 60 52 50
0.69767 -0.27317 -0.64880 66 60 55
0.70278 -0.28422 -0.64654 82 86 81
0.69938 -0.27701 -0.63809 81 83 78
0.70992 -0.27144 -0.63495 79 78 78
0.70719 -0.27972 -0.63539 80 84 80
0.71504 -0.28650 -0.62004 84 89 80
0.70998 -0.27555 -0.62228 80 76 80
0.70726 -0.28380 -0.62273 77 81 83
0.71233 -0.29474 -0.62048 84 100 84
0.71625 -0.29032 -0.60901 79 80 62
0.72340 -0.29311 -0.60559 62 63 50
0.72844 -0.30401 -0.60336 53 53 52
0.73532 -0.29907 -0.59579 61 63 63
0.74035 -0.30994 -0.59357 91 71 71
0.78689 -0.32576 -0.55062 76 71 59
0.78422 -0.33386 -0.55106 77 76 61
0.79094 -0.32891 -0.54378 54 46 47
0.81473 -0.33674 -0.53695 71 54 61
0.82502 -0.33131 -0.53388 49 47 53
0.81970 -0.34748 -0.53475 70 65 68
0.85807 -0.34577 -0.54082 76 64 68
0.84770 -0.35125 -0.54392 72 70 76
0.85539 -0.35392 -0.54126 79 73 78
0.88498 -0.35334 -0.53712 53 56 59
0.89203 -0.35609 -0.53374 57 63 71
0.89787 -0.35898 -0.52906 58 59 71
0.94803 -0.37806 -0.50660 28 38 73
0.93768 -0.38353 -0.50969 65 63 59
0.94825 -0.38145 -0.49618 141 152 183
0.96712 -0.38304 -0.50517 229 238 244
0.98995 -0.39108 -0.49696 254 249 232
0.97958 -0.39656 -0.50005 254 254 254
1.00531 -0.39309 -0.50207 163 121 138
1.01124 -0.39926 -0.48720 63 50 52
1.01533 -0.40222 -0.48096 66 57 57
1.01212 -0.40576 -0.46755 76 78 53
1.02849 -0.40772 -0.47353 125 127 94
1.01026 -0.41237 -0.44552 178 170 148
1.01781 -0.41500 -0.44291 188 166 135
1.02884 -0.41737 -0.44366 153 124 81
1.04567 -0.41934 -0.44997 110 87 65
1.05590 -0.42180 -0.44987 86 73 65
1.06352 -0.42444 -0.44724 75 67 62
1.06086 -0.43252 -0.44767 76 63 61
1.08192 -0.43267 -0.43518 64 54 50
1.07927 -0.44072 -0.43561 60 46 42
1.08925 -0.43533 -0.43231 51 39 55
-0.72864 0.19032 -1.06793 73 36 29
-0.73360 0.20105 -1.07013 77 30 15
-0.73892 0.18489 -1.07100 70 58 57
-0.72598 0.19840 -1.06750 79 26 13
-0.73129 0.18224 -1.06837 70 54 56
-0.71836 0.19575 -1.06487 77 25 10
-0.72168 0.18341 -1.05135 71 36 24
-0.71146 0.18881 -1.04830 76 25 12
-0.71463 0.17767 -1.03850 71 35 26
-0.70445 0.18304 -1.03547 73 26 12
-0.70782 0.17093 -1.02236 69 34 23
-0.69770 0.17628 -1.01934 72 25 11
-0.70118 0.16379 -1.00481 68 33 21
-0.69112 0.16911 -1.00181 74 23 11
-0.69437 0.15800 -0.99163 69 30 20
-0.68435 0.16328 -0.98864 77 20 11
-0.66341 0.15280 -0.99851 67 18 6
-0.65333 0.15813 -0.99550 52 13 4
-0.65477 0.15469 -1.01099 62 17 6
-0.64463 0.16005 -1.00796 44 11 7
-0.64683 0.15362 -1.01358 53 13 7
-0.63666 0.15899 -1.01054 36 11 11
-0.63929 0.15100 -1.01097 45 12 7
-0.62229 0.15204 -1.02705 53 17 17
-0.61367 0.15259 -1.03530 70 46 46
-0.60590 0.15030 -1.03391 78 73 78
-0.59717 0.15083 -1.04215 80 78 92
-0.48344 0.12528 -1.04707 90 91 97
-0.47560 0.12259 -1.04448 84 82 89
-0.46778 0.11988 -1.04178 81 79 83
-0.47051 0.11159 -1.04222 79 76 79
