ply
format ascii 1.0
element face 0
property list uchar int vertex_indices
element vertex 1294
property float x
property float y
property float z
property uchar diffuse_red
property uchar diffuse_green
property uchar diffuse_blue
end_header
-0.03115 -0.09725 -0.92308 190 193 195
-0.01320 -0.10653 -0.90723 194 193 185
-0.00706 -0.10955 -0.90249 196 185 180
0.00656 -0.11517 -0.89690 217 217 201
0.02378 -0.11491 -0.92287 176 157 131
0.03331 -0.11701 -0.92721 151 108 49
0.04399 -0.11881 -0.93448 177 142 80
0.04685 -0.12282 -0.92060 218 192 143
0.05720 -0.12476 -0.92679 226 219 168
0.06043 -0.12862 -0.91410 204 201 174
0.06533 -0.13200 -0.90595 179 171 180
0.07024 -0.13536 -0.89795 167 158 189
0.07698 -0.13824 -0.89468 164 142 185
0.07863 -0.14235 -0.87858 130 100 149
0.10468 -0.14067 -0.92370 86 70 115
0.09219 -0.14804 -0.87253 100 97 143
0.10173 -0.15027 -0.87626 131 122 185
0.11248 -0.15226 -0.88281 130 113 184
0.11931 -0.15513 -0.87976 120 108 181
0.13090 -0.15701 -0.88803 108 97 170
0.13514 -0.16043 -0.87876 96 84 141
0.12858 -0.16598 -0.84436 57 49 83
0.13240 -0.17618 -0.84173 25 27 39
0.14799 -0.16635 -0.87067 27 22 34
0.15187 -0.17671 -0.86801 24 27 30
0.26201 -0.21550 -0.81405 33 20 17
0.25518 -0.21264 -0.81710 25 21 22
0.25222 -0.22010 -0.81750 16 13 10
0.26480 -0.21885 -0.80303 39 27 26
0.26549 -0.22240 -0.78804 45 43 33
0.26827 -0.22568 -0.77729 54 59 20
0.27391 -0.22863 -0.77219 57 64 13
0.28258 -0.23125 -0.77290 56 61 18
0.29087 -0.23393 -0.77282 54 55 24
0.29800 -0.23672 -0.77053 52 46 24
0.30511 -0.23952 -0.76818 52 34 12
0.31230 -0.24232 -0.76597 51 22 10
0.31961 -0.24511 -0.76397 57 30 20
0.32072 -0.24842 -0.75067 92 80 70
0.33881 -0.25033 -0.76818 150 151 150
0.34637 -0.25313 -0.76652 212 188 153
0.35207 -0.25606 -0.76153 230 195 121
0.35720 -0.25903 -0.75556 234 201 123
0.36748 -0.26164 -0.75866 231 203 129
0.36762 -0.26494 -0.74405 233 209 133
0.38209 -0.26730 -0.75429 235 216 137
0.38993 -0.27010 -0.75301 237 221 143
0.39897 -0.27284 -0.75374 238 228 154
0.40509 -0.27574 -0.74949 234 224 157
0.41144 -0.27863 -0.74565 237 226 158
0.41462 -0.28167 -0.73655 239 228 157
0.42192 -0.28451 -0.73434 241 232 173
0.42936 -0.28734 -0.73233 243 235 188
0.43692 -0.29017 -0.73051 244 236 193
0.44235 -0.29308 -0.72524 246 239 197
0.45017 -0.29590 -0.72382 248 242 200
0.45759 -0.29875 -0.72175 250 243 202
0.46503 -0.30159 -0.71969 252 244 202
0.47322 -0.30442 -0.71879 253 247 206
0.47709 -0.31474 -0.71613 254 254 243
0.48166 -0.30724 -0.71823 254 249 214
0.48553 -0.31758 -0.71557 254 254 245
0.48889 -0.31011 -0.71579 254 250 222
0.49276 -0.32045 -0.71313 254 254 248
0.49578 -0.31298 -0.71282 254 252 225
0.49965 -0.32332 -0.71016 254 254 248
0.50243 -0.31585 -0.70948 254 252 226
0.50630 -0.32619 -0.70682 254 254 246
0.50874 -0.31873 -0.70564 254 253 228
0.51261 -0.32907 -0.70298 254 254 246
0.51475 -0.32161 -0.70136 254 253 231
0.51862 -0.33194 -0.69870 254 254 247
0.52060 -0.32449 -0.69685 254 254 235
0.52447 -0.33481 -0.69420 253 254 249
0.52626 -0.32736 -0.69209 254 254 238
0.53013 -0.33767 -0.68944 253 254 249
0.53230 -0.33023 -0.68790 254 254 241
0.53616 -0.34053 -0.68525 254 254 248
0.53789 -0.33309 -0.68308 254 254 241
0.54174 -0.34339 -0.68043 254 254 246
0.54378 -0.33595 -0.67872 254 254 241
0.54764 -0.34624 -0.67608 254 254 243
0.54983 -0.33881 -0.67461 254 254 240
0.55369 -0.34909 -0.67197 254 254 243
0.55679 -0.34166 -0.67180 254 254 241
0.56064 -0.35195 -0.66916 254 254 245
0.96302 -0.52331 -0.44072 254 249 218
0.96014 -0.53059 -0.44110 251 247 230
0.96680 -0.53338 -0.43813 251 245 225
0.97598 -0.52681 -0.44366 254 249 213
0.97977 -0.53692 -0.44106 251 244 223
0.97776 -0.52906 -0.43610 254 247 213
0.98153 -0.53914 -0.43350 250 242 224
-0.69367 0.12628 -1.00743 115 118 100
-0.69984 0.12887 -1.01018 37 38 47
-0.70251 0.12213 -1.01054 31 38 29
-0.68751 0.12358 -1.00414 76 76 114
-0.68401 0.11425 -1.00174 55 48 93
-0.68138 0.12063 -0.99969 114 104 115
-0.67489 0.12081 -1.01007 56 25 61
-0.67138 0.11143 -1.00766 47 44 51
-0.63724 0.10738 -1.00417 142 130 152
-0.63125 0.10368 -0.99607 152 159 127
-0.62453 0.10320 -1.00375 122 128 117
-0.62099 0.09375 -1.00132 97 94 101
-0.61765 0.10309 -1.01342 110 110 90
-0.61409 0.09359 -1.01097 99 99 103
-0.55503 0.07624 -0.98292 80 75 76
-0.55774 0.06938 -0.98328 84 80 86
-0.54491 0.06562 -0.94928 28 31 38
-0.52240 0.06551 -0.98195 80 76 76
-0.51882 0.05596 -0.97949 55 52 63
-0.51636 0.06233 -0.97628 57 55 58
-0.51279 0.05279 -0.97382 55 54 57
-0.33889 0.01397 -1.01667 67 61 57
-0.34842 0.00950 -1.02002 69 67 74
-0.32993 0.01322 -1.02643 41 30 39
-0.31138 0.01194 -1.04789 172 174 181
-0.30476 0.00898 -1.04410 213 200 221
-0.29871 0.00557 -1.03742 246 240 246
-0.29488 -0.00465 -1.03480 254 254 254
-0.29189 0.00278 -1.03473 254 254 254
-0.28807 -0.00744 -1.03210 254 254 254
-0.09189 -0.07782 -0.96093 252 249 240
-0.10164 -0.08239 -0.96436 254 254 254
-0.08273 -0.07973 -0.96567 224 203 166
-0.06458 -0.08376 -0.97403 28 29 78
-0.06853 -0.09067 -0.93661 157 143 186
-0.05542 -0.09119 -0.95352 236 245 238
-0.04944 -0.09436 -0.94787 208 199 189
-0.05155 -0.10033 -0.91745 162 149 143
-0.02764 -0.10759 -0.91948 196 183 183
-0.02063 -0.11036 -0.91718 185 188 187
-0.00712 -0.12091 -0.88887 223 222 228
0.00258 -0.12284 -0.89430 239 240 231
0.02655 -0.12075 -0.93918 241 233 199
0.03142 -0.12420 -0.93055 237 211 136
0.04225 -0.12601 -0.93826 242 220 164
0.04943 -0.12883 -0.93592 248 233 199
0.04933 -0.13356 -0.91416 178 167 176
0.05149 -0.13763 -0.89877 82 67 104
0.05535 -0.14792 -0.89612 35 29 40
0.05953 -0.14018 -0.89896 38 30 67
0.06339 -0.15049 -0.89630 35 35 37
0.06514 -0.14333 -0.89279 29 30 68
0.06899 -0.15363 -0.89014 34 37 41
0.07096 -0.14643 -0.88724 28 28 68
0.07539 -0.14983 -0.87821 28 28 67
0.07923 -0.16008 -0.87557 44 45 56
0.07973 -0.15323 -0.86908 29 34 70
0.08356 -0.16345 -0.86645 42 42 57
0.08542 -0.15630 -0.86339 27 33 78
0.08924 -0.16651 -0.86077 36 36 54
0.09143 -0.15929 -0.85857 23 25 83
0.09525 -0.16949 -0.85595 34 35 55
0.09818 -0.16212 -0.85560 21 23 83
0.10200 -0.17232 -0.85298 35 35 53
0.10518 -0.16490 -0.85320 20 23 82
0.10900 -0.17510 -0.85057 32 34 48
0.11414 -0.16729 -0.85548 18 22 75
0.11797 -0.17751 -0.85285 31 31 42
0.12597 -0.16913 -0.86446 18 21 60
0.12982 -0.17942 -0.86181 31 29 39
0.13451 -0.17166 -0.86550 20 22 44
0.13837 -0.18197 -0.86284 28 30 39
0.25582 -0.22334 -0.80799 60 49 7
0.24574 -0.22807 -0.77152 103 78 9
0.25158 -0.23097 -0.76686 117 78 15
0.25713 -0.23390 -0.76166 128 88 29
0.26968 -0.23611 -0.77002 142 103 46
0.27275 -0.23928 -0.76005 155 113 56
0.27601 -0.24242 -0.75053 171 129 66
0.27875 -0.24557 -0.74016 181 145 90
0.28825 -0.24811 -0.74253 185 158 112
0.29203 -0.25819 -0.73994 158 146 122
0.29352 -0.25103 -0.73696 181 159 112
0.30943 -0.25308 -0.75102 159 142 92
0.31651 -0.25587 -0.74871 108 103 76
0.32630 -0.25846 -0.75127 87 95 118
0.33942 -0.26084 -0.75972 172 188 204
0.33119 -0.26470 -0.72997 240 244 219
0.33918 -0.26742 -0.72930 254 250 216
0.34297 -0.27754 -0.72670 254 254 243
0.34692 -0.27016 -0.72816 254 250 222
0.35072 -0.28029 -0.72556 253 254 243
0.35559 -0.27286 -0.72861 254 251 223
0.35939 -0.28301 -0.72600 254 254 246
0.36559 -0.27549 -0.73129 254 252 226
0.36940 -0.28567 -0.72867 254 254 250
0.37667 -0.27809 -0.73574 254 252 228
0.38050 -0.28831 -0.73311 254 254 249
0.38685 -0.28076 -0.73855 254 253 230
0.39069 -0.29100 -0.73591 254 254 250
0.39609 -0.28349 -0.73969 254 253 233
0.39994 -0.29376 -0.73705 254 254 247
0.40492 -0.28625 -0.74007 254 253 235
0.40878 -0.29654 -0.73742 254 254 246
0.41293 -0.28905 -0.73904 254 254 238
0.41679 -0.29936 -0.73639 254 254 247
0.41896 -0.29194 -0.73470 254 254 237
0.42281 -0.30224 -0.73205 253 254 250
0.42652 -0.29478 -0.73290 254 254 240
0.43038 -0.30508 -0.73025 253 254 247
0.43303 -0.29764 -0.72938 254 254 241
0.43689 -0.30794 -0.72673 253 253 247
0.43953 -0.30051 -0.72584 254 254 243
0.44339 -0.31081 -0.72319 254 254 246
0.44720 -0.30335 -0.72418 254 254 241
0.45106 -0.31365 -0.72153 254 254 245
0.45464 -0.30619 -0.72214 254 254 239
0.45850 -0.31650 -0.71949 253 253 243
0.46207 -0.30904 -0.72008 253 254 240
0.46594 -0.31935 -0.71742 253 253 245
0.47026 -0.31188 -0.71918 254 254 243
0.47413 -0.32220 -0.71652 253 253 244
0.66908 -0.41252 -0.55204 245 243 233
0.66248 -0.40974 -0.55500 246 236 230
0.67194 -0.40530 -0.55166 248 243 227
0.67854 -0.40807 -0.54871 252 251 236
0.67825 -0.41543 -0.55221 248 253 250
0.68773 -0.41098 -0.54887 253 249 236
0.68486 -0.41821 -0.54925 252 253 250
-0.69637 0.11907 -1.00556 105 132 73
-0.70521 0.11492 -1.00866 25 28 29
-0.69021 0.11648 -1.00280 104 106 114
-0.67764 0.11352 -1.00799 46 31 54
-0.68032 0.10676 -1.00834 47 45 52
-0.67413 0.10416 -1.00558 44 44 50
-0.65869 0.10809 -1.01123 51 47 63
-0.66761 0.10390 -1.01437 44 43 55
-0.65243 0.10562 -1.00919 59 57 67
-0.64589 0.10471 -1.01478 156 156 92
-0.64023 0.09914 -0.99742 173 139 76
-0.63310 0.10075 -1.01566 213 189 153
-0.62691 0.09776 -1.01104 122 91 126
-0.54862 0.05660 -0.93764 40 29 30
-0.53409 0.05591 -0.95627 129 163 73
-0.52631 0.05631 -0.96983 61 50 64
-0.52276 0.04681 -0.96739 63 57 67
-0.34478 0.00404 -1.00013 65 61 63
-0.35423 -0.00039 -1.00346 71 67 73
-0.33821 0.00126 -0.99709 73 47 58
-0.33047 -0.00054 -1.00035 147 141 133
-0.31248 0.00605 -1.05805 212 212 206
-0.30863 -0.00423 -1.05540 243 243 243
-0.30650 0.00254 -1.05071 240 241 240
-0.30044 -0.00088 -1.04397 250 253 252
-0.29660 -0.01112 -1.04133 253 254 254
-0.09464 -0.08517 -0.96198 254 253 249
-0.10439 -0.08975 -0.96541 254 254 254
-0.09759 -0.09260 -0.96237 254 254 253
-0.08748 -0.08789 -0.96013 240 232 207
-0.06770 -0.09132 -0.97396 41 36 43
-0.11230 -0.11287 -0.80677 119 113 151
-0.05782 -0.09845 -0.95568 227 249 250
-0.05132 -0.10143 -0.95161 237 237 226
-0.05025 -0.10626 -0.93082 207 192 182
-0.04757 -0.11046 -0.91533 182 166 164
-0.03841 -0.11249 -0.91966 200 200 201
0.01443 -0.13080 -0.91410 254 253 241
0.01829 -0.14109 -0.91145 253 253 250
0.02737 -0.13200 -0.92801 254 249 221
0.03867 -0.13371 -0.93706 254 250 226
0.04621 -0.13644 -0.93572 245 228 200
0.05816 -0.13807 -0.94613 133 98 109
0.05092 -0.14448 -0.90545 47 24 53
0.07421 -0.15684 -0.88305 38 41 49
0.07127 -0.16426 -0.88345 40 44 55
0.07806 -0.16711 -0.88041 42 46 54
0.24463 -0.23166 -0.79187 126 133 101
0.25745 -0.23386 -0.80092 219 220 151
0.25526 -0.23762 -0.78019 242 223 153
0.25398 -0.24122 -0.76155 243 216 149
0.25962 -0.24412 -0.75656 240 211 147
0.26327 -0.24719 -0.74778 234 206 144
0.26470 -0.25043 -0.73488 226 197 144
0.27423 -0.25296 -0.73743 204 182 153
0.28372 -0.25552 -0.73983 171 159 146
0.30343 -0.26064 -0.74572 173 150 123
0.30914 -0.26352 -0.74092 184 159 120
0.32160 -0.26594 -0.74842 136 124 115
0.32872 -0.26874 -0.74612 80 97 123
0.32874 -0.27197 -0.73114 199 227 224
0.33590 -0.27475 -0.72901 252 254 245
0.33969 -0.28486 -0.72641 254 253 242
0.65380 -0.41662 -0.54820 246 236 236
0.65007 -0.40667 -0.55076 252 249 232
0.64723 -0.41386 -0.55114 254 251 240
0.67200 -0.42245 -0.54847 211 209 240
0.67477 -0.42498 -0.54089 222 227 253
0.68420 -0.42056 -0.53757 254 253 251
0.68097 -0.42772 -0.53749 230 241 254
0.69040 -0.42330 -0.53417 254 254 251
0.68624 -0.43040 -0.53298 232 249 254
0.69566 -0.42598 -0.52967 254 254 251
0.69296 -0.43317 -0.53022 238 251 254
0.70239 -0.42875 -0.52691 254 254 251
0.70039 -0.43599 -0.52829 243 252 254
0.70982 -0.43157 -0.52498 253 253 250
0.70727 -0.43878 -0.52571 247 253 254
0.71670 -0.43435 -0.52239 252 252 249
0.71513 -0.44163 -0.52426 251 254 254
0.72171 -0.44440 -0.52131 253 254 253
-0.69913 0.11093 -0.99915 28 35 38
-0.70794 0.10680 -1.00225 28 31 41
-0.70180 0.10422 -0.99951 32 33 42
-0.69285 0.11015 -1.00509 29 35 63
-0.68935 0.10081 -1.00269 42 42 49
-0.68663 0.10814 -1.00518 42 38 59
-0.68313 0.09879 -1.00277 42 45 50
-0.64209 0.09654 -1.01882 177 194 181
-0.63582 0.09390 -1.01602 189 196 182
-0.62254 0.09163 -1.02571 96 97 106
-0.61622 0.08898 -1.02289 100 98 106
-0.61896 0.08208 -1.02326 110 102 108
-0.55115 0.05018 -0.93967 82 66 64
-0.54312 0.05151 -0.95831 189 220 131
-0.53751 0.04765 -0.94866 125 134 92
-0.52987 0.04783 -0.96127 69 62 62
-0.32861 -0.00384 -1.02655 199 196 194
-0.31420 -0.00038 -1.06500 238 242 238
-0.31034 -0.01070 -1.06235 239 239 242
-0.30176 -0.00703 -1.05274 247 249 250
-0.29791 -0.01731 -1.05009 253 254 254
-0.08957 -0.09500 -0.96339 249 246 234
-0.09933 -0.09958 -0.96683 254 254 254
-0.08281 -0.09788 -0.96015 204 183 149
-0.08452 -0.10902 -0.90494 57 60 127
-0.06141 -0.10614 -0.95405 208 241 253
-0.05450 -0.10897 -0.95129 251 252 248
-0.04760 -0.11181 -0.94847 245 239 230
-0.04404 -0.11573 -0.93544 237 231 218
-0.04019 -0.12601 -0.93280 254 254 251
-0.03779 -0.11875 -0.93078 241 242 235
-0.03394 -0.12902 -0.92813 254 253 254
-0.03271 -0.12213 -0.92262 251 248 248
-0.02888 -0.13237 -0.91999 253 253 254
-0.03097 -0.12649 -0.90474 254 253 249
-0.02716 -0.13666 -0.90212 253 253 253
0.03408 -0.14165 -0.93307 254 254 246
0.02421 -0.14629 -0.93654 253 253 254
0.04114 -0.14450 -0.93046 238 217 195
0.04143 -0.14900 -0.90968 116 76 72
0.04761 -0.15202 -0.90491 41 25 39
0.05382 -0.15503 -0.90025 35 37 45
0.05768 -0.16534 -0.89760 39 43 53
0.06076 -0.15786 -0.89754 38 42 44
0.06611 -0.16105 -0.89070 38 42 51
0.23343 -0.23636 -0.79218 14 26 40
0.22588 -0.24062 -0.76045 124 154 148
0.23735 -0.24294 -0.76711 228 241 219
0.24418 -0.24573 -0.76445 253 247 222
0.25075 -0.24854 -0.76126 254 248 220
0.25757 -0.25133 -0.75857 253 249 220
0.26487 -0.25408 -0.75681 249 248 212
0.25912 -0.25787 -0.73006 241 226 173
0.27429 -0.25999 -0.74338 210 171 110
0.28309 -0.26263 -0.74444 162 134 91
0.28690 -0.26562 -0.73613 164 156 133
0.29091 -0.26859 -0.72829 195 183 147
0.30350 -0.27100 -0.73627 188 158 102
0.31615 -0.27344 -0.74418 128 87 51
0.32247 -0.27628 -0.74049 61 49 69
0.32667 -0.27923 -0.73301 171 175 182
0.33341 -0.28203 -0.73012 245 252 247
0.33720 -0.29215 -0.72751 254 254 242
0.63755 -0.42062 -0.54302 253 245 242
0.63384 -0.41072 -0.54556 254 253 238
0.63100 -0.41787 -0.54594 254 253 240
0.64414 -0.42337 -0.54015 247 239 235
0.64113 -0.42550 -0.52549 144 116 198
0.65535 -0.42874 -0.53201 104 89 154
0.65684 -0.43114 -0.52297 115 119 183
0.66488 -0.43399 -0.52191 128 151 196
0.67263 -0.43681 -0.52047 128 171 209
0.67731 -0.43942 -0.51537 153 186 221
0.68161 -0.44199 -0.50984 181 201 234
0.69778 -0.44546 -0.51829 201 217 241
0.71179 -0.44879 -0.52407 218 231 252
0.71989 -0.45168 -0.52289 231 240 254
0.72934 -0.44725 -0.51957 254 254 250
0.72823 -0.45459 -0.52195 237 249 254
0.73768 -0.45015 -0.51863 254 254 250
0.73245 -0.45716 -0.51629 242 252 254
0.74190 -0.45273 -0.51297 253 253 251
0.73699 -0.45976 -0.51101 247 253 254
0.74642 -0.45533 -0.50770 253 251 248
0.73779 -0.46203 -0.50154 251 254 253
0.74718 -0.45762 -0.49823 252 251 236
0.74159 -0.46454 -0.49551 253 253 247
0.75096 -0.46014 -0.49221 250 247 226
0.74519 -0.46702 -0.48931 249 242 233
0.75455 -0.46263 -0.48601 251 249 233
0.74889 -0.47690 -0.48676 249 235 221
0.74919 -0.46954 -0.48358 249 243 232
0.75853 -0.46515 -0.48029 253 250 235
0.75570 -0.47227 -0.48067 252 250 237
-0.69554 0.10314 -1.00417 37 38 49
-0.66416 0.09398 -1.00944 50 48 60
-0.64495 0.08893 -1.01536 140 140 174
-0.55994 0.04614 -0.94333 48 71 73
-0.55343 0.04430 -0.94472 134 120 106
-0.54823 0.03967 -0.93065 200 230 167
-0.54020 0.04087 -0.94902 122 145 108
-0.31801 -0.00852 -1.06077 242 245 246
-0.31416 -0.01881 -1.05812 244 247 249
-0.08496 -0.10504 -0.96319 235 222 184
-0.09406 -0.11349 -0.90830 109 75 56
-0.08454 -0.11531 -0.91453 42 45 100
-0.06463 -0.11368 -0.95362 197 232 249
-0.05760 -0.11648 -0.95122 254 254 254
-0.05374 -0.12680 -0.94857 254 254 254
-0.05070 -0.11932 -0.94842 254 253 251
-0.04684 -0.12964 -0.94577 254 254 254
-0.04369 -0.12212 -0.94597 254 253 248
-0.03982 -0.13245 -0.94331 253 253 254
0.02672 -0.15026 -0.92141 254 254 252
0.01691 -0.15486 -0.92486 252 252 253
0.03251 -0.15339 -0.91547 234 215 203
0.04244 -0.15553 -0.92077 113 76 72
0.04305 -0.15984 -0.90102 39 28 40
0.04691 -0.17014 -0.89837 35 41 53
0.04939 -0.16281 -0.89673 36 41 51
0.06268 -0.16859 -0.88983 42 45 62
0.07246 -0.17507 -0.87406 46 44 57
0.08216 -0.17052 -0.87064 41 43 48
0.07922 -0.17791 -0.87103 40 41 51
0.22146 -0.24112 -0.79084 12 14 27
0.21474 -0.23830 -0.79384 24 24 26
0.21183 -0.24564 -0.79423 26 24 28
0.22737 -0.24402 -0.78617 16 27 61
0.22188 -0.24798 -0.75857 126 156 164
0.23332 -0.25033 -0.76522 228 242 227
0.24030 -0.25311 -0.76286 252 248 234
0.24694 -0.25591 -0.75985 251 251 236
0.25429 -0.25865 -0.75820 246 244 222
0.25559 -0.26186 -0.74484 231 216 189
0.26012 -0.26480 -0.73783 208 179 154
0.26982 -0.26737 -0.74074 182 150 115
0.27637 -0.27016 -0.73760 155 133 91
0.28228 -0.27300 -0.73327 155 147 121
0.28709 -0.27589 -0.72691 186 186 147
0.29240 -0.27875 -0.72155 226 210 143
0.30751 -0.28107 -0.73410 187 152 88
0.31956 -0.28360 -0.74087 77 52 50
0.31715 -0.28685 -0.72150 165 149 162
0.32918 -0.28940 -0.72813 242 252 247
0.33297 -0.29951 -0.72553 254 254 243
0.61992 -0.42448 -0.53596 254 253 239
0.61624 -0.41465 -0.53849 254 254 243
0.61342 -0.42175 -0.53887 254 254 245
0.61060 -0.42886 -0.53924 254 254 245
0.62643 -0.42722 -0.53305 248 235 237
0.63825 -0.43031 -0.53674 229 213 213
0.64691 -0.43548 -0.52553 22 19 46
0.65060 -0.44533 -0.52300 43 42 39
0.65461 -0.43830 -0.52407 23 23 56
0.65830 -0.44816 -0.52153 42 38 43
0.66332 -0.44120 -0.52382 22 26 69
0.67135 -0.44406 -0.52271 16 36 100
0.68310 -0.44721 -0.52601 39 55 126
0.69124 -0.45009 -0.52497 66 69 146
0.70165 -0.45317 -0.52656 93 100 163
0.69660 -0.45715 -0.49951 132 153 209
0.71229 -0.46067 -0.50722 144 182 218
0.71811 -0.46551 -0.49310 201 215 242
0.73293 -0.46900 -0.49963 222 229 249
0.73563 -0.47140 -0.49237 241 243 252
0.73937 -0.47388 -0.48633 249 249 241
0.74306 -0.48373 -0.48379 247 233 220
-0.70453 0.09612 -0.99299 22 25 41
-0.70719 0.08943 -0.99334 10 11 24
-0.69835 0.09434 -0.99420 30 32 41
-0.69218 0.09220 -0.99366 34 41 34
-0.68596 0.09040 -0.99485 34 38 38
-0.67715 0.09454 -0.99175 42 43 51
-0.67960 0.08965 -1.00136 34 38 49
-0.67317 0.08900 -1.00853 36 40 52
-0.66681 0.08745 -1.01116 47 46 55
-0.63308 0.08602 -1.05833 111 116 118
-0.58657 0.05166 -0.96509 92 90 94
-0.58067 0.04828 -0.95809 87 88 90
-0.56880 0.04192 -0.94603 65 64 45
-0.56332 0.03779 -0.93467 136 164 57
-0.55592 0.03795 -0.94732 219 208 151
-0.55131 0.03207 -0.92600 215 240 182
-0.54449 0.03089 -0.93120 120 134 86
-0.54100 0.02159 -0.92880 64 67 68
-0.32275 -0.01736 -1.05141 249 251 252
-0.31891 -0.02760 -1.04878 252 253 254
-0.09640 -0.12058 -0.91045 178 156 124
-0.09028 -0.12356 -0.90571 59 54 81
-0.07145 -0.12239 -0.94166 195 225 244
-0.06262 -0.12459 -0.94512 254 254 254
-0.05876 -0.13487 -0.94247 254 254 254
0.01693 -0.15936 -0.90292 253 253 253
0.00720 -0.16392 -0.90634 252 252 253
0.02773 -0.16128 -0.91089 230 215 210
0.03941 -0.16304 -0.92102 110 77 75
0.05427 -0.17288 -0.89677 35 43 53
0.05773 -0.17643 -0.88503 55 65 77
0.06047 -0.18008 -0.87158 84 93 102
0.07064 -0.18225 -0.87730 73 73 79
0.07275 -0.18597 -0.86249 43 39 50
0.08241 -0.18144 -0.85909 35 37 50
0.07949 -0.18880 -0.85948 33 35 52
0.07657 -0.19617 -0.85987 35 34 49
0.21285 -0.24900 -0.77949 15 14 39
0.20328 -0.25349 -0.78286 27 25 31
0.21795 -0.25194 -0.77328 23 31 73
0.22394 -0.25480 -0.76892 131 158 171
0.22978 -0.25767 -0.76430 230 245 231
0.23741 -0.26039 -0.76325 253 252 237
0.24351 -0.26323 -0.75916 236 228 224
0.25428 -0.26574 -0.76422 209 191 184
0.25936 -0.26866 -0.75810 193 170 143
0.26331 -0.27164 -0.74988 181 154 124
0.26678 -0.27463 -0.74081 174 145 117
0.27406 -0.27738 -0.73905 176 145 115
0.27840 -0.28030 -0.73176 180 155 141
0.28230 -0.28323 -0.72372 196 191 177
0.28517 -0.28619 -0.71387 239 232 202
0.29743 -0.28869 -0.72132 216 200 169
0.30118 -0.29871 -0.71874 78 49 111
0.31070 -0.29119 -0.73043 87 73 113
0.31432 -0.29411 -0.72196 169 159 172
0.32453 -0.29677 -0.72538 244 252 244
0.32831 -0.30686 -0.72278 252 252 240
0.61303 -0.43130 -0.53121 252 248 239
0.61843 -0.43395 -0.52696 246 236 228
0.62893 -0.43697 -0.52906 180 151 178
0.63499 -0.43966 -0.52561 47 14 27
0.64277 -0.44249 -0.52429 37 36 40
0.64646 -0.45233 -0.52176 41 43 44
0.66792 -0.45115 -0.52236 36 29 52
0.65857 -0.45554 -0.52566 41 41 47
0.66509 -0.45828 -0.52274 44 40 45
0.67162 -0.46102 -0.51982 42 40 34
0.67622 -0.45404 -0.52156 25 24 46
0.67992 -0.46393 -0.51902 39 39 28
0.68455 -0.45694 -0.52077 20 21 45
0.68826 -0.46684 -0.51822 38 35 27
0.69343 -0.45989 -0.52061 19 18 46
0.69715 -0.46981 -0.51806 34 30 31
0.70015 -0.46266 -0.51787 17 18 59
0.70387 -0.47258 -0.51532 31 28 40
0.70694 -0.46543 -0.51521 14 20 79
0.71486 -0.46831 -0.51386 18 39 109
0.72484 -0.47139 -0.51486 52 65 146
0.73142 -0.47415 -0.51192 88 83 169
0.68048 -0.47139 -0.44363 126 123 203
0.71376 -0.47667 -0.47124 186 190 238
0.73301 -0.48065 -0.48274 232 237 242
0.74097 -0.48559 -0.47134 252 250 237
0.75025 -0.48123 -0.46808 253 252 234
0.74744 -0.48831 -0.46845 253 252 238
0.74464 -0.49539 -0.46882 254 253 238
-0.70108 0.08655 -0.98905 13 12 20
-0.69761 0.07729 -0.98667 15 10 20
-0.69492 0.08451 -0.98901 14 14 23
-0.69145 0.07524 -0.98662 14 9 15
-0.68872 0.08267 -0.99004 16 14 26
-0.68525 0.07339 -0.98765 11 9 12
-0.68254 0.08052 -0.98949 16 17 33
-0.67906 0.07122 -0.98710 12 8 17
-0.67630 0.07873 -0.99082 19 19 40
-0.65612 0.08091 -1.03480 62 69 78
-0.64209 0.08251 -1.06580 76 82 99
-0.63845 0.07281 -1.06330 40 45 71
-0.59555 0.04721 -0.96669 97 109 109
-0.58942 0.04443 -0.96291 91 103 106
-0.58370 0.04063 -0.95341 84 92 99
-0.57210 0.03369 -0.93794 144 160 167
-0.56620 0.03057 -0.93213 198 235 170
-0.56010 0.02795 -0.92909 215 246 195
-0.55397 0.02537 -0.92635 202 242 173
-0.54735 0.02377 -0.92925 104 120 62
-0.54387 0.01448 -0.92686 39 44 68
-0.08523 -0.12320 -0.95706 226 217 200
-0.09776 -0.13232 -0.89115 98 108 135
-0.06614 -0.13220 -0.94367 244 254 254
-0.06229 -0.14248 -0.94102 254 254 254
0.00869 -0.16798 -0.88860 253 253 250
-0.00097 -0.17251 -0.89199 252 252 253
0.02333 -0.16905 -0.90733 215 203 198
0.03455 -0.17527 -0.89480 35 30 40
0.03839 -0.18553 -0.89216 32 41 54
0.04935 -0.18072 -0.89198 29 36 59
0.05489 -0.18382 -0.88568 52 54 87
0.05874 -0.19408 -0.88304 90 98 111
0.06084 -0.18683 -0.88048 90 94 117
0.06577 -0.19001 -0.87275 76 73 83
0.06983 -0.19334 -0.86288 43 31 41
0.07365 -0.20353 -0.86026 35 35 49
0.20948 -0.25634 -0.77889 16 18 39
0.19991 -0.26083 -0.78226 26 27 32
0.21616 -0.25914 -0.77591 26 34 60
0.22637 -0.26167 -0.78010 134 160 166
0.22452 -0.26512 -0.75990 231 247 233
0.23158 -0.26788 -0.75776 244 235 222
0.24573 -0.27017 -0.76965 187 163 172
0.24628 -0.27337 -0.75459 146 121 135
0.25564 -0.27600 -0.75689 165 140 128
0.26049 -0.27891 -0.75037 177 149 123
0.26362 -0.28190 -0.74065 184 164 136
0.26897 -0.28476 -0.73525 204 183 149
0.27227 -0.28770 -0.72601 225 206 178
0.27791 -0.29052 -0.72126 241 237 212
0.28487 -0.29328 -0.71898 246 240 219
0.29471 -0.29593 -0.72197 199 171 174
0.30908 -0.30145 -0.71809 177 174 175
0.32010 -0.30410 -0.72298 247 253 243
0.32387 -0.31418 -0.72039 253 252 240
0.59466 -0.43499 -0.52294 254 253 243
0.59101 -0.42524 -0.52545 254 254 246
0.58822 -0.43228 -0.52582 254 254 248
0.58543 -0.43932 -0.52619 254 254 248
0.60151 -0.43772 -0.52058 243 232 234
0.60879 -0.44049 -0.51876 246 236 217
0.61678 -0.44332 -0.51781 105 84 112
0.63048 -0.44662 -0.52389 34 18 18
0.63416 -0.45644 -0.52137 45 43 41
0.63935 -0.44955 -0.52392 40 42 43
0.64303 -0.45938 -0.52139 38 42 38
0.70581 -0.47488 -0.50704 22 23 53
0.69645 -0.47928 -0.51034 36 34 34
0.70298 -0.48203 -0.50742 38 37 40
0.70952 -0.48477 -0.50450 39 37 41
0.71014 -0.47741 -0.50158 18 20 61
0.71384 -0.48728 -0.49904 34 29 35
0.71224 -0.47971 -0.49358 17 13 58
0.71559 -0.48212 -0.48709 8 10 80
0.68407 -0.48095 -0.44117 122 139 193
0.71417 -0.48608 -0.46509 195 203 230
0.73193 -0.48997 -0.47488 238 233 225
0.73767 -0.49262 -0.47117 252 251 241
0.74134 -0.50241 -0.46865 252 250 235
-0.72821 0.08873 -0.99318 35 33 35
-0.72210 0.08667 -0.99297 32 29 29
-0.71600 0.08397 -0.98957 28 24 23
-0.70993 0.08076 -0.98354 21 17 22
-0.70374 0.07983 -0.98921 18 12 17
-0.63573 0.05450 -0.97520 55 58 87
-0.61072 0.04529 -0.97056 92 95 118
-0.60471 0.04215 -0.96476 91 99 108
-0.59917 0.03772 -0.95169 82 88 83
-0.59343 0.03403 -0.94262 71 72 83
-0.58995 0.02476 -0.94024 59 60 70
-0.58739 0.03121 -0.93849 69 68 77
-0.58124 0.02871 -0.93618 93 87 84
-0.57491 0.02664 -0.93634 102 110 146
-0.56889 0.02381 -0.93211 90 100 151
-0.56248 0.02185 -0.93295 91 103 148
-0.55702 0.01786 -0.92190 84 91 127
-0.55161 0.01389 -0.91092 38 47 81
0.00113 -0.17636 -0.87604 253 253 242
-0.00847 -0.18086 -0.87941 252 252 253
0.02361 -0.18009 -0.89490 78 58 58
0.02745 -0.19033 -0.89226 30 30 39
0.02863 -0.18329 -0.88715 29 30 39
0.04286 -0.18883 -0.88300 27 34 60
0.04864 -0.19185 -0.87740 57 63 91
0.06204 -0.19754 -0.87108 69 65 71
0.06500 -0.20103 -0.85842 41 30 37
0.06881 -0.21120 -0.85580 33 35 51
0.20738 -0.26687 -0.76421 30 39 51
0.22220 -0.26908 -0.77792 137 164 141
0.21947 -0.27253 -0.75590 218 233 186
0.23580 -0.27469 -0.77236 195 190 144
0.23726 -0.27782 -0.75898 118 114 114
0.24276 -0.28068 -0.75372 101 102 116
0.25460 -0.28320 -0.76087 161 159 135
0.25028 -0.28656 -0.73658 202 190 155
0.25551 -0.28941 -0.73099 220 206 172
0.26324 -0.29213 -0.73018 240 227 199
0.26883 -0.29495 -0.72531 250 246 221
0.27505 -0.29774 -0.72164 248 248 222
0.28450 -0.30041 -0.72398 211 211 171
0.30371 -0.30278 -0.74422 125 101 97
0.30066 -0.30588 -0.72340 80 58 111
0.30498 -0.30873 -0.71623 202 208 191
0.30873 -0.31875 -0.71365 254 254 242
0.31633 -0.31140 -0.72179 252 252 241
0.32010 -0.32147 -0.71920 253 254 244
0.58824 -0.44173 -0.51870 253 250 237
0.57904 -0.44605 -0.52194 254 254 248
0.59700 -0.44462 -0.51879 234 220 219
0.60357 -0.44734 -0.51609 217 195 189
0.62459 -0.45345 -0.52044 34 28 34
0.62826 -0.46324 -0.51792 46 43 44
0.70701 -0.48861 -0.48087 23 29 59
0.70044 -0.48992 -0.46320 164 193 174
0.70840 -0.49278 -0.46210 189 186 204
0.72011 -0.49606 -0.46516 226 230 223
0.73024 -0.49917 -0.46640 250 250 238
0.73390 -0.50894 -0.46389 252 249 237
-0.73085 0.08167 -0.99150 43 41 48
-0.73959 0.07757 -0.99457 46 48 54
-0.73349 0.07501 -0.99185 46 46 54
-0.72740 0.07245 -0.98912 45 43 52
-0.72475 0.07982 -0.99245 41 38 45
-0.71865 0.07719 -0.98935 39 34 40
-0.71257 0.07412 -0.98401 37 32 36
-0.70644 0.07212 -0.98418 35 29 30
-0.70031 0.07003 -0.98398 34 28 25
-0.69417 0.06776 -0.98284 30 27 20
-0.68802 0.06553 -0.98188 26 24 16
-0.68174 0.06432 -0.98645 25 20 18
-0.64457 0.05036 -0.97837 25 31 53
-0.63828 0.04829 -0.97846 40 36 66
-0.63202 0.04602 -0.97755 49 49 70
-0.62588 0.04330 -0.97407 50 51 65
-0.61385 0.03704 -0.96246 47 47 72
-0.60787 0.03391 -0.95662 49 49 63
-0.60196 0.03064 -0.94991 58 47 57
-0.59594 0.02772 -0.94521 51 55 74
-0.59247 0.01844 -0.94282 70 69 75
-0.58408 0.02155 -0.93380 58 56 71
-0.57813 0.01859 -0.92873 33 41 81
-0.57255 0.01483 -0.91896 33 43 99
-0.56653 0.01213 -0.91536 35 43 100
-0.56038 0.00972 -0.91351 42 51 91
-0.55693 0.00050 -0.91114 64 69 79
-0.55444 0.00685 -0.90894 59 63 81
-0.55100 -0.00235 -0.90657 67 66 81
-0.09320 -0.14364 -0.92567 227 218 193
-0.07633 -0.14829 -0.93069 193 229 246
-0.06693 -0.15038 -0.93604 253 254 254
-0.05722 -0.14582 -0.93262 253 253 253
-0.06016 -0.15323 -0.93301 253 253 253
-0.06309 -0.16063 -0.93340 253 253 253
0.02025 -0.18757 -0.89414 59 53 50
0.02409 -0.19781 -0.89150 31 32 34
0.03291 -0.19342 -0.88573 34 41 51
0.03750 -0.19666 -0.87693 31 42 55
0.04768 -0.19888 -0.88296 66 87 84
0.05578 -0.20150 -0.88338 85 101 99
0.05813 -0.20509 -0.86892 53 51 63
0.06195 -0.21530 -0.86630 29 29 43
0.06157 -0.20846 -0.85748 36 29 43
0.06538 -0.21862 -0.85487 32 34 40
0.20070 -0.27438 -0.75675 33 37 50
0.19123 -0.27883 -0.76008 28 27 32
0.22897 -0.27579 -0.79804 112 125 135
0.23616 -0.27860 -0.79590 156 148 156
0.21579 -0.28297 -0.73839 123 104 93
0.22296 -0.28570 -0.73663 87 82 77
0.23831 -0.28803 -0.75102 108 113 115
0.24965 -0.29060 -0.75724 169 177 157
0.24626 -0.29384 -0.73473 205 213 187
0.25222 -0.29664 -0.73054 217 226 201
0.26094 -0.29933 -0.73163 228 242 213
0.26672 -0.30214 -0.72710 219 230 211
0.27259 -0.30494 -0.72276 192 184 182
0.28612 -0.30751 -0.73272 129 105 111
0.28656 -0.31046 -0.71828 97 43 62
0.29532 -0.31319 -0.71928 162 129 151
0.30595 -0.31589 -0.72361 236 245 227
0.30972 -0.32595 -0.72102 253 254 244
0.58262 -0.44851 -0.51545 251 239 233
0.58903 -0.45120 -0.51259 242 233 213
0.58820 -0.45325 -0.50061 150 120 156
0.60889 -0.45722 -0.51568 48 18 18
0.61773 -0.46015 -0.51578 38 38 47
0.62139 -0.46991 -0.51327 43 42 47
0.69620 -0.49279 -0.48236 21 23 45
0.68974 -0.49007 -0.48524 42 41 35
0.71972 -0.49740 -0.49899 57 74 118
0.70060 -0.49725 -0.46691 180 208 211
0.70179 -0.49935 -0.45814 202 185 197
0.71511 -0.50284 -0.46305 233 238 224
0.71876 -0.51256 -0.46055 253 254 241
0.72203 -0.50559 -0.46073 250 250 235
0.72567 -0.51532 -0.45822 254 253 243
-0.72129 0.07056 -0.98990 45 43 52
-0.73004 0.06645 -0.99297 49 49 56
-0.72394 0.06389 -0.99025 49 47 57
-0.71784 0.06132 -0.98752 50 46 55
-0.71519 0.06793 -0.98684 45 42 48
-0.71173 0.05870 -0.98446 51 46 52
-0.70909 0.06540 -0.98428 46 40 46
-0.70296 0.06320 -0.98349 45 42 40
-0.69681 0.06122 -0.98392 46 44 37
-0.69065 0.05907 -0.98347 44 41 36
-0.68439 0.05772 -0.98739 43 41 37
-0.64731 0.04330 -0.97689 45 45 55
-0.64118 0.04058 -0.97337 55 46 65
-0.63502 0.03798 -0.97056 66 60 73
-0.62889 0.03530 -0.96730 65 64 68
-0.62540 0.02599 -0.96490 71 72 77
-0.62284 0.03234 -0.96236 64 65 64
-0.61936 0.02303 -0.95996 68 70 79
-0.61678 0.02948 -0.95800 64 63 68
-0.61329 0.02018 -0.95561 70 72 75
-0.61078 0.02642 -0.95252 68 68 64
-0.60730 0.01714 -0.95013 70 74 76
-0.60465 0.02384 -0.94974 69 69 67
-0.60117 0.01456 -0.94735 73 71 81
-0.59860 0.02102 -0.94560 69 69 76
-0.59512 0.01175 -0.94321 69 69 85
-0.58667 0.01502 -0.93504 73 70 77
-0.58932 0.00833 -0.93539 66 71 87
-0.58321 0.00576 -0.93266 68 70 81
-0.58091 0.01160 -0.92724 70 71 77
-0.57745 0.00237 -0.92486 73 70 83
-0.57500 0.00862 -0.92198 73 74 85
-0.57154 -0.00060 -0.91961 73 73 81
-0.56910 0.00563 -0.91665 70 74 88
-0.56565 -0.00358 -0.91428 68 71 79
-0.56304 0.00302 -0.91360 63 72 81
-0.55959 -0.00619 -0.91123 64 68 78
-0.54433 -0.00384 -0.91048 62 61 70
-0.55307 -0.00795 -0.91355 68 65 76
-0.54697 -0.01051 -0.91083 63 62 71
-0.53558 0.00026 -0.90740 55 57 64
-0.53822 -0.00640 -0.90775 53 54 67
-0.47567 -0.11081 -0.46974 53 53 63
-0.47847 -0.10333 -0.47166 51 49 60
-0.47353 -0.10541 -0.46946 54 52 65
-0.47781 -0.11620 -0.47003 51 49 51
-0.46860 -0.10748 -0.46725 57 58 67
-0.47074 -0.11288 -0.46754 57 57 67
-0.10717 -0.14946 -0.91455 254 253 249
-0.11384 -0.14666 -0.91753 254 254 254
-0.11673 -0.15395 -0.91791 254 254 254
-0.11006 -0.15675 -0.91493 254 254 253
-0.10255 -0.15287 -0.90482 233 232 208
-0.10530 -0.15834 -0.87124 98 142 134
-0.09214 -0.15925 -0.88960 183 182 194
-0.00929 -0.19191 -0.86384 254 251 238
-0.01882 -0.19638 -0.86719 252 251 252
-0.00000 -0.19419 -0.86820 132 142 156
0.01226 -0.19593 -0.88061 45 45 49
0.01607 -0.20610 -0.87799 34 32 32
0.02665 -0.20141 -0.87713 34 38 40
0.02373 -0.20877 -0.87752 34 37 37
0.03046 -0.21159 -0.87451 29 34 41
0.03084 -0.20468 -0.86735 30 39 51
0.04403 -0.20641 -0.88147 54 68 75
0.05062 -0.20928 -0.87798 61 71 74
0.05364 -0.21271 -0.86527 36 36 50
0.05746 -0.22289 -0.86265 29 31 33
0.18858 -0.28215 -0.73800 39 35 43
0.20065 -0.28459 -0.74640 61 74 98
0.20624 -0.28740 -0.74146 74 80 112
0.20877 -0.29036 -0.73037 81 73 83
0.21928 -0.29293 -0.73536 84 78 78
0.22790 -0.29561 -0.73647 83 87 98
0.23279 -0.29844 -0.73020 91 103 124
0.23766 -0.30126 -0.72392 100 107 145
0.24357 -0.30404 -0.71973 107 112 153
0.24806 -0.30686 -0.71284 127 123 151
0.26283 -0.30939 -0.72554 99 90 122
0.27452 -0.31204 -0.73218 80 54 89
0.27702 -0.31491 -0.72149 106 63 81
0.28754 -0.31762 -0.72579 166 120 133
0.29480 -0.32039 -0.72397 229 224 208
0.29856 -0.33043 -0.72138 253 253 244
0.30363 -0.32315 -0.72501 251 254 241
0.30740 -0.33321 -0.72242 253 253 245
0.56930 -0.45245 -0.51335 254 253 246
0.56568 -0.44278 -0.51583 254 254 248
0.56291 -0.44977 -0.51620 254 254 249
0.56014 -0.45675 -0.51657 254 254 251
0.57643 -0.45520 -0.51145 246 228 233
0.58282 -0.45788 -0.50860 242 232 216
0.59198 -0.46083 -0.50923 86 73 108
0.60121 -0.46379 -0.50991 39 26 28
0.60484 -0.47350 -0.50741 42 42 47
0.60991 -0.46671 -0.50989 41 41 50
0.61356 -0.47644 -0.50739 43 42 45
0.67828 -0.49615 -0.47556 42 40 32
0.67464 -0.48644 -0.47806 42 40 35
0.67186 -0.49345 -0.47843 39 40 35
0.66908 -0.50046 -0.47880 36 38 38
0.67550 -0.50316 -0.47593 35 33 37
0.68503 -0.49888 -0.47307 18 19 44
0.69170 -0.50161 -0.47049 130 130 159
0.68894 -0.50322 -0.45717 190 187 225
0.69985 -0.50644 -0.45945 224 203 211
0.70759 -0.50929 -0.45810 246 245 235
0.71122 -0.51898 -0.45560 254 254 247
-0.70559 0.05679 -0.98528 52 48 52
-0.71436 0.05267 -0.98837 51 53 55
-0.70824 0.05011 -0.98564 53 55 58
-0.70213 0.04754 -0.98291 56 55 60
-0.69947 0.05438 -0.98342 53 50 51
-0.69601 0.04512 -0.98104 57 57 61
-0.69331 0.05228 -0.98327 53 50 50
-0.68984 0.04301 -0.98089 55 56 65
-0.68704 0.05113 -0.98842 51 50 51
-0.68356 0.04183 -0.98602 55 56 60
-0.65009 0.03602 -0.97409 51 48 65
-0.63193 0.02717 -0.95946 78 77 76
-0.62845 0.01789 -0.95707 71 70 79
-0.50771 -0.10403 -0.48130 101 82 51
-0.51050 -0.09657 -0.48322 90 98 87
-0.51264 -0.10196 -0.48351 94 67 63
-0.50557 -0.09864 -0.48102 66 70 76
-0.50064 -0.10072 -0.47882 47 44 53
-0.50277 -0.10611 -0.47910 92 66 41
-0.48161 -0.11309 -0.47981 62 45 27
-0.48442 -0.10559 -0.48174 45 42 52
-0.48657 -0.11101 -0.48203 85 51 38
-0.47880 -0.12060 -0.47788 84 74 45
-0.30885 -0.07193 -1.01084 249 253 254
-0.31264 -0.06181 -1.01344 254 254 254
-0.31554 -0.06912 -1.01382 252 254 254
-0.30596 -0.06462 -1.01045 254 254 254
-0.29927 -0.06743 -1.00746 254 254 254
-0.30225 -0.07479 -1.00740 249 253 254
-0.29267 -0.07029 -1.00403 254 254 254
-0.29326 -0.07622 -1.01596 250 253 253
-0.28362 -0.07170 -1.01257 253 254 254
-0.28284 -0.07689 -1.03112 248 247 250
-0.27312 -0.07233 -1.02771 253 254 254
-0.27606 -0.07974 -1.02810 250 249 252
-0.27899 -0.08715 -1.02849 243 236 242
-0.10507 -0.16003 -0.90642 243 244 237
-0.11460 -0.16450 -0.90977 253 254 254
-0.10263 -0.16398 -0.88967 172 183 184
-0.07594 -0.16601 -0.92682 235 252 254
-0.07211 -0.17622 -0.92420 253 253 252
0.00314 -0.20036 -0.88544 121 118 131
0.03416 -0.21490 -0.86345 32 40 46
0.02455 -0.21942 -0.86683 32 35 41
0.03125 -0.22223 -0.86383 30 36 40
0.03796 -0.22505 -0.86084 31 35 38
0.04149 -0.21762 -0.86211 34 38 43
0.04530 -0.22778 -0.85949 29 31 34
0.04451 -0.22099 -0.84950 28 28 34
0.04829 -0.23110 -0.84690 31 33 35
0.17483 -0.28679 -0.73214 31 30 36
0.17114 -0.27694 -0.73467 31 30 28
0.16831 -0.28405 -0.73505 32 32 31
0.16549 -0.29117 -0.73542 32 32 35
0.18264 -0.28946 -0.73193 48 45 48
0.19830 -0.29176 -0.74781 75 86 87
0.20383 -0.29457 -0.74272 85 97 104
0.20934 -0.29738 -0.73763 88 91 94
0.21691 -0.30010 -0.73670 89 89 85
0.21864 -0.30303 -0.72412 71 72 79
0.23017 -0.30562 -0.73103 47 47 69
0.23981 -0.30829 -0.73407 39 31 58
0.24757 -0.31104 -0.73337 43 26 58
0.25807 -0.31372 -0.73790 65 33 61
0.26483 -0.31650 -0.73518 85 56 71
0.26731 -0.31936 -0.72436 129 103 106
0.27695 -0.32209 -0.72710 197 172 145
0.28767 -0.32483 -0.73175 236 226 214
0.29144 -0.33490 -0.72916 253 253 247
0.29560 -0.32761 -0.73112 251 253 239
0.29937 -0.33769 -0.72853 253 253 247
0.56432 -0.45922 -0.51087 254 252 246
0.55518 -0.46351 -0.51408 254 254 252
0.57145 -0.46197 -0.50898 247 238 233
0.58573 -0.46543 -0.51620 201 181 190
0.58964 -0.46787 -0.51014 57 29 39
0.59775 -0.47074 -0.50943 39 33 48
0.60138 -0.48044 -0.50693 45 43 42
0.67253 -0.50473 -0.46221 26 27 54
0.67133 -0.50648 -0.45066 165 194 163
0.67785 -0.50917 -0.44803 173 164 199
0.68969 -0.51251 -0.45143 216 211 215
0.70054 -0.51575 -0.45364 249 249 243
0.70415 -0.52541 -0.45115 254 254 248
-0.67125 0.03680 -0.98129 50 51 65
-0.68006 0.03267 -0.98439 61 55 65
-0.66516 0.03386 -0.97647 29 35 57
-0.66168 0.02457 -0.97407 33 32 52
-0.65913 0.03071 -0.97044 32 34 55
-0.65301 0.02808 -0.96734 48 41 67
-0.64699 0.02502 -0.96178 67 67 80
-0.52335 -0.10173 -0.49865 54 23 28
-0.52616 -0.09422 -0.50059 32 28 45
-0.52831 -0.09964 -0.50087 38 19 42
-0.52120 -0.09630 -0.49837 30 20 44
-0.51623 -0.09839 -0.49615 43 27 44
-0.51932 -0.10485 -0.48907 82 74 55
-0.51189 -0.10426 -0.50599 159 137 157
-0.50630 -0.10574 -0.50820 228 213 196
-0.50077 -0.10733 -0.50974 251 240 200
-0.49357 -0.10395 -0.50721 95 68 48
-0.49543 -0.10913 -0.50979 254 243 201
-0.48822 -0.10574 -0.50725 95 63 45
-0.49101 -0.11182 -0.50322 254 238 199
-0.48721 -0.11504 -0.49268 229 212 167
-0.47616 -0.11174 -0.53103 152 135 62
-0.32464 -0.07330 -1.01986 249 252 252
-0.32843 -0.06317 -1.02247 254 254 254
-0.33133 -0.07049 -1.02285 252 254 254
-0.32173 -0.06598 -1.01947 254 254 254
-0.31820 -0.07628 -1.01551 237 242 246
-0.31139 -0.07901 -1.01313 223 230 242
-0.30555 -0.08234 -1.00577 225 234 245
-0.30176 -0.09245 -1.00317 205 212 227
-0.10364 -0.17071 -0.89612 217 207 194
-0.10524 -0.17561 -0.86643 166 138 125
-0.08335 -0.17451 -0.91280 228 252 254
-0.07955 -0.18464 -0.91019 253 253 252
-0.01449 -0.20634 -0.86619 254 244 222
-0.00127 -0.21194 -0.86000 43 29 36
0.17064 -0.29397 -0.72966 35 30 40
0.17433 -0.30380 -0.72712 44 32 50
0.17839 -0.29664 -0.72934 48 48 55
0.18208 -0.30649 -0.72681 48 31 46
0.18949 -0.29919 -0.73591 61 73 80
0.19552 -0.30196 -0.73194 57 66 82
0.20303 -0.30467 -0.73098 51 53 65
0.21062 -0.30739 -0.73016 50 47 49
0.21907 -0.31009 -0.73101 47 34 35
0.22868 -0.31277 -0.73409 47 26 28
0.23695 -0.31551 -0.73445 64 39 38
0.23825 -0.31837 -0.72120 100 67 68
0.24621 -0.32111 -0.72095 156 117 94
0.26270 -0.32375 -0.73698 199 176 140
0.26757 -0.32655 -0.73067 225 216 191
0.27901 -0.32930 -0.73675 247 242 217
0.28278 -0.33937 -0.73416 253 253 248
0.28700 -0.33209 -0.73627 253 254 244
0.29078 -0.34218 -0.73367 253 253 248
0.55732 -0.46576 -0.50575 254 249 246
0.54821 -0.47004 -0.50896 254 253 251
0.56484 -0.46855 -0.50441 251 244 228
0.57973 -0.47412 -0.50147 45 21 21
0.58334 -0.48376 -0.49899 47 41 44
0.58816 -0.47702 -0.50122 42 40 47
0.59178 -0.48667 -0.49874 44 42 43
0.65223 -0.50763 -0.45241 20 22 44
0.64590 -0.50497 -0.45523 35 37 38
0.66071 -0.51056 -0.45209 63 74 109
0.66578 -0.51306 -0.44779 180 206 198
0.66970 -0.51541 -0.44221 191 177 192
0.68450 -0.51916 -0.44903 224 231 220
0.68810 -0.52877 -0.44656 253 254 244
0.69369 -0.52220 -0.44940 250 253 246
0.69730 -0.53183 -0.44692 254 254 243
-0.67408 0.02893 -0.97490 55 51 58
-0.68287 0.02481 -0.97799 66 59 68
-0.66799 0.02616 -0.97102 37 37 51
-0.66452 0.01689 -0.96864 31 30 35
-0.65591 0.02016 -0.96047 42 38 60
-0.64988 0.01722 -0.95548 59 54 77
-0.64403 0.01363 -0.94662 76 81 87
-0.64058 0.00443 -0.94425 78 80 94
-0.54645 -0.10024 -0.49783 42 38 44
-0.54924 -0.09277 -0.49975 38 39 46
-0.55138 -0.09816 -0.50004 41 40 51
-0.55352 -0.10356 -0.50032 42 43 52
-0.53938 -0.09692 -0.49535 30 29 35
-0.54365 -0.10770 -0.49591 35 23 38
-0.54116 -0.10186 -0.49880 37 31 40
-0.53621 -0.10394 -0.49660 33 17 38
-0.53013 -0.10468 -0.50394 63 19 55
-0.52462 -0.10617 -0.50608 160 119 149
-0.51814 -0.10662 -0.51579 233 230 202
-0.51530 -0.11422 -0.51384 254 254 254
-0.51428 -0.10995 -0.50456 252 253 238
-0.51145 -0.11751 -0.50261 254 254 254
-0.50882 -0.11158 -0.50583 254 254 252
-0.50599 -0.11915 -0.50388 254 254 254
-0.50313 -0.11300 -0.50866 254 254 254
-0.50029 -0.12059 -0.50671 254 254 254
-0.49758 -0.11460 -0.51026 254 254 254
-0.49473 -0.12221 -0.50831 254 254 254
-0.49306 -0.11718 -0.50445 254 254 254
-0.49021 -0.12478 -0.50249 254 254 254
-0.48804 -0.11930 -0.50216 254 254 243
-0.47923 -0.12456 -0.48953 201 203 168
-0.47207 -0.12120 -0.48701 56 54 59
-0.47424 -0.12666 -0.48730 91 77 65
-0.35743 -0.07159 -1.01401 242 247 253
-0.34379 -0.07692 -1.01008 251 254 253
-0.34091 -0.06966 -1.00970 254 254 254
-0.33370 -0.07745 -1.02621 239 243 247
-0.32742 -0.08054 -1.02090 219 225 232
-0.32277 -0.08463 -1.00695 196 195 212
-0.31492 -0.08671 -1.01021 183 177 208
-0.30889 -0.08991 -1.00382 194 196 219
-0.30511 -0.10000 -1.00122 212 218 229
-0.12233 -0.17757 -0.86872 246 246 245
-0.11197 -0.17934 -0.87846 197 194 183
-0.11005 -0.18325 -0.86037 171 142 100
-0.09185 -0.18318 -0.89513 232 253 254
-0.08809 -0.19322 -0.89254 253 253 252
-0.01806 -0.21373 -0.86462 254 242 215
0.00634 -0.21355 -0.91165 118 84 86
-0.00140 -0.21877 -0.86805 44 27 35
0.03141 -0.25065 -0.75278 30 28 35
0.02778 -0.24098 -0.75527 28 29 34
0.02501 -0.24796 -0.75563 28 28 34
0.03418 -0.24366 -0.75241 27 27 33
0.04057 -0.24634 -0.74955 29 29 32
0.03597 -0.25353 -0.74536 35 34 39
0.04511 -0.24924 -0.74214 31 31 36
0.04234 -0.25621 -0.74251 37 37 41
0.03958 -0.26318 -0.74287 44 43 46
0.15042 -0.29581 -0.72639 40 36 44
0.14675 -0.28603 -0.72891 34 33 38
0.14115 -0.30017 -0.72965 52 50 50
0.15322 -0.28874 -0.72602 31 32 36
0.15841 -0.29847 -0.72675 43 33 43
0.16545 -0.30117 -0.72503 43 27 45
0.19189 -0.30913 -0.73068 47 23 33
0.20122 -0.31180 -0.73344 48 20 23
0.20930 -0.31452 -0.73360 54 27 21
0.21646 -0.31726 -0.73186 82 55 45
0.22326 -0.32002 -0.72939 140 115 86
0.23210 -0.32274 -0.73091 190 170 124
0.24472 -0.32544 -0.73973 215 199 165
0.25002 -0.32824 -0.73422 238 226 190
0.25833 -0.33101 -0.73449 251 245 217
0.26208 -0.34104 -0.73191 253 252 249
0.26732 -0.33379 -0.73602 253 253 239
0.27108 -0.34384 -0.73344 253 252 248
0.27552 -0.33658 -0.73599 253 253 243
0.27929 -0.34665 -0.73340 253 253 249
0.55032 -0.47225 -0.50062 252 241 243
0.57365 -0.48072 -0.49762 43 27 34
0.57726 -0.49033 -0.49515 42 41 43
0.63246 -0.51051 -0.44301 39 37 34
0.62890 -0.50102 -0.44545 36 39 37
0.62618 -0.50788 -0.44582 39 40 42
0.62347 -0.51474 -0.44618 39 42 42
0.64215 -0.51359 -0.44420 17 17 44
0.64845 -0.51623 -0.44140 123 122 157
0.65598 -0.51904 -0.44002 194 188 221
0.66272 -0.52174 -0.43771 227 202 206
0.67647 -0.52539 -0.44339 247 244 235
0.68006 -0.53497 -0.44092 254 254 244
-0.67079 0.01853 -0.96575 48 46 46
-0.65901 0.01123 -0.94720 34 35 53
-0.65318 0.00757 -0.93771 50 45 72
-0.64748 0.00355 -0.92594 67 73 86
-0.54903 -0.10620 -0.49399 44 43 46
-0.55609 -0.10952 -0.49647 45 46 56
-0.55117 -0.11158 -0.49427 41 32 42
-0.53867 -0.10972 -0.49411 58 36 58
-0.53252 -0.11038 -0.50227 192 159 189
-0.52617 -0.11092 -0.51147 247 242 239
-0.52333 -0.11849 -0.50952 254 254 254
-0.52095 -0.11279 -0.51101 254 254 253
-0.51811 -0.12036 -0.50907 254 254 254
-0.48510 -0.12681 -0.50087 254 254 254
-0.49230 -0.13019 -0.50340 254 254 254
-0.48727 -0.13230 -0.50116 254 254 254
-0.48027 -0.12908 -0.49732 254 247 225
-0.47743 -0.13667 -0.49536 217 207 199
-0.35887 -0.07784 -1.02289 235 244 252
-0.35232 -0.08072 -1.01922 238 242 252
-0.34406 -0.08246 -1.02533 223 233 242
-0.33260 -0.08221 -1.04892 200 194 216
-0.33197 -0.08889 -1.01226 171 164 185
-0.32586 -0.09204 -1.00624 164 165 185
-0.31908 -0.09476 -1.00392 173 180 200
-0.31263 -0.09768 -0.99982 195 199 208
-0.13771 -0.18352 -0.85152 253 253 253
-0.14137 -0.17375 -0.85403 253 253 254
-0.14417 -0.18081 -0.85440 253 253 253
-0.14697 -0.18787 -0.85477 253 253 254
-0.13060 -0.18607 -0.85082 234 234 244
-0.12106 -0.18804 -0.85810 138 136 195
-0.11456 -0.19077 -0.85520 183 146 146
-0.09795 -0.19117 -0.88506 243 253 254
-0.09421 -0.20117 -0.88249 253 253 253
-0.02606 -0.22183 -0.85036 254 242 213
0.00339 -0.22100 -0.91204 123 85 81
-0.00768 -0.22658 -0.85896 49 28 38
-0.00391 -0.23664 -0.85637 51 44 51
-0.00030 -0.22927 -0.85802 43 37 47
0.00347 -0.23933 -0.85543 53 53 52
0.01391 -0.24905 -0.77328 42 45 49
0.01026 -0.23933 -0.77579 34 36 40
0.00469 -0.25338 -0.77653 52 53 53
0.01669 -0.24203 -0.77291 34 37 43
0.02312 -0.24473 -0.77004 33 35 40
0.01697 -0.25214 -0.76174 37 40 45
0.02060 -0.26182 -0.75925 46 47 45
0.02104 -0.25508 -0.75292 34 33 39
0.02465 -0.26473 -0.75044 51 52 47
0.15597 -0.30553 -0.72789 60 55 57
0.16470 -0.30819 -0.72975 55 45 52
0.17127 -0.31091 -0.72700 62 43 46
0.18140 -0.31355 -0.73163 109 85 46
0.18482 -0.31636 -0.72232 148 119 56
0.19165 -0.31909 -0.72009 164 132 73
0.20242 -0.32175 -0.72581 177 147 93
0.21608 -0.32441 -0.73717 198 178 136
0.22593 -0.32714 -0.74074 229 220 185
0.23172 -0.32992 -0.73617 249 244 211
0.23546 -0.33991 -0.73360 253 253 247
0.24030 -0.33269 -0.73708 254 251 230
0.24405 -0.34270 -0.73451 253 252 248
0.24761 -0.33547 -0.73548 253 253 237
0.25136 -0.34548 -0.73290 253 252 249
0.25614 -0.33825 -0.73619 253 253 244
0.25990 -0.34829 -0.73361 253 253 250
0.53655 -0.47600 -0.49768 254 252 250
0.53298 -0.46645 -0.50013 254 254 254
0.53024 -0.47335 -0.50050 254 254 254
0.52751 -0.48024 -0.50086 254 254 252
0.54474 -0.47886 -0.49730 251 241 237
0.55921 -0.48438 -0.49399 59 23 39
0.56580 -0.48707 -0.49150 38 34 43
0.56939 -0.49665 -0.48903 42 43 46
0.62076 -0.51617 -0.43279 36 32 36
0.61182 -0.52037 -0.43593 39 43 42
0.63019 -0.51922 -0.43375 30 24 50
0.63833 -0.52210 -0.43315 162 186 161
0.64635 -0.52497 -0.43240 182 170 203
0.65415 -0.52782 -0.43137 221 211 220
0.66835 -0.53156 -0.43761 249 247 244
0.67192 -0.54110 -0.43516 254 254 246
-0.67366 0.01042 -0.95737 60 61 72
-0.68238 0.00633 -0.96044 72 65 70
-0.66758 0.00787 -0.95468 31 30 49
-0.64459 -0.00765 -0.91044 76 78 87
-0.63601 -0.00362 -0.90743 76 75 83
-0.63861 -0.01017 -0.90777 75 72 86
-0.64120 -0.01671 -0.90811 73 73 90
-0.53976 -0.11387 -0.50366 183 136 178
-0.53354 -0.11452 -0.51226 248 242 247
-0.53071 -0.12208 -0.51032 254 254 254
-0.52853 -0.11660 -0.51013 254 254 254
-0.52570 -0.12416 -0.50818 254 254 254
-0.35061 -0.08494 -1.04646 173 170 225
-0.34565 -0.08893 -1.03320 160 158 205
-0.34464 -0.09533 -0.99813 154 150 188
-0.33120 -0.10077 -0.99336 166 169 177
-0.31691 -0.10575 -0.99290 197 197 204
-0.31315 -0.11579 -0.99032 246 248 250
-0.14332 -0.19128 -0.84227 249 249 249
-0.13159 -0.19271 -0.85730 210 201 215
-0.13244 -0.19714 -0.82992 114 73 162
-0.10153 -0.19855 -0.88310 252 253 254
-0.03279 -0.22963 -0.83962 253 245 223
-0.04220 -0.23405 -0.84293 252 250 252
0.01024 -0.25618 -0.77136 52 55 54
0.00104 -0.26050 -0.77460 59 59 53
0.00746 -0.26320 -0.77173 60 61 51
0.01374 -0.25918 -0.76092 47 50 50
0.01736 -0.26886 -0.75843 52 44 33
0.12730 -0.30172 -0.74001 49 48 39
0.12363 -0.29192 -0.74253 46 46 43
0.11801 -0.30609 -0.74328 50 28 19
0.13011 -0.29464 -0.73964 49 49 42
0.12449 -0.30881 -0.74038 49 27 19
0.13659 -0.29736 -0.73674 50 50 44
0.13463 -0.30442 -0.73896 48 49 43
0.14244 -0.30710 -0.73895 49 50 44
0.14886 -0.30983 -0.73587 48 50 45
0.15490 -0.31257 -0.73199 51 52 51
0.16273 -0.31527 -0.73193 44 38 45
0.16736 -0.31804 -0.72508 76 53 65
0.18647 -0.32055 -0.74846 163 155 118
0.18701 -0.32340 -0.73304 225 222 157
0.19750 -0.32610 -0.73821 242 232 177
0.20546 -0.32885 -0.73810 248 237 195
0.21276 -0.33161 -0.73663 252 246 217
0.21649 -0.34156 -0.73406 252 252 250
0.22133 -0.33437 -0.73765 253 253 238
0.22507 -0.34435 -0.73508 252 252 250
0.22928 -0.33714 -0.73739 253 253 244
0.23303 -0.34713 -0.73481 252 252 250
0.53116 -0.48259 -0.49455 254 249 248
0.52213 -0.48682 -0.49773 254 254 250
0.53955 -0.48548 -0.49446 251 240 226
0.55158 -0.49071 -0.48808 45 27 23
0.61164 -0.52209 -0.42557 22 26 44
0.62327 -0.52546 -0.42916 69 69 112
0.63174 -0.52839 -0.42899 184 206 199
0.63802 -0.53102 -0.42625 199 180 185
0.65217 -0.53478 -0.43257 228 229 222
0.65573 -0.54427 -0.43013 253 254 245
0.66066 -0.53774 -0.43230 250 252 246
0.66422 -0.54724 -0.42986 254 254 244
-0.67043 -0.00004 -0.94711 56 52 59
-0.66700 -0.00921 -0.94475 35 31 40
-0.55291 -0.11648 -0.49818 18 27 41
-0.55785 -0.11441 -0.50039 52 50 52
-0.55998 -0.11980 -0.50067 60 57 56
-0.55505 -0.12187 -0.49847 20 26 59
-0.54715 -0.11754 -0.50362 131 104 102
-0.54060 -0.11777 -0.51562 226 235 232
-0.53777 -0.12533 -0.51367 254 254 254
-0.53554 -0.11980 -0.51395 252 254 254
-0.53271 -0.12736 -0.51200 254 254 254
-0.15491 -0.19619 -0.83727 253 253 254
-0.15853 -0.18650 -0.83976 253 253 253
-0.16131 -0.19350 -0.84013 253 253 253
-0.16408 -0.20049 -0.84050 253 253 253
-0.14860 -0.19890 -0.83406 237 235 242
-0.12550 -0.19775 -0.88788 153 141 188
-0.13599 -0.20432 -0.82770 129 79 132
