ply
format ascii 1.0
element face 0
property list uchar int vertex_indices
element vertex 1311
property float x
property float y
property float z
property uchar diffuse_red
property uchar diffuse_green
property uchar diffuse_blue
end_header
0.61800 0.33446 -0.87833 34 41 53
0.63090 0.33354 -0.88083 31 33 54
0.63654 0.32122 -0.87878 26 22 30
0.64650 0.33395 -0.88672 25 32 49
0.65217 0.32158 -0.88467 30 17 28
0.65608 0.33126 -0.88482 26 29 51
0.66722 0.32935 -0.88488 30 29 42
0.72384 0.31261 -0.87195 29 25 47
0.73267 0.30951 -0.86901 20 22 36
0.74093 0.30614 -0.86539 21 21 44
0.74854 0.30248 -0.86100 20 19 46
0.75856 0.29994 -0.85950 20 22 36
0.77027 0.29814 -0.85997 19 25 24
0.78223 0.29644 -0.86068 21 24 28
0.79481 0.29498 -0.86208 23 22 38
0.80734 0.29348 -0.86336 22 21 43
0.81758 0.29094 -0.86195 21 20 38
0.82541 0.28735 -0.85775 18 21 24
0.98105 0.21644 -0.77538 27 31 30
0.98673 0.20404 -0.77332 23 27 34
1.08166 0.15369 -0.69031 80 98 119
1.08725 0.14151 -0.68828 142 162 181
1.26604 0.09000 -0.63095 226 199 177
1.27248 0.08633 -0.62616 237 197 183
1.33422 0.05468 -0.58685 173 138 75
1.33129 0.04564 -0.58786 238 221 190
1.29957 0.04111 -0.54993 98 93 72
1.30503 0.02920 -0.54794 105 80 101
-0.16409 0.47316 -0.90007 254 254 254
-0.16920 0.48431 -0.90192 254 254 254
-0.17189 0.47600 -0.90285 254 254 254
-0.16139 0.48147 -0.89914 254 254 254
-0.15359 0.47863 -0.89636 254 254 254
-0.16135 0.46472 -0.88498 251 254 254
-0.15091 0.47017 -0.88130 254 254 254
-0.15614 0.45911 -0.87608 241 254 254
-0.14573 0.46454 -0.87240 254 254 254
-0.15107 0.44805 -0.87424 125 108 198
-0.15569 0.44842 -0.85597 231 251 254
-0.14388 0.43909 -0.84222 216 230 242
-0.14001 0.43236 -0.83075 214 208 242
-0.13239 0.42959 -0.82804 212 187 250
-0.12653 0.42503 -0.82135 214 172 234
-0.12155 0.41417 -0.81954 163 32 85
-0.12223 0.41892 -0.81119 211 154 209
-0.11139 0.41944 -0.81579 208 124 209
-0.09054 0.42978 -0.84234 203 108 194
-0.07797 0.42142 -0.83067 184 65 125
-0.08063 0.41323 -0.83159 185 56 93
-0.06764 0.42681 -0.82703 235 236 246
-0.07029 0.41862 -0.82794 179 68 134
-0.06442 0.41411 -0.82135 178 82 140
-0.06177 0.42228 -0.82044 238 246 248
-0.07649 0.36409 -0.72250 133 38 75
-0.07168 0.35359 -0.72076 125 34 58
-0.05962 0.36068 -0.72165 121 37 64
-0.06216 0.35283 -0.72253 103 52 56
-0.02860 0.36952 -0.74875 164 135 152
-0.01398 0.37296 -0.76013 233 234 233
-0.00904 0.36219 -0.75834 250 251 248
-0.00424 0.37210 -0.76176 251 250 249
0.00071 0.36131 -0.75996 251 249 242
0.72957 0.76305 -1.74726 119 93 75
0.71424 0.75506 -1.75267 254 245 233
0.72564 0.75091 -1.74861 190 144 139
0.70402 0.68540 -1.59156 82 88 86
0.71440 0.68109 -1.58685 100 106 101
0.74184 0.68833 -1.60971 71 71 74
0.75493 0.68574 -1.60916 57 60 60
0.76834 0.68334 -1.60907 63 52 52
0.79105 0.67577 -1.60229 77 27 29
0.78725 0.66403 -1.60359 201 155 127
0.79827 0.66002 -1.59967 241 210 175
0.81922 0.68284 -1.62507 79 38 50
0.85696 0.68457 -1.64093 81 76 97
0.87204 0.69244 -1.63561 103 57 70
0.86817 0.68049 -1.63694 208 205 198
0.54469 0.36530 -0.93172 63 20 20
0.54149 0.35556 -0.91220 28 34 60
0.54713 0.34325 -0.91015 56 7 16
0.53943 0.32350 -0.85075 45 56 68
0.54594 0.31943 -0.84519 46 63 66
0.55145 0.30740 -0.84319 63 41 50
0.55790 0.31823 -0.84690 49 61 74
0.56530 0.31462 -0.84253 59 107 136
0.61863 0.32715 -0.88404 41 28 26
0.61566 0.31797 -0.88506 62 26 28
0.63137 0.32611 -0.88631 33 28 28
0.65484 0.31548 -0.87399 35 16 20
0.64324 0.30943 -0.87809 76 45 33
0.65187 0.30630 -0.87501 90 57 39
0.66049 0.30316 -0.87194 101 71 79
0.66352 0.31237 -0.87098 36 17 18
0.66916 0.30005 -0.86893 109 85 71
0.67683 0.31151 -0.87379 35 16 17
0.68250 0.29915 -0.87174 93 67 20
0.68861 0.30987 -0.87460 30 16 20
0.72046 0.30317 -0.87252 28 18 21
0.72615 0.29075 -0.87045 46 48 53
0.72809 0.29951 -0.86813 26 16 13
0.73625 0.29611 -0.86439 26 13 22
0.74500 0.29298 -0.86138 27 12 28
0.75570 0.29074 -0.86070 27 13 25
0.76763 0.28903 -0.86143 24 17 16
0.77979 0.28740 -0.86239 28 18 18
0.79179 0.28567 -0.86311 29 17 26
0.80432 0.28415 -0.86440 28 15 29
0.81456 0.28161 -0.86299 27 15 24
0.82239 0.27802 -0.85879 25 17 16
0.82950 0.27413 -0.85379 24 19 20
1.01907 0.22207 -0.81827 53 67 71
1.02486 0.20943 -0.81617 23 20 27
1.03911 0.12078 -0.63295 149 164 195
1.04454 0.10892 -0.63097 113 124 166
1.31321 0.11638 -0.71591 101 120 153
1.30741 0.12904 -0.71802 104 138 180
1.30435 0.11960 -0.71907 96 119 168
1.30129 0.11016 -0.72012 97 127 190
1.31627 0.12581 -0.71486 111 133 160
1.29623 0.10615 -0.69087 85 100 130
1.28639 0.09249 -0.66169 129 145 182
-0.19320 0.49390 -0.94752 254 254 254
-0.19838 0.50522 -0.94941 253 254 254
-0.20112 0.49678 -0.95035 254 254 254
-0.19047 0.50234 -0.94658 254 254 254
-0.18255 0.49946 -0.94376 254 254 254
-0.18989 0.48565 -0.93288 252 254 254
-0.17930 0.49117 -0.92914 254 254 254
-0.19018 0.47337 -0.90935 241 253 254
-0.17969 0.47884 -0.90564 254 254 254
-0.18238 0.47053 -0.90657 221 250 254
-0.17469 0.46757 -0.90351 204 245 252
-0.17169 0.45939 -0.88892 194 230 240
-0.16143 0.45932 -0.89224 180 187 229
-0.15633 0.44820 -0.89039 21 24 88
-0.16878 0.44002 -0.85293 153 140 232
-0.16483 0.42238 -0.82059 108 81 154
-0.12802 0.45039 -0.88649 107 53 124
-0.12291 0.43924 -0.88464 123 49 69
-0.11811 0.44974 -0.88860 106 29 99
-0.11299 0.43857 -0.88674 125 48 74
-0.11288 0.44424 -0.87988 118 21 111
-0.10777 0.43310 -0.87802 147 57 69
-0.10506 0.44143 -0.87714 146 29 102
-0.09570 0.42955 -0.85764 170 30 96
-0.09063 0.41848 -0.85580 185 79 94
-0.09393 0.42086 -0.84164 178 39 104
-0.08527 0.41899 -0.84100 184 52 97
-0.07535 0.40814 -0.82366 181 66 92
-0.07800 0.39998 -0.82456 149 66 61
-0.07033 0.39719 -0.82183 123 44 67
-0.04046 0.36270 -0.74871 165 151 151
-0.02767 0.36459 -0.75662 221 227 225
-0.01562 0.36575 -0.76293 243 247 249
0.72632 0.73915 -1.72639 95 40 49
0.71108 0.73120 -1.73177 254 238 205
0.73160 0.71878 -1.68929 61 49 44
0.73188 0.70713 -1.66715 66 44 42
0.71793 0.67444 -1.60004 91 68 74
0.74563 0.68172 -1.62330 71 35 47
0.75238 0.67486 -1.61248 62 23 24
0.76871 0.67436 -1.61705 83 50 62
0.80917 0.68955 -1.65971 136 100 97
0.80300 0.65202 -1.58600 208 171 126
0.87095 0.68387 -1.66975 135 97 102
0.54967 0.35251 -0.92870 51 8 19
0.55634 0.34044 -0.90790 59 15 19
0.56095 0.33516 -0.89938 62 18 22
0.53707 0.31482 -0.85249 63 27 29
0.54301 0.31045 -0.84616 63 38 35
0.56735 0.30820 -0.85009 64 58 113
0.57650 0.30548 -0.84799 64 46 85
0.62839 0.31691 -0.88734 61 21 16
0.64053 0.31551 -0.88878 66 41 32
0.72294 0.29646 -0.88025 42 43 47
0.78006 0.30823 -0.92203 47 55 66
0.79938 0.30970 -0.93136 50 60 75
0.82010 0.31172 -0.94222 51 66 78
0.83903 0.31285 -0.95077 55 71 81
0.84722 0.30916 -0.94651 57 72 83
0.88364 0.31051 -0.96138 67 74 95
0.91017 0.31465 -0.97826 69 74 99
1.05249 0.23226 -0.86910 76 85 123
1.00965 0.21036 -0.81281 47 52 76
1.01542 0.19775 -0.81071 18 17 28
1.32947 0.11215 -0.73343 105 132 188
1.31745 0.10589 -0.73768 98 146 224
1.31932 0.09823 -0.70343 60 91 150
1.32510 0.08562 -0.70133 100 142 202
-0.20968 0.51907 -1.00834 245 252 253
-0.19880 0.52474 -1.00450 252 252 253
-0.20631 0.51038 -0.99279 235 253 254
-0.19549 0.51603 -0.98897 254 254 254
-0.20554 0.49872 -0.97063 215 249 254
-0.20473 0.48730 -0.94896 197 237 254
-0.20171 0.47869 -0.93345 193 230 254
-0.19435 0.47524 -0.92933 186 204 249
-0.19231 0.46571 -0.91173 152 134 220
-0.17724 0.47110 -0.92724 99 100 174
-0.16129 0.47727 -0.94458 54 64 144
-0.15609 0.46592 -0.94270 70 50 71
-0.15861 0.46856 -0.92876 24 35 106
-0.15324 0.46292 -0.91976 19 23 85
-0.13888 0.45570 -0.91080 33 31 83
-0.14160 0.44732 -0.91173 67 59 52
-0.13373 0.44446 -0.90893 73 64 51
-0.13263 0.45114 -0.90418 61 43 74
-0.12749 0.43992 -0.90231 104 62 65
-0.12622 0.44678 -0.89798 105 48 71
-0.12109 0.43558 -0.89612 121 56 69
-0.09821 0.42146 -0.85893 180 75 78
-0.08754 0.41116 -0.84278 180 75 87
-0.08420 0.40417 -0.83049 169 74 78
-0.07346 0.34643 -0.72319 119 70 55
-0.05851 0.35042 -0.73598 185 177 158
-0.05366 0.33983 -0.73422 211 220 222
-0.04110 0.35643 -0.75350 220 224 214
-0.03620 0.34573 -0.75172 212 213 215
-0.03213 0.35498 -0.75379 216 220 222
-0.02722 0.34427 -0.75201 212 215 219
-0.02182 0.35465 -0.75668 226 228 229
-0.01690 0.34391 -0.75490 234 238 241
0.19156 0.40561 -0.92779 206 168 153
0.18613 0.41744 -0.92976 206 164 132
0.18328 0.40862 -0.93074 212 207 185
0.19441 0.41443 -0.92681 213 193 191
0.20269 0.41141 -0.92386 243 246 253
0.20398 0.40567 -0.93217 229 214 212
0.21516 0.41149 -0.92822 253 254 254
0.21229 0.40264 -0.92921 249 253 254
0.71097 0.70704 -1.68530 99 53 45
0.69592 0.69919 -1.69061 254 248 218
0.70711 0.69512 -1.68662 254 243 205
0.71830 0.69105 -1.68264 254 245 212
0.70275 0.68953 -1.64882 85 64 73
0.71000 0.67372 -1.64619 254 248 213
0.68138 0.66327 -1.59101 111 86 76
0.69004 0.65781 -1.58349 126 95 65
0.73622 0.64384 -1.57247 250 231 194
0.74334 0.62831 -1.56989 254 254 254
0.75678 0.64617 -1.58399 254 251 223
0.76394 0.63055 -1.58139 254 254 254
0.77998 0.65007 -1.59945 254 254 233
0.78719 0.63435 -1.59683 254 254 254
0.79283 0.62549 -1.55660 207 174 162
0.59842 0.36335 -0.98606 205 122 174
0.60426 0.35062 -0.98394 253 246 248
0.58772 0.34962 -0.95600 226 156 175
0.56348 0.32891 -0.90789 235 185 175
0.57976 0.32213 -0.90043 230 214 174
0.60805 0.32151 -0.90893 230 218 201
0.63250 0.32634 -0.92660 230 216 193
0.65557 0.33034 -0.94220 230 209 178
0.67347 0.33164 -0.95084 230 194 171
0.78886 0.32638 -0.98029 92 100 105
0.79360 0.32106 -0.97169 90 115 131
0.79954 0.30809 -0.96953 93 120 169
0.80430 0.31850 -0.97043 92 116 140
0.81659 0.31665 -0.97108 93 116 146
0.82741 0.31411 -0.96991 100 118 149
0.83595 0.31054 -0.96598 102 114 149
0.84122 0.30553 -0.95817 101 112 149
0.84901 0.30166 -0.95340 99 111 151
0.85746 0.29809 -0.94942 98 108 150
0.87062 0.29653 -0.95095 96 106 153
0.89391 0.29926 -0.96418 94 104 157
0.91984 0.30300 -0.98025 94 105 159
0.96145 0.30586 -1.00001 86 119 162
1.03056 0.23556 -0.88858 40 51 94
1.03375 0.23011 -0.87920 65 75 117
1.04483 0.22101 -0.86550 63 65 98
1.03239 0.21011 -0.84029 30 25 53
1.03825 0.19734 -0.83816 15 19 27
1.33581 0.10515 -0.74255 108 150 221
1.32375 0.09886 -0.74681 99 151 233
1.31751 0.08915 -0.70553 75 84 146
1.31102 0.07652 -0.67902 195 204 194
1.34512 0.06895 -0.67616 233 216 192
1.35692 0.07510 -0.67199 244 239 231
1.35389 0.06576 -0.67303 238 224 215
-0.46512 0.61639 -1.12650 253 248 235
-0.45977 0.60472 -1.12455 254 254 254
-0.45647 0.61432 -1.12549 254 253 248
-0.45112 0.60264 -1.12355 254 254 254
-0.27179 0.56990 -1.10374 247 241 245
-0.26060 0.57573 -1.09979 253 254 254
-0.26347 0.56688 -1.10078 250 248 249
-0.21312 0.50966 -1.00752 168 161 233
-0.22282 0.48519 -0.95678 139 125 215
-0.21215 0.48561 -0.96130 85 88 173
-0.20695 0.47426 -0.95942 69 46 68
-0.19110 0.48587 -0.96913 24 29 92
-0.18180 0.48448 -0.96968 24 31 90
-0.17344 0.48198 -0.96775 29 29 96
-0.16820 0.47055 -0.96585 76 60 71
-0.16685 0.47748 -0.96132 45 41 95
-0.16162 0.46606 -0.95942 74 58 71
-0.16092 0.47228 -0.95333 60 46 85
-0.15570 0.46089 -0.95143 73 59 62
-0.15439 0.45624 -0.92453 71 53 58
-0.15712 0.44783 -0.92547 70 60 52
-0.14923 0.44496 -0.92266 68 59 58
-0.10123 0.41287 -0.85906 162 75 90
-0.09934 0.40436 -0.84326 165 69 91
-0.09429 0.39336 -0.84143 116 37 72
-0.09981 0.39370 -0.82246 147 45 76
-0.09481 0.38279 -0.82064 117 43 62
-0.09116 0.35291 -0.74651 130 47 62
-0.09857 0.35561 -0.74915 129 49 59
-0.10113 0.34772 -0.75003 115 48 55
-0.08635 0.34788 -0.73843 118 30 54
-0.08020 0.34408 -0.73322 123 81 61
-0.06959 0.34425 -0.73724 195 198 176
-0.05356 0.34909 -0.75217 205 222 216
0.06030 0.35281 -0.79898 248 253 253
0.05524 0.36386 -0.80082 249 250 251
0.05257 0.35562 -0.80174 252 253 253
0.06297 0.36105 -0.79806 253 254 254
0.05763 0.34456 -0.79990 207 207 217
0.06804 0.34999 -0.79622 238 241 232
0.16149 0.38560 -0.89767 242 238 220
0.19401 0.40073 -0.93825 197 148 146
0.21029 0.40356 -0.94940 202 187 197
0.65851 0.62753 -1.53886 254 238 190
0.65482 0.61615 -1.54013 254 247 230
0.64843 0.59897 -1.48008 172 172 132
0.76534 0.58870 -1.50087 125 116 161
0.62347 0.33703 -0.96432 254 252 247
0.62928 0.32436 -0.96221 254 254 254
0.62922 0.33221 -0.95698 254 252 247
0.63502 0.31956 -0.95488 254 254 254
0.62945 0.32462 -0.94237 254 252 249
0.63522 0.31204 -0.94028 254 254 254
0.63654 0.32056 -0.93697 254 252 248
0.64231 0.30799 -0.93488 254 254 254
0.64135 0.31537 -0.92860 254 252 247
0.64710 0.30283 -0.92651 254 254 254
0.67470 0.32430 -0.95748 254 250 246
0.68053 0.31158 -0.95537 254 254 254
0.70525 0.33165 -0.98234 254 252 246
0.71115 0.31877 -0.98020 254 254 254
0.76300 0.34417 -1.02668 254 253 246
0.76904 0.33101 -1.02449 254 254 254
0.78185 0.34541 -1.03562 254 253 249
0.77266 0.31816 -0.97967 117 95 95
0.78566 0.31666 -0.98128 100 111 138
0.79455 0.31325 -0.97779 99 124 167
0.81728 0.30866 -0.97681 107 131 170
0.82325 0.29563 -0.97464 179 210 228
0.83060 0.30721 -0.97863 152 169 190
0.84181 0.30480 -0.97785 175 177 198
0.85713 0.30416 -0.98196 178 174 198
0.87324 0.30381 -0.98689 174 170 196
0.87927 0.29065 -0.98470 211 226 234
0.88882 0.30319 -0.99110 171 164 193
0.89487 0.28999 -0.98891 214 229 234
0.90241 0.30168 -0.99290 171 165 192
0.93248 0.29976 -0.99964 178 175 196
0.95986 0.30385 -1.01707 144 149 176
1.02565 0.22524 -0.88779 46 49 57
1.02051 0.21682 -0.86971 82 86 99
1.02549 0.21211 -0.86231 85 88 111
1.04471 0.21245 -0.86967 48 51 59
1.32751 0.09423 -0.73916 105 153 232
1.41251 0.08249 -0.74600 254 253 242
1.41845 0.06954 -0.74385 254 254 254
1.40234 0.07445 -0.72690 254 253 237
1.40823 0.06161 -0.72476 254 254 254
-0.48522 0.61179 -1.12936 254 252 245
-0.47988 0.60013 -1.12742 254 254 254
-0.29897 0.55615 -1.08659 249 203 190
-0.28875 0.55595 -1.08982 242 211 215
-0.27628 0.55879 -1.09976 242 221 224
-0.26964 0.55351 -1.09181 249 244 244
-0.25850 0.55932 -1.08788 253 250 223
-0.20222 0.60050 -1.20722 228 121 64
-0.19922 0.60978 -1.20618 242 137 67
-0.19051 0.60661 -1.20308 225 151 139
-0.23183 0.49432 -0.98974 37 30 89
-0.22658 0.48288 -0.98783 71 55 52
-0.22603 0.48870 -0.98084 27 30 91
-0.22081 0.47729 -0.97894 71 58 51
-0.21919 0.48442 -0.97491 34 33 87
-0.21397 0.47303 -0.97301 75 59 52
-0.21276 0.47969 -0.96794 54 40 77
-0.20755 0.46831 -0.96605 73 56 57
-0.18456 0.47596 -0.97062 69 52 59
-0.19532 0.47035 -0.97442 69 55 62
-0.18732 0.46744 -0.97157 68 56 65
-0.17932 0.46453 -0.96872 71 59 69
-0.17620 0.47346 -0.96870 72 57 64
-0.17096 0.46203 -0.96680 78 60 69
-0.11759 0.39125 -0.82909 117 39 57
-0.11259 0.38033 -0.82727 118 43 53
-0.12191 0.37692 -0.79962 118 35 61
-0.11697 0.36614 -0.79783 115 41 61
-0.09344 0.34528 -0.74799 109 29 60
-0.08874 0.34015 -0.73964 114 89 97
-0.08075 0.33799 -0.73825 172 191 159
-0.07255 0.33601 -0.73729 185 177 185
-0.05228 0.33531 -0.74308 176 189 210
-0.04484 0.33261 -0.74043 214 216 217
-0.04741 0.32468 -0.74131 217 221 221
0.03716 0.34620 -0.79587 242 244 247
0.03211 0.35721 -0.79770 242 244 246
0.02946 0.34900 -0.79861 230 230 231
0.03982 0.35441 -0.79495 245 247 250
0.04778 0.34570 -0.79865 252 253 253
0.14334 0.37448 -0.88847 246 238 241
0.15145 0.37153 -0.88559 254 244 228
0.19258 0.39293 -0.94182 207 169 158
0.63433 0.59161 -1.48506 180 179 154
0.64816 0.59000 -1.48679 121 155 152
0.76079 0.56649 -1.48069 124 147 137
0.79407 0.33505 -1.04120 254 251 250
0.78157 0.32853 -1.04562 254 254 254
0.78523 0.31570 -1.00035 90 94 124
0.78751 0.30924 -0.98855 94 110 146
0.79404 0.30475 -0.98211 93 118 166
0.80000 0.29173 -0.97994 81 105 168
0.80754 0.30340 -0.98424 85 115 172
0.81998 0.30154 -0.98501 115 145 198
0.84897 0.28498 -0.96294 210 223 236
0.92268 0.29436 -1.00725 214 231 236
0.95706 0.29402 -1.01870 169 169 184
0.96322 0.28058 -1.01647 74 84 127
1.02822 0.21762 -0.89487 53 58 61
1.02508 0.20793 -0.89594 49 55 66
1.02789 0.21096 -0.88176 70 76 77
1.03487 0.20693 -0.87637 58 60 76
1.05671 0.20165 -0.87377 21 24 25
1.06265 0.18869 -0.87161 21 27 30
1.26114 0.11883 -0.78443 41 53 115
1.25523 0.13171 -0.78657 72 112 184
1.24901 0.11250 -0.78871 42 40 68
1.26425 0.12843 -0.78336 110 144 202
1.27326 0.12515 -0.78014 140 181 233
1.26674 0.11460 -0.77816 56 88 151
1.27885 0.12091 -0.77389 165 205 242
1.32236 0.08417 -0.73845 116 162 240
1.36412 0.08373 -0.75234 76 93 166
-0.45181 0.59787 -1.13303 252 253 250
-0.44077 0.60363 -1.12914 254 254 254
-0.44643 0.58614 -1.13108 247 236 234
-0.44351 0.59504 -1.13044 252 244 240
-0.43705 0.58894 -1.12079 253 245 240
-0.42732 0.58868 -1.12375 249 229 210
-0.42095 0.58252 -1.11394 249 198 158
-0.40918 0.58566 -1.12432 248 201 176
-0.30526 0.58775 -1.16561 242 98 77
-0.31081 0.59985 -1.16762 222 184 145
-0.31373 0.59083 -1.16862 249 143 83
-0.30234 0.59677 -1.16460 244 179 116
-0.30481 0.54313 -1.07816 244 188 159
-0.29470 0.54282 -1.08117 243 193 185
-0.28110 0.54726 -1.09476 248 221 217
-0.27143 0.54615 -1.09604 251 238 229
-0.21880 0.58794 -1.19693 250 142 87
-0.10178 0.34156 -0.75499 76 46 64
-0.10664 0.35217 -0.75675 117 47 57
-0.10921 0.34426 -0.75763 101 45 58
-0.10435 0.33365 -0.75587 53 46 57
-0.09692 0.33095 -0.75322 71 38 58
-0.09649 0.33694 -0.74782 97 79 80
-0.08473 0.33812 -0.75435 129 131 139
-0.07954 0.33343 -0.74698 103 82 119
-0.06905 0.33340 -0.75069 84 33 91
-0.05430 0.33699 -0.76301 61 30 72
-0.04939 0.32627 -0.76123 214 210 202
-0.06194 0.32134 -0.72954 156 162 169
-0.05710 0.31078 -0.72779 227 227 225
0.02150 0.33655 -0.78929 200 209 220
0.01648 0.34750 -0.79111 243 249 245
0.01383 0.33934 -0.79202 215 222 223
0.01119 0.33117 -0.79293 219 221 217
0.03493 0.33833 -0.79760 230 241 246
0.04453 0.33702 -0.79845 251 248 239
0.07045 0.34836 -0.83000 130 137 188
0.07739 0.34481 -0.82552 105 141 171
0.13809 0.36402 -0.88496 245 245 248
0.14610 0.36101 -0.88193 254 254 247
0.18220 0.37858 -0.92935 233 212 205
0.20396 0.38533 -0.95040 209 153 156
0.21283 0.38266 -0.94833 225 200 204
0.64119 0.58733 -1.50358 198 199 211
0.70987 0.50728 -1.37096 227 245 254
0.79789 0.32841 -1.05121 245 247 234
0.79245 0.31066 -1.01442 72 90 134
0.79213 0.30302 -0.99930 86 110 148
0.79813 0.28993 -0.99712 84 98 155
0.80040 0.29929 -0.99493 90 116 161
0.81689 0.29183 -0.98617 118 107 175
0.82953 0.29002 -0.98715 154 123 186
0.84226 0.28822 -0.98818 159 132 193
0.85785 0.28762 -0.99258 157 147 204
0.86388 0.27446 -0.99039 204 185 192
0.87277 0.28669 -0.99608 156 148 195
0.87882 0.27348 -0.99388 206 185 189
0.96345 0.29520 -1.04526 149 135 154
1.03785 0.20591 -0.89655 53 50 63
1.04221 0.20094 -0.88835 43 41 50
1.05061 0.19739 -0.88440 33 35 37
1.05657 0.18440 -0.88223 26 27 32
1.25803 0.10922 -0.78550 35 41 63
1.24590 0.10290 -0.78978 42 46 61
1.25491 0.09962 -0.78656 44 48 59
1.26393 0.09634 -0.78335 40 49 56
1.26091 0.10426 -0.77679 28 43 75
1.26680 0.09142 -0.77465 44 46 62
1.26891 0.10072 -0.77270 36 48 91
1.27293 0.09612 -0.76509 50 70 147
1.20450 0.07219 -0.69361 57 100 190
1.21617 0.07827 -0.68949 104 157 241
1.21317 0.06904 -0.69052 87 140 226
1.27230 0.07358 -0.72062 158 187 242
1.27808 0.06097 -0.71852 206 219 236
1.28653 0.07176 -0.72214 162 187 241
1.29232 0.05912 -0.72003 214 217 235
1.30239 0.07033 -0.72501 165 186 237
1.31907 0.06908 -0.72851 172 188 225
1.35655 0.06749 -0.73880 105 142 197
1.36243 0.05466 -0.73667 203 218 226
-0.40922 0.58168 -1.13576 251 172 98
-0.39994 0.58037 -1.13655 250 162 120
-0.30739 0.53474 -1.07989 243 178 154
-0.29681 0.53507 -1.08439 247 200 186
-0.28391 0.53850 -1.09587 250 225 213
-0.23961 0.56961 -1.17348 239 118 97
-0.23400 0.55737 -1.17144 245 125 67
-0.22486 0.57466 -1.18883 247 125 77
-0.21532 0.57271 -1.18844 195 131 105
-0.11250 0.33569 -0.75694 76 44 55
-0.08860 0.32904 -0.75247 88 22 54
-0.07788 0.32921 -0.75671 103 21 69
-0.07547 0.32213 -0.74358 122 85 112
-0.07328 0.31496 -0.73018 167 150 143
-0.06845 0.30441 -0.72843 232 233 220
0.01885 0.32838 -0.79020 189 207 214
0.03228 0.33014 -0.79854 222 236 242
0.03733 0.31912 -0.79670 239 245 237
0.03918 0.32670 -0.79425 249 245 225
0.07127 0.34272 -0.83759 145 129 151
0.07945 0.34010 -0.83538 67 81 163
0.08701 0.33700 -0.83198 104 115 169
0.13391 0.35437 -0.88339 245 251 253
0.13920 0.34283 -0.88146 253 254 254
0.14506 0.35368 -0.88607 254 254 253
0.16271 0.35768 -0.90038 253 239 219
0.20846 0.38174 -0.96459 203 149 129
0.21297 0.37591 -0.95468 201 180 179
0.27050 0.40750 -1.03808 242 250 254
0.27620 0.39506 -1.03601 253 254 254
0.61381 0.55011 -1.44481 227 213 225
0.62058 0.53533 -1.44236 254 254 251
0.68257 0.50185 -1.37434 233 224 220
0.72165 0.51510 -1.41474 164 155 171
0.69128 0.48764 -1.34938 179 191 190
0.71533 0.49197 -1.36668 221 245 254
0.72906 0.49913 -1.36183 254 254 254
0.72393 0.48734 -1.36064 245 254 254
0.73765 0.49449 -1.35579 254 254 254
0.73413 0.48362 -1.35700 251 254 254
0.78441 0.32918 -1.06976 254 254 254
0.77827 0.34257 -1.07199 254 254 254
0.77504 0.33258 -1.07310 254 254 254
0.78764 0.33916 -1.06865 254 254 254
0.79878 0.32808 -1.07282 238 253 252
0.84152 0.33995 -1.11181 192 172 212
0.84779 0.32629 -1.10954 86 65 110
0.78664 0.30719 -1.02709 88 74 113
0.79273 0.30241 -1.01985 70 77 107
0.81012 0.28784 -0.99734 70 97 170
0.81471 0.28251 -0.98846 116 114 177
0.82672 0.28041 -0.98866 164 127 167
0.84168 0.27955 -0.99239 185 144 179
0.87033 0.28443 -1.01246 198 174 194
0.92210 0.28414 -1.03067 208 186 188
0.92826 0.27070 -1.02844 122 128 181
0.94639 0.28679 -1.04475 189 161 164
0.95260 0.27326 -1.04250 99 100 144
1.05987 0.23167 -0.97693 38 42 50
1.05373 0.24508 -0.97916 37 44 46
1.05049 0.23509 -0.98027 36 40 46
1.06312 0.24167 -0.97582 35 43 44
1.04318 0.21229 -0.93253 50 54 66
1.04922 0.19910 -0.93033 66 68 78
1.04083 0.19834 -0.90407 55 52 60
1.04473 0.19320 -0.89534 44 41 41
1.05374 0.18985 -0.89199 33 33 34
1.05972 0.17682 -0.88982 24 23 22
1.08451 0.14990 -0.82414 28 36 44
1.10119 0.14909 -0.82858 41 47 57
1.10706 0.13626 -0.82645 54 55 60
1.26964 0.08651 -0.76598 45 46 79
1.25758 0.08022 -0.77024 43 49 53
1.26654 0.07696 -0.76705 47 53 58
1.27551 0.07370 -0.76385 46 49 64
1.27474 0.08223 -0.75937 39 51 101
1.27849 0.07762 -0.75161 47 81 149
1.27366 0.06531 -0.72550 185 214 240
1.31022 0.05815 -0.72462 217 219 224
1.32574 0.05656 -0.72711 175 166 179
1.33495 0.05340 -0.72419 143 149 176
1.70628 0.03315 -0.81899 238 222 189
1.71921 0.03989 -0.81443 139 107 87
1.71589 0.02966 -0.81557 184 132 94
1.71257 0.01942 -0.81671 136 119 79
-0.41511 0.56773 -1.12536 254 173 78
-0.40784 0.56313 -1.11888 250 139 70
-0.39518 0.56747 -1.13219 251 193 159
-0.38255 0.57154 -1.14494 253 244 240
-0.37409 0.56874 -1.14249 254 253 240
-0.31054 0.52556 -1.07986 246 185 160
-0.30055 0.52506 -1.08256 248 204 185
-0.28388 0.53364 -1.10578 239 171 150
-0.26269 0.54800 -1.14220 227 109 75
-0.25549 0.54327 -1.13544 231 91 43
-0.13592 0.35684 -0.80804 122 38 59
-0.14087 0.36763 -0.80983 128 47 54
-0.14608 0.35155 -0.81162 136 53 57
-0.13332 0.36489 -0.80714 121 42 49
-0.12577 0.36214 -0.80445 116 43 55
-0.13578 0.34707 -0.78862 117 36 50
-0.12570 0.35233 -0.78506 109 41 57
-0.13305 0.33988 -0.77528 114 35 42
-0.12901 0.33400 -0.76507 115 37 26
-0.12336 0.32967 -0.75851 111 26 23
-0.11665 0.32634 -0.75435 96 24 29
-0.10795 0.32480 -0.75450 86 41 45
-0.09141 0.32091 -0.75284 152 118 98
-0.08531 0.31705 -0.74740 192 180 146
-0.08045 0.30645 -0.74564 228 225 218
-0.06635 0.32428 -0.76878 227 223 188
-0.05920 0.32124 -0.76536 235 237 216
0.00701 0.32179 -0.79084 203 197 215
0.00200 0.33272 -0.79266 239 239 236
-0.00064 0.32457 -0.79357 200 213 236
0.01202 0.31085 -0.78902 85 69 93
0.02805 0.32070 -0.79643 166 188 212
0.05839 0.32656 -0.81927 208 208 198
0.06719 0.32448 -0.81837 170 159 173
0.12895 0.34417 -0.88036 251 254 254
0.20389 0.37159 -0.96260 212 171 152
0.20917 0.36633 -0.95406 205 181 182
0.25215 0.38749 -1.01207 238 243 247
0.55870 0.51621 -1.38146 254 252 250
0.54514 0.50914 -1.38625 254 254 254
0.55522 0.50547 -1.38265 254 254 254
0.56531 0.50180 -1.37906 254 254 254
0.67117 0.48636 -1.36341 253 247 240
0.65751 0.47924 -1.36823 254 253 251
0.67858 0.48107 -1.35561 221 192 164
0.70671 0.48776 -1.37931 112 83 78
0.72504 0.47909 -1.36879 205 215 248
0.73699 0.47634 -1.36769 242 238 245
0.75076 0.48352 -1.36283 253 254 254
0.74722 0.47261 -1.36404 251 245 246
0.81299 0.33390 -1.11190 249 218 236
0.81412 0.32658 -1.09774 188 159 178
0.77934 0.30304 -1.03801 123 93 138
0.79558 0.29528 -1.02853 90 96 123
0.79918 0.28202 -1.00343 94 120 171
0.80520 0.26890 -1.00125 86 122 182
0.80681 0.27800 -0.99825 88 120 179
0.81282 0.26489 -0.99607 85 122 184
0.81389 0.27377 -0.99241 104 131 187
0.82537 0.27142 -0.99197 123 141 187
0.83894 0.26993 -0.99401 131 143 195
0.85734 0.27044 -1.00179 134 151 199
0.88087 0.27301 -1.01557 135 157 197
0.88697 0.25970 -1.01336 74 96 161
0.90918 0.27743 -1.03481 134 153 196
0.91533 0.26400 -1.03258 71 92 160
1.07152 0.23381 -1.00770 43 44 43
1.06530 0.24737 -1.00996 37 39 47
1.06202 0.23726 -1.01109 39 39 40
1.06407 0.22432 -0.98606 48 53 54
1.05841 0.21557 -0.96654 54 59 63
1.06453 0.20221 -0.96432 64 69 73
1.04935 0.20573 -0.94359 59 62 71
1.05542 0.19248 -0.94139 65 70 76
1.05569 0.18186 -0.89837 33 30 27
1.06167 0.16880 -0.89619 22 22 22
1.07289 0.13770 -0.81671 35 42 51
1.07872 0.12497 -0.81460 55 60 62
1.10169 0.14065 -0.83321 49 56 63
1.10758 0.12781 -0.83107 57 58 59
1.27421 0.06780 -0.75161 33 44 76
1.26220 0.06154 -0.75585 46 50 59
1.27113 0.05829 -0.75267 42 49 60
1.27880 0.06345 -0.74463 50 84 130
1.28563 0.05421 -0.72875 183 207 229
1.30032 0.04701 -0.71982 204 210 212
1.29686 0.04080 -0.70615 183 167 175
1.31034 0.03871 -0.70697 133 129 156
1.69605 0.03243 -0.83654 245 252 251
1.70158 0.02808 -0.82992 234 235 228
1.70790 0.01431 -0.82763 142 99 109
1.70595 0.02352 -0.82243 195 145 148
1.72455 0.01639 -0.81508 202 187 109
1.72787 0.02664 -0.81394 137 108 73
1.73749 0.02314 -0.81051 126 125 111
1.72115 0.01035 -0.80180 181 141 121
1.73403 0.01707 -0.79725 132 132 114
1.73073 0.00687 -0.79839 128 106 112
1.72742 -0.00333 -0.79952 189 156 117
-0.61329 0.66086 -1.25784 235 231 231
-0.61880 0.67288 -1.25984 224 224 223
-0.62170 0.66392 -1.26084 224 222 225
-0.60778 0.64884 -1.25584 253 254 252
-0.60565 0.65579 -1.25053 245 247 244
-0.60015 0.64379 -1.24853 254 254 254
-0.43287 0.55045 -1.10367 254 161 77
-0.42439 0.54806 -1.10204 254 161 71
-0.41435 0.54827 -1.10620 253 147 72
-0.39813 0.55852 -1.13283 251 168 125
-0.38402 0.56495 -1.15102 253 231 226
-0.37568 0.56191 -1.14804 254 231 219
-0.31456 0.51516 -1.07705 250 180 163
-0.29804 0.52368 -1.10033 244 143 138
-0.28230 0.53085 -1.12060 233 104 72
-0.27682 0.51891 -1.11861 227 93 28
-0.27238 0.52991 -1.12241 228 91 31
-0.26258 0.52875 -1.12375 229 92 27
-0.25709 0.51677 -1.12176 221 120 63
-0.13842 0.34891 -0.80919 127 71 54
-0.12095 0.35551 -0.82897 138 97 80
-0.11685 0.34944 -0.81832 149 113 89
-0.11738 0.33918 -0.79752 160 136 104
-0.11119 0.33520 -0.79185 165 147 112
-0.10931 0.32737 -0.77685 171 159 118
-0.09286 0.33264 -0.79357 185 178 147
-0.08764 0.32784 -0.78588 203 204 173
-0.07622 0.32849 -0.79146 230 230 204
-0.07139 0.32338 -0.78300 230 232 217
-0.05968 0.31503 -0.77062 227 230 222
-0.05476 0.30429 -0.76883 178 184 162
-0.05564 0.30939 -0.76081 222 224 218
-0.04556 0.31465 -0.75725 222 222 220
-0.05073 0.29868 -0.75903 168 170 163
-0.02735 0.31482 -0.78228 174 188 213
-0.01714 0.32015 -0.77868 224 231 234
-0.01954 0.31224 -0.78001 192 189 207
-0.01457 0.30139 -0.77821 82 76 94
0.00262 0.31225 -0.78832 150 162 168
0.01955 0.30796 -0.78604 149 163 177
0.04170 0.31632 -0.81109 232 238 231
0.05480 0.31756 -0.81848 213 198 197
0.07921 0.31847 -0.82943 212 200 213
0.10131 0.32613 -0.85306 247 246 244
0.11958 0.33077 -0.86920 241 250 253
0.13633 0.33416 -0.88226 242 251 254
0.14162 0.32261 -0.88034 245 251 253
0.15307 0.33742 -0.89507 251 254 247
0.17321 0.34296 -0.91371 237 213 208
0.21282 0.36199 -0.96671 212 145 166
0.21027 0.35131 -0.94432 221 187 206
0.67338 0.47888 -1.37345 254 254 251
0.65968 0.47173 -1.37828 254 254 253
0.66987 0.46803 -1.37465 254 253 253
0.68363 0.47521 -1.36991 253 248 225
0.68454 0.46619 -1.35216 224 200 167
0.72608 0.48030 -1.39599 116 106 124
0.76272 0.49132 -1.43180 139 145 136
0.74403 0.47131 -1.38465 207 237 251
0.75627 0.46863 -1.38387 246 253 251
0.77014 0.47587 -1.37897 254 253 254
0.76658 0.46488 -1.38019 254 254 254
0.76303 0.45390 -1.38142 254 241 229
0.78037 0.46301 -1.38159 254 254 254
0.78393 0.47401 -1.38036 254 254 254
0.79426 0.47026 -1.37668 254 254 254
0.79114 0.45949 -1.37854 254 254 254
0.80503 0.46674 -1.37363 254 254 254
0.79790 0.44473 -1.37609 243 215 215
0.80284 0.45646 -1.37684 250 254 254
0.81675 0.46371 -1.37193 254 254 254
0.80961 0.44169 -1.37438 231 211 213
0.85710 0.40369 -1.29120 215 196 130
0.88770 0.36763 -1.23024 216 178 228
0.80114 0.31207 -1.08640 195 164 169
0.76236 0.28698 -1.02154 154 132 141
0.78874 0.29128 -1.04003 100 83 115
0.79806 0.28792 -1.03677 87 98 132
0.79491 0.27911 -1.01790 88 119 168
0.82064 0.26099 -0.99114 84 118 179
0.83109 0.25819 -0.98943 81 109 174
0.84658 0.25746 -0.99377 79 105 172
0.85261 0.24431 -0.99158 96 122 184
0.86051 0.25606 -0.99615 77 103 169
0.86656 0.24287 -0.99396 96 128 185
1.05462 0.20541 -0.96705 61 65 66
1.06074 0.19205 -0.96483 67 69 69
1.06803 0.12765 -0.81599 42 51 50
1.07385 0.11494 -0.81387 58 59 60
1.25563 0.04891 -0.72805 30 44 76
1.24375 0.04271 -0.73225 43 50 63
1.25258 0.03950 -0.72910 45 48 67
1.27982 0.04952 -0.73831 47 91 138
1.28977 0.03044 -0.70373 176 166 178
1.27919 0.02264 -0.68413 119 104 144
1.62158 0.00781 -0.78232 217 184 177
1.64218 0.00662 -0.78764 163 103 153
1.67483 0.00245 -0.79146 144 139 109
-0.62448 0.65530 -1.26257 232 232 230
-0.62999 0.66732 -1.26457 223 224 224
-0.63290 0.65836 -1.26557 223 224 224
-0.61897 0.64327 -1.26057 253 254 253
-0.61624 0.65177 -1.25856 247 248 246
-0.61073 0.63975 -1.25656 254 254 254
-0.29648 0.52094 -1.11526 242 107 50
-0.28529 0.52180 -1.12124 232 91 36
-0.14363 0.34835 -0.82424 138 53 66
-0.14860 0.35920 -0.82604 138 54 60
-0.15122 0.35111 -0.82694 131 56 55
-0.15384 0.34303 -0.82784 121 55 52
-0.13121 0.35016 -0.83259 143 113 108
-0.12373 0.34725 -0.82955 190 188 170
-0.11359 0.34679 -0.83248 203 193 171
-0.10858 0.33586 -0.83066 196 194 198
-0.10690 0.34313 -0.82760 204 200 182
-0.10155 0.33827 -0.81980 206 206 189
-0.09800 0.33185 -0.80817 181 197 189
-0.09055 0.32896 -0.80514 153 175 190
-0.08699 0.32266 -0.79376 191 202 212
-0.07827 0.32092 -0.79354 220 222 227
-0.07336 0.31588 -0.78523 222 228 228
-0.06777 0.31147 -0.77842 201 217 225
-0.06079 0.30826 -0.77459 197 216 210
-0.00117 0.30320 -0.78696 138 140 144
0.01625 0.29930 -0.78567 134 147 175
0.04003 0.30883 -0.81396 217 230 234
0.05040 0.30797 -0.81616 244 243 236
0.05550 0.29686 -0.81431 254 253 252
0.06185 0.30788 -0.82031 245 238 232
0.07852 0.31160 -0.83416 249 248 246
0.09303 0.31360 -0.84369 252 252 249
0.10895 0.31653 -0.85564 212 220 239
0.13242 0.32475 -0.88117 215 229 246
0.16538 0.33070 -0.90571 252 240 220
0.20999 0.35307 -0.96785 212 167 134
0.21409 0.34703 -0.95719 207 185 174
0.68266 0.46581 -1.37503 253 247 238
0.66894 0.45866 -1.37987 254 254 254
0.69307 0.46222 -1.37171 244 209 175
0.72252 0.46931 -1.39721 194 121 68
0.75613 0.45951 -1.39015 232 234 212
0.76289 0.44476 -1.38769 254 251 245
0.77928 0.45334 -1.38644 254 230 222
0.84458 0.44146 -1.38718 233 219 218
0.78495 0.28113 -1.04039 105 78 141
0.79214 0.27685 -1.03445 96 106 173
0.78716 0.26731 -1.01327 105 131 192
0.80363 0.25980 -1.00433 99 120 186
0.80711 0.25405 -0.99403 93 117 185
0.81735 0.25117 -0.99208 93 114 183
0.82781 0.24837 -0.99038 93 114 180
0.84306 0.24752 -0.99444 95 115 178
1.03142 0.11380 -0.79548 31 29 39
1.04646 0.11251 -0.79859 48 60 49
1.05224 0.09991 -0.79649 61 62 62
1.24158 0.03143 -0.70860 29 50 85
1.22980 0.02528 -0.71276 49 51 64
1.24071 0.02590 -0.69710 108 147 157
1.27069 0.02254 -0.70168 149 163 182
1.26648 0.01629 -0.68744 148 149 169
1.27470 0.01300 -0.68390 109 100 131
1.28339 0.00982 -0.68077 98 133 166
1.62623 0.01003 -0.81117 253 236 209
1.62001 0.02360 -0.81343 253 251 241
1.61345 0.00336 -0.81568 250 240 230
1.63126 0.00568 -0.80429 241 216 202
1.62434 -0.00102 -0.78812 208 180 167
1.64367 -0.00250 -0.79245 150 98 120
1.65475 -0.00563 -0.79032 195 167 137
1.68131 -0.00579 -0.80008 183 149 125
1.68755 -0.01940 -0.79781 230 220 212
1.66939 -0.01333 -0.78030 234 247 230
1.67558 -0.02684 -0.77806 246 238 225
-0.62730 0.64657 -1.26409 244 247 244
-0.63862 0.64067 -1.26809 233 235 233
-0.63021 0.63761 -1.26509 250 253 252
-0.62179 0.63454 -1.26209 254 254 254
-0.37365 0.50905 -1.08150 254 158 44
-0.36832 0.49743 -1.07957 254 157 38
-0.34969 0.49953 -1.07133 254 157 66
-0.36063 0.49383 -1.07519 254 158 44
-0.33974 0.49917 -1.07443 254 178 88
-0.27442 0.51706 -1.13598 226 86 10
-0.26684 0.51290 -1.13043 221 86 17
-0.26134 0.50090 -1.12844 206 76 76
-0.14200 0.34431 -0.83502 133 52 66
-0.15226 0.33896 -0.83864 108 51 53
-0.14463 0.33619 -0.83593 130 44 57
-0.13385 0.34203 -0.83350 135 87 110
-0.12671 0.33880 -0.82966 182 185 188
-0.11697 0.33796 -0.83171 197 193 192
-0.11196 0.32704 -0.82990 199 197 197
-0.10520 0.32923 -0.81845 198 195 191
-0.10080 0.32359 -0.80866 111 103 142
-0.08207 0.33064 -0.83021 34 32 122
-0.09277 0.31185 -0.78783 141 170 212
-0.08067 0.31304 -0.79490 220 230 230
-0.07458 0.30902 -0.78906 198 204 212
-0.04689 0.32323 -0.82866 119 107 167
-0.04183 0.31221 -0.82682 153 157 144
-0.03926 0.31119 -0.80707 79 68 103
-0.00388 0.30381 -0.80564 98 90 146
0.00329 0.30062 -0.80189 117 108 142
0.00596 0.29394 -0.78931 139 139 158
0.03754 0.30070 -0.81523 220 221 227
0.04686 0.29904 -0.81544 249 253 253
0.07201 0.30044 -0.82796 251 252 252
0.08863 0.30396 -0.84153 232 238 245
0.10924 0.31023 -0.86222 196 206 229
0.13129 0.31733 -0.88517 207 221 233
0.14889 0.32110 -0.89961 239 247 248
0.15422 0.30945 -0.89767 248 253 251
0.20076 0.33974 -0.95754 226 184 187
0.21254 0.33901 -0.96058 213 170 194
0.28223 0.36831 -1.04708 251 254 254
0.29399 0.37445 -1.04292 254 254 254
0.29097 0.36513 -1.04396 254 254 254
0.28795 0.35581 -1.04500 254 254 254
0.68047 0.45570 -1.37828 254 253 249
0.66673 0.44854 -1.38313 254 254 254
0.67694 0.44483 -1.37949 254 254 254
0.68715 0.44111 -1.37585 254 254 254
0.69357 0.45361 -1.37907 254 247 229
0.71007 0.45338 -1.38495 252 235 199
0.72654 0.45307 -1.39065 249 229 187
0.74112 0.45166 -1.39338 248 226 204
0.74788 0.43691 -1.39093 254 254 254
0.75248 0.44847 -1.39124 252 251 239
0.75924 0.43371 -1.38879 254 254 254
0.77023 0.43941 -1.37963 254 249 241
0.76667 0.42843 -1.38086 254 254 253
0.77698 0.42468 -1.37718 254 254 253
0.77836 0.26977 -1.03718 135 89 132
0.77720 0.26190 -1.02070 153 149 177
0.77867 0.25524 -1.00768 183 187 199
0.78272 0.24972 -0.99801 188 189 202
0.78492 0.24348 -0.98614 183 187 208
0.78526 0.23651 -0.97208 180 183 208
0.79707 0.23434 -0.97220 174 179 204
0.80579 0.23089 -0.96852 170 176 203
0.82259 0.23071 -0.97462 155 159 190
0.85441 0.23650 -0.99866 102 116 157
0.86364 0.23315 -0.99537 69 96 149
1.01680 0.09508 -0.77301 56 66 55
1.02251 0.08263 -0.77094 63 66 61
1.21509 0.01643 -0.68908 45 48 77
1.20343 0.01035 -0.69320 50 52 62
1.23874 0.01686 -0.69904 80 114 140
1.24141 0.01225 -0.69069 96 126 171
1.25268 0.00969 -0.68980 100 125 175
1.25713 0.00553 -0.68304 103 123 164
1.26933 0.00317 -0.68292 95 103 128
1.27875 0.00016 -0.68042 59 97 144
1.60788 -0.00308 -0.80041 249 241 225
1.62684 -0.00994 -0.79373 184 132 160
1.62752 -0.01506 -0.78355 233 195 168
1.64611 -0.01674 -0.78729 243 200 155
-0.45846 0.47917 -1.00694 252 129 45
-0.39198 0.49208 -1.05936 254 162 37
-0.38671 0.48058 -1.05744 254 153 16
-0.35742 0.48379 -1.05583 254 159 48
-0.36828 0.47812 -1.05966 254 157 27
-0.34617 0.48536 -1.06346 254 179 76
-0.33962 0.48024 -1.05549 254 202 123
-0.33620 0.47084 -1.03753 254 229 155
-0.30552 0.48459 -1.07773 252 177 95
-0.28606 0.49652 -1.10981 240 132 57
-0.26648 0.50821 -1.14145 213 55 28
-0.13983 0.33077 -0.82668 132 47 89
-0.15006 0.32544 -0.83029 127 48 56
-0.12585 0.33390 -0.83855 167 157 177
-0.11993 0.32953 -0.83189 196 198 196
-0.11492 0.31860 -0.83007 201 197 196
-0.09426 0.32361 -0.82977 115 80 101
-0.08472 0.32246 -0.83112 47 34 43
-0.07605 0.32053 -0.83054 79 104 138
-0.07927 0.30840 -0.80439 193 216 208
-0.06089 0.31475 -0.82460 147 120 131
-0.05421 0.31111 -0.81975 98 74 83
-0.04152 0.30335 -0.80877 57 58 75
0.01351 0.29361 -0.81026 181 184 197
0.02572 0.29422 -0.81625 232 222 196
0.03562 0.29300 -0.81763 246 242 234
0.04526 0.29157 -0.81845 249 252 253
0.05628 0.29112 -0.82183 251 253 252
0.06996 0.29256 -0.83012 224 221 233
0.09723 0.29512 -0.84601 151 140 183
0.11931 0.30223 -0.86923 176 178 200
0.14613 0.31246 -0.90068 220 226 234
0.17851 0.31754 -0.92375 250 232 231
0.20918 0.32974 -0.96075 219 159 198
0.21860 0.32737 -0.95956 216 184 220
0.27768 0.35798 -1.04544 245 251 254
0.28340 0.34549 -1.04336 254 254 254
0.70248 0.44022 -1.38001 254 254 252
0.68871 0.43304 -1.38487 254 254 254
0.69895 0.42932 -1.38122 254 254 254
0.70919 0.42559 -1.37758 254 254 254
0.72093 0.44098 -1.38877 254 253 252
0.72767 0.42628 -1.38632 254 254 254
0.73004 0.43660 -1.38333 254 253 253
0.73677 0.42191 -1.38089 254 254 254
0.76795 0.26417 -1.04422 213 197 184
0.77377 0.25931 -1.03651 155 115 131
0.77558 0.25275 -1.02376 191 190 193
0.78161 0.23958 -1.02157 227 232 235
0.77781 0.24644 -1.01168 224 226 219
0.78382 0.23332 -1.00949 225 226 228
0.78351 0.24164 -1.00405 225 222 221
0.78952 0.22854 -1.00187 223 226 222
0.78704 0.23596 -0.99377 223 222 224
0.78954 0.22990 -0.98231 215 215 216
0.79247 0.22407 -0.97148 205 206 206
0.79720 0.21901 -0.96294 203 202 198
0.84975 0.22609 -0.99798 101 87 112
0.85579 0.21291 -0.99579 60 61 92
0.85267 0.22026 -0.98715 56 59 98
0.86503 0.22670 -0.98278 64 91 142
0.86186 0.21691 -0.98387 55 67 109
0.85869 0.20712 -0.98496 65 76 106
0.97965 0.08706 -0.76331 27 26 38
0.99926 0.08721 -0.77129 45 46 56
1.00058 0.08186 -0.76081 61 67 61
1.05482 0.08061 -0.77941 65 61 52
1.04908 0.09314 -0.78149 57 61 60
1.04605 0.08380 -0.78253 62 65 55
1.05785 0.08995 -0.77837 59 58 56
1.06662 0.08676 -0.77524 56 52 49
1.06359 0.07742 -0.77628 61 56 50
1.03454 -0.00547 -0.59482 56 57 60
1.02353 -0.01121 -0.59870 65 66 69
1.03736 0.00324 -0.59385 47 46 49
1.03171 -0.01418 -0.59579 63 68 66
1.04554 0.00027 -0.59093 47 47 50
1.03989 -0.01716 -0.59287 61 64 65
1.19207 0.00244 -0.67253 55 55 80
1.22438 0.00490 -0.69018 67 101 154
1.23692 0.00263 -0.69043 76 117 185
1.24608 -0.00042 -0.68773 82 122 192
1.24721 -0.00532 -0.67813 88 131 187
1.25555 -0.00855 -0.67475 87 109 156
1.26219 -0.01215 -0.66994 65 107 166
1.58480 -0.01175 -0.79665 251 250 236
1.57863 0.00169 -0.79889 251 245 240
1.57539 -0.00833 -0.80000 253 251 239
1.59450 -0.02036 -0.78278 189 107 157
1.61957 -0.02077 -0.79171 202 141 157
1.63583 -0.02812 -0.78298 231 197 194
1.64200 -0.04158 -0.78074 238 243 228
-0.43938 0.49092 -1.05797 254 201 98
-0.36405 0.46968 -1.04387 253 157 29
-0.37485 0.46405 -1.04768 254 147 18
-0.35264 0.47154 -1.05225 254 190 68
-0.34670 0.46565 -1.04241 254 221 144
-0.31189 0.47113 -1.06751 252 184 94
-0.30230 0.47004 -1.06907 252 205 130
-0.29558 0.46518 -1.06168 221 134 81
-0.26908 0.48574 -1.11468 220 148 120
-0.22805 0.46968 -1.09771 253 240 193
-0.14586 0.31950 -0.81968 134 46 77
-0.15605 0.31419 -0.82328 121 49 54
-0.11926 0.33422 -0.86065 151 122 143
-0.12081 0.32298 -0.83679 193 196 200
-0.11579 0.31204 -0.83497 201 197 199
-0.10604 0.31692 -0.83011 203 198 182
-0.09208 0.31968 -0.84135 123 99 113
-0.08538 0.31601 -0.83639 109 98 67
-0.08012 0.31112 -0.82838 34 53 91
-0.08672 0.29621 -0.79493 139 169 178
-0.08176 0.28540 -0.79313 155 157 166
-0.05686 0.30294 -0.82066 101 80 79
-0.02893 0.29850 -0.82253 123 131 156
-0.02616 0.29176 -0.80969 162 144 152
-0.01934 0.28830 -0.80523 103 65 71
0.00487 0.28954 -0.81740 199 178 179
0.01549 0.28892 -0.82032 241 241 231
0.02444 0.28700 -0.81989 233 232 227
0.03139 0.28357 -0.81555 210 205 207
0.04145 0.28245 -0.81720 208 227 235
0.05228 0.28186 -0.82027 222 240 234
0.07731 0.29148 -0.85007 159 168 188
0.08629 0.28935 -0.84924 136 140 166
0.09524 0.28720 -0.84832 157 152 157
0.10594 0.28626 -0.85062 175 169 165
0.13638 0.29896 -0.88894 214 220 221
0.17156 0.30597 -0.91736 252 244 225
0.20945 0.32293 -0.96743 225 185 147
0.21497 0.31089 -0.96542 221 180 186
0.21805 0.31998 -0.96474 219 193 179
0.27413 0.34832 -1.04554 244 247 252
0.74532 0.24592 -1.02031 215 203 185
0.74259 0.23750 -1.00182 178 150 142
0.78640 0.22020 -0.98339 215 218 211
0.79015 0.21473 -0.97355 206 210 205
0.79408 0.20936 -0.96402 205 205 189
0.83860 0.22012 -1.00388 161 140 130
0.83837 0.21305 -0.98917 92 68 87
0.85624 0.14057 -0.84635 41 35 38
0.85050 0.15308 -0.84843 36 36 41
0.84748 0.14375 -0.84947 40 37 47
0.84445 0.13442 -0.85051 42 45 52
0.86703 0.13808 -0.84549 44 29 34
0.87656 0.13516 -0.84321 53 29 38
0.90455 0.10798 -0.79808 51 31 29
0.90233 0.10131 -0.78341 58 41 29
0.91575 0.09971 -0.78542 58 38 33
0.91997 0.09517 -0.77770 53 24 26
0.92470 0.09082 -0.77057 47 18 21
0.93326 0.08767 -0.76745 44 18 17
0.94483 0.09371 -0.76337 21 24 28
0.94604 0.08006 -0.75678 39 14 18
0.96049 0.07872 -0.75972 36 12 19
0.97417 0.07710 -0.76180 39 15 23
0.98329 0.07411 -0.75921 56 33 33
1.00596 0.07510 -0.77024 66 45 36
1.02103 0.07380 -0.77351 67 50 36
1.02746 0.06996 -0.76812 73 68 47
1.04584 0.06956 -0.77457 80 78 71
1.06749 0.07003 -0.78412 67 55 47
1.07933 0.07621 -0.77994 53 50 45
1.07629 0.06683 -0.78098 56 53 53
1.14278 -0.00741 -0.65377 53 64 63
1.13723 0.00471 -0.65579 49 51 60
1.13137 -0.01336 -0.65780 66 72 71
1.14571 0.00163 -0.65277 44 51 57
1.15573 -0.00944 -0.65470 52 55 65
1.16987 -0.01121 -0.65664 66 72 101
1.22046 -0.00457 -0.69040 85 121 181
1.22471 -0.00874 -0.68345 89 136 205
1.23257 -0.01208 -0.67967 90 142 212
1.24006 -0.01549 -0.67557 94 147 209
1.24727 -0.01896 -0.67125 89 127 182
1.25293 -0.03132 -0.66919 78 103 165
1.25490 -0.02233 -0.66730 75 110 171
1.26056 -0.03469 -0.66524 93 151 201
1.27824 -0.02731 -0.66624 124 151 187
1.28699 -0.03045 -0.66321 153 179 203
1.29865 -0.02437 -0.65909 247 253 253
1.29566 -0.03360 -0.66012 202 218 234
1.54992 -0.01746 -0.79417 253 254 249
1.54379 -0.00408 -0.79639 254 254 248
1.54056 -0.01405 -0.79750 254 254 249
1.55315 -0.00749 -0.79306 253 252 244
1.57152 -0.01847 -0.80062 251 248 241
1.57972 -0.02213 -0.79631 231 225 213
1.58694 -0.02597 -0.79123 180 115 154
1.60299 -0.03331 -0.78239 239 250 226
1.59624 -0.04483 -0.75590 203 160 203
1.60233 -0.05811 -0.75369 237 249 248
-0.50739 0.42039 -0.90348 252 206 107
-0.37073 0.45555 -1.03162 253 153 32
-0.36053 0.45577 -1.03619 253 206 124
-0.35528 0.44433 -1.03428 251 237 172
-0.35193 0.45367 -1.03526 253 244 208
-0.34299 0.45202 -1.03542 254 250 207
-0.32441 0.46333 -1.06646 251 199 105
-0.31796 0.45811 -1.05817 250 151 67
-0.30739 0.45836 -1.06294 252 204 172
-0.29569 0.45999 -1.07103 252 230 192
-0.23282 0.45854 -1.09324 254 252 243
-0.24402 0.45270 -1.09720 254 254 254
-0.15018 0.30986 -0.81661 132 41 61
-0.16036 0.30455 -0.82020 110 47 51
-0.15279 0.30180 -0.81751 127 41 55
-0.13622 0.31295 -0.82865 134 76 95
-0.12286 0.31536 -0.83906 187 184 184
-0.10673 0.31050 -0.83540 204 199 185
-0.09034 0.31531 -0.85201 131 119 116
-0.09035 0.30582 -0.83223 96 91 52
-0.08342 0.30239 -0.82787 55 57 78
-0.07631 0.29913 -0.82392 77 84 106
-0.05844 0.29564 -0.82384 112 91 64
-0.04676 0.29611 -0.82950 132 115 140
-0.04417 0.28917 -0.81607 82 41 100
-0.03452 0.28795 -0.81741 84 72 117
-0.01858 0.29166 -0.83155 187 197 194
-0.01147 0.28833 -0.82747 219 201 171
-0.00105 0.28758 -0.83009 237 237 217
0.00630 0.28443 -0.82648 250 252 237
0.01307 0.28086 -0.82175 252 253 240
0.02121 0.27832 -0.81973 204 186 190
0.03916 0.28304 -0.83677 129 112 129
0.05080 0.28299 -0.84134 122 126 169
0.06273 0.28307 -0.84631 141 147 167
0.06801 0.27833 -0.83855 98 112 147
0.07938 0.27795 -0.84232 106 119 142
0.09165 0.27815 -0.84767 154 153 165
0.12240 0.29114 -0.88709 198 196 196
0.14614 0.29898 -0.91295 232 238 235
0.16007 0.29991 -0.92048 250 254 254
0.16845 0.29702 -0.91784 253 253 244
0.19851 0.30860 -0.95403 235 214 204
0.22134 0.30649 -0.95881 236 217 224
0.28666 0.34024 -1.05539 251 254 254
0.29847 0.34640 -1.05122 254 254 254
0.29544 0.33705 -1.05226 254 254 254
0.29241 0.32770 -1.05330 254 254 254
0.73128 0.23151 -1.00738 195 179 182
0.75065 0.23252 -1.01726 172 164 173
0.77147 0.22687 -1.01386 205 218 240
0.77718 0.22211 -1.00622 205 215 233
0.78073 0.21649 -0.99594 205 216 221
0.78184 0.20993 -0.98271 201 208 208
0.78606 0.20468 -0.97346 195 200 204
0.79056 0.19956 -0.96461 195 194 189
0.84589 0.21439 -1.01773 155 134 131
0.83124 0.20173 -0.98547 85 61 84
0.83979 0.19816 -0.98147 55 59 89
0.84895 0.19483 -0.97820 59 74 101
0.84579 0.18508 -0.97929 46 61 90
0.85173 0.13072 -0.84572 53 56 55
0.85757 0.12653 -0.83934 110 100 93
0.86584 0.12320 -0.83571 172 152 136
0.87253 0.11933 -0.83034 186 159 139
0.88067 0.11595 -0.82658 185 160 138
0.86176 0.08015 -0.74437 181 152 131
0.89005 0.08334 -0.76238 174 142 126
0.89129 0.07795 -0.75165 173 134 124
0.89481 0.07331 -0.74339 169 130 121
0.90087 0.06948 -0.73785 164 127 116
0.90904 0.06631 -0.73451 157 117 107
0.94321 0.07096 -0.75794 148 101 93
0.94541 0.06593 -0.74834 136 87 75
0.95771 0.06393 -0.74911 129 81 67
0.97812 0.06428 -0.75802 128 84 67
0.99557 0.05806 -0.75208 117 84 51
1.00121 0.04574 -0.75003 145 127 129
0.99164 0.05135 -0.73653 120 108 71
0.99725 0.03911 -0.73449 146 150 165
1.01281 0.05179 -0.74593 127 124 119
1.05850 0.05900 -0.77931 86 70 65
1.07454 0.05781 -0.78329 61 56 57
1.08639 0.06399 -0.77910 45 49 47
1.08335 0.05461 -0.78015 53 54 54
1.08031 0.04523 -0.78119 59 58 63
1.13596 -0.01736 -0.65131 62 69 69
1.14952 -0.01925 -0.65280 47 62 78
1.18785 -0.01547 -0.67608 106 128 160
1.19614 -0.01867 -0.67274 147 174 216
1.20900 -0.02084 -0.67339 111 158 221
1.21675 -0.02417 -0.66957 94 157 231
1.22517 -0.02734 -0.66633 96 158 234
1.22896 -0.03153 -0.65913 93 142 207
1.26974 -0.03772 -0.66261 78 87 141
1.25811 -0.04378 -0.66672 92 155 206
1.28945 -0.03854 -0.66882 69 73 116
1.53939 -0.02885 -0.78940 247 238 231
1.56493 -0.02913 -0.79906 233 214 202
1.58051 -0.05699 -0.74727 200 139 163
1.58657 -0.07021 -0.74507 239 252 254
-0.39618 0.44302 -1.01487 254 149 33
-0.39345 0.45144 -1.01393 254 144 23
-0.38820 0.44025 -1.01231 254 159 24
-0.38138 0.43584 -1.00583 254 181 74
-0.36196 0.44910 -1.04159 254 230 156
-0.34656 0.44239 -1.03378 252 230 162
-0.32689 0.45509 -1.06846 252 193 93
-0.33022 0.43696 -1.02903 249 140 59
-0.30948 0.45063 -1.06619 251 187 159
-0.29977 0.44966 -1.06811 253 241 230
-0.29513 0.44220 -1.05433 254 249 231
-0.28981 0.43057 -1.05239 254 254 253
-0.22777 0.45906 -1.11719 254 254 254
-0.23908 0.45317 -1.12118 254 254 254
-0.23067 0.45011 -1.11819 254 254 254
-0.14114 0.30276 -0.82427 132 51 83
-0.15136 0.29743 -0.82788 120 43 57
-0.13090 0.30237 -0.82762 169 155 172
-0.11494 0.30698 -0.84380 197 200 201
-0.10659 0.30477 -0.84257 205 200 181
-0.09180 0.30811 -0.85562 137 112 107
-0.09376 0.29699 -0.83146 65 50 30
-0.07848 0.30064 -0.84535 117 116 74
-0.07842 0.29141 -0.82599 63 51 48
-0.06472 0.29361 -0.83619 138 136 129
-0.03429 0.28203 -0.82428 98 72 80
-0.01099 0.28253 -0.83482 240 241 233
-0.00378 0.27927 -0.83092 242 243 244
0.00381 0.27631 -0.82779 242 245 251
0.02146 0.27223 -0.82641 220 210 195
0.04939 0.27556 -0.84479 112 130 137
0.05591 0.27173 -0.83940 97 99 147
0.06523 0.26991 -0.83937 101 108 135
0.07672 0.26959 -0.84340 122 99 118
0.08821 0.26922 -0.84730 163 135 164
0.12056 0.28319 -0.88980 220 220 228
0.14218 0.28948 -0.91184 249 253 250
0.15700 0.29099 -0.92104 243 246 251
0.16859 0.29025 -0.92421 242 247 251
0.18704 0.29400 -0.93960 249 236 236
0.21644 0.30479 -0.97423 227 169 196
0.22457 0.30150 -0.97064 221 181 213
0.27784 0.32718 -1.04627 246 251 254
0.28357 0.31469 -1.04419 254 254 254
0.73442 0.22445 -1.01659 145 111 141
0.76638 0.22344 -1.02749 127 144 189
0.77416 0.21949 -1.02237 130 149 204
0.77957 0.21460 -1.01430 134 152 210
0.78880 0.21127 -1.01106 137 154 209
0.79844 0.20810 -1.00834 139 154 201
0.80700 0.20450 -1.00428 141 156 193
0.81955 0.20247 -1.00513 144 155 178
0.83272 0.20065 -1.00667 128 118 129
0.81209 0.18584 -0.96717 75 56 78
0.82068 0.18235 -0.96334 43 47 78
