ply
format ascii 1.0
element face 0
property list uchar int vertex_indices
element vertex 1287
property float x
property float y
property float z
property uchar diffuse_red
property uchar diffuse_green
property uchar diffuse_blue
end_header
0.01057 -0.18695 -0.87140 136 125 126
0.02199 -0.18920 -0.87555 52 52 66
0.02610 -0.20095 -0.87292 48 52 68
0.03525 -0.19638 -0.86508 48 59 74
0.04775 -0.19842 -0.87105 76 93 95
0.05593 -0.20163 -0.86870 100 110 109
0.05623 -0.20683 -0.85156 73 67 78
0.06033 -0.21856 -0.84893 41 47 47
0.17581 -0.27950 -0.73049 31 27 32
0.16563 -0.28430 -0.73582 37 34 31
0.17273 -0.28765 -0.73186 37 35 32
0.18765 -0.28205 -0.73407 33 35 52
0.19251 -0.28579 -0.72653 62 73 93
0.19945 -0.28917 -0.72229 79 79 102
0.20948 -0.29207 -0.72287 80 74 95
0.21828 -0.29517 -0.72146 91 94 101
0.23233 -0.29750 -0.72807 119 124 133
0.24462 -0.30013 -0.73186 138 138 170
0.25406 -0.30320 -0.73123 157 147 194
0.25923 -0.30689 -0.72415 173 150 189
0.26288 -0.31078 -0.71485 151 109 145
0.28126 -0.31704 -0.71271 157 131 126
0.29485 -0.31962 -0.71800 223 229 205
0.29896 -0.33134 -0.71537 253 252 253
0.30573 -0.32257 -0.71923 250 253 253
0.30984 -0.33433 -0.71659 252 252 253
0.55210 -0.46403 -0.49750 254 254 251
0.54811 -0.45263 -0.50006 254 254 254
0.54506 -0.46071 -0.50142 254 254 254
0.54201 -0.46879 -0.50278 254 254 254
0.55522 -0.46742 -0.48932 238 233 222
0.57282 -0.47056 -0.49684 113 94 119
0.59650 -0.47366 -0.51073 43 26 20
0.60055 -0.48521 -0.50814 47 49 48
0.60455 -0.47701 -0.50773 44 48 51
0.60859 -0.48858 -0.50513 46 50 46
0.64919 -0.51051 -0.44117 60 68 120
0.63911 -0.51527 -0.44645 14 19 43
0.64614 -0.51858 -0.44253 124 120 163
0.65317 -0.52190 -0.43862 225 239 239
0.67215 -0.51397 -0.45309 200 232 218
0.67616 -0.52547 -0.45051 252 250 224
-0.97154 0.20279 -1.20143 16 7 23
-0.98111 0.19828 -1.20643 20 18 43
-0.97444 0.19514 -1.20272 29 32 49
-0.96481 0.19998 -1.19893 20 13 26
-0.96103 0.18918 -1.19651 46 52 65
-0.95803 0.19740 -1.19724 30 28 37
-0.94062 0.20959 -1.25673 57 63 80
-0.94360 0.20172 -1.25806 57 66 82
-0.92555 0.20876 -1.26965 47 59 70
-0.92164 0.19757 -1.26714 47 50 63
-0.86119 0.14112 -1.10739 44 46 55
-0.87063 0.13667 -1.11233 49 50 53
-0.86405 0.13356 -1.10866 44 45 52
-0.85543 0.13584 -1.09551 49 53 79
-0.84979 0.13039 -1.08290 47 53 91
-0.84609 0.11980 -1.08052 55 53 78
-0.84322 0.12740 -1.07961 47 48 76
-0.83951 0.11681 -1.07724 56 59 80
-0.72751 0.06885 -1.00176 63 59 64
-0.73683 0.06445 -1.00664 72 64 69
-0.73033 0.06139 -1.00302 69 65 73
-0.72382 0.05832 -0.99940 68 65 70
-0.72139 0.06520 -0.99577 62 58 60
-0.71771 0.05468 -0.99341 69 68 68
-0.71429 0.06302 -0.99577 62 59 58
-0.70753 0.06031 -0.99364 60 60 56
-0.70083 0.05751 -0.99113 58 61 52
-0.69406 0.05479 -0.98899 59 59 48
-0.69037 0.04424 -0.98662 65 66 69
-0.68619 0.05353 -0.99292 58 55 57
-0.67316 0.04731 -0.98539 65 68 60
-0.66946 0.03672 -0.98302 74 74 74
-0.66646 0.04442 -0.98260 69 67 66
-0.65927 0.04214 -0.98238 61 61 58
-0.64762 0.03424 -0.96772 44 47 54
-0.64134 0.03086 -0.96281 50 53 74
-0.63427 0.02841 -0.96187 81 80 84
-0.62460 0.01852 -0.93841 74 73 83
-0.61902 0.01448 -0.93054 64 66 74
-0.60974 0.01886 -0.92569 63 64 79
-0.61254 0.01142 -0.92694 65 63 69
-0.61535 0.00399 -0.92819 72 71 83
-0.55564 -0.12917 -0.50948 122 129 171
-0.55874 -0.12030 -0.51147 32 31 63
-0.56111 -0.12659 -0.51253 39 35 71
-0.56349 -0.13287 -0.51359 67 61 71
-0.55801 -0.13545 -0.51054 80 87 104
-0.54703 -0.12965 -0.51682 218 228 240
-0.54152 -0.13224 -0.51378 250 253 254
-0.10780 -0.14653 -0.91781 252 252 251
-0.11809 -0.15138 -0.92319 252 252 252
-0.11091 -0.15477 -0.91920 252 252 252
-0.10036 -0.14983 -0.91439 249 242 218
-0.09891 -0.15519 -0.89773 122 165 137
-0.08742 -0.15708 -0.90328 192 207 204
-0.08116 -0.16077 -0.89732 246 252 252
-0.07089 -0.15592 -0.89194 252 252 252
-0.07400 -0.16415 -0.89333 252 252 252
-0.07710 -0.17237 -0.89471 251 251 251
-0.00464 -0.19319 -0.86718 253 245 223
-0.01495 -0.19806 -0.87257 251 250 251
0.01082 -0.19432 -0.87948 136 123 122
0.01555 -0.19842 -0.87051 51 48 64
0.01965 -0.21013 -0.86789 46 51 62
0.02909 -0.20548 -0.86068 49 58 73
0.02596 -0.21378 -0.86208 48 56 67
0.03319 -0.21719 -0.85806 47 56 63
0.03583 -0.20902 -0.85571 55 69 77
0.04133 -0.21286 -0.84844 58 70 74
0.04542 -0.22454 -0.84582 43 51 51
0.04494 -0.21715 -0.83764 47 53 57
0.04901 -0.22880 -0.83503 43 49 49
0.11775 -0.26988 -0.73477 32 35 39
0.11377 -0.25850 -0.73733 40 43 46
0.11072 -0.26656 -0.73869 41 43 48
0.12080 -0.26181 -0.73342 34 35 39
0.12783 -0.26513 -0.72950 33 31 30
0.12478 -0.27320 -0.73086 33 33 34
0.17964 -0.29103 -0.72761 30 34 32
0.17656 -0.29918 -0.72898 36 33 34
0.18602 -0.29449 -0.72252 53 61 60
0.19621 -0.29736 -0.72343 81 85 92
0.20522 -0.30043 -0.72242 89 92 93
0.20926 -0.31196 -0.71984 59 36 37
0.21268 -0.30374 -0.71897 79 81 73
0.22205 -0.30677 -0.71846 68 57 64
0.23399 -0.30946 -0.72180 62 37 71
0.24312 -0.31257 -0.72079 69 37 85
0.25859 -0.31483 -0.72927 100 63 111
0.26193 -0.31874 -0.71946 143 97 139
0.26690 -0.32243 -0.71217 192 143 170
0.29073 -0.32372 -0.73263 227 225 208
0.29485 -0.33550 -0.72999 253 252 253
0.29491 -0.32753 -0.72407 249 253 246
0.29902 -0.33928 -0.72143 252 252 252
0.54458 -0.47218 -0.49396 253 252 249
0.53451 -0.47693 -0.49922 254 254 253
0.54490 -0.47558 -0.48275 227 212 200
0.58038 -0.47855 -0.50971 73 47 82
0.58631 -0.48192 -0.50448 42 33 34
0.59034 -0.49343 -0.50190 47 49 46
-0.85822 0.12847 -1.09737 44 47 61
-0.86763 0.12403 -1.10229 42 45 51
-0.86106 0.12093 -1.09864 39 45 51
-0.85245 0.12333 -1.08589 49 49 72
-0.84875 0.11274 -1.08351 52 53 75
-0.71043 0.05273 -0.99446 68 70 69
-0.71977 0.04833 -0.99934 69 72 72
-0.71326 0.04526 -0.99571 72 74 74
-0.70675 0.04219 -0.99209 71 75 74
-0.70401 0.04954 -0.99033 67 72 67
-0.70032 0.03900 -0.98796 74 71 76
-0.69743 0.04658 -0.98714 68 70 64
-0.69374 0.03603 -0.98478 70 68 75
-0.68355 0.04155 -0.98463 65 68 66
-0.67986 0.03099 -0.98226 75 77 80
-0.67863 0.03643 -0.97228 69 73 71
-0.67495 0.02590 -0.96992 79 79 82
-0.66605 0.02978 -0.96283 71 75 68
-0.65820 0.02835 -0.96627 37 41 52
-0.65261 0.02420 -0.95794 36 40 51
-0.64684 0.02029 -0.95066 46 46 64
-0.64019 0.01741 -0.94787 65 58 78
-0.63562 0.01222 -0.93490 78 89 97
-0.63196 0.00176 -0.93256 76 83 100
-0.62980 0.00848 -0.92824 79 83 86
-0.62479 0.00389 -0.91780 72 76 82
-0.62115 -0.00653 -0.91547 66 67 84
-0.55030 -0.13655 -0.51496 168 191 205
-0.55818 -0.14027 -0.51908 50 61 68
-0.54371 -0.13844 -0.51550 229 243 248
-0.53802 -0.14092 -0.51301 244 251 253
-0.53012 -0.13720 -0.50887 254 254 254
-0.53295 -0.14380 -0.50854 246 253 254
-0.52505 -0.14007 -0.50441 254 254 254
-0.52778 -0.14661 -0.50438 247 253 254
-0.51989 -0.14289 -0.50025 254 254 254
-0.52303 -0.14966 -0.49893 245 252 254
-0.51515 -0.14595 -0.49481 254 254 254
-0.52128 -0.15449 -0.48423 244 251 253
-0.51345 -0.15080 -0.48013 253 254 254
-0.51430 -0.15618 -0.48586 238 239 247
-0.50645 -0.15248 -0.48176 250 253 252
-0.50421 -0.15609 -0.49688 222 224 232
-0.50018 -0.15954 -0.48933 199 189 205
-0.49297 -0.16118 -0.49135 192 183 201
-0.48258 -0.16111 -0.50262 214 221 229
-0.47248 -0.16128 -0.51276 239 248 250
-0.11252 -0.16117 -0.89554 252 250 245
-0.12272 -0.16598 -0.90087 252 252 252
-0.09972 -0.16261 -0.90419 202 204 200
-0.09910 -0.16815 -0.88583 161 145 158
-0.09188 -0.17147 -0.88211 225 247 251
-0.08786 -0.18298 -0.87953 250 251 251
-0.01146 -0.20246 -0.86117 253 245 224
-0.02174 -0.20731 -0.86655 251 250 252
0.00293 -0.20391 -0.87149 136 121 122
0.00734 -0.20805 -0.86195 51 46 62
0.01142 -0.21971 -0.85933 49 51 62
0.02928 -0.22332 -0.83287 46 54 57
0.01902 -0.22816 -0.83823 53 59 64
0.04190 -0.25018 -0.75408 44 46 52
0.03795 -0.23889 -0.75661 41 44 45
0.03493 -0.24689 -0.75796 40 44 42
0.04492 -0.24218 -0.75273 40 42 47
0.05189 -0.24547 -0.74885 43 47 57
0.04887 -0.25347 -0.75020 45 47 54
0.09738 -0.27194 -0.73836 49 46 53
0.10489 -0.27515 -0.73531 47 43 46
0.11496 -0.27790 -0.73657 41 30 27
0.12217 -0.28119 -0.73295 41 28 22
0.13225 -0.27643 -0.72767 32 33 34
0.12689 -0.28491 -0.72519 37 30 30
0.13695 -0.28016 -0.71993 33 34 30
0.14707 -0.29050 -0.72744 39 30 33
0.15618 -0.29349 -0.72685 39 33 37
0.16237 -0.29697 -0.72150 41 34 39
0.18300 -0.30263 -0.72397 47 41 37
0.19007 -0.30598 -0.71998 62 47 49
0.19946 -0.30899 -0.71962 64 45 47
0.21989 -0.31483 -0.72128 71 48 47
0.22990 -0.31781 -0.72168 99 76 65
0.23577 -0.32136 -0.71575 141 113 101
0.24642 -0.32428 -0.71704 190 167 164
0.27054 -0.32552 -0.73841 222 208 206
0.27665 -0.32909 -0.73266 245 233 232
0.28076 -0.34083 -0.73002 252 252 252
0.28452 -0.33244 -0.72953 252 253 247
0.28863 -0.34419 -0.72690 252 252 252
0.53518 -0.48031 -0.48832 249 246 243
0.54011 -0.48362 -0.48218 201 172 172
0.56499 -0.48680 -0.49773 52 18 34
0.57036 -0.49014 -0.49197 39 39 53
0.57436 -0.50156 -0.48941 47 49 47
0.59523 -0.51959 -0.41729 49 48 35
0.59132 -0.50843 -0.41980 44 46 49
0.58833 -0.51634 -0.42113 46 48 49
0.60212 -0.52285 -0.41345 17 19 45
0.59913 -0.53076 -0.41479 27 30 58
0.62567 -0.52637 -0.42637 165 171 184
0.64862 -0.52995 -0.43848 235 229 243
0.66104 -0.53337 -0.43992 250 250 250
0.67114 -0.52861 -0.43463 254 254 251
0.66809 -0.53670 -0.43599 254 254 254
0.66503 -0.54479 -0.43736 253 254 254
-0.67022 0.02068 -0.95688 84 82 74
-0.67950 0.01630 -0.96173 82 81 87
-0.67303 0.01325 -0.95813 87 86 86
-0.66280 0.01877 -0.95827 57 52 51
-0.65758 0.01423 -0.94815 35 31 29
-0.65149 0.01075 -0.94265 40 39 55
-0.64581 0.00682 -0.93517 53 48 73
-0.64043 0.00259 -0.92629 67 73 94
-0.63060 -0.00668 -0.90472 73 75 88
-0.54979 -0.14097 -0.52574 107 129 145
-0.55771 -0.14471 -0.52989 76 75 88
-0.55218 -0.14731 -0.52681 84 97 111
-0.54763 -0.14574 -0.51149 170 194 210
-0.54213 -0.14833 -0.50845 195 217 230
-0.53704 -0.15117 -0.50409 203 222 234
-0.53173 -0.15388 -0.50044 201 218 233
-0.52598 -0.15631 -0.49822 199 215 233
-0.51967 -0.15842 -0.49772 193 212 227
-0.51428 -0.16108 -0.49432 180 179 209
-0.50791 -0.16317 -0.49393 165 152 184
-0.49984 -0.16433 -0.49863 158 150 168
-0.49434 -0.16696 -0.49546 168 168 186
-0.48955 -0.16996 -0.49021 185 194 214
-0.47639 -0.16850 -0.50952 214 223 237
-0.47322 -0.17756 -0.50749 230 234 240
-0.46842 -0.16990 -0.51329 243 246 250
-0.46037 -0.16610 -0.50908 253 254 254
-0.46281 -0.17254 -0.51017 250 252 253
-0.46524 -0.17899 -0.51125 248 250 252
-0.12339 -0.17195 -0.87941 253 251 251
-0.13351 -0.17672 -0.88470 252 252 252
-0.11593 -0.17514 -0.87638 249 231 221
-0.10755 -0.17805 -0.87536 114 115 163
-0.09724 -0.18035 -0.87851 204 245 251
-0.09322 -0.19184 -0.87593 250 251 251
-0.02730 -0.21408 -0.83703 253 245 224
-0.03746 -0.21887 -0.84234 251 249 252
-0.00028 -0.21222 -0.87271 140 124 122
-0.00204 -0.21792 -0.85100 56 46 61
0.00201 -0.22952 -0.84840 55 52 65
0.02293 -0.23733 -0.81060 48 55 59
0.01277 -0.24213 -0.81592 60 65 69
0.01986 -0.24547 -0.81197 57 63 69
0.02430 -0.24199 -0.79591 47 54 58
0.03441 -0.23722 -0.79062 48 49 52
0.02472 -0.24680 -0.77965 54 52 58
0.03478 -0.24206 -0.77439 46 47 45
0.02725 -0.25110 -0.76746 51 48 54
0.03355 -0.25454 -0.76233 49 49 52
0.03751 -0.26584 -0.75979 70 64 67
0.03791 -0.25839 -0.75368 53 51 59
0.04186 -0.26967 -0.75115 65 62 59
0.04416 -0.26182 -0.74851 51 48 56
0.05414 -0.25712 -0.74329 44 46 48
0.04810 -0.27309 -0.74598 63 60 56
0.10087 -0.28337 -0.73501 57 55 56
0.10484 -0.29472 -0.73246 68 65 58
0.10799 -0.28666 -0.73129 57 53 48
0.11710 -0.28960 -0.73092 57 55 48
0.12322 -0.29307 -0.72552 61 63 51
0.12976 -0.29645 -0.72082 66 64 58
0.14007 -0.29923 -0.72233 69 62 53
0.15050 -0.30201 -0.72395 66 61 47
0.15715 -0.30540 -0.71938 61 56 43
0.16964 -0.30791 -0.72419 53 43 29
0.17774 -0.31109 -0.72188 63 47 33
0.18630 -0.31422 -0.72027 84 60 42
0.19611 -0.31719 -0.72058 100 72 26
0.20652 -0.32009 -0.72177 129 89 37
0.22067 -0.32252 -0.72864 171 144 108
0.22642 -0.32608 -0.72250 206 201 169
0.23865 -0.32881 -0.72623 230 221 195
0.24272 -0.34044 -0.72363 253 252 251
0.25344 -0.33126 -0.73373 249 243 232
0.25753 -0.34296 -0.73111 252 252 252
0.26538 -0.33410 -0.73680 253 252 246
0.26949 -0.34583 -0.73417 252 252 252
0.27481 -0.33726 -0.73600 253 253 251
0.27892 -0.34902 -0.73336 252 252 252
0.52262 -0.48506 -0.49076 254 254 253
0.51867 -0.47375 -0.49330 254 254 254
0.51564 -0.48176 -0.49465 254 254 254
0.51261 -0.48978 -0.49600 254 254 254
0.52567 -0.48837 -0.48254 241 235 232
0.51136 -0.49174 -0.45536 142 108 143
0.55039 -0.49492 -0.48653 43 20 19
0.55734 -0.49823 -0.48256 42 45 54
0.57860 -0.52415 -0.41554 53 54 52
0.57472 -0.51303 -0.41804 43 50 38
0.57174 -0.52091 -0.41937 52 57 47
0.56876 -0.52879 -0.42069 54 59 56
0.58520 -0.52739 -0.41144 47 45 44
0.61600 -0.53422 -0.42101 184 215 182
0.63297 -0.53773 -0.42721 233 225 217
0.64498 -0.54114 -0.42833 247 251 251
0.64894 -0.55247 -0.42579 254 254 254
-0.66913 0.00715 -0.94097 83 82 71
-0.67836 0.00280 -0.94579 88 88 92
-0.66181 0.00515 -0.94201 37 31 43
-0.65592 0.00148 -0.93559 33 34 52
-0.64998 -0.00211 -0.92951 44 45 63
-0.64484 -0.00656 -0.91955 56 55 83
-0.64026 -0.01154 -0.90709 71 79 95
-0.63665 -0.02188 -0.90478 77 87 94
-0.63565 -0.01641 -0.89505 76 78 93
-0.63108 -0.02125 -0.88305 63 70 81
-0.62200 -0.01697 -0.87830 63 63 77
-0.62475 -0.02424 -0.87953 59 64 68
-0.54609 -0.14956 -0.52563 103 124 144
-0.55402 -0.15330 -0.52978 86 90 106
-0.54849 -0.15591 -0.52670 105 115 124
-0.54117 -0.15256 -0.52051 115 125 150
-0.53775 -0.15645 -0.51058 121 124 155
-0.53709 -0.16197 -0.49193 122 122 163
-0.53083 -0.16407 -0.49143 119 115 163
-0.51854 -0.16845 -0.48955 112 121 150
-0.51269 -0.17083 -0.48765 125 128 152
-0.50109 -0.17004 -0.50321 135 130 155
-0.49351 -0.17155 -0.50625 143 139 166
-0.48667 -0.17349 -0.50696 138 144 190
-0.48539 -0.17837 -0.49123 179 185 216
-0.48226 -0.18733 -0.48922 218 229 232
-0.13452 -0.18269 -0.86257 252 252 251
-0.14456 -0.18743 -0.86782 252 252 252
-0.12499 -0.18518 -0.86434 245 235 224
-0.11784 -0.18845 -0.86073 122 127 168
-0.10449 -0.18979 -0.87072 208 247 251
-0.10049 -0.20123 -0.86816 251 251 251
-0.01560 -0.22360 -0.84980 155 135 137
0.00296 -0.23438 -0.83232 59 65 71
0.00605 -0.22621 -0.83095 52 59 67
0.01008 -0.23774 -0.82836 60 65 69
0.01637 -0.25116 -0.78811 61 63 70
0.02034 -0.26254 -0.78555 79 79 79
0.01872 -0.25550 -0.77548 68 65 69
0.02225 -0.25954 -0.76516 62 61 68
0.02620 -0.27083 -0.76263 62 65 67
0.03128 -0.26239 -0.76505 64 63 69
0.03523 -0.27371 -0.76252 68 63 59
0.08888 -0.28845 -0.73691 69 70 74
0.09718 -0.29153 -0.73525 70 64 57
0.12142 -0.30092 -0.72894 67 67 60
0.12539 -0.31229 -0.72639 58 29 33
0.12828 -0.30425 -0.72477 66 64 66
0.13748 -0.30723 -0.72445 65 60 57
0.14437 -0.31057 -0.72029 62 60 43
0.15248 -0.31373 -0.71812 54 49 42
0.16533 -0.31621 -0.72357 72 49 51
0.17543 -0.31912 -0.72446 140 128 108
0.18327 -0.32236 -0.72171 189 180 143
0.18969 -0.32579 -0.71670 206 194 135
0.19452 -0.32943 -0.70923 223 206 144
0.21454 -0.33112 -0.72536 241 231 197
0.21859 -0.34270 -0.72276 252 251 251
0.22650 -0.33389 -0.72878 251 251 239
0.23057 -0.34551 -0.72618 252 251 251
0.23695 -0.33688 -0.72980 253 252 244
0.24103 -0.34853 -0.72719 252 251 251
0.51512 -0.49308 -0.48714 254 253 250
0.50514 -0.49779 -0.49236 254 254 254
0.49997 -0.49639 -0.45882 237 228 214
0.52239 -0.49965 -0.47207 88 62 96
0.54478 -0.50296 -0.48508 35 24 17
0.54965 -0.50626 -0.47888 41 47 52
0.56083 -0.50958 -0.47949 44 48 49
0.57088 -0.50484 -0.47424 48 52 52
0.56480 -0.52093 -0.47695 42 38 41
0.56333 -0.51285 -0.47077 46 52 57
0.57227 -0.53197 -0.41342 55 58 54
0.56244 -0.53660 -0.41856 52 55 58
0.57860 -0.53519 -0.40906 32 36 56
0.58248 -0.54628 -0.40657 116 118 161
0.59281 -0.53860 -0.41273 61 70 112
0.59671 -0.54974 -0.41023 220 231 237
0.60945 -0.54209 -0.41877 196 226 210
0.61637 -0.54536 -0.41492 245 231 195
0.62029 -0.55657 -0.41240 254 253 250
0.62791 -0.54876 -0.41567 252 252 248
0.63184 -0.56000 -0.41315 254 254 254
-0.67396 -0.00263 -0.93140 92 89 86
-0.68314 -0.00696 -0.93620 92 90 95
-0.67674 -0.00998 -0.93263 96 94 92
-0.66657 -0.00451 -0.93299 60 65 61
-0.65947 -0.00676 -0.93295 36 33 27
-0.65583 -0.01717 -0.93062 35 39 55
-0.65379 -0.01061 -0.92562 41 42 53
-0.64883 -0.01522 -0.91481 50 50 73
-0.64434 -0.02025 -0.90193 64 59 83
-0.63606 -0.03079 -0.87372 77 77 89
-0.63880 -0.03803 -0.87494 84 88 86
-0.63119 -0.03520 -0.86349 70 69 76
-0.62218 -0.03095 -0.85877 62 65 72
-0.62491 -0.03816 -0.85999 65 68 77
-0.54258 -0.15829 -0.52487 107 115 131
-0.55052 -0.16203 -0.52902 94 96 110
-0.54498 -0.16465 -0.52594 87 100 121
-0.53816 -0.16158 -0.51811 92 105 132
-0.53524 -0.16573 -0.50661 87 101 131
-0.53174 -0.16950 -0.49714 91 104 131
-0.52585 -0.17184 -0.49541 92 108 128
-0.51953 -0.17396 -0.49496 98 110 130
-0.51159 -0.17520 -0.49945 103 92 127
-0.50100 -0.17505 -0.51189 105 92 140
-0.49283 -0.17628 -0.51668 119 123 153
-0.48389 -0.17716 -0.52358 100 99 148
-0.48413 -0.18283 -0.50314 145 155 186
-0.14471 -0.19302 -0.84773 251 250 250
-0.15467 -0.19772 -0.85294 252 251 252
-0.14044 -0.19714 -0.83787 211 199 212
-0.12302 -0.19716 -0.85733 174 150 145
-0.11235 -0.19935 -0.86151 230 250 250
-0.10837 -0.21074 -0.85896 251 251 251
-0.04676 -0.23370 -0.81288 253 248 235
-0.05680 -0.23843 -0.81813 251 249 252
-0.03467 -0.23574 -0.81918 160 145 159
-0.01792 -0.23670 -0.83456 73 58 78
-0.01033 -0.23993 -0.83159 54 56 64
-0.00285 -0.24319 -0.82838 57 68 74
-0.00109 -0.24776 -0.81410 58 67 73
-0.00142 -0.25275 -0.79596 59 66 71
0.00360 -0.25650 -0.78825 61 64 67
0.00881 -0.26020 -0.78094 73 72 71
0.01805 -0.26778 -0.76433 61 64 75
0.08521 -0.29659 -0.73717 57 52 42
0.09461 -0.29949 -0.73740 65 49 31
0.10204 -0.30272 -0.73422 65 43 29
0.13921 -0.31459 -0.73370 55 27 28
0.14471 -0.31815 -0.72721 54 27 21
0.15223 -0.32141 -0.72406 55 26 35
0.16648 -0.32374 -0.73173 105 77 98
0.17132 -0.32739 -0.72418 193 192 188
0.18339 -0.33008 -0.72816 244 248 230
0.18742 -0.34159 -0.72558 251 250 251
0.19161 -0.33329 -0.72595 252 251 232
0.19564 -0.34482 -0.72337 251 250 251
0.19949 -0.33655 -0.72320 252 251 234
0.20353 -0.34808 -0.72061 251 250 251
0.20948 -0.33956 -0.72369 252 251 243
0.21352 -0.35112 -0.72110 252 250 251
0.51059 -0.50107 -0.48680 253 252 248
0.50062 -0.50577 -0.49202 254 254 253
0.50031 -0.50429 -0.46381 231 217 191
0.52584 -0.50764 -0.48053 86 48 48
0.53517 -0.51095 -0.47924 40 31 28
0.54086 -0.51422 -0.47396 43 41 40
0.55428 -0.51759 -0.47705 42 38 34
0.55657 -0.53339 -0.42339 52 52 57
0.61178 -0.55325 -0.41465 251 244 226
0.60878 -0.56119 -0.41599 249 249 249
0.61569 -0.56445 -0.41214 254 254 253
-0.70824 0.00578 -0.95340 74 67 80
-0.71187 0.01616 -0.95573 68 70 76
-0.71465 0.00881 -0.95697 69 71 75
-0.71743 0.00145 -0.95821 68 73 77
-0.70546 0.01314 -0.95217 65 66 78
-0.70123 0.00352 -0.95329 83 86 80
-0.69202 0.00786 -0.94847 75 78 83
-0.69481 0.00050 -0.94971 84 82 83
-0.68860 -0.00279 -0.94495 89 88 93
-0.68497 -0.01318 -0.94262 97 96 96
-0.67208 -0.01498 -0.91994 95 88 81
-0.68122 -0.01929 -0.92473 101 97 97
-0.66299 -0.01496 -0.93038 49 44 49
-0.65200 -0.02298 -0.91407 45 48 63
-0.64703 -0.02748 -0.90351 57 49 75
-0.64429 -0.03422 -0.88238 73 80 87
-0.63514 -0.04361 -0.85899 81 79 79
-0.62982 -0.04750 -0.85107 74 76 79
-0.62085 -0.04327 -0.84637 61 63 78
-0.62433 -0.05117 -0.84411 69 69 80
-0.61537 -0.04695 -0.83943 60 61 80
-0.61808 -0.05412 -0.84064 66 64 75
-0.53191 -0.16870 -0.52626 71 75 101
-0.52876 -0.17770 -0.52424 83 94 95
-0.52622 -0.17125 -0.52359 75 72 98
-0.52307 -0.18025 -0.52157 79 86 101
-0.52182 -0.17453 -0.51679 61 62 94
-0.51456 -0.17619 -0.51910 56 65 113
-0.51219 -0.18056 -0.50607 81 93 130
-0.50396 -0.18172 -0.51130 94 102 130
-0.49434 -0.18221 -0.52052 78 72 122
-0.48240 -0.18158 -0.53644 65 55 116
-0.47733 -0.18454 -0.53157 119 125 160
-0.47038 -0.18656 -0.53224 206 218 228
-0.46227 -0.18273 -0.52799 249 251 251
-0.46472 -0.18923 -0.52909 246 252 253
-0.46718 -0.19573 -0.53018 227 237 252
-0.15518 -0.20333 -0.83214 246 240 244
-0.13556 -0.20267 -0.85696 130 122 202
-0.12822 -0.20585 -0.85386 199 181 169
-0.11938 -0.20860 -0.85408 249 253 253
-0.11541 -0.21994 -0.85153 251 250 251
-0.05776 -0.24368 -0.79810 252 248 234
-0.06772 -0.24838 -0.80331 251 250 252
-0.03772 -0.24381 -0.82054 156 138 150
-0.02313 -0.24535 -0.83169 73 52 58
-0.01489 -0.24842 -0.83005 56 42 38
-0.00927 -0.25210 -0.82322 59 49 51
-0.00677 -0.25645 -0.81037 60 50 52
-0.00682 -0.26132 -0.79277 61 48 49
-0.00223 -0.26514 -0.78426 61 50 51
0.00274 -0.26886 -0.77655 73 68 66
0.00749 -0.27261 -0.76847 84 76 75
0.01419 -0.27594 -0.76412 65 57 63
0.02700 -0.27808 -0.77105 62 63 61
0.03358 -0.28146 -0.76640 71 73 57
0.03808 -0.28523 -0.75796 76 71 50
0.04519 -0.28850 -0.75432 64 51 12
0.05520 -0.28378 -0.74909 60 54 42
0.04814 -0.29251 -0.74321 54 30 14
0.05623 -0.29559 -0.74136 52 25 16
0.06521 -0.29853 -0.74103 51 28 25
0.07411 -0.30150 -0.74053 56 34 14
0.08232 -0.30459 -0.73877 68 49 13
0.09152 -0.30754 -0.73866 80 58 10
0.09773 -0.31097 -0.73341 91 62 22
0.10735 -0.31387 -0.73395 95 66 33
0.11782 -0.31666 -0.73585 106 69 24
0.12591 -0.31983 -0.73369 117 79 45
0.13644 -0.32265 -0.73556 129 93 62
0.14923 -0.32519 -0.74104 140 105 76
0.15693 -0.32845 -0.73808 157 119 104
0.15940 -0.33241 -0.72663 195 176 173
0.17222 -0.33501 -0.73192 233 234 233
0.17624 -0.34652 -0.72934 251 250 251
0.17997 -0.33828 -0.72900 249 251 251
0.18399 -0.34979 -0.72642 251 250 251
0.50576 -0.50904 -0.48612 250 251 249
0.50970 -0.52030 -0.48359 245 250 246
0.50604 -0.51226 -0.47483 235 229 214
0.51712 -0.51557 -0.47558 166 138 125
0.52287 -0.51883 -0.47041 123 105 94
0.53035 -0.52211 -0.46715 118 95 64
0.55459 -0.52567 -0.48204 115 85 62
0.55114 -0.52878 -0.46688 100 61 56
0.55650 -0.54438 -0.41679 47 46 44
0.56038 -0.55546 -0.41431 100 67 46
0.56633 -0.55072 -0.40521 21 26 54
0.58246 -0.55425 -0.41092 160 166 188
0.59254 -0.55760 -0.41036 231 224 240
-0.71257 -0.00358 -0.94553 76 76 83
-0.72172 -0.00789 -0.95032 74 74 77
-0.70583 -0.00613 -0.94406 85 95 73
-0.69952 -0.00926 -0.94000 90 86 79
-0.69353 -0.01275 -0.93425 96 97 96
-0.67614 -0.02376 -0.91431 95 97 97
-0.66944 -0.02638 -0.91256 78 80 73
-0.66171 -0.02790 -0.91602 43 35 51
-0.65810 -0.03823 -0.91370 39 37 49
-0.65689 -0.03256 -0.90461 41 43 55
-0.65097 -0.03601 -0.89892 51 47 67
-0.64679 -0.04122 -0.88480 63 54 80
-0.64424 -0.04797 -0.86314 89 91 83
-0.63905 -0.05197 -0.85456 93 90 84
-0.63344 -0.05554 -0.84808 81 78 81
-0.62783 -0.05909 -0.84167 73 72 80
-0.62430 -0.06919 -0.83941 71 74 79
-0.62195 -0.06236 -0.83658 68 68 76
-0.61302 -0.05815 -0.83190 66 63 76
-0.61572 -0.06530 -0.83311 64 64 72
-0.61843 -0.07245 -0.83431 64 70 74
-0.51633 -0.09059 -0.85660 44 49 53
-0.51997 -0.08016 -0.85893 50 50 53
-0.52555 -0.09494 -0.86142 57 61 62
-0.51353 -0.08320 -0.85535 43 43 52
-0.50710 -0.08624 -0.85177 45 44 48
-0.50989 -0.09362 -0.85302 43 46 52
-0.51662 -0.18239 -0.52128 68 73 113
-0.51347 -0.19140 -0.51925 16 32 128
-0.50747 -0.18310 -0.52935 56 60 120
-0.49898 -0.18422 -0.53514 40 42 117
-0.49234 -0.18635 -0.53510 39 41 108
-0.48358 -0.18742 -0.54140 60 61 110
-0.47554 -0.18891 -0.54531 119 122 164
-0.46449 -0.18897 -0.55798 194 207 231
-0.17209 -0.21018 -0.82113 252 250 250
-0.17596 -0.19910 -0.82361 252 251 252
-0.17893 -0.20696 -0.82493 252 251 251
-0.18190 -0.21481 -0.82626 252 251 251
-0.16086 -0.21207 -0.82733 237 224 223
-0.15072 -0.21433 -0.83089 79 76 172
-0.14506 -0.21795 -0.82427 195 218 227
-0.12703 -0.21797 -0.84518 252 251 253
-0.12308 -0.22925 -0.84265 249 251 252
-0.06683 -0.25310 -0.78712 252 249 239
-0.07673 -0.25776 -0.79230 251 249 251
-0.06982 -0.26102 -0.78846 252 250 249
-0.06455 -0.25743 -0.77395 202 180 179
-0.03495 -0.25548 -0.81556 163 132 125
-0.02734 -0.25866 -0.81283 158 133 111
-0.03485 -0.26517 -0.78033 164 143 119
-0.03002 -0.26889 -0.77236 162 145 119
-0.02481 -0.27251 -0.76521 137 121 102
-0.00762 -0.27365 -0.78109 92 69 70
-0.00047 -0.27690 -0.77754 84 61 78
-0.00686 -0.28284 -0.74845 128 113 125
0.00754 -0.28463 -0.75866 159 148 132
0.01594 -0.28763 -0.75751 172 166 142
0.02288 -0.29091 -0.75364 177 177 144
0.03073 -0.29402 -0.75142 182 177 142
0.04246 -0.29645 -0.75621 174 155 96
0.04452 -0.30060 -0.74348 155 120 78
0.05433 -0.30340 -0.74470 153 112 81
0.06130 -0.30668 -0.74082 159 122 89
0.07278 -0.30924 -0.74485 168 136 102
0.08722 -0.31136 -0.75393 178 157 107
0.09492 -0.31458 -0.75114 184 169 111
0.10315 -0.31773 -0.74926 191 176 124
0.11138 -0.32088 -0.74734 195 181 136
0.11870 -0.32417 -0.74385 203 185 127
0.12496 -0.32762 -0.73859 211 195 148
0.13581 -0.33043 -0.74096 221 207 166
0.14344 -0.33369 -0.73794 229 216 183
0.15267 -0.33675 -0.73751 241 225 202
0.15669 -0.34824 -0.73494 251 250 250
0.16087 -0.33996 -0.73537 249 244 232
0.16489 -0.35145 -0.73279 251 249 251
0.16917 -0.34316 -0.73334 251 251 249
0.17319 -0.35467 -0.73076 251 249 251
0.49590 -0.51374 -0.49145 251 249 247
0.49197 -0.50249 -0.49397 254 254 254
0.48895 -0.51046 -0.49531 254 254 253
0.50096 -0.51700 -0.48546 232 232 239
0.51079 -0.52348 -0.47324 253 249 228
0.51475 -0.52670 -0.46613 254 245 220
0.51866 -0.53789 -0.46362 253 254 254
0.52006 -0.52993 -0.46053 254 244 207
0.53347 -0.53332 -0.46375 251 237 207
0.54204 -0.54886 -0.41703 114 100 86
0.54984 -0.55211 -0.41425 101 78 49
0.56020 -0.55844 -0.40325 89 76 80
0.56406 -0.56947 -0.40078 237 239 228
0.57551 -0.56197 -0.40817 199 214 208
0.58401 -0.56527 -0.40604 232 221 217
0.59481 -0.56867 -0.40622 246 248 249
0.60168 -0.57191 -0.40240 253 254 254
0.59870 -0.57980 -0.40373 254 254 254
-0.69182 -0.02531 -0.92144 97 97 97
-0.68667 -0.02968 -0.91141 90 92 89
-0.67994 -0.03223 -0.90997 80 89 87
-0.67328 -0.03486 -0.90814 68 80 70
-0.66684 -0.03776 -0.90507 46 46 53
-0.64863 -0.05680 -0.85630 95 99 96
-0.64647 -0.06371 -0.83334 131 142 129
-0.63664 -0.06317 -0.84699 99 102 97
-0.63115 -0.06681 -0.84004 77 80 83
-0.51946 -0.09821 -0.85655 57 57 57
-0.52868 -0.10256 -0.86138 57 60 69
-0.52225 -0.10559 -0.85780 62 58 69
-0.51333 -0.10145 -0.85186 51 49 52
-0.50411 -0.09710 -0.84704 45 45 53
-0.50690 -0.10448 -0.84828 44 46 48
-0.50969 -0.11186 -0.84953 49 49 50
-0.49973 -0.18980 -0.54148 28 39 131
-0.49335 -0.19209 -0.54059 43 50 127
-0.48378 -0.19280 -0.54932 59 62 127
-0.46914 -0.19109 -0.57302 100 102 166
-0.44848 -0.18665 -0.61395 136 157 217
-0.44360 -0.18992 -0.60764 144 160 229
-0.43515 -0.18594 -0.60322 238 243 251
-0.44120 -0.19433 -0.59421 167 181 232
-0.43279 -0.19036 -0.58981 248 252 250
-0.43534 -0.19710 -0.59094 213 230 247
-0.17911 -0.21927 -0.81307 253 249 247
-0.18888 -0.22387 -0.81817 252 252 252
-0.16515 -0.22035 -0.82565 237 223 201
-0.15768 -0.22340 -0.82321 84 88 127
-0.14654 -0.22542 -0.82900 196 242 251
-0.14263 -0.23659 -0.82650 243 242 252
-0.13706 -0.22794 -0.83092 246 243 252
-0.13314 -0.23914 -0.82840 246 249 252
-0.06489 -0.26472 -0.78062 250 240 238
-0.06047 -0.26852 -0.77183 240 232 226
-0.05353 -0.27175 -0.76813 229 234 223
-0.04563 -0.27478 -0.76633 224 237 211
-0.03994 -0.27827 -0.76018 222 213 164
-0.02219 -0.27930 -0.77745 176 151 120
-0.03566 -0.28664 -0.73431 130 103 117
-0.02156 -0.28844 -0.74442 153 127 153
-0.01020 -0.29081 -0.74911 201 196 209
-0.00069 -0.29357 -0.75020 243 243 229
0.00322 -0.30475 -0.74769 251 249 251
0.00786 -0.29653 -0.74942 252 247 230
0.01177 -0.30773 -0.74691 250 249 251
0.01635 -0.29951 -0.74848 251 249 231
0.02027 -0.31072 -0.74596 250 249 250
0.02446 -0.30257 -0.74680 252 248 229
0.03480 -0.30526 -0.74913 251 242 209
0.04961 -0.30723 -0.75943 242 227 188
0.05721 -0.31043 -0.75660 241 223 192
0.07770 -0.31604 -0.76021 251 237 215
0.08168 -0.32744 -0.75765 252 250 251
0.08674 -0.31905 -0.75979 253 244 221
0.09074 -0.33048 -0.75723 251 250 251
0.08991 -0.32296 -0.74912 252 248 224
0.09389 -0.33435 -0.74657 250 249 252
0.09797 -0.32613 -0.74698 251 249 227
0.10196 -0.33752 -0.74442 250 249 252
0.10598 -0.32931 -0.74472 251 249 230
0.10997 -0.34072 -0.74216 250 249 252
0.11388 -0.33252 -0.74223 251 249 228
0.11787 -0.34393 -0.73967 250 249 252
0.12166 -0.33574 -0.73954 251 250 233
0.12565 -0.34717 -0.73698 250 249 252
0.13012 -0.33889 -0.73797 251 251 238
0.13412 -0.35032 -0.73540 250 249 252
0.13955 -0.34192 -0.73795 252 251 242
0.14356 -0.35338 -0.73538 251 249 252
0.14912 -0.34495 -0.73810 252 251 246
0.15313 -0.35643 -0.73553 251 249 251
0.48636 -0.51845 -0.49714 254 253 252
0.48243 -0.50719 -0.49967 254 254 254
0.47941 -0.51517 -0.50101 254 254 254
0.47640 -0.52314 -0.50236 254 254 254
0.49135 -0.52170 -0.49105 249 242 230
0.48360 -0.52472 -0.47066 201 179 191
0.50070 -0.52816 -0.47826 220 226 236
0.50901 -0.53145 -0.47594 243 250 254
0.51354 -0.53467 -0.46944 249 253 254
0.52533 -0.54114 -0.45951 254 254 254
0.52950 -0.54432 -0.45270 254 254 252
0.53413 -0.55054 -0.43523 254 253 221
0.53801 -0.56165 -0.43274 251 253 254
0.53920 -0.55371 -0.42951 254 250 207
0.54308 -0.56481 -0.42703 252 254 254
0.54235 -0.55681 -0.42180 254 245 215
0.54622 -0.56788 -0.41931 251 253 254
0.54942 -0.56005 -0.41824 254 244 204
0.55539 -0.56324 -0.41352 254 238 203
0.56378 -0.56653 -0.41133 233 223 211
0.56766 -0.57760 -0.40885 216 193 217
0.57889 -0.57304 -0.40517 245 229 203
0.58816 -0.57638 -0.40383 252 251 247
0.59205 -0.58749 -0.40134 254 254 254
-0.69639 -0.03471 -0.91256 89 87 90
-0.69188 -0.03975 -0.89916 74 74 81
-0.68577 -0.04292 -0.89468 58 56 70
-0.67913 -0.04551 -0.89299 45 38 58
-0.67256 -0.04820 -0.89089 31 29 46
-0.65326 -0.06586 -0.84812 94 91 105
-0.64916 -0.07081 -0.83454 146 151 156
-0.64099 -0.07187 -0.84043 105 109 117
-0.63501 -0.07502 -0.83588 71 74 70
-0.62884 -0.07800 -0.83220 67 69 70
-0.57618 -0.08329 -0.87608 58 65 73
-0.57980 -0.07292 -0.87841 67 67 70
-0.58258 -0.08027 -0.87965 61 65 72
-0.57340 -0.07594 -0.87485 64 68 70
-0.56700 -0.07896 -0.87128 67 67 71
-0.56920 -0.08586 -0.87489 58 64 71
-0.56001 -0.08153 -0.87009 63 63 63
-0.56118 -0.08764 -0.87791 55 61 67
-0.55196 -0.08330 -0.87309 58 59 67
-0.55475 -0.09068 -0.87433 55 58 67
-0.49470 -0.12364 -0.82356 57 54 66
-0.49832 -0.11330 -0.82588 54 53 58
-0.50108 -0.12063 -0.82711 52 51 56
-0.48555 -0.11932 -0.81877 79 80 88
-0.48832 -0.12665 -0.82001 63 64 78
-0.49909 -0.19471 -0.55219 29 45 149
-0.50722 -0.19854 -0.55645 20 43 154
-0.50155 -0.20122 -0.55329 24 45 162
-0.49287 -0.19711 -0.55070 41 52 150
-0.48185 -0.19717 -0.56383 55 65 149
-0.47860 -0.20645 -0.56175 75 80 161
-0.47172 -0.19775 -0.57389 81 89 158
-0.46432 -0.19971 -0.57552 62 83 174
-0.46105 -0.20907 -0.57342 57 69 161
-0.45610 -0.20130 -0.57950 33 56 174
-0.44812 -0.20305 -0.58258 61 81 179
-0.43347 -0.20185 -0.60481 117 151 217
-0.42500 -0.19786 -0.60038 241 250 254
-0.20575 -0.21847 -0.81800 242 239 243
-0.19602 -0.21388 -0.81292 252 251 252
-0.19712 -0.22110 -0.81858 249 250 252
-0.18516 -0.22800 -0.80720 253 250 246
-0.17251 -0.22950 -0.81690 239 225 192
-0.16492 -0.23250 -0.81484 105 110 105
-0.15279 -0.23425 -0.82297 196 240 251
-0.10321 -0.26148 -0.78097 251 250 252
-0.10709 -0.25041 -0.78345 250 249 251
-0.11005 -0.25826 -0.78478 250 250 252
-0.10025 -0.25364 -0.77965 250 249 251
-0.09341 -0.25686 -0.77584 250 249 251
-0.09458 -0.26429 -0.78092 246 251 252
-0.08875 -0.26775 -0.77499 233 247 252
-0.07796 -0.27010 -0.77927 225 245 251
-0.07043 -0.27319 -0.77677 236 236 234
-0.06453 -0.27664 -0.77099 226 212 197
-0.05570 -0.27947 -0.77110 178 165 206
-0.04732 -0.28241 -0.77023 141 169 218
-0.04050 -0.28567 -0.76627 170 179 165
-0.03002 -0.28821 -0.76942 188 161 133
-0.02832 -0.29248 -0.75550 193 174 180
-0.01999 -0.29545 -0.75444 228 219 229
-0.01609 -0.30661 -0.75194 247 249 247
-0.01229 -0.29855 -0.75215 242 244 244
-0.00839 -0.30972 -0.74964 250 250 252
-0.00454 -0.30165 -0.74993 249 251 252
-0.00063 -0.31282 -0.74742 250 248 250
0.02967 -0.31358 -0.74663 251 250 247
0.01972 -0.31827 -0.75183 250 248 250
0.02666 -0.32155 -0.74797 250 248 250
0.03360 -0.32482 -0.74411 250 249 251
0.04465 -0.31557 -0.75730 252 251 243
0.04861 -0.32689 -0.75476 250 249 251
0.05741 -0.31796 -0.76377 252 251 244
0.06139 -0.32934 -0.76122 250 249 251
0.07472 -0.32411 -0.76170 252 250 250
0.07870 -0.33552 -0.75914 250 249 251
0.48071 -0.52638 -0.49548 254 254 250
0.47076 -0.53107 -0.50068 254 254 254
0.47770 -0.53434 -0.49682 254 254 253
0.48428 -0.52958 -0.48779 250 242 216
0.50119 -0.53307 -0.49519 207 163 134
0.49507 -0.53913 -0.46511 202 211 221
0.50513 -0.54246 -0.46479 223 224 228
0.52234 -0.54907 -0.46085 241 249 254
0.52651 -0.55224 -0.45403 242 251 254
0.53301 -0.55848 -0.43855 248 252 254
0.55401 -0.57115 -0.41650 250 253 251
0.55788 -0.58223 -0.41401 181 149 150
0.56038 -0.57436 -0.41221 235 239 235
0.57532 -0.58087 -0.40588 239 231 222
0.58373 -0.58418 -0.40366 253 252 250
0.58761 -0.59527 -0.40118 254 254 254
-0.83005 -0.00528 -0.89158 73 67 56
-0.83349 0.00456 -0.89379 64 66 80
-0.83613 -0.00241 -0.89496 67 66 71
-0.82741 0.00170 -0.89040 64 65 79
-0.82134 -0.00117 -0.88702 73 68 81
-0.82354 -0.00736 -0.89171 89 86 55
-0.81693 -0.00932 -0.89239 93 90 73
-0.80819 -0.00520 -0.88782 81 79 85
-0.81084 -0.01220 -0.88900 87 83 89
-0.74305 -0.04293 -0.85600 68 81 80
-0.75181 -0.04706 -0.86058 79 79 87
-0.73959 -0.05282 -0.85378 99 106 87
-0.70358 -0.04708 -0.88892 83 82 86
-0.69771 -0.05045 -0.88335 60 52 76
-0.69114 -0.05305 -0.88159 39 25 55
-0.68427 -0.05533 -0.88143 22 18 38
-0.67846 -0.05876 -0.87557 21 19 29
-0.65709 -0.07409 -0.84378 102 102 118
-0.65197 -0.07803 -0.83513 128 132 130
-0.64566 -0.08084 -0.83227 66 64 67
-0.64215 -0.09086 -0.83002 45 48 57
-0.63891 -0.08325 -0.83142 52 51 60
-0.63215 -0.08567 -0.83060 53 53 50
-0.58488 -0.08723 -0.88293 50 53 63
-0.58008 -0.09153 -0.87254 47 52 60
-0.57310 -0.09408 -0.87147 48 50 56
-0.56503 -0.09583 -0.87480 49 49 56
-0.55786 -0.09829 -0.87429 51 50 56
-0.54865 -0.09395 -0.86947 58 60 65
-0.55100 -0.10101 -0.87243 51 53 53
-0.54178 -0.09666 -0.86761 62 60 61
-0.54424 -0.10380 -0.87016 49 50 50
-0.53502 -0.09946 -0.86533 59 59 66
-0.53808 -0.10703 -0.86553 48 52 53
-0.53182 -0.11018 -0.86131 50 53 58
-0.52539 -0.11321 -0.85773 54 56 60
-0.50468 -0.12847 -0.82535 49 50 56
-0.50829 -0.11815 -0.82766 48 46 52
-0.51106 -0.12547 -0.82890 49 51 60
-0.50076 -0.13298 -0.81309 52 53 62
-0.49147 -0.20174 -0.56375 36 51 165
-0.49967 -0.20560 -0.56804 22 45 171
-0.48346 -0.20333 -0.56759 55 65 164
-0.48021 -0.21262 -0.56551 63 76 171
-0.46821 -0.20699 -0.57251 68 70 157
-0.45219 -0.21043 -0.57921 41 69 169
-0.45471 -0.21710 -0.58033 50 73 175
-0.44558 -0.21282 -0.57827 25 52 176
-0.43884 -0.21517 -0.57767 69 93 194
-0.24115 -0.20975 -0.84189 252 250 250
-0.24500 -0.19875 -0.84436 253 253 253
-0.24795 -0.20655 -0.84567 252 253 253
-0.23820 -0.20195 -0.84057 252 252 253
-0.23141 -0.20516 -0.83679 252 252 253
-0.23366 -0.21273 -0.83983 250 245 248
-0.22391 -0.20813 -0.83473 253 252 253
-0.22686 -0.21594 -0.83605 251 249 250
-0.21885 -0.21877 -0.83519 246 243 245
-0.21756 -0.22370 -0.81805 222 217 226
-0.21258 -0.22745 -0.81000 217 213 221
-0.20134 -0.22928 -0.81689 237 240 244
-0.19487 -0.23258 -0.81234 244 246 248
-0.18996 -0.23633 -0.80420 248 250 247
-0.18011 -0.23865 -0.80753 240 227 193
-0.16738 -0.24021 -0.81731 134 103 92
-0.17264 -0.24673 -0.78610 172 192 197
-0.15075 -0.24587 -0.81633 225 244 251
-0.14556 -0.24955 -0.80878 225 243 252
-0.13574 -0.24492 -0.80365 251 250 251
-0.14151 -0.25350 -0.79879 226 245 252
-0.13172 -0.24888 -0.79367 251 249 251
-0.13591 -0.25703 -0.79232 227 245 252
-0.12613 -0.25241 -0.78721 251 249 251
-0.13162 -0.26087 -0.78304 227 245 252
-0.12187 -0.25627 -0.77794 251 250 252
-0.12629 -0.26443 -0.77609 233 239 250
-0.12200 -0.26823 -0.76697 239 236 243
-0.11817 -0.27920 -0.76451 226 185 206
-0.11613 -0.27163 -0.76130 245 221 229
-0.10975 -0.27491 -0.75672 227 207 222
-0.09576 -0.27650 -0.76792 173 173 226
-0.08690 -0.27927 -0.76834 142 178 238
-0.07715 -0.28187 -0.77050 181 183 221
-0.06635 -0.28429 -0.77466 211 182 167
-0.05640 -0.28690 -0.77700 185 147 182
-0.05031 -0.29032 -0.77156 155 160 223
-0.04574 -0.29402 -0.76316 190 209 225
-0.03768 -0.29703 -0.76165 240 237 223
-0.02966 -0.30007 -0.76001 251 246 237
-0.02199 -0.30318 -0.75768 247 246 247
0.25653 -0.44026 -0.58104 250 247 248
0.25265 -0.42918 -0.58352 252 252 253
0.24969 -0.43703 -0.58485 252 253 252
0.25949 -0.43241 -0.57972 252 253 253
0.26633 -0.43564 -0.57591 253 253 253
0.26337 -0.44349 -0.57723 250 248 247
0.47240 -0.53731 -0.47902 254 252 240
0.46252 -0.54196 -0.48418 254 254 254
0.46941 -0.54521 -0.48035 254 254 253
0.47740 -0.54051 -0.47306 249 225 178
0.48928 -0.54694 -0.46331 173 135 115
0.49997 -0.55030 -0.46373 184 139 123
0.48824 -0.55291 -0.43938 186 164 209
0.49327 -0.55605 -0.43365 166 195 219
0.49712 -0.56706 -0.43118 23 25 59
0.49750 -0.55916 -0.42708 158 198 219
0.50241 -0.56229 -0.42127 175 210 225
0.51688 -0.56581 -0.42576 207 220 229
0.53203 -0.56939 -0.43086 228 227 239
0.53642 -0.57251 -0.42444 233 231 241
0.54235 -0.57569 -0.41968 229 231 241
0.54808 -0.57886 -0.41472 218 224 218
0.54867 -0.58461 -0.39362 183 143 138
0.54573 -0.59239 -0.39493 213 187 198
0.56952 -0.58857 -0.40430 231 237 234
0.57339 -0.59964 -0.40182 254 254 254
0.57745 -0.59186 -0.40162 251 253 253
0.58132 -0.60293 -0.39913 254 254 254
-0.83872 -0.00930 -0.89651 73 70 75
-0.84216 0.00054 -0.89872 65 65 77
-0.84480 -0.00643 -0.89989 67 66 76
-0.83238 -0.01169 -0.89530 85 85 74
-0.82417 -0.01075 -0.90923 122 124 91
-0.81772 -0.01307 -0.90841 114 115 101
-0.81219 -0.01701 -0.90021 97 92 99
-0.80341 -0.01287 -0.89562 84 83 92
-0.80607 -0.01990 -0.89680 89 89 95
-0.80872 -0.02693 -0.89798 93 93 90
-0.74939 -0.05466 -0.83440 80 84 91
-0.75806 -0.05875 -0.83893 83 80 91
-0.71684 -0.05631 -0.86898 96 90 111
-0.70894 -0.05727 -0.87519 82 82 88
-0.70100 -0.05827 -0.88133 59 57 62
-0.69425 -0.06065 -0.88067 33 19 40
-0.68816 -0.06377 -0.87632 14 14 13
-0.68233 -0.06714 -0.87071 18 15 20
-0.67917 -0.07322 -0.85132 23 28 41
-0.67413 -0.07730 -0.84197 31 34 46
-0.66956 -0.08177 -0.83053 30 33 56
-0.66172 -0.08305 -0.83543 99 115 99
-0.65668 -0.08703 -0.82648 66 80 100
-0.64901 -0.08856 -0.83025 46 40 54
-0.63525 -0.09315 -0.82987 43 47 48
-0.58709 -0.09413 -0.88662 37 52 53
-0.58168 -0.09794 -0.87878 35 50 48
-0.57650 -0.10189 -0.87010 36 48 42
-0.56822 -0.10350 -0.87435 37 48 40
-0.56113 -0.10602 -0.87356 38 48 40
-0.55410 -0.10861 -0.87242 38 51 39
-0.54727 -0.11135 -0.87048 37 48 38
-0.54072 -0.11431 -0.86734 37 47 39
-0.53410 -0.11721 -0.86451 36 52 46
-0.52790 -0.12040 -0.86003 38 51 46
-0.51868 -0.11605 -0.85520 53 53 56
-0.52230 -0.12398 -0.85332 38 48 43
-0.51309 -0.11964 -0.84851 49 54 55
-0.51738 -0.12797 -0.84415 36 46 42
-0.51315 -0.13236 -0.83262 35 41 43
-0.50977 -0.13722 -0.81818 34 38 46
-0.50421 -0.14069 -0.81181 40 44 55
-0.49871 -0.14418 -0.80530 53 55 69
-0.50441 -0.19680 -0.59591 20 40 146
-0.50190 -0.19016 -0.59479 26 46 136
-0.49863 -0.19952 -0.59269 20 43 164
-0.49190 -0.20731 -0.57123 31 50 173
-0.50012 -0.21118 -0.57553 21 48 174
-0.49439 -0.21389 -0.57234 27 53 178
-0.48865 -0.21659 -0.56915 37 60 176
-0.48509 -0.20950 -0.57134 47 61 173
-0.47110 -0.21379 -0.57247 48 61 160
-0.47360 -0.22041 -0.57358 34 54 166
-0.46328 -0.21559 -0.57535 41 61 162
-0.44947 -0.22009 -0.57543 48 70 173
-0.44302 -0.22255 -0.57406 26 52 167
-0.43102 -0.22273 -0.58843 76 101 190
-0.31377 -0.20344 -0.80994 250 253 254
-0.31751 -0.19273 -0.81234 254 254 254
-0.32038 -0.20032 -0.81362 252 254 254
-0.31090 -0.19585 -0.80866 254 254 254
-0.30429 -0.19897 -0.80498 253 253 254
-0.30361 -0.20524 -0.81575 250 253 253
-0.29409 -0.20075 -0.81077 253 253 253
-0.29387 -0.20725 -0.82029 251 251 251
-0.28431 -0.20274 -0.81529 253 253 253
-0.28462 -0.20948 -0.82334 248 244 248
-0.27503 -0.20495 -0.81833 253 253 253
-0.27559 -0.21181 -0.82571 243 240 246
-0.26598 -0.20728 -0.82068 252 253 253
-0.26479 -0.21357 -0.83252 239 238 244
-0.25330 -0.21516 -0.84086 243 242 244
-0.24636 -0.21830 -0.83749 241 238 240
-0.24064 -0.22184 -0.83109 234 223 232
-0.23158 -0.22431 -0.83297 243 238 239
-0.22774 -0.23530 -0.83050 240 245 244
-0.22336 -0.22707 -0.83270 240 236 238
-0.22296 -0.23222 -0.81340 204 204 211
-0.21571 -0.23526 -0.81082 197 200 206
-0.20676 -0.23780 -0.81230 217 221 226
-0.20293 -0.24877 -0.80984 201 209 217
-0.19998 -0.24099 -0.80854 223 226 232
-0.19406 -0.24443 -0.80279 227 235 239
-0.18551 -0.24713 -0.80316 235 230 211
-0.17255 -0.24865 -0.81359 159 123 128
-0.16687 -0.25218 -0.80718 131 112 109
-0.16899 -0.25771 -0.78326 155 192 221
-0.16383 -0.26130 -0.77594 151 180 212
-0.15815 -0.26474 -0.76985 144 166 203
-0.15101 -0.26782 -0.76699 144 163 205
-0.14326 -0.27075 -0.76547 144 173 206
-0.13572 -0.27374 -0.76342 175 185 226
-0.12995 -0.27715 -0.75759 199 189 229
-0.10828 -0.28171 -0.76727 222 177 197
-0.10315 -0.28527 -0.76002 176 144 208
-0.09050 -0.28724 -0.76834 147 159 230
-0.07794 -0.28929 -0.77629 184 185 238
-0.07405 -0.30040 -0.77379 251 251 252
-0.07032 -0.29237 -0.77400 231 224 228
-0.06020 -0.29497 -0.77671 250 243 233
-0.05458 -0.29847 -0.77034 253 248 246
-0.04758 -0.30169 -0.76674 251 251 252
-0.03700 -0.30426 -0.77017 249 249 250
-0.02914 -0.30735 -0.76816 246 241 240
-0.02281 -0.31071 -0.76319 244 235 235
-0.01568 -0.31393 -0.75978 246 244 245
-0.00877 -0.31719 -0.75593 250 249 252
-0.01176 -0.32512 -0.75727 250 249 251
0.23389 -0.44191 -0.58146 253 253 252
0.23003 -0.43088 -0.58394 252 252 252
0.22708 -0.43870 -0.58525 252 252 252
0.22412 -0.44651 -0.58657 253 252 253
0.23684 -0.43410 -0.58015 252 252 252
0.24284 -0.44504 -0.58070 243 239 244
0.25093 -0.44821 -0.57869 242 232 230
0.26007 -0.45135 -0.57809 248 243 238
0.26987 -0.44672 -0.57297 252 251 250
0.26690 -0.45457 -0.57429 252 250 246
0.26394 -0.46242 -0.57561 253 253 250
0.47130 -0.54830 -0.47086 254 253 239
0.46146 -0.55294 -0.47601 254 254 254
0.46832 -0.55618 -0.47219 254 254 254
0.48034 -0.55461 -0.45797 250 221 171
0.49808 -0.55825 -0.46627 210 172 97
0.48740 -0.56080 -0.44304 149 124 81
0.48925 -0.56381 -0.43380 57 46 67
0.49310 -0.57481 -0.43133 52 32 26
0.50284 -0.57022 -0.42623 57 51 59
0.50308 -0.57312 -0.41540 143 97 92
0.51735 -0.57668 -0.41965 188 114 152
0.52070 -0.57971 -0.41221 194 125 160
0.52618 -0.58284 -0.40705 183 106 144
0.53002 -0.59382 -0.40459 218 182 139
0.53797 -0.58631 -0.40854 165 89 102
0.54182 -0.59732 -0.40607 243 226 202
0.54619 -0.58959 -0.40625 146 94 89
0.55005 -0.60061 -0.40377 253 251 248
0.56519 -0.59633 -0.40422 249 247 249
0.56223 -0.60417 -0.40554 254 254 254
0.56906 -0.60739 -0.40174 254 254 254
-0.84751 -0.01355 -0.90041 73 72 74
-0.85095 -0.00372 -0.90261 63 63 75
-0.85358 -0.01069 -0.90379 68 65 74
-0.84114 -0.01587 -0.89953 81 78 80
-0.83426 -0.01727 -0.90290 93 95 95
-0.82742 -0.01883 -0.90560 124 128 127
-0.82137 -0.02185 -0.90158 120 123 131
-0.81463 -0.02368 -0.90307 104 99 109
-0.75409 -0.06424 -0.82261 88 90 93
-0.74665 -0.06531 -0.82800 103 106 84
-0.73821 -0.06523 -0.83909 111 94 85
-0.73228 -0.06828 -0.83484 117 117 114
-0.72226 -0.06657 -0.85433 108 94 104
-0.71355 -0.06656 -0.86552 97 93 84
-0.70647 -0.06849 -0.86707 74 73 71
-0.69884 -0.06986 -0.87151 48 46 51
-0.69248 -0.07263 -0.86885 37 42 33
-0.68613 -0.07543 -0.86610 37 37 35
-0.68380 -0.08229 -0.84235 35 33 35
-0.67865 -0.08620 -0.83371 35 28 24
-0.67369 -0.09024 -0.82434 43 42 48
-0.66928 -0.09476 -0.81238 60 67 62
-0.66582 -0.10465 -0.81016 20 13 27
-0.66293 -0.09741 -0.81017 45 50 69
-0.65234 -0.09623 -0.82835 38 33 61
-0.64561 -0.09865 -0.82754 35 37 51
-0.63840 -0.10067 -0.82891 35 35 42
-0.63004 -0.10174 -0.83543 30 32 42
-0.61374 -0.10446 -0.84573 25 27 38
-0.60478 -0.10527 -0.85405 22 19 44
-0.59796 -0.10784 -0.85278 19 16 34
-0.59439 -0.11806 -0.85048 9 8 20
-0.58971 -0.10933 -0.85755 15 15 28
-0.58612 -0.11959 -0.85525 10 7 16
-0.58409 -0.11286 -0.85102 16 14 25
-0.58050 -0.12310 -0.84872 10 6 15
-0.57565 -0.11428 -0.85627 16 13 23
-0.57205 -0.12457 -0.85396 10 5 14
-0.56794 -0.11630 -0.85828 15 11 22
-0.56433 -0.12662 -0.85597 9 5 12
-0.56063 -0.11864 -0.85852 13 11 22
-0.55702 -0.12897 -0.85621 7 6 8
-0.55406 -0.12152 -0.85574 11 9 20
-0.55045 -0.13185 -0.85342 8 7 7
-0.54723 -0.12422 -0.85395 11 9 20
-0.54361 -0.13457 -0.85163 7 6 8
-0.54078 -0.12719 -0.85064 11 9 23
-0.53716 -0.13754 -0.84832 8 6 7
-0.53399 -0.12994 -0.84863 10 7 22
-0.53036 -0.14030 -0.84631 9 3 9
-0.52756 -0.13294 -0.84518 9 5 21
-0.52394 -0.14330 -0.84286 10 4 13
-0.52170 -0.13629 -0.83964 9 6 24
-0.51640 -0.13998 -0.83208 8 5 21
-0.51078 -0.14345 -0.82576 12 7 20
-0.50672 -0.14782 -0.81390 30 17 44
-0.50205 -0.15179 -0.80443 53 50 61
-0.50380 -0.20187 -0.60711 17 38 146
-0.50132 -0.20625 -0.59322 20 44 164
-0.49805 -0.21561 -0.59112 21 46 171
-0.48146 -0.21864 -0.57040 45 66 173
-0.48971 -0.22252 -0.57471 29 56 181
-0.47821 -0.22795 -0.56831 35 52 174
-0.46712 -0.22282 -0.57249 34 54 169
-0.46019 -0.22504 -0.57269 45 69 178
-0.45293 -0.22715 -0.57380 48 76 179
-0.44628 -0.22953 -0.57303 33 62 164
-0.31677 -0.21107 -0.81085 221 230 236
-0.30771 -0.21330 -0.81378 228 236 238
-0.29838 -0.21547 -0.81726 235 234 234
-0.29124 -0.21844 -0.81483 220 204 220
-0.28405 -0.22140 -0.81254 203 185 212
-0.27614 -0.22413 -0.81204 207 195 213
-0.27237 -0.23493 -0.80961 196 201 201
-0.26489 -0.22577 -0.82006 217 211 218
-0.25716 -0.22861 -0.81890 214 216 222
-0.25035 -0.23174 -0.81540 203 209 220
-0.23681 -0.23280 -0.82862 223 228 233
-0.22614 -0.24005 -0.81408 222 222 219
-0.21850 -0.24297 -0.81247 203 197 196
-0.21184 -0.24618 -0.80849 204 209 211
-0.19730 -0.25228 -0.80338 206 212 221
-0.19066 -0.25550 -0.79933 233 236 222
-0.18517 -0.25902 -0.79265 207 191 183
-0.17677 -0.26178 -0.79264 156 137 120
-0.17266 -0.26564 -0.78287 142 163 186
-0.16267 -0.26802 -0.78640 135 129 162
-0.15830 -0.27180 -0.77730 130 112 149
-0.14444 -0.27808 -0.77057 130 126 158
-0.13865 -0.28149 -0.76473 165 167 209
-0.12988 -0.28422 -0.76531 191 184 238
-0.12448 -0.28770 -0.75866 225 219 238
-0.12065 -0.29864 -0.75621 252 250 252
-0.12010 -0.29139 -0.74989 246 239 236
-0.11629 -0.30230 -0.74744 251 250 252
-0.10962 -0.29379 -0.75397 252 242 240
-0.09640 -0.29567 -0.76357 252 248 246
-0.08497 -0.29797 -0.76928 252 251 250
-0.06402 -0.30304 -0.77636 247 250 251
-0.05811 -0.30647 -0.77058 245 244 245
-0.04854 -0.30923 -0.77210 239 231 230
-0.04008 -0.31220 -0.77132 232 222 212
-0.03194 -0.31525 -0.76990 236 223 212
-0.02670 -0.31879 -0.76280 243 228 225
-0.02279 -0.32997 -0.76029 251 250 249
-0.01930 -0.32197 -0.75992 246 241 242
-0.01538 -0.33315 -0.75742 250 248 250
0.23572 -0.45300 -0.57614 202 167 210
0.24274 -0.45620 -0.57266 225 208 207
0.25590 -0.45923 -0.57775 248 245 238
0.25977 -0.47029 -0.57527 253 253 253
0.45808 -0.56167 -0.43766 254 254 241
0.45465 -0.56443 -0.42253 254 252 214
0.46858 -0.56792 -0.42679 254 244 174
0.47423 -0.57105 -0.42182 125 93 80
0.48989 -0.57752 -0.41669 115 91 36
0.48697 -0.58527 -0.41799 178 156 128
0.49372 -0.58845 -0.41423 246 248 218
0.50865 -0.58132 -0.42588 200 182 108
0.51250 -0.59234 -0.42341 254 254 222
0.51667 -0.58460 -0.42340 212 180 129
0.51697 -0.58745 -0.41268 204 167 121
0.52185 -0.59054 -0.40690 203 160 116
-0.85630 -0.01782 -0.90424 72 71 77
-0.85974 -0.00798 -0.90644 62 62 73
-0.86237 -0.01495 -0.90762 66 66 75
-0.85893 -0.02479 -0.90541 75 76 81
-0.85286 -0.02766 -0.90203 80 81 87
-0.84996 -0.02017 -0.90323 78 79 80
-0.84375 -0.02281 -0.90093 86 85 87
-0.83678 -0.02404 -0.90516 97 97 103
-0.83025 -0.02617 -0.90527 116 120 129
-0.82414 -0.02906 -0.90187 119 120 130
-0.81705 -0.03030 -0.90622 105 104 111
-0.76561 -0.07205 -0.80853 91 74 86
-0.76898 -0.06241 -0.81069 81 79 86
-0.77157 -0.06924 -0.81184 80 74 85
-0.75906 -0.07411 -0.80894 99 98 114
-0.75071 -0.07400 -0.82028 127 125 119
-0.74167 -0.07319 -0.83531 154 138 109
-0.73193 -0.07174 -0.85375 160 157 151
-0.72762 -0.07671 -0.83977 156 148 147
-0.72090 -0.07888 -0.83998 159 159 144
-0.71566 -0.08270 -0.83175 154 154 144
-0.70930 -0.08528 -0.82986 141 146 136
-0.70308 -0.08803 -0.82712 132 140 130
-0.69668 -0.09059 -0.82537 129 134 123
-0.69166 -0.09455 -0.81629 114 121 105
-0.68619 -0.09802 -0.80973 98 96 75
-0.67830 -0.09914 -0.81560 75 78 65
-0.67040 -0.10034 -0.82117 41 40 23
-0.65464 -0.10298 -0.83135 27 18 39
-0.64802 -0.10550 -0.83004 23 19 29
-0.64116 -0.10784 -0.82977 23 15 25
-0.63413 -0.11006 -0.83019 12 13 28
-0.62518 -0.11072 -0.83928 13 11 20
