ply
format ascii 1.0
element face 0
property list uchar int vertex_indices
element vertex 1304
property float x
property float y
property float z
property uchar diffuse_red
property uchar diffuse_green
property uchar diffuse_blue
end_header
0.36982 -0.83445 -0.34616 37 38 48
0.37380 -0.83606 -0.34197 36 33 41
0.37655 -0.84427 -0.33953 21 20 21
0.37971 -0.83880 -0.34004 33 30 34
0.38245 -0.84702 -0.33760 20 17 21
0.38235 -0.83963 -0.33434 32 28 35
0.38509 -0.84782 -0.33189 18 16 24
0.39070 -0.84381 -0.33521 29 25 35
0.39345 -0.85203 -0.33276 17 16 21
0.39370 -0.84485 -0.32995 26 24 29
0.39644 -0.85305 -0.32750 15 15 22
0.39667 -0.84587 -0.32469 24 24 29
0.39941 -0.85406 -0.32225 13 14 20
0.40078 -0.84757 -0.32074 23 22 27
0.40352 -0.85575 -0.31831 13 14 15
0.40677 -0.85036 -0.31890 23 21 20
0.40950 -0.85854 -0.31646 15 14 19
0.41268 -0.85311 -0.31696 24 22 27
0.41542 -0.86129 -0.31453 14 14 21
0.41967 -0.85648 -0.31620 23 22 33
0.42241 -0.86468 -0.31376 13 14 18
0.42721 -0.86018 -0.31603 21 20 31
0.42996 -0.86839 -0.31358 14 13 20
0.43387 -0.86335 -0.31485 20 18 30
0.43662 -0.87158 -0.31240 14 14 21
0.43929 -0.86582 -0.31233 20 18 29
0.44204 -0.87404 -0.30988 14 14 20
0.44568 -0.86883 -0.31083 18 17 29
0.44843 -0.87707 -0.30838 14 14 21
0.45134 -0.87143 -0.30855 17 15 28
0.45410 -0.87967 -0.30610 14 15 17
-0.88676 -0.26092 -0.80749 19 24 29
-0.89149 -0.25880 -0.80993 19 22 26
-0.89374 -0.26408 -0.81017 23 24 33
-0.88901 -0.26621 -0.80773 22 27 35
-0.88204 -0.26305 -0.80512 22 28 40
-0.87733 -0.26519 -0.80299 33 39 47
-0.87486 -0.27260 -0.80078 48 51 62
-0.87280 -0.26745 -0.80324 44 47 57
-0.87032 -0.27487 -0.80103 49 51 68
-0.85908 -0.27425 -0.80347 41 48 57
-0.86610 -0.27743 -0.80616 44 50 68
-0.86134 -0.27956 -0.80371 44 52 65
-0.85658 -0.28170 -0.80125 46 51 64
-0.85447 -0.27653 -0.80352 41 44 50
-0.84985 -0.27880 -0.80337 36 38 45
-0.84515 -0.28102 -0.80230 33 34 41
-0.84048 -0.28328 -0.80169 30 33 38
-0.83565 -0.28536 -0.79825 26 30 29
-0.83090 -0.28754 -0.79619 23 22 26
-0.80702 -0.29828 -0.78408 18 17 28
-0.80452 -0.30576 -0.78185 21 23 33
-0.80224 -0.30042 -0.78160 17 17 32
-0.79974 -0.30791 -0.77937 20 23 37
-0.79748 -0.30259 -0.77949 16 17 36
-0.79497 -0.31008 -0.77726 20 22 47
-0.56045 -0.41549 -0.73142 48 46 62
-0.55565 -0.41750 -0.72720 66 67 86
-0.55056 -0.41988 -0.72561 76 74 103
-0.54558 -0.42211 -0.72302 83 80 111
-0.54006 -0.42499 -0.72479 90 87 116
-0.53498 -0.42734 -0.72295 97 92 123
-0.53016 -0.42937 -0.71896 103 99 128
-0.52479 -0.43205 -0.71923 111 107 133
-0.52017 -0.43386 -0.71379 119 114 137
-0.51531 -0.43596 -0.71030 128 123 142
-0.50954 -0.43907 -0.71326 140 133 148
-0.50377 -0.44214 -0.71593 153 143 151
-0.49776 -0.44548 -0.72008 163 153 160
-0.49512 -0.45338 -0.71773 185 174 178
-0.16760 -0.59578 -0.57310 245 246 246
-0.17028 -0.58778 -0.57548 246 246 246
-0.17271 -0.59349 -0.57574 245 246 247
-0.16517 -0.59007 -0.57285 247 246 245
-0.16006 -0.59237 -0.57021 248 247 248
-0.16315 -0.59760 -0.56874 245 246 248
-0.15562 -0.59419 -0.56586 250 250 249
-0.15816 -0.59982 -0.56582 246 248 249
-0.15062 -0.59641 -0.56294 250 250 251
-0.15349 -0.60180 -0.56207 245 247 249
-0.14596 -0.59839 -0.55919 249 248 250
-0.14905 -0.60362 -0.55776 243 244 248
-0.14153 -0.60021 -0.55488 250 250 251
-0.14440 -0.60558 -0.55399 243 245 249
-0.13689 -0.60218 -0.55111 252 252 252
-0.13964 -0.60763 -0.55054 244 247 250
-0.13213 -0.60423 -0.54767 253 253 253
-0.13469 -0.60982 -0.54760 243 247 250
-0.12718 -0.60643 -0.54472 254 254 254
-0.12940 -0.61225 -0.54547 243 247 249
-0.12189 -0.60885 -0.54259 254 254 254
-0.12430 -0.61455 -0.54288 241 245 247
-0.11679 -0.61115 -0.54000 253 254 254
-0.11439 -0.61893 -0.53700 235 240 245
-0.11032 -0.62050 -0.53197 232 236 245
-0.10657 -0.62186 -0.52627 228 232 243
-0.10210 -0.62372 -0.52226 224 228 240
-0.09863 -0.62489 -0.51601 220 225 239
-0.09316 -0.62745 -0.51436 216 222 238
-0.08880 -0.62924 -0.51020 212 218 236
-0.08302 -0.63201 -0.50923 208 213 233
-0.07838 -0.63400 -0.50570 203 207 228
-0.06851 -0.63838 -0.50000 187 196 221
-0.06355 -0.64058 -0.49720 180 191 218
-0.05601 -0.64339 -0.48662 163 173 201
-0.05209 -0.64490 -0.48171 155 163 190
-0.04688 -0.64728 -0.47950 146 154 183
-0.03947 -0.64392 -0.47666 232 237 246
-0.04190 -0.64950 -0.47682 138 147 179
-0.03654 -0.65199 -0.47493 134 140 180
-0.03391 -0.65986 -0.47259 33 34 71
-0.03113 -0.65450 -0.47310 129 132 182
-0.02384 -0.65827 -0.47502 120 115 172
-0.01651 -0.66206 -0.47696 115 99 167
-0.01082 -0.66475 -0.47560 109 86 159
-0.00525 -0.66736 -0.47396 100 79 148
0.00073 -0.67024 -0.47311 94 74 138
0.01570 -0.67797 -0.47701 83 64 121
0.01837 -0.68597 -0.47463 57 53 68
0.02000 -0.67974 -0.47287 75 58 107
0.02267 -0.68773 -0.47049 60 54 68
0.02602 -0.68264 -0.47196 66 53 95
0.02870 -0.69063 -0.46958 62 55 67
0.03263 -0.68591 -0.47210 57 48 87
0.03531 -0.69392 -0.46971 64 57 63
0.03914 -0.68912 -0.47201 48 41 77
0.04182 -0.69715 -0.46962 66 60 59
0.04561 -0.69230 -0.47181 41 38 69
0.04830 -0.70034 -0.46942 66 62 56
0.05230 -0.69561 -0.47196 38 39 66
0.05499 -0.70367 -0.46956 65 62 54
0.05875 -0.69877 -0.47164 39 41 63
0.06145 -0.70684 -0.46924 65 62 52
0.06496 -0.70178 -0.47087 38 40 64
0.06767 -0.70986 -0.46847 64 63 53
0.06929 -0.70356 -0.46675 38 41 68
0.07199 -0.71163 -0.46435 65 63 57
0.07426 -0.70575 -0.46377 38 42 70
0.07696 -0.71382 -0.46136 64 63 57
0.08124 -0.70924 -0.46428 40 43 68
0.08395 -0.71733 -0.46187 64 62 59
0.08834 -0.71280 -0.46493 44 45 70
0.09105 -0.72091 -0.46251 64 62 58
0.09539 -0.71633 -0.46545 50 48 67
0.09811 -0.72446 -0.46303 63 62 54
0.10382 -0.72074 -0.46824 53 50 64
0.10654 -0.72889 -0.46581 63 62 57
0.20489 -0.76650 -0.42031 58 60 49
0.19968 -0.76416 -0.42300 59 60 57
0.21011 -0.76884 -0.41761 55 58 46
0.21483 -0.77088 -0.41420 54 57 46
0.22004 -0.77322 -0.41151 54 58 46
0.22942 -0.77725 -0.40464 54 59 48
0.23540 -0.78006 -0.40302 53 58 43
0.23742 -0.78044 -0.39590 53 57 49
0.24509 -0.77697 -0.39296 60 58 59
0.24390 -0.78357 -0.39499 51 54 43
0.24874 -0.78568 -0.39181 49 53 37
0.25510 -0.78872 -0.39069 43 45 34
0.25783 -0.79688 -0.38826 22 25 31
0.25886 -0.79018 -0.38605 33 30 42
0.26279 -0.79174 -0.38167 34 37 39
0.26576 -0.79271 -0.37603 40 45 42
0.26747 -0.79293 -0.36879 43 47 46
0.27327 -0.79564 -0.36696 42 44 42
0.27803 -0.79771 -0.36376 40 42 35
0.28307 -0.79995 -0.36092 37 39 32
0.29759 -0.80713 -0.36092 33 32 34
0.30471 -0.81062 -0.36068 33 33 34
0.30743 -0.81876 -0.35826 20 19 24
0.31170 -0.81404 -0.36026 31 32 32
0.31443 -0.82219 -0.35783 20 18 22
0.32052 -0.81855 -0.36207 30 30 30
0.32326 -0.82674 -0.35964 20 18 20
0.32519 -0.82056 -0.35869 30 29 31
0.33087 -0.82319 -0.35656 30 28 39
0.33361 -0.83137 -0.35412 21 20 27
0.33529 -0.82505 -0.35288 30 29 42
0.34299 -0.82888 -0.35319 27 27 39
0.34573 -0.83707 -0.35075 16 20 20
0.35330 -0.83427 -0.35661 25 25 31
0.35606 -0.84250 -0.35416 18 20 18
0.35962 -0.83727 -0.35518 24 24 27
0.36238 -0.84551 -0.35272 17 17 20
0.36384 -0.83901 -0.35123 23 22 27
0.36660 -0.84724 -0.34877 16 17 21
0.37250 -0.84340 -0.35252 21 20 25
0.37526 -0.85165 -0.35006 16 19 21
-0.88417 -0.26825 -0.80379 26 33 46
-0.89114 -0.27141 -0.80647 22 25 34
-0.87951 -0.27042 -0.80222 35 43 55
-0.87703 -0.27782 -0.80002 43 50 65
-0.85205 -0.28406 -0.80254 44 49 60
-0.85909 -0.28725 -0.80524 49 53 72
-0.85432 -0.28939 -0.80278 48 51 70
-0.84956 -0.29153 -0.80032 48 48 62
-0.84739 -0.28632 -0.80190 43 46 54
-0.84489 -0.29379 -0.79968 47 47 55
-0.84274 -0.28860 -0.80167 42 45 48
-0.84024 -0.29609 -0.79944 41 44 51
-0.83792 -0.29069 -0.79826 38 42 41
-0.83542 -0.29817 -0.79603 37 42 48
-0.82834 -0.29494 -0.79287 31 29 37
-0.82584 -0.30242 -0.79064 37 38 48
-0.81874 -0.29913 -0.78648 24 27 38
-0.82101 -0.30446 -0.78672 34 37 47
-0.81401 -0.30136 -0.78522 24 25 31
-0.80928 -0.30358 -0.78383 22 24 29
-0.80678 -0.31106 -0.78160 27 31 45
-0.60340 -0.39660 -0.68374 30 36 52
-0.60591 -0.38909 -0.68598 39 44 52
-0.60819 -0.39445 -0.68622 39 45 56
-0.61047 -0.39980 -0.68646 38 46 59
-0.60111 -0.39124 -0.68351 31 36 52
-0.56790 -0.41870 -0.73335 22 17 47
-0.57526 -0.42203 -0.73617 23 17 36
-0.56333 -0.42039 -0.72698 60 52 58
-0.55813 -0.42292 -0.72645 83 80 91
-0.55270 -0.42574 -0.72783 93 90 110
-0.54778 -0.42790 -0.72472 99 95 117
-0.54255 -0.43044 -0.72419 105 101 122
-0.53726 -0.43305 -0.72401 112 107 127
-0.53291 -0.43450 -0.71623 119 115 134
-0.52819 -0.43642 -0.71165 126 122 139
-0.51831 -0.44081 -0.70594 143 137 150
-0.51267 -0.44380 -0.70809 153 144 157
-0.50613 -0.44780 -0.71643 163 154 160
-0.50042 -0.45082 -0.71855 173 164 168
-0.49778 -0.45871 -0.71620 192 182 182
-0.24044 -0.56857 -0.59531 237 237 237
-0.24309 -0.56063 -0.59767 239 237 238
-0.24551 -0.56629 -0.59792 238 237 236
-0.23802 -0.56291 -0.59506 239 237 237
-0.23296 -0.56518 -0.59244 239 237 237
-0.23545 -0.57078 -0.59244 236 235 237
-0.22797 -0.56739 -0.58957 240 238 239
-0.22975 -0.57355 -0.59175 236 236 238
-0.22226 -0.57016 -0.58888 240 239 239
-0.22392 -0.57641 -0.59138 236 236 237
-0.21642 -0.57301 -0.58851 240 240 240
-0.21778 -0.57950 -0.59188 235 237 238
-0.21026 -0.57609 -0.58900 240 239 241
-0.21219 -0.58216 -0.59071 235 237 238
-0.20466 -0.57876 -0.58783 241 239 241
-0.20636 -0.58501 -0.59020 235 238 238
-0.19882 -0.58160 -0.58731 241 240 241
-0.20083 -0.58762 -0.58877 233 237 237
-0.19329 -0.58420 -0.58588 240 240 241
-0.19544 -0.59013 -0.58695 231 235 236
-0.18789 -0.58671 -0.58406 241 241 242
-0.18990 -0.59274 -0.58550 230 233 236
-0.18235 -0.58932 -0.58260 242 243 244
-0.18503 -0.59485 -0.58217 228 232 237
-0.17749 -0.59144 -0.57928 244 246 246
-0.18004 -0.59706 -0.57922 226 231 239
-0.17499 -0.59931 -0.57640 223 228 239
-0.17020 -0.60137 -0.57292 220 226 235
-0.16574 -0.60319 -0.56856 217 222 233
-0.16149 -0.60486 -0.56371 212 218 230
-0.15624 -0.60725 -0.56147 208 212 227
-0.15145 -0.60932 -0.55807 206 208 225
-0.14644 -0.61155 -0.55524 202 204 222
-0.14211 -0.61328 -0.55068 196 199 220
-0.13675 -0.61577 -0.54874 190 193 217
-0.13125 -0.61835 -0.54713 184 189 209
-0.12982 -0.61801 -0.53559 177 181 199
-0.12417 -0.62070 -0.53437 169 171 192
-0.11321 -0.62584 -0.53112 151 153 184
-0.10864 -0.62776 -0.52731 139 142 178
-0.09977 -0.63272 -0.53352 132 134 170
-0.09556 -0.63439 -0.52885 126 124 169
-0.09176 -0.63577 -0.52328 121 116 167
-0.08806 -0.63709 -0.51755 116 106 162
-0.08258 -0.63964 -0.51583 111 95 156
-0.07847 -0.64125 -0.51108 104 83 147
-0.07468 -0.64264 -0.50567 95 75 135
-0.06859 -0.64562 -0.50529 89 70 128
-0.06594 -0.65356 -0.50293 55 48 73
-0.06186 -0.64905 -0.50627 82 63 121
-0.05920 -0.65701 -0.50391 56 51 75
-0.05932 -0.64959 -0.49824 74 56 111
-0.05667 -0.65751 -0.49588 57 54 64
-0.05391 -0.65210 -0.49637 62 50 89
-0.05126 -0.66003 -0.49401 60 57 50
-0.04765 -0.65519 -0.49627 52 43 67
-0.04290 -0.65725 -0.49298 42 35 65
-0.03661 -0.66036 -0.49288 35 33 61
-0.02950 -0.66402 -0.49440 32 31 62
-0.01219 -0.67226 -0.49056 34 39 73
-0.00952 -0.68025 -0.48818 67 63 61
-0.00645 -0.67498 -0.48918 37 40 74
-0.00378 -0.68298 -0.48680 65 62 57
-0.00141 -0.67723 -0.48642 38 41 70
0.00127 -0.68523 -0.48403 65 62 55
0.01004 -0.68265 -0.48351 47 44 70
0.01272 -0.69066 -0.48112 64 64 59
0.01526 -0.68501 -0.48106 52 49 68
0.01794 -0.69303 -0.47867 64 64 59
0.14362 -0.74667 -0.45903 58 63 52
0.13838 -0.74431 -0.46174 59 63 51
0.14844 -0.74875 -0.45566 57 63 50
0.15371 -0.75112 -0.45300 57 62 47
0.15906 -0.75355 -0.45048 57 61 43
0.16408 -0.75576 -0.44743 57 60 47
0.16909 -0.75797 -0.44438 54 59 46
0.17501 -0.76075 -0.44271 53 56 41
0.18016 -0.76305 -0.43987 52 55 39
0.18789 -0.75954 -0.43690 62 60 59
0.18532 -0.76535 -0.43704 50 52 46
0.19305 -0.76185 -0.43408 61 61 64
0.19064 -0.76775 -0.43445 50 51 57
0.19837 -0.76425 -0.43149 60 60 58
0.19568 -0.76998 -0.43145 48 48 52
0.20107 -0.77243 -0.42898 46 47 47
0.20738 -0.77546 -0.42784 43 43 40
0.21418 -0.77879 -0.42739 41 40 35
0.22059 -0.78187 -0.42634 39 37 36
0.22597 -0.78430 -0.42378 39 34 36
0.23132 -0.78673 -0.42120 37 32 38
0.23408 -0.79497 -0.41875 22 15 26
0.23760 -0.78972 -0.41992 37 32 35
0.24036 -0.79798 -0.41746 20 16 24
0.24272 -0.79200 -0.41699 34 33 31
0.24548 -0.80025 -0.41454 17 16 25
0.24437 -0.79211 -0.40926 32 32 32
0.24712 -0.80033 -0.40681 18 15 23
0.25014 -0.79480 -0.40727 30 29 29
0.25289 -0.80302 -0.40482 18 16 19
0.25720 -0.79738 -0.39717 26 28 25
0.25994 -0.80558 -0.39473 15 19 22
0.26438 -0.80005 -0.38737 24 26 31
0.26190 -0.80588 -0.38763 18 19 22
0.26711 -0.80822 -0.38494 18 18 24
0.26746 -0.80108 -0.38184 26 26 33
0.27019 -0.80923 -0.37941 19 18 25
0.27072 -0.80222 -0.37659 26 26 34
0.27344 -0.81036 -0.37416 19 17 24
0.27451 -0.80369 -0.37206 26 24 32
0.27723 -0.81181 -0.36964 17 18 24
0.27919 -0.80571 -0.36873 25 24 29
0.28191 -0.81383 -0.36631 15 16 22
0.28422 -0.80794 -0.36585 22 21 28
0.28694 -0.81606 -0.36343 17 17 21
0.29066 -0.81103 -0.36478 20 17 28
0.29338 -0.81917 -0.36236 18 17 21
0.33262 -0.83159 -0.36203 21 19 25
0.32488 -0.83510 -0.36500 18 17 14
0.33012 -0.83745 -0.36229 19 17 15
0.33536 -0.83981 -0.35958 18 17 15
-0.88610 -0.27332 -0.80008 27 33 43
-0.89306 -0.27647 -0.80275 21 24 35
-0.88835 -0.27858 -0.80032 26 33 38
-0.88148 -0.27550 -0.79881 34 42 54
-0.81633 -0.30677 -0.78656 34 36 47
-0.82338 -0.30997 -0.78926 34 39 48
-0.81860 -0.31211 -0.78679 33 38 49
-0.81383 -0.31426 -0.78433 32 35 48
-0.81158 -0.30897 -0.78479 31 33 44
-0.80908 -0.31646 -0.78256 30 33 50
-0.60016 -0.40525 -0.68976 24 26 39
-0.59764 -0.41280 -0.68751 18 22 26
-0.57056 -0.42386 -0.73080 25 18 46
-0.56602 -0.42549 -0.72413 72 62 67
-0.56014 -0.42897 -0.72996 98 93 100
-0.55484 -0.43163 -0.73022 108 103 118
-0.54974 -0.43401 -0.72853 114 109 124
-0.54461 -0.43643 -0.72711 120 115 125
-0.53972 -0.43854 -0.72363 125 121 129
-0.53549 -0.43982 -0.71489 132 127 138
-0.53050 -0.44206 -0.71233 138 133 146
-0.52057 -0.44650 -0.70698 154 146 156
-0.51509 -0.44933 -0.70807 164 154 162
-0.50851 -0.45342 -0.71675 173 164 167
-0.50249 -0.45683 -0.72109 182 174 174
-0.30367 -0.54692 -0.62696 231 229 232
-0.30633 -0.53898 -0.62932 232 229 228
-0.30874 -0.54464 -0.62957 232 230 230
-0.30126 -0.54126 -0.62671 233 232 232
-0.29619 -0.54353 -0.62409 235 235 237
-0.29828 -0.54947 -0.62551 232 231 236
-0.29079 -0.54608 -0.62264 237 236 236
-0.29267 -0.55219 -0.62477 232 233 236
-0.28517 -0.54880 -0.62189 236 235 235
-0.28696 -0.55500 -0.62435 231 233 234
-0.27945 -0.55160 -0.62147 236 235 234
-0.28182 -0.55732 -0.62190 230 230 232
-0.27431 -0.55392 -0.61902 236 236 236
-0.27677 -0.55958 -0.61916 228 230 232
-0.26926 -0.55618 -0.61628 236 235 236
-0.27189 -0.56169 -0.61583 228 230 232
-0.26439 -0.55829 -0.61296 236 235 237
-0.23828 -0.57612 -0.59140 209 212 223
-0.23412 -0.57769 -0.58607 205 207 218
-0.22913 -0.57990 -0.58325 203 206 216
-0.22315 -0.58289 -0.58338 199 203 212
-0.21666 -0.58627 -0.58497 195 196 210
-0.21020 -0.58962 -0.58636 190 193 210
-0.20366 -0.59302 -0.58790 184 188 204
-0.19748 -0.59613 -0.58829 177 180 195
-0.19175 -0.59890 -0.58738 171 174 189
-0.18858 -0.59972 -0.57935 163 167 187
-0.18321 -0.60221 -0.57744 156 159 187
-0.17822 -0.60442 -0.57449 144 149 181
-0.17310 -0.60673 -0.57193 135 140 169
-0.16854 -0.60861 -0.56784 128 128 164
-0.16105 -0.61268 -0.57149 118 121 159
-0.15598 -0.61495 -0.56874 113 109 153
-0.15069 -0.61737 -0.56651 110 99 147
-0.14566 -0.61961 -0.56365 104 87 139
-0.13997 -0.62233 -0.56246 97 76 134
-0.13511 -0.62443 -0.55913 88 68 126
-0.12774 -0.62838 -0.56207 81 64 115
-0.12504 -0.63643 -0.55967 55 50 58
-0.12381 -0.62980 -0.55644 74 56 100
-0.12112 -0.63784 -0.55404 57 52 60
-0.11932 -0.63164 -0.55223 66 47 89
-0.11664 -0.63967 -0.54984 59 55 59
-0.11465 -0.63362 -0.54850 58 43 77
-0.11197 -0.64164 -0.54611 62 59 55
-0.11005 -0.63554 -0.54461 47 41 67
-0.10537 -0.63752 -0.54095 37 39 64
-0.10025 -0.63982 -0.53832 34 37 66
-0.09757 -0.64783 -0.53594 65 62 54
-0.09534 -0.64197 -0.53520 32 35 69
-0.09267 -0.64998 -0.53281 66 62 52
-0.09057 -0.64402 -0.53177 32 36 70
-0.08790 -0.65202 -0.52939 66 63 50
-0.08567 -0.64617 -0.52867 34 38 68
-0.08300 -0.65417 -0.52628 66 63 51
-0.08154 -0.64777 -0.52384 37 41 67
-0.07887 -0.65576 -0.52146 63 63 54
-0.07731 -0.64944 -0.51927 39 44 69
-0.07464 -0.65742 -0.51689 61 63 53
-0.04215 -0.66511 -0.49983 61 59 53
-0.04966 -0.66851 -0.50271 62 64 58
-0.04457 -0.67080 -0.50008 62 65 56
-0.03948 -0.67309 -0.49746 62 65 52
-0.03683 -0.66756 -0.49768 65 59 49
-0.03416 -0.67554 -0.49530 62 63 52
-0.02949 -0.67140 -0.49965 65 59 50
-0.02681 -0.67940 -0.49726 60 63 54
-0.02373 -0.67414 -0.49832 65 60 56
-0.02105 -0.68215 -0.49594 60 63 55
0.06592 -0.71609 -0.46998 59 63 52
0.06076 -0.71377 -0.47265 60 63 51
0.07128 -0.71854 -0.46766 59 62 56
0.07816 -0.72200 -0.46798 58 60 56
0.08520 -0.72555 -0.46852 56 59 52
0.09236 -0.72919 -0.46924 56 57 50
0.10087 -0.73370 -0.47217 55 55 48
0.10877 -0.73781 -0.47400 55 53 48
0.11650 -0.73431 -0.47104 61 63 59
0.11463 -0.74056 -0.47233 52 53 46
0.12236 -0.73706 -0.46937 60 62 58
0.12032 -0.74321 -0.47038 49 51 47
0.12806 -0.73971 -0.46741 60 63 56
0.12532 -0.74541 -0.46727 48 52 46
0.13305 -0.74190 -0.46431 59 63 53
0.13085 -0.74795 -0.46505 47 50 46
0.13666 -0.75068 -0.46326 45 48 44
0.14205 -0.75312 -0.46078 42 46 43
0.14669 -0.75509 -0.45711 41 45 40
0.15253 -0.75783 -0.45534 40 44 35
0.16265 -0.76230 -0.44935 38 38 34
0.16755 -0.76443 -0.44610 35 36 33
0.17401 -0.76757 -0.44526 33 33 27
0.17676 -0.77579 -0.44281 16 13 16
0.17953 -0.77010 -0.44297 30 32 22
0.18550 -0.77292 -0.44135 29 31 27
0.19179 -0.77594 -0.44019 31 29 34
0.19455 -0.78418 -0.43774 19 18 18
0.19854 -0.77926 -0.43969 30 29 33
0.20130 -0.78751 -0.43723 16 19 20
0.20517 -0.78249 -0.43898 28 28 32
0.20794 -0.79076 -0.43652 17 18 16
0.21210 -0.78591 -0.43868 25 22 29
0.21487 -0.79419 -0.43622 17 15 13
0.21809 -0.78873 -0.43697 25 20 23
0.22086 -0.79702 -0.43451 13 15 22
0.22341 -0.79113 -0.43429 21 18 27
0.22618 -0.79941 -0.43183 15 16 27
0.22864 -0.79346 -0.43148 22 15 30
0.23141 -0.80175 -0.42901 16 15 23
0.23226 -0.79479 -0.42637 21 13 28
0.23503 -0.80306 -0.42391 19 18 23
-0.57290 -0.42947 -0.73140 33 27 45
-0.56764 -0.43210 -0.73148 88 81 80
-0.56205 -0.43521 -0.73461 113 107 112
-0.55701 -0.43750 -0.73233 121 114 125
-0.55204 -0.43971 -0.72953 127 120 131
-0.54698 -0.44203 -0.72739 133 127 134
-0.54210 -0.44412 -0.72387 138 131 138
-0.53775 -0.44552 -0.71601 143 137 145
-0.53279 -0.44773 -0.71326 149 142 152
-0.52759 -0.45024 -0.71235 156 148 156
-0.52255 -0.45255 -0.71018 164 154 163
-0.51715 -0.45530 -0.71065 172 164 168
-0.51063 -0.45936 -0.71894 181 173 172
-0.50505 -0.46229 -0.72027 189 181 179
-0.49956 -0.46507 -0.72071 196 190 187
-0.49210 -0.46170 -0.71786 199 192 191
-0.49411 -0.46780 -0.72076 205 199 195
-0.48664 -0.46442 -0.71790 207 201 202
-0.49146 -0.47573 -0.71840 214 208 205
-0.37794 -0.51988 -0.65990 229 225 226
-0.38059 -0.51196 -0.66226 229 226 226
-0.38300 -0.51761 -0.66251 229 226 227
-0.37553 -0.51423 -0.65965 230 227 227
-0.37048 -0.51650 -0.65704 231 226 223
-0.37304 -0.52201 -0.65662 228 226 225
-0.36558 -0.51863 -0.65376 231 227 225
-0.36845 -0.52385 -0.65200 227 226 225
-0.36100 -0.52048 -0.64914 230 227 226
-0.36390 -0.52566 -0.64728 227 227 226
-0.35646 -0.52229 -0.64443 230 226 227
-0.35991 -0.52697 -0.64031 227 225 227
-0.35249 -0.52361 -0.63747 230 226 229
-0.35485 -0.52926 -0.63783 226 224 226
-0.34743 -0.52589 -0.63499 229 226 229
-0.34974 -0.53159 -0.63558 224 224 226
-0.34232 -0.52823 -0.63274 232 228 230
-0.34451 -0.53403 -0.63379 225 226 227
-0.33708 -0.53066 -0.63094 232 229 232
-0.33929 -0.53645 -0.63193 222 226 227
-0.33186 -0.53309 -0.62909 231 230 230
-0.33388 -0.53905 -0.63079 220 222 225
-0.32644 -0.53568 -0.62794 232 231 234
-0.32831 -0.54177 -0.63021 218 221 227
-0.32087 -0.53840 -0.62736 233 232 232
-0.32258 -0.54463 -0.63020 217 220 228
-0.31512 -0.54126 -0.62734 233 231 232
-0.31707 -0.54730 -0.62930 213 217 226
-0.31169 -0.54985 -0.62785 211 213 221
-0.30634 -0.55237 -0.62630 207 209 219
-0.30108 -0.55481 -0.62437 203 204 216
-0.29539 -0.55761 -0.62397 198 200 214
-0.29012 -0.56006 -0.62202 194 195 209
-0.28578 -0.56172 -0.61685 190 190 204
-0.28154 -0.56331 -0.61144 184 184 200
-0.27736 -0.56485 -0.60587 178 178 193
-0.27279 -0.56672 -0.60165 174 177 189
-0.26673 -0.56982 -0.60238 166 169 182
-0.26142 -0.57229 -0.60058 159 161 179
-0.24848 -0.57912 -0.60427 139 143 174
-0.24246 -0.58216 -0.60456 131 134 166
-0.23309 -0.58608 -0.59678 119 120 150
-0.22737 -0.58887 -0.59606 113 107 144
-0.22392 -0.58985 -0.58855 108 95 140
-0.21867 -0.59226 -0.58641 105 83 138
-0.21236 -0.59552 -0.58738 97 75 133
-0.20441 -0.60004 -0.59297 89 67 122
-0.20173 -0.60806 -0.59058 54 53 77
-0.19889 -0.60265 -0.59149 80 61 107
-0.19620 -0.61068 -0.58910 58 53 70
-0.19273 -0.60575 -0.59175 72 55 98
-0.19004 -0.61380 -0.58935 58 54 62
-0.18664 -0.60880 -0.59178 62 49 87
-0.18394 -0.61686 -0.58938 61 59 58
-0.18061 -0.61179 -0.59157 56 47 78
-0.17791 -0.61986 -0.58916 68 62 54
-0.17533 -0.61421 -0.58927 44 44 73
-0.17263 -0.62228 -0.58687 69 63 51
-0.16996 -0.61669 -0.58720 39 43 63
-0.16726 -0.62476 -0.58480 67 62 49
-0.15839 -0.62228 -0.58523 37 45 71
-0.15568 -0.63037 -0.58282 65 61 59
-0.15308 -0.62471 -0.58293 39 45 71
-0.15037 -0.63280 -0.58052 65 62 60
-0.14786 -0.62706 -0.58040 42 43 70
-0.14516 -0.63516 -0.57799 64 64 57
-0.14279 -0.62932 -0.57750 45 45 69
-0.14008 -0.63741 -0.57509 62 64 56
-0.13820 -0.63121 -0.57338 46 48 67
-0.13549 -0.63929 -0.57098 62 63 57
-0.13397 -0.63283 -0.56839 48 49 65
-0.13127 -0.64090 -0.56598 62 62 59
-0.12980 -0.63441 -0.56327 51 50 63
-0.12711 -0.64247 -0.56087 63 63 57
-0.10625 -0.64437 -0.54486 64 61 54
-0.11382 -0.64780 -0.54776 61 63 60
-0.10870 -0.65010 -0.54512 60 63 59
-0.10357 -0.65240 -0.54247 60 64 57
-0.10243 -0.64572 -0.53917 65 62 54
-0.09975 -0.65374 -0.53679 60 63 53
-0.01417 -0.68567 -0.49684 59 61 55
-0.00756 -0.68901 -0.49714 62 61 60
-0.00228 -0.69141 -0.49476 61 59 53
0.00365 -0.69427 -0.49367 61 57 54
0.00901 -0.69673 -0.49144 59 56 59
0.01474 -0.69944 -0.48990 57 59 55
0.01928 -0.70134 -0.48610 54 58 54
0.02688 -0.69790 -0.48319 65 64 63
0.02414 -0.70346 -0.48291 53 57 59
0.03173 -0.70002 -0.48000 65 64 63
0.03015 -0.70635 -0.48186 53 55 53
0.03775 -0.70291 -0.47895 63 64 60
0.03725 -0.71000 -0.48282 52 53 46
0.04487 -0.70655 -0.47991 61 64 58
0.04250 -0.71238 -0.48033 50 52 46
0.05012 -0.70893 -0.47741 60 64 56
0.04842 -0.71521 -0.47905 48 51 46
0.05605 -0.71176 -0.47612 60 63 53
0.05463 -0.71824 -0.47826 46 50 41
0.06046 -0.72100 -0.47676 44 48 38
0.06650 -0.72391 -0.47562 42 47 38
0.07314 -0.72722 -0.47551 41 45 39
0.07979 -0.73053 -0.47539 41 43 39
0.08653 -0.73390 -0.47537 38 40 37
0.09358 -0.73746 -0.47584 36 38 36
0.10103 -0.74129 -0.47693 36 35 39
0.10787 -0.74471 -0.47695 35 33 40
0.11062 -0.75293 -0.47450 20 20 27
0.11415 -0.74776 -0.47597 33 31 38
0.11690 -0.75598 -0.47352 19 20 25
0.12043 -0.75080 -0.47497 31 31 38
0.12318 -0.75903 -0.47252 19 21 24
0.12493 -0.75266 -0.47101 31 29 37
0.12768 -0.76089 -0.46856 19 19 25
0.13007 -0.75494 -0.46811 30 26 37
0.13282 -0.76317 -0.46566 18 17 28
0.14010 -0.75935 -0.46192 25 22 35
0.14285 -0.76757 -0.45947 20 16 21
0.14391 -0.76076 -0.45692 24 20 29
0.14666 -0.76897 -0.45448 18 17 16
0.15012 -0.76375 -0.45575 23 20 24
0.15287 -0.77197 -0.45330 16 16 20
0.15504 -0.76589 -0.45251 20 18 24
0.15778 -0.77411 -0.45007 17 16 20
0.16008 -0.76812 -0.44950 21 15 26
0.16283 -0.77633 -0.44705 15 17 21
0.16490 -0.77019 -0.44613 18 15 25
0.16765 -0.77840 -0.44369 18 16 22
0.17177 -0.77361 -0.44593 19 14 22
0.17452 -0.78183 -0.44348 16 16 14
0.18363 -0.77920 -0.44257 15 13 19
0.18113 -0.78508 -0.44283 14 15 14
0.18639 -0.78744 -0.44012 14 15 19
0.19016 -0.78239 -0.44177 18 15 22
0.19292 -0.79064 -0.43931 16 17 18
-0.78734 -0.33205 -0.76521 38 42 53
-0.78983 -0.32459 -0.76743 28 33 45
-0.79210 -0.32991 -0.76767 33 38 48
-0.78257 -0.33419 -0.76275 41 47 58
-0.78484 -0.33952 -0.76299 43 51 63
-0.57494 -0.43552 -0.73489 43 39 49
-0.56957 -0.43834 -0.73605 102 98 92
-0.56424 -0.44106 -0.73657 127 118 121
-0.55925 -0.44329 -0.73385 133 124 131
-0.55427 -0.44551 -0.73112 138 129 138
-0.54919 -0.44786 -0.72916 143 135 142
-0.54424 -0.45003 -0.72611 147 141 147
-0.54162 -0.45787 -0.72377 160 153 153
-0.53953 -0.45188 -0.72110 153 147 150
-0.53442 -0.45428 -0.71945 158 151 155
-0.52416 -0.45910 -0.71622 171 161 169
-0.52154 -0.46694 -0.71388 186 179 179
-0.51859 -0.46206 -0.71788 179 171 173
-0.51596 -0.46992 -0.71554 193 185 183
-0.51305 -0.46496 -0.71902 187 178 177
-0.50744 -0.46793 -0.72056 194 187 183
-0.50207 -0.47059 -0.72025 201 194 193
-0.49685 -0.47306 -0.71879 209 202 200
-0.44522 -0.49693 -0.69884 224 222 220
-0.44788 -0.48899 -0.70121 225 220 219
-0.45029 -0.49465 -0.70146 223 221 220
-0.44281 -0.49126 -0.69859 225 220 218
-0.43774 -0.49354 -0.69597 225 219 217
-0.44055 -0.49879 -0.69407 224 222 219
-0.43307 -0.49540 -0.69120 225 219 218
-0.43582 -0.50072 -0.68968 224 221 218
-0.42835 -0.49734 -0.68682 224 219 220
-0.43162 -0.50209 -0.68254 222 220 220
-0.42417 -0.49872 -0.67969 225 220 221
-0.42744 -0.50347 -0.67546 222 220 221
-0.42001 -0.50011 -0.67262 225 221 221
-0.42256 -0.50557 -0.67207 221 219 220
-0.41514 -0.50221 -0.66923 225 221 221
-0.41737 -0.50800 -0.67032 219 218 219
-0.40994 -0.50464 -0.66747 227 224 222
-0.41240 -0.51019 -0.66740 218 219 220
-0.40497 -0.50683 -0.66456 229 226 225
-0.40718 -0.51264 -0.66573 218 220 220
-0.39975 -0.50928 -0.66288 229 226 226
-0.40204 -0.51501 -0.66364 216 218 218
-0.39461 -0.51164 -0.66079 229 226 225
-0.39652 -0.51775 -0.66332 214 215 217
-0.38907 -0.51438 -0.66047 229 226 225
-0.39110 -0.52037 -0.66244 211 213 219
-0.38547 -0.52320 -0.66244 208 209 218
-0.38016 -0.52571 -0.66097 205 207 215
-0.37504 -0.52804 -0.65863 202 203 212
-0.36743 -0.53271 -0.66703 196 197 207
-0.36254 -0.53482 -0.66356 195 195 205
-0.35747 -0.53709 -0.66085 190 188 202
-0.35229 -0.53945 -0.65857 185 182 198
-0.34711 -0.54182 -0.65632 179 178 193
-0.34183 -0.54428 -0.65443 174 173 185
-0.33650 -0.54677 -0.65270 170 173 183
-0.33148 -0.54899 -0.64977 163 164 177
-0.32721 -0.55055 -0.64397 156 158 175
-0.32210 -0.55284 -0.64140 146 149 177
-0.31783 -0.55442 -0.63574 135 137 174
-0.31285 -0.55660 -0.63274 127 126 162
-0.30785 -0.55882 -0.62984 125 121 158
-0.30226 -0.56154 -0.62906 118 113 151
-0.29778 -0.56330 -0.62430 112 105 145
-0.29272 -0.56557 -0.62162 106 95 139
-0.28855 -0.56708 -0.61587 99 87 133
-0.28419 -0.56875 -0.61085 93 75 124
-0.28154 -0.57667 -0.60849 57 56 79
-0.27899 -0.57115 -0.60873 87 66 112
-0.27634 -0.57907 -0.60637 59 55 76
-0.27399 -0.57337 -0.60593 80 60 102
-0.27134 -0.58129 -0.60357 60 55 67
-0.26918 -0.57543 -0.60250 71 54 92
-0.26653 -0.58335 -0.60014 65 57 63
-0.25912 -0.57993 -0.59710 57 48 71
-0.25647 -0.58785 -0.59474 69 64 58
-0.25360 -0.58258 -0.59597 46 47 69
-0.25095 -0.59051 -0.59361 67 66 62
-0.24866 -0.58475 -0.59297 42 48 71
-0.24602 -0.59268 -0.59061 67 67 64
-0.24253 -0.58791 -0.59370 42 49 73
-0.23987 -0.59585 -0.59134 66 68 59
-0.23637 -0.59107 -0.59441 43 51 71
-0.23371 -0.59903 -0.59204 65 67 54
-0.23051 -0.59398 -0.59416 43 50 69
-0.22784 -0.60195 -0.59179 66 67 54
-0.21833 -0.60016 -0.59483 51 53 74
-0.21566 -0.60816 -0.59244 64 66 63
-0.21266 -0.60291 -0.59386 52 54 76
-0.20998 -0.61092 -0.59148 64 65 66
-0.20635 -0.60616 -0.59468 53 53 76
-0.20366 -0.61419 -0.59229 64 65 65
-0.07705 -0.66313 -0.51718 57 61 53
-0.08215 -0.66084 -0.51981 59 61 56
-0.07228 -0.66518 -0.51383 56 61 52
-0.06652 -0.66795 -0.51268 57 59 56
-0.05899 -0.66455 -0.50980 64 62 66
-0.06203 -0.66980 -0.50873 54 58 59
-0.05451 -0.66640 -0.50585 62 64 66
-0.05668 -0.67228 -0.50666 53 61 63
-0.04813 -0.67704 -0.51133 53 59 49
-0.04112 -0.68070 -0.51267 50 58 44
-0.03712 -0.68219 -0.50766 50 57 42
-0.03087 -0.68530 -0.50734 49 55 43
-0.02507 -0.68807 -0.50605 46 51 45
-0.01866 -0.69128 -0.50596 47 50 42
-0.01191 -0.69472 -0.50652 45 47 40
-0.00549 -0.69793 -0.50637 44 48 41
0.00265 -0.70234 -0.50956 42 45 37
0.00790 -0.70471 -0.50702 41 42 44
0.01331 -0.70719 -0.50476 40 39 46
0.01836 -0.70943 -0.50182 39 39 44
0.02424 -0.71224 -0.50046 36 37 42
0.02880 -0.71414 -0.49659 34 33 44
0.03152 -0.72227 -0.49417 17 15 26
0.03457 -0.71687 -0.49499 32 26 39
0.03729 -0.72500 -0.49257 17 16 20
0.03918 -0.71880 -0.49122 31 23 33
0.04190 -0.72692 -0.48880 18 19 22
0.04346 -0.72050 -0.48687 30 22 34
0.04617 -0.72862 -0.48445 20 20 26
0.04836 -0.72263 -0.48368 30 21 37
0.05107 -0.73075 -0.48126 20 18 26
0.05437 -0.72553 -0.48251 28 19 34
0.05709 -0.73365 -0.48009 17 17 24
0.05938 -0.72774 -0.47951 24 17 30
0.06210 -0.73586 -0.47709 16 18 23
0.06519 -0.73049 -0.47795 22 17 29
0.06791 -0.73862 -0.47552 18 19 21
0.07138 -0.73351 -0.47704 22 18 28
0.07411 -0.74165 -0.47462 18 18 19
0.07796 -0.73678 -0.47677 23 17 26
0.08068 -0.74493 -0.47434 19 17 20
0.08449 -0.74002 -0.47640 21 15 25
0.08722 -0.74819 -0.47397 18 17 20
0.10500 -0.75033 -0.47658 21 19 27
0.10775 -0.75854 -0.47414 17 18 20
-0.57650 -0.44238 -0.74339 55 50 60
-0.57139 -0.44478 -0.74178 115 113 108
-0.56634 -0.44709 -0.73957 139 130 124
-0.56124 -0.44946 -0.73774 144 134 132
-0.55623 -0.45172 -0.73516 148 139 139
-0.55118 -0.45402 -0.73287 152 144 144
-0.54644 -0.45588 -0.72788 156 149 149
-0.53644 -0.46035 -0.72259 165 157 162
-0.53136 -0.46270 -0.72060 172 164 168
-0.52608 -0.46530 -0.72006 178 170 175
-0.50984 -0.47357 -0.72086 199 192 189
-0.50437 -0.47636 -0.72119 204 198 199
-0.49942 -0.47851 -0.71791 208 204 205
-0.49414 -0.48105 -0.71685 211 208 207
-0.48668 -0.47768 -0.71399 217 211 208
-0.48858 -0.48392 -0.71754 213 210 208
-0.48111 -0.48054 -0.71468 220 213 210
-0.48320 -0.48658 -0.71699 213 210 208
-0.47572 -0.48319 -0.71412 222 215 213
-0.47802 -0.48898 -0.71504 213 209 208
-0.47054 -0.48559 -0.71217 223 217 216
-0.47275 -0.49149 -0.71368 211 210 208
-0.46526 -0.48810 -0.71081 223 218 218
-0.46765 -0.49379 -0.71118 209 211 208
-0.46016 -0.49040 -0.70831 223 219 220
-0.46276 -0.49587 -0.70750 207 210 208
-0.45527 -0.49248 -0.70463 223 219 220
-0.45778 -0.49804 -0.70431 204 205 210
-0.45239 -0.50067 -0.70351 202 203 214
-0.44690 -0.50341 -0.70322 199 200 212
-0.44134 -0.50621 -0.70322 196 195 208
-0.43070 -0.51445 -0.73050 191 190 204
-0.42495 -0.51737 -0.73079 190 188 201
-0.41992 -0.51953 -0.72726 186 183 197
-0.41577 -0.52078 -0.71927 181 176 193
-0.41103 -0.52266 -0.71445 174 170 189
-0.40707 -0.52374 -0.70580 171 168 184
-0.40349 -0.52446 -0.69554 164 162 177
-0.39961 -0.52550 -0.68694 156 153 168
-0.39539 -0.52691 -0.68016 146 144 161
-0.39136 -0.52814 -0.67259 135 139 160
-0.38620 -0.53050 -0.67036 130 134 161
-0.38062 -0.53327 -0.66998 122 126 154
-0.37511 -0.53597 -0.66922 116 117 148
-0.36897 -0.53927 -0.67116 111 109 142
-0.36386 -0.54156 -0.66851 107 100 136
-0.35851 -0.54408 -0.66692 104 91 133
-0.35296 -0.54679 -0.66610 99 84 127
-0.34676 -0.55011 -0.66792 94 73 120
-0.34408 -0.55814 -0.66552 57 56 79
-0.34188 -0.55218 -0.66426 87 66 105
-0.33920 -0.56021 -0.66187 57 53 76
-0.33660 -0.55463 -0.66225 79 61 99
-0.33391 -0.56266 -0.65985 60 55 72
-0.33185 -0.55659 -0.65812 72 52 92
-0.32916 -0.56461 -0.65573 64 63 63
-0.32702 -0.55861 -0.65432 67 57 77
-0.32434 -0.56663 -0.65193 67 65 63
-0.32208 -0.56075 -0.65100 56 51 76
-0.31940 -0.56877 -0.64861 68 64 62
-0.31741 -0.56265 -0.64668 49 46 77
-0.31473 -0.57066 -0.64430 68 65 64
-0.31254 -0.56472 -0.64312 45 43 74
-0.30987 -0.57273 -0.64074 69 66 66
-0.30774 -0.56674 -0.63936 46 43 72
-0.30506 -0.57474 -0.63698 67 66 64
-0.30311 -0.56861 -0.63500 44 48 73
-0.30044 -0.57660 -0.63262 68 66 66
-0.29879 -0.57022 -0.62960 48 48 75
-0.29612 -0.57820 -0.62722 68 66 66
-0.29401 -0.57223 -0.62586 50 51 77
-0.29135 -0.58020 -0.62348 67 66 66
-0.28988 -0.57368 -0.61991 52 54 77
-0.28722 -0.58164 -0.61754 66 66 68
-0.28553 -0.57533 -0.61477 55 56 77
-0.28288 -0.58327 -0.61241 67 65 70
-0.14595 -0.64223 -0.58256 60 62 56
-0.15113 -0.63990 -0.58524 61 63 66
-0.14144 -0.64403 -0.57815 58 61 51
-0.13714 -0.64568 -0.57327 58 60 52
-0.13298 -0.64723 -0.56809 57 60 50
-0.12726 -0.64998 -0.56683 55 61 46
-0.11964 -0.64653 -0.56391 62 63 58
-0.12249 -0.65200 -0.56320 53 60 47
-0.11487 -0.64855 -0.56028 61 63 61
-0.11822 -0.65364 -0.55837 51 58 49
-0.11414 -0.65513 -0.55312 49 57 48
-0.10961 -0.65698 -0.54900 48 55 46
-0.10697 -0.65741 -0.54047 47 55 44
-0.10209 -0.65953 -0.53726 46 54 39
-0.09454 -0.65611 -0.53436 60 64 50
-0.09739 -0.66151 -0.53366 45 54 35
-0.08984 -0.65810 -0.53077 61 63 49
-0.09185 -0.66413 -0.53200 45 53 34
-0.08430 -0.66071 -0.52910 61 62 51
-0.08536 -0.66745 -0.53247 45 50 37
-0.07859 -0.67096 -0.53350 44 48 41
-0.07427 -0.67267 -0.52902 41 45 43
-0.06801 -0.67581 -0.52887 39 43 46
-0.06216 -0.67863 -0.52775 36 40 45
-0.05709 -0.68089 -0.52494 35 37 46
-0.04983 -0.68474 -0.52680 34 32 47
-0.04124 -0.68956 -0.53143 32 27 40
-0.03255 -0.69443 -0.53613 31 26 36
-0.02982 -0.70260 -0.53370 16 16 13
-0.02566 -0.69799 -0.53694 30 23 30
-0.02292 -0.70618 -0.53450 16 16 22
-0.02059 -0.70022 -0.53392 27 20 33
-0.01785 -0.70841 -0.53148 17 16 27
-0.01293 -0.70432 -0.53619 24 16 35
-0.01019 -0.71253 -0.53375 18 17 27
-0.00686 -0.70727 -0.53517 24 15 34
-0.00412 -0.71549 -0.53272 20 15 23
-0.00117 -0.70994 -0.53336 23 14 32
0.00158 -0.71817 -0.53091 19 15 20
0.00280 -0.71139 -0.52809 23 15 30
0.00554 -0.71960 -0.52564 18 16 21
0.00758 -0.71341 -0.52447 22 18 29
0.01033 -0.72162 -0.52203 17 16 19
0.01246 -0.71551 -0.52106 20 20 28
0.01520 -0.72371 -0.51862 15 16 21
0.01637 -0.71692 -0.51578 19 19 29
0.01911 -0.72511 -0.51335 17 17 23
0.02069 -0.71863 -0.51134 20 19 29
0.02343 -0.72681 -0.50890 17 17 24
0.02536 -0.72058 -0.50757 19 18 28
0.02809 -0.72875 -0.50514 17 16 25
0.02899 -0.72180 -0.50187 18 16 28
0.03171 -0.72996 -0.49944 17 16 28
-0.57845 -0.44868 -0.74810 68 66 71
-0.57367 -0.45055 -0.74311 123 126 126
-0.56858 -0.45292 -0.74120 144 140 133
-0.56349 -0.45529 -0.73935 149 145 137
-0.55855 -0.45742 -0.73602 152 149 143
-0.55376 -0.45934 -0.73143 154 153 148
-0.54877 -0.46156 -0.72867 157 155 151
-0.54343 -0.46428 -0.72884 160 157 154
-0.53817 -0.46687 -0.72823 162 159 162
-0.53300 -0.46933 -0.72680 166 164 166
-0.52772 -0.47193 -0.72615 168 170 168
-0.52233 -0.47466 -0.72624 173 173 170
-0.51727 -0.47695 -0.72377 177 175 177
-0.51212 -0.47935 -0.72193 177 174 182
-0.50665 -0.48217 -0.72234 177 174 186
-0.50093 -0.48528 -0.72435 176 173 186
-0.49502 -0.48860 -0.72740 175 172 186
-0.48842 -0.49275 -0.73482 173 165 182
-0.48261 -0.49589 -0.73667 169 158 179
-0.47676 -0.49906 -0.73861 162 151 170
-0.47154 -0.50146 -0.73646 157 150 162
-0.46569 -0.50461 -0.73813 150 146 155
-0.46048 -0.50698 -0.73576 143 140 148
-0.45527 -0.50936 -0.73341 133 133 148
-0.45016 -0.51162 -0.73049 123 125 151
-0.44512 -0.51381 -0.72717 119 120 151
-0.44085 -0.51513 -0.71956 112 112 146
-0.43594 -0.51719 -0.71569 107 105 141
-0.43098 -0.51930 -0.71207 103 97 132
-0.42600 -0.52144 -0.70862 102 91 129
-0.42054 -0.52409 -0.70765 97 81 126
-0.41534 -0.52647 -0.70535 90 72 120
-0.40968 -0.52932 -0.70527 84 65 110
-0.40699 -0.53738 -0.70287 57 54 76
-0.40445 -0.53172 -0.70302 79 59 101
-0.40176 -0.53978 -0.70062 60 55 72
-0.39951 -0.53383 -0.69940 73 53 92
-0.39681 -0.54189 -0.69700 63 56 67
-0.39472 -0.53577 -0.69506 64 50 82
-0.39203 -0.54382 -0.69267 67 60 63
-0.38899 -0.53868 -0.69515 56 53 75
-0.38630 -0.54674 -0.69275 67 63 62
-0.38381 -0.54102 -0.69265 48 51 72
-0.38112 -0.54909 -0.69025 67 63 63
-0.37889 -0.54311 -0.68896 40 46 70
-0.37620 -0.55117 -0.68656 68 63 61
-0.37358 -0.54558 -0.68705 40 46 69
-0.37089 -0.55365 -0.68465 69 66 58
-0.36859 -0.54774 -0.68372 43 48 70
-0.36589 -0.55580 -0.68132 68 66 60
-0.36438 -0.54914 -0.67703 45 49 71
-0.36169 -0.55718 -0.67464 66 67 60
-0.35927 -0.55142 -0.67429 48 49 70
-0.35658 -0.55946 -0.67189 65 66 59
-0.35419 -0.55368 -0.67142 51 51 69
-0.35150 -0.56171 -0.66903 65 65 60
-0.34928 -0.55577 -0.66786 54 53 73
-0.34659 -0.56380 -0.66546 65 65 70
-0.23946 -0.60390 -0.60035 63 65 59
-0.24455 -0.60161 -0.60298 63 66 68
-0.23436 -0.60619 -0.59772 62 64 56
-0.22072 -0.61364 -0.60276 62 64 59
-0.22585 -0.61134 -0.60541 62 64 56
-0.21511 -0.61634 -0.60152 60 64 64
-0.20910 -0.61937 -0.60140 58 63 68
-0.20304 -0.62243 -0.60140 59 62 56
-0.19543 -0.61899 -0.59848 64 65 62
-0.19690 -0.62555 -0.60156 57 63 53
-0.18928 -0.62210 -0.59863 64 66 60
-0.19111 -0.62838 -0.60066 55 61 52
-0.18348 -0.62493 -0.59774 62 67 58
-0.18565 -0.63094 -0.59882 54 61 54
-0.17801 -0.62749 -0.59589 64 65 57
-0.17964 -0.63394 -0.59846 55 61 50
-0.17200 -0.63048 -0.59553 64 63 60
-0.16755 -0.63998 -0.59780 49 59 42
-0.15988 -0.63651 -0.59486 62 62 56
-0.16192 -0.64266 -0.59629 49 58 40
-0.15424 -0.63919 -0.59335 62 62 60
-0.15686 -0.64489 -0.59324 48 55 43
-0.15225 -0.64675 -0.58901 47 52 48
-0.14713 -0.64903 -0.58614 45 48 43
-0.14041 -0.65256 -0.58739 42 46 38
-0.13523 -0.65488 -0.58465 39 42 38
-0.13070 -0.65669 -0.58025 37 36 41
-0.12439 -0.65989 -0.58035 36 32 37
-0.12007 -0.66154 -0.57546 33 28 35
-0.11735 -0.66969 -0.57304 15 14 23
-0.11537 -0.66349 -0.57156 29 25 35
-0.11265 -0.67163 -0.56913 14 14 20
-0.11104 -0.66516 -0.56679 25 21 35
-0.10832 -0.67329 -0.56437 13 15 18
-0.10719 -0.66646 -0.56091 24 19 34
-0.10447 -0.67458 -0.55850 14 13 15
-0.10312 -0.66794 -0.55560 24 17 31
-0.10042 -0.67603 -0.55318 14 12 16
-0.09802 -0.67020 -0.55277 21 13 29
-0.09531 -0.67830 -0.55036 14 14 21
-0.09414 -0.67155 -0.54710 20 14 28
-0.09144 -0.67963 -0.54470 15 15 23
-0.08878 -0.67402 -0.54491 20 14 29
-0.08608 -0.68210 -0.54250 17 15 23
-0.08258 -0.67712 -0.54462 20 14 29
-0.07987 -0.68522 -0.54221 19 17 22
-0.07699 -0.67976 -0.54289 20 18 30
-0.07429 -0.68786 -0.54048 15 18 21
-0.07172 -0.68216 -0.54046 18 22 30
-0.06901 -0.69026 -0.53805 14 18 22
-0.06677 -0.68431 -0.53729 16 21 29
-0.06406 -0.69241 -0.53488 17 17 25
-0.06023 -0.68766 -0.53763 13 18 27
-0.05751 -0.69577 -0.53521 17 16 26
-0.05499 -0.69002 -0.53508 17 18 28
-0.05228 -0.69814 -0.53266 15 15 14
-0.04989 -0.69229 -0.53223 18 16 26
-0.04718 -0.70041 -0.52981 14 14 19
-0.04167 -0.69687 -0.53605 17 16 26
-0.03894 -0.70502 -0.53362 15 15 15
-0.03293 -0.70181 -0.54082 17 16 21
-0.03019 -0.71000 -0.53838 14 14 12
-0.90518 -0.29426 -0.78880 16 24 31
-0.90762 -0.28695 -0.79098 20 27 37
-0.90985 -0.29216 -0.79121 17 24 30
-0.90295 -0.28904 -0.78857 19 28 39
-0.89829 -0.29114 -0.78616 23 29 46
-0.90035 -0.29623 -0.78461 19 25 41
-0.89347 -0.29312 -0.78197 29 34 54
-0.58688 -0.45029 -0.74004 20 21 38
-0.59424 -0.45363 -0.74287 21 20 29
-0.57591 -0.45640 -0.74482 113 118 123
-0.57085 -0.45872 -0.74267 123 123 127
-0.56570 -0.46119 -0.74132 123 122 127
-0.56051 -0.46369 -0.74018 125 123 131
-0.55493 -0.46679 -0.74253 124 120 133
-0.54894 -0.47047 -0.74819 123 115 131
-0.54263 -0.47457 -0.75613 122 113 126
-0.53722 -0.47731 -0.75607 119 111 124
-0.53194 -0.47985 -0.75483 119 115 123
-0.52701 -0.48189 -0.75080 113 114 120
-0.52202 -0.48403 -0.74726 109 110 118
-0.51708 -0.48610 -0.74344 104 106 120
-0.51189 -0.48851 -0.74142 102 104 125
-0.50672 -0.49089 -0.73930 99 98 122
-0.50107 -0.49389 -0.74045 95 91 118
-0.49529 -0.49704 -0.74236 92 85 117
-0.48941 -0.50030 -0.74476 90 77 115
-0.48397 -0.50297 -0.74403 90 73 113
-0.47854 -0.50564 -0.74319 85 66 104
-0.47584 -0.51371 -0.74079 55 50 68
-0.47310 -0.50830 -0.74230 78 60 94
-0.47040 -0.51638 -0.73989 56 50 70
-0.46790 -0.51067 -0.73990 71 55 87
-0.46519 -0.51875 -0.73749 58 52 67
-0.46281 -0.51290 -0.73680 67 52 79
-0.46010 -0.52098 -0.73439 62 56 61
-0.45769 -0.51517 -0.73390 60 50 71
-0.45499 -0.52325 -0.73149 66 59 52
-0.45242 -0.51761 -0.73187 53 47 64
-0.44972 -0.52570 -0.72946 66 60 52
-0.44770 -0.51941 -0.72666 47 45 63
-0.44501 -0.52749 -0.72426 65 61 56
-0.44257 -0.52171 -0.72392 43 45 66
-0.43987 -0.52978 -0.72152 64 62 56
-0.43765 -0.52376 -0.71997 43 47 65
-0.43495 -0.53183 -0.71756 64 63 56
-0.43260 -0.52595 -0.71675 45 48 65
-0.42991 -0.53402 -0.71435 65 62 56
-0.42754 -0.52817 -0.71364 49 48 66
-0.42485 -0.53623 -0.71124 64 63 56
-0.42188 -0.53104 -0.71364 51 49 68
-0.41918 -0.53912 -0.71124 62 63 55
-0.41679 -0.53329 -0.71067 51 53 69
-0.41409 -0.54136 -0.70826 61 64 58
-0.41153 -0.53572 -0.70853 52 54 72
-0.40883 -0.54379 -0.70613 63 65 64
-0.30771 -0.58025 -0.63644 64 66 63
-0.31282 -0.57796 -0.63907 64 66 70
-0.30329 -0.58192 -0.63136 63 66 61
-0.29861 -0.58383 -0.62725 62 64 59
-0.29420 -0.58550 -0.62222 63 63 60
-0.28918 -0.58772 -0.61937 61 63 59
-0.28458 -0.58957 -0.61510 60 64 57
-0.27708 -0.58618 -0.61223 67 65 70
-0.27949 -0.59186 -0.61252 60 64 54
-0.27200 -0.58847 -0.60964 65 65 66
-0.27301 -0.59539 -0.61459 58 63 51
-0.26549 -0.59198 -0.61170 64 65 68
-0.26779 -0.59779 -0.61240 55 62 52
-0.26027 -0.59438 -0.60951 66 66 67
-0.25742 -0.60252 -0.60771 54 60 49
-0.24990 -0.59911 -0.60483 64 66 69
-0.25230 -0.60483 -0.60518 53 60 50
-0.24774 -0.60666 -0.60086 52 59 49
-0.24109 -0.61028 -0.60306 50 57 46
-0.23510 -0.61334 -0.60317 48 56 46
-0.22819 -0.61716 -0.60596 48 52 47
-0.22034 -0.62177 -0.61149 47 49 48
-0.21368 -0.62536 -0.61328 44 45 49
-0.20799 -0.62811 -0.61212 43 43 52
-0.20125 -0.63174 -0.61397 41 41 47
-0.17346 -0.64684 -0.62273 35 23 43
-0.17070 -0.65508 -0.62027 21 18 28
-0.16624 -0.65080 -0.62538 29 23 39
-0.16348 -0.65907 -0.62292 19 18 22
-0.15961 -0.65428 -0.62635 25 21 35
-0.15684 -0.66256 -0.62388 20 16 19
-0.15442 -0.65657 -0.62336 25 16 32
-0.15165 -0.66486 -0.62089 17 16 22
-0.14893 -0.65911 -0.62116 22 14 30
-0.14616 -0.66739 -0.61869 19 18 22
-0.14544 -0.66003 -0.61369 22 14 32
-0.14268 -0.66829 -0.61123 20 17 26
-0.13757 -0.66263 -0.60135 18 12 29
-0.13482 -0.67085 -0.59890 14 14 22
-0.13390 -0.66373 -0.59462 18 13 29
-0.13115 -0.67194 -0.59218 16 14 19
-0.13013 -0.66492 -0.58820 19 15 29
-0.12740 -0.67310 -0.58576 15 15 16
-0.12590 -0.66648 -0.58302 18 14 25
-0.12317 -0.67465 -0.58058 15 15 16
-0.12236 -0.66750 -0.57618 16 14 23
-0.11964 -0.67565 -0.57375 15 15 16
-0.91222 -0.29749 -0.79308 9 14 20
-0.91467 -0.29017 -0.79526 19 22 33
-0.91912 -0.30061 -0.79573 5 6 14
-0.91445 -0.30271 -0.79331 5 6 17
-0.90753 -0.29957 -0.79046 10 14 22
-0.58952 -0.45538 -0.73733 19 19 35
-0.59688 -0.45871 -0.74015 16 17 21
-0.59190 -0.46095 -0.73758 19 20 29
-0.58691 -0.46319 -0.73501 20 21 32
-0.58395 -0.45865 -0.74098 41 43 39
-0.57786 -0.46275 -0.74955 58 62 74
-0.57268 -0.46527 -0.74850 59 59 75
-0.56720 -0.46825 -0.75009 57 57 76
-0.56119 -0.47206 -0.75649 57 55 77
-0.55542 -0.47543 -0.76017 56 52 81
-0.54996 -0.47829 -0.76080 60 51 88
-0.54453 -0.48107 -0.76092 61 48 84
-0.54186 -0.48908 -0.75854 43 40 56
-0.53921 -0.48368 -0.76008 62 47 77
-0.53653 -0.49170 -0.75769 48 45 52
-0.53347 -0.48689 -0.76250 61 50 69
-0.53078 -0.49493 -0.76010 55 49 52
-0.52771 -0.49009 -0.76481 58 50 66
-0.52502 -0.49816 -0.76241 57 52 53
-0.51689 -0.49545 -0.76348 48 50 60
-0.51419 -0.50353 -0.76108 58 57 57
-0.51141 -0.49821 -0.76319 44 49 60
-0.50870 -0.50630 -0.76078 60 57 55
-0.50643 -0.50028 -0.75917 45 46 59
-0.50373 -0.50836 -0.75676 62 58 51
-0.50164 -0.50210 -0.75389 46 44 57
-0.49894 -0.51017 -0.75148 62 58 53
-0.49624 -0.50473 -0.75290 47 44 60
-0.49354 -0.51282 -0.75049 61 58 60
-0.49102 -0.50714 -0.75070 48 46 65
-0.48831 -0.51522 -0.74829 60 60 58
-0.48586 -0.50944 -0.74796 51 50 64
-0.48316 -0.51753 -0.74556 62 60 56
-0.48085 -0.51158 -0.74438 54 51 63
-0.47815 -0.51966 -0.74197 63 59 62
-0.36805 -0.56185 -0.68285 63 65 55
-0.37320 -0.55954 -0.68551 63 66 55
-0.36326 -0.56380 -0.67867 62 65 57
-0.35849 -0.56574 -0.67443 60 62 55
-0.35381 -0.56758 -0.66984 59 61 57
-0.34901 -0.56956 -0.66583 57 62 59
-0.34144 -0.56613 -0.66293 65 65 67
-0.34412 -0.57163 -0.66221 56 62 56
-0.33656 -0.56820 -0.65931 65 65 66
-0.33944 -0.57349 -0.65779 55 62 51
-0.33188 -0.57007 -0.65490 65 66 64
-0.33461 -0.57551 -0.65401 56 59 51
-0.32706 -0.57209 -0.65111 66 67 62
-0.32956 -0.57774 -0.65109 58 59 48
-0.32201 -0.57432 -0.64819 66 68 62
-0.32456 -0.57993 -0.64801 55 58 49
-0.31701 -0.57651 -0.64512 65 66 65
-0.31952 -0.58216 -0.64511 53 60 50
-0.30981 -0.58626 -0.63791 50 55 46
-0.30527 -0.58803 -0.63323 48 54 44
-0.30024 -0.59025 -0.63034 46 51 42
-0.29390 -0.59369 -0.63210 45 48 39
-0.28831 -0.59642 -0.63110 41 45 41
-0.28211 -0.59971 -0.63222 39 41 46
-0.27942 -0.60775 -0.62983 18 21 33
-0.26994 -0.60604 -0.63333 36 33 43
-0.26724 -0.61411 -0.63092 21 20 32
-0.26367 -0.60936 -0.63439 35 29 42
-0.26096 -0.61745 -0.63198 21 19 28
-0.25859 -0.61160 -0.63143 35 27 41
-0.25589 -0.61969 -0.62902 21 19 23
-0.25390 -0.61350 -0.62724 34 25 37
-0.25120 -0.62158 -0.62483 21 19 25
-0.24865 -0.61590 -0.62486 31 21 35
-0.24595 -0.62398 -0.62245 21 19 33
-0.23822 -0.62063 -0.61991 25 17 36
-0.23551 -0.62872 -0.61750 21 18 30
-0.23227 -0.62364 -0.61968 24 18 38
-0.22956 -0.63173 -0.61726 22 19 30
-0.22541 -0.62742 -0.62217 25 18 39
-0.22270 -0.63555 -0.61975 21 19 27
-0.21892 -0.63088 -0.62343 24 20 38
-0.21620 -0.63902 -0.62100 20 18 25
-0.21257 -0.63420 -0.62418 22 20 35
-0.20984 -0.64236 -0.62175 21 20 28
-0.20649 -0.63729 -0.62407 23 22 34
-0.20376 -0.64546 -0.62163 21 20 25
-0.20017 -0.64057 -0.62460 21 21 27
-0.19743 -0.64876 -0.62216 19 17 21
-0.19417 -0.64357 -0.62411 19 19 20
-0.19143 -0.65177 -0.62167 19 18 20
-0.18769 -0.64697 -0.62495 18 16 28
-0.18495 -0.65519 -0.62251 19 19 22
-0.18121 -0.65036 -0.62574 21 19 29
-0.17845 -0.65860 -0.62329 19 18 25
-0.90986 -0.30487 -0.79178 6 7 17
-0.91676 -0.30800 -0.79442 4 4 14
-0.91208 -0.31010 -0.79201 5 4 14
-0.90496 -0.30678 -0.78685 9 11 31
-0.58127 -0.46660 -0.73936 17 17 28
-0.58865 -0.46995 -0.74219 21 21 24
-0.58365 -0.47219 -0.73961 23 22 21
-0.57865 -0.47444 -0.73703 24 21 22
-0.56924 -0.47452 -0.75396 20 19 31
-0.56659 -0.48245 -0.75160 31 29 25
-0.56377 -0.47746 -0.75520 22 22 34
-0.56112 -0.48541 -0.75283 34 31 32
-0.55807 -0.48076 -0.75834 25 27 43
-0.55246 -0.48388 -0.76041 31 33 58
-0.54979 -0.49187 -0.75803 42 41 47
-0.54703 -0.48669 -0.76067 37 36 59
-0.54435 -0.49470 -0.75828 46 46 49
-0.44646 -0.53444 -0.73018 59 62 55
-0.45163 -0.53212 -0.73285 60 62 52
-0.44138 -0.53665 -0.72700 58 62 58
-0.43625 -0.53893 -0.72412 60 62 57
-0.43130 -0.54100 -0.72031 61 60 51
-0.42587 -0.54363 -0.71903 58 59 50
-0.42064 -0.54602 -0.71669 55 58 50
-0.41555 -0.54824 -0.71358 54 59 51
-0.41083 -0.55007 -0.70867 53 60 51
-0.40321 -0.54662 -0.70575 64 65 62
-0.40506 -0.55305 -0.70899 52 60 48
-0.39743 -0.54960 -0.70607 65 64 59
-0.39997 -0.55529 -0.70592 51 58 46
-0.39234 -0.55183 -0.70300 64 64 59
-0.39496 -0.55744 -0.70254 50 57 45
-0.38733 -0.55399 -0.69961 63 64 60
-0.38961 -0.55995 -0.70068 50 58 45
-0.38198 -0.55650 -0.69776 62 64 61
-0.38403 -0.56272 -0.69993 48 56 44
-0.37639 -0.55926 -0.69701 62 64 58
-0.37921 -0.56466 -0.69563 47 54 42
-0.37437 -0.56664 -0.69149 46 53 40
-0.36932 -0.56884 -0.68832 45 50 42
-0.36444 -0.57086 -0.68439 44 49 42
-0.35917 -0.57329 -0.68221 43 43 44
-0.35463 -0.57498 -0.67693 40 41 48
-0.34965 -0.57711 -0.67355 35 39 49
-0.34419 -0.57973 -0.67213 34 37 47
-0.33831 -0.58278 -0.67241 35 32 42
-0.33560 -0.59087 -0.67000 23 19 30
-0.33253 -0.58570 -0.67217 35 26 41
-0.32982 -0.59381 -0.66975 22 21 30
-0.31459 -0.59502 -0.67336 29 20 38
-0.31187 -0.60317 -0.67093 20 20 25
-0.90723 -0.31204 -0.78761 7 7 21
-0.91412 -0.31516 -0.79025 5 5 11
-0.90945 -0.31726 -0.78784 6 6 12
-0.89748 -0.31586 -0.77813 21 32 43
-0.89061 -0.31275 -0.77550 27 37 53
-0.89283 -0.31795 -0.77573 24 36 48
-0.55461 -0.49004 -0.76319 38 36 42
-0.52707 -0.50450 -0.76579 51 54 46
-0.53223 -0.50219 -0.76845 51 52 44
-0.51603 -0.51019 -0.76597 52 55 58
-0.51077 -0.51264 -0.76394 54 55 52
-0.50614 -0.51420 -0.75735 54 55 46
-0.50074 -0.51685 -0.75638 54 55 48
-0.49546 -0.51932 -0.75447 52 55 53
-0.49022 -0.52174 -0.75228 51 54 54
-0.48535 -0.52365 -0.74756 51 54 56
-0.47997 -0.52626 -0.74631 50 52 61
-0.47234 -0.52280 -0.74338 62 59 64
-0.47484 -0.52853 -0.74341 49 50 56
-0.46720 -0.52508 -0.74049 61 60 59
-0.46968 -0.53084 -0.74066 48 50 47
-0.46205 -0.52738 -0.73773 61 61 55
-0.46446 -0.53323 -0.73831 46 49 43
-0.45682 -0.52977 -0.73539 61 62 53
-0.45888 -0.53606 -0.73807 45 49 40
-0.45354 -0.53859 -0.73636 44 49 38
-0.44840 -0.54086 -0.73341 42 48 38
-0.44331 -0.54307 -0.73023 40 46 38
