ply
format ascii 1.0
element face 0
property list uchar int vertex_indices
element vertex 1328
property float x
property float y
property float z
property uchar diffuse_red
property uchar diffuse_green
property uchar diffuse_blue
end_header
0.00952 -0.21068 -0.82623 70 73 90
0.01254 -0.21654 -0.82035 68 70 88
0.02540 -0.21429 -0.81900 72 80 94
0.02415 -0.22669 -0.81739 67 70 78
0.02510 -0.22114 -0.80784 64 68 79
0.02384 -0.23351 -0.80623 67 65 77
0.07188 -0.28916 -0.75274 64 54 60
0.07314 -0.27671 -0.75436 85 81 78
0.06883 -0.28325 -0.75868 70 57 63
0.08003 -0.29391 -0.75437 67 46 54
0.08627 -0.29913 -0.75309 78 43 42
0.09494 -0.30384 -0.75535 93 62 67
0.11126 -0.30694 -0.76870 140 110 113
0.10509 -0.31493 -0.74919 197 166 135
0.10607 -0.32135 -0.74014 243 225 182
0.10479 -0.33394 -0.73851 254 254 254
0.11140 -0.32687 -0.73739 254 252 229
0.11012 -0.33948 -0.73575 254 254 254
0.11863 -0.33203 -0.73733 254 254 240
0.11735 -0.34467 -0.73568 254 254 254
0.12357 -0.33767 -0.73394 254 254 253
0.12229 -0.35033 -0.73230 254 254 254
0.15301 -0.47390 -0.55178 251 250 247
0.14572 -0.47452 -0.56194 254 254 253
0.16204 -0.48534 -0.54381 157 117 129
0.17780 -0.49003 -0.55402 225 232 232
0.17653 -0.50251 -0.55240 254 254 254
0.18625 -0.49547 -0.55487 254 254 254
0.18498 -0.50799 -0.55324 254 254 254
0.27053 -0.69685 -0.33117 254 244 219
0.26323 -0.69747 -0.34134 254 254 254
0.27667 -0.70284 -0.32857 183 167 133
0.27071 -0.70835 -0.31320 211 218 202
0.28625 -0.71476 -0.32046 247 250 248
0.28500 -0.72718 -0.31884 253 254 254
0.33819 -0.76390 -0.30094 250 253 251
0.33947 -0.75128 -0.30258 254 254 254
0.33510 -0.75791 -0.30695 253 254 254
0.34255 -0.75727 -0.29657 254 254 254
0.34447 -0.77013 -0.29813 243 244 241
0.34815 -0.77617 -0.29270 222 227 220
0.35392 -0.78239 -0.28932 185 176 169
0.36930 -0.78944 -0.29540 143 109 128
0.38421 -0.79652 -0.30089 91 65 86
0.39030 -0.80288 -0.29765 67 57 66
0.38900 -0.81573 -0.29598 94 87 73
0.39728 -0.80934 -0.29525 81 73 68
0.39598 -0.82222 -0.29358 93 87 74
0.40476 -0.81588 -0.29330 93 83 65
0.40345 -0.82879 -0.29162 92 86 73
0.43552 -0.84238 -0.28583 89 85 57
0.44504 -0.84929 -0.28558 82 79 53
0.45812 -0.85664 -0.28859 70 67 50
0.45679 -0.86980 -0.28688 38 36 45
0.46968 -0.86388 -0.29008 56 48 50
0.46834 -0.87709 -0.28837 36 38 45
0.47406 -0.87029 -0.28485 43 36 50
0.47272 -0.88351 -0.28313 37 39 41
2.30963 -1.44510 -1.42928 18 15 14
2.31213 -1.42044 -1.43248 13 11 4
2.30360 -1.43340 -1.44102 16 12 10
2.31816 -1.43215 -1.42074 13 11 6
2.31932 -1.46799 -1.40397 31 29 31
2.31682 -1.49263 -1.40077 43 39 40
2.31005 -1.65654 -1.09592 48 50 40
2.29596 -1.65775 -1.11553 51 55 59
2.32465 -1.67028 -1.09056 35 38 21
2.33459 -1.68277 -1.08196 22 20 11
1.96244 -1.89418 -0.33217 22 20 37
1.95042 -1.89521 -0.34891 16 20 28
1.97119 -1.90525 -0.32447 57 52 36
1.96913 -1.92564 -0.32182 75 59 41
2.50426 -2.33056 -0.24890 11 9 60
2.50656 -2.30784 -0.25186 11 16 40
2.49871 -2.31978 -0.25972 12 10 44
2.49085 -2.33171 -0.26758 9 9 50
2.50775 -2.34045 -0.23719 20 21 79
2.51223 -2.35076 -0.22592 36 34 89
2.51197 -2.35900 -0.21263 31 24 75
2.52536 -2.35785 -0.19399 13 14 69
2.58721 -2.47566 -0.11255 54 62 76
2.58952 -2.45288 -0.11551 26 39 120
2.58164 -2.46485 -0.12339 43 43 89
2.62420 -2.50092 -0.11401 87 94 80
2.63432 -2.51390 -0.10484 117 118 76
2.63778 -2.52381 -0.09306 114 114 56
2.63655 -2.53152 -0.07951 93 88 48
2.63422 -2.55445 -0.07653 21 10 37
2.62522 -2.53448 -0.06218 65 53 52
2.61857 -2.53957 -0.04671 29 21 54
2.61969 -2.54827 -0.03421 13 7 52
2.61933 -2.55626 -0.02120 24 12 47
2.61852 -2.56401 -0.00806 38 20 53
2.62370 -2.57460 0.00286 54 33 69
2.63644 -2.58881 0.01107 68 52 90
2.63666 -2.59702 0.02378 72 54 102
2.62787 -2.60085 0.03965 73 47 104
2.60371 -2.59715 0.06081 75 56 110
2.56894 -2.58814 0.08547 95 82 109
2.56629 -2.59473 0.09882 104 95 96
2.56123 -2.62350 0.14991 142 111 58
2.55361 -2.63507 0.14229 130 116 77
2.56120 -2.63125 0.16217 136 99 55
2.54704 -2.63188 0.17900 110 69 58
2.44177 -2.63105 0.29536 31 45 140
2.42931 -2.63211 0.27801 36 47 146
2.44320 -2.63914 0.30653 25 34 111
2.44474 -2.64726 0.31765 21 21 81
2.44260 -2.66832 0.32038 17 13 62
2.58290 -2.77159 0.35948 37 26 23
2.57014 -2.77268 0.34172 25 19 27
2.57479 -2.77469 0.37345 51 38 27
2.55653 -2.77231 0.39010 64 50 29
2.55436 -2.79372 0.39289 76 59 38
-0.02458 -0.18749 -0.82447 221 225 204
-0.02582 -0.19967 -0.82289 150 151 154
-0.02295 -0.19370 -0.81647 119 105 99
-0.00799 -0.19573 -0.83014 69 66 89
-0.00074 -0.19511 -0.82005 75 81 97
-0.00499 -0.20156 -0.82430 71 77 103
-0.00924 -0.20801 -0.82855 69 73 93
0.02935 -0.26535 -0.76200 84 78 89
0.03059 -0.25306 -0.76360 76 75 89
0.02634 -0.25951 -0.76785 85 83 89
0.02209 -0.26597 -0.77210 73 72 79
0.03360 -0.25889 -0.75775 81 82 100
0.03661 -0.26472 -0.75190 84 84 95
0.03541 -0.27041 -0.76082 77 69 81
0.04268 -0.26979 -0.75069 84 80 82
0.04302 -0.27512 -0.76196 67 58 69
0.05031 -0.27449 -0.75180 77 73 81
0.04604 -0.28098 -0.75607 60 54 59
0.05549 -0.28531 -0.75989 60 50 50
0.05978 -0.27879 -0.75560 74 64 77
0.06144 -0.29052 -0.75835 69 41 45
0.06733 -0.29576 -0.75670 84 48 49
0.07691 -0.30020 -0.76048 109 83 83
0.08205 -0.30568 -0.75761 166 141 129
0.08893 -0.31080 -0.75726 219 199 163
0.08667 -0.31790 -0.74346 248 242 220
0.08540 -0.33041 -0.74183 254 254 254
0.09262 -0.32324 -0.74173 254 253 232
0.09135 -0.33578 -0.74010 254 254 254
0.09897 -0.32852 -0.74052 254 254 244
0.09770 -0.34109 -0.73889 254 254 254
0.14061 -0.48121 -0.54558 245 241 239
0.14804 -0.49274 -0.53568 198 167 155
0.16597 -0.49725 -0.54879 243 252 246
0.16472 -0.50967 -0.54718 254 254 254
0.26188 -0.70318 -0.33078 254 252 238
0.25460 -0.70380 -0.34092 254 254 254
0.26072 -0.70886 -0.32045 199 210 182
0.25305 -0.71423 -0.30329 212 192 181
0.28044 -0.72121 -0.32315 243 240 239
0.32125 -0.75811 -0.31079 250 253 252
0.32253 -0.74553 -0.31242 254 254 254
0.31818 -0.75214 -0.31677 253 254 254
0.32560 -0.75150 -0.30644 254 254 254
0.32557 -0.76417 -0.30606 242 242 243
0.32800 -0.77009 -0.29942 221 227 222
0.33273 -0.77619 -0.29510 186 176 168
0.35046 -0.78336 -0.30376 141 112 125
0.36299 -0.79018 -0.30710 86 63 79
0.37084 -0.79666 -0.30570 67 53 65
0.36954 -0.80945 -0.30404 94 86 71
0.37909 -0.80320 -0.30466 83 72 70
0.37779 -0.81603 -0.30299 92 87 73
0.38558 -0.80961 -0.30184 93 85 69
0.38428 -0.82246 -0.30016 90 87 74
0.41381 -0.83569 -0.29238 87 84 64
0.42871 -0.84314 -0.29740 80 79 49
0.43877 -0.85011 -0.29772 71 65 46
0.43744 -0.86321 -0.29601 41 39 44
0.45195 -0.85749 -0.30091 57 44 50
0.45061 -0.87066 -0.29919 37 41 40
0.45953 -0.86426 -0.29874 42 36 45
0.45819 -0.87746 -0.29702 32 38 38
2.31695 -1.44062 -1.48334 16 15 11
2.31947 -1.41578 -1.48657 12 10 16
2.31087 -1.42883 -1.49517 15 11 12
2.32555 -1.42757 -1.47474 14 11 9
2.30933 -1.44945 -1.46076 22 22 19
2.30826 -1.45963 -1.44341 30 29 24
2.30576 -1.48434 -1.44019 41 41 41
2.30756 -1.67067 -1.10816 53 53 48
2.29345 -1.67187 -1.12780 54 56 60
2.29930 -1.68322 -1.11643 51 53 58
2.33011 -1.69641 -1.09284 30 34 23
2.31969 -1.70316 -1.07037 14 15 15
2.33378 -1.70195 -1.05076 13 15 16
2.32552 -1.71448 -1.05902 13 17 19
1.93504 -1.89725 -0.32830 16 20 38
1.92309 -1.89827 -0.34494 18 20 30
1.94946 -1.91043 -0.32371 59 55 35
1.94741 -1.93072 -0.32107 75 59 42
2.49496 -2.34186 -0.25613 11 13 71
2.49928 -2.35211 -0.24478 27 37 88
2.50186 -2.36158 -0.23268 48 50 93
2.50824 -2.37271 -0.22224 43 26 57
2.50595 -2.39540 -0.21929 41 19 21
2.50941 -2.38155 -0.20957 30 12 37
2.50712 -2.40421 -0.20662 33 18 30
2.53065 -2.44882 -0.12694 42 37 67
2.54747 -2.46472 -0.12073 63 62 55
2.57558 -2.48589 -0.11894 87 82 53
2.59320 -2.50228 -0.11286 98 75 68
2.59089 -2.52511 -0.10989 62 9 14
2.60674 -2.51682 -0.10511 87 52 55
2.60458 -2.52406 -0.09121 63 32 32
2.61892 -2.53901 -0.08371 38 16 32
2.61161 -2.55196 -0.05493 9 6 46
2.61360 -2.56106 -0.04275 20 12 58
2.61532 -2.57002 -0.03049 71 54 75
2.58133 -2.56183 -0.00509 123 95 86
2.57266 -2.56568 0.01081 158 121 109
2.57039 -2.58811 0.01373 225 113 58
2.56834 -2.57158 0.02504 181 142 140
2.56607 -2.59395 0.02795 225 115 58
2.55746 -2.57426 0.04157 188 145 147
2.56299 -2.58487 0.05215 191 144 148
2.56361 -2.59308 0.06446 195 150 154
2.56875 -2.60350 0.07516 190 159 169
2.56867 -2.61133 0.08767 123 117 158
2.55431 -2.61206 0.10505 51 61 132
2.55206 -2.63417 0.10793 32 48 145
2.55449 -2.61996 0.11736 61 72 115
2.55215 -2.62657 0.13048 98 99 93
2.55589 -2.64395 0.15380 142 112 65
2.54828 -2.65551 0.14619 143 121 60
2.54513 -2.64623 0.16957 125 83 57
2.53782 -2.65021 0.18412 90 52 80
2.55072 -2.64910 0.20207 47 41 127
2.54317 -2.66058 0.19452 56 43 120
2.53561 -2.67205 0.18696 61 43 113
2.43785 -2.64389 0.28702 30 40 126
2.43762 -2.65110 0.29872 24 26 97
2.44004 -2.65968 0.30958 20 16 74
2.43791 -2.68076 0.31232 16 14 55
2.57411 -2.78224 0.35237 40 32 20
2.56135 -2.78333 0.33461 28 21 21
2.56664 -2.79359 0.34490 43 35 17
2.57192 -2.80384 0.35518 54 44 21
2.57140 -2.78819 0.36487 51 42 25
2.56921 -2.80975 0.36768 65 54 26
2.55092 -2.78453 0.38220 63 51 30
2.54875 -2.80595 0.38498 75 60 35
-0.05311 -0.20164 -0.78862 254 246 232
-0.06018 -0.20224 -0.79846 254 254 254
-0.05432 -0.21361 -0.78706 213 213 211
-0.02400 -0.20582 -0.81518 74 77 102
0.02457 -0.27193 -0.76544 70 66 74
0.03132 -0.27683 -0.76535 84 60 59
0.03883 -0.28158 -0.76636 91 59 62
0.04391 -0.28696 -0.76362 92 73 69
0.04930 -0.29227 -0.76131 104 91 59
0.06524 -0.29518 -0.77488 135 112 72
0.07159 -0.30037 -0.77387 192 164 122
0.06880 -0.30761 -0.75916 237 222 180
0.06754 -0.32009 -0.75754 254 254 254
0.06727 -0.31453 -0.74640 252 251 230
0.06601 -0.32697 -0.74478 254 254 254
0.07137 -0.32021 -0.74205 254 254 238
0.07011 -0.33266 -0.74043 254 254 254
0.08021 -0.32491 -0.74466 254 254 252
0.07895 -0.33741 -0.74303 254 254 254
0.12870 -0.48230 -0.54963 254 253 252
0.12995 -0.47004 -0.55122 254 254 254
0.12571 -0.47648 -0.55546 254 254 254
0.12147 -0.48292 -0.55970 254 254 254
0.13095 -0.48819 -0.54282 237 224 226
0.13957 -0.49348 -0.54424 139 103 174
0.13708 -0.49980 -0.53134 210 200 198
0.16136 -0.50380 -0.55269 252 254 253
0.16011 -0.51622 -0.55108 254 254 254
0.25130 -0.70940 -0.32826 254 254 251
0.24404 -0.71002 -0.33837 254 254 254
0.25784 -0.71539 -0.32618 236 221 211
0.25659 -0.72771 -0.32458 186 144 135
0.26264 -0.72133 -0.32222 207 147 149
0.26791 -0.72730 -0.31874 230 225 228
0.28181 -0.73377 -0.32431 250 253 254
0.28915 -0.73314 -0.31409 254 254 254
0.28485 -0.73967 -0.31839 254 254 254
0.30096 -0.75213 -0.31696 251 253 252
0.30223 -0.73963 -0.31858 254 254 254
0.29790 -0.74620 -0.32291 253 254 254
0.30528 -0.74556 -0.31263 254 254 254
0.30680 -0.75826 -0.31387 242 244 245
0.31180 -0.76434 -0.30990 220 230 223
0.31565 -0.77035 -0.30473 182 162 170
0.33395 -0.77751 -0.31424 137 97 114
0.34244 -0.78396 -0.31367 84 62 67
0.35143 -0.79048 -0.31355 69 65 63
0.35014 -0.80322 -0.31189 91 87 72
0.36050 -0.79706 -0.31344 84 78 65
0.35920 -0.80983 -0.31178 93 86 74
0.36880 -0.80360 -0.31251 94 84 65
0.36750 -0.81641 -0.31084 91 86 72
0.39465 -0.82932 -0.30109 87 85 66
0.40147 -0.83584 -0.29849 81 79 56
0.41595 -0.84324 -0.30325 67 64 52
0.41463 -0.85625 -0.30156 36 37 47
0.43476 -0.85120 -0.31205 50 46 49
0.43343 -0.86432 -0.31035 35 37 42
0.44070 -0.85775 -0.30842 42 39 45
0.43937 -0.87089 -0.30671 36 39 34
2.32481 -1.43617 -1.53856 16 18 9
2.32734 -1.41113 -1.54182 12 11 8
2.31868 -1.42428 -1.55048 14 14 8
2.33347 -1.42302 -1.52990 13 11 9
2.32342 -1.44643 -1.52065 22 22 16
2.31894 -1.45598 -1.50034 28 30 23
2.31641 -1.48090 -1.49710 38 43 36
2.30704 -1.46383 -1.47428 32 37 30
2.30453 -1.48863 -1.47105 41 43 39
2.30094 -1.47288 -1.45292 39 40 34
2.29844 -1.49760 -1.44970 40 43 40
2.30336 -1.69405 -1.10382 46 51 49
2.28926 -1.69526 -1.12346 53 58 67
2.31314 -1.70652 -1.09517 39 46 36
2.31298 -1.71613 -1.07968 27 30 23
2.31444 -1.72619 -1.06535 18 21 16
2.32852 -1.72499 -1.04575 6 9 15
2.32028 -1.73751 -1.05400 9 9 13
2.31203 -1.75003 -1.06225 11 7 8
1.94375 -1.91382 -0.34378 23 18 40
1.93174 -1.91485 -0.36049 20 19 29
1.97795 -1.93461 -0.34975 62 57 34
1.97587 -1.95512 -0.34708 69 62 42
2.48709 -2.35379 -0.26398 12 12 70
2.48479 -2.37649 -0.26103 39 23 39
2.49049 -2.36361 -0.25222 29 30 73
2.49451 -2.37371 -0.24075 43 36 67
2.49879 -2.38392 -0.22939 44 24 32
2.53714 -2.46727 -0.14057 57 33 32
2.54624 -2.47967 -0.13123 64 32 25
2.53735 -2.48371 -0.11465 61 18 20
2.56056 -2.50270 -0.11093 55 10 20
2.59006 -2.53292 -0.09652 77 12 11
2.61091 -2.55097 -0.09159 86 28 26
2.61501 -2.56112 -0.08013 80 45 59
2.61076 -2.56727 -0.06549 47 30 87
2.57892 -2.56015 -0.04049 62 60 127
2.57663 -2.58275 -0.03756 179 142 132
2.54846 -2.55353 -0.01625 153 137 140
2.55218 -2.56331 -0.00494 216 149 89
2.56577 -2.57788 0.00273 228 123 53
2.55546 -2.59666 0.04437 228 121 57
2.54973 -2.60172 0.05896 230 127 74
2.56074 -2.61503 0.06757 219 151 138
2.55501 -2.62003 0.08207 135 111 169
2.54573 -2.62321 0.09772 43 45 150
2.54349 -2.64532 0.10060 28 48 151
2.54640 -2.63909 0.12222 47 65 127
2.54574 -2.64650 0.13475 96 99 94
2.54351 -2.66852 0.13762 141 126 64
2.54489 -2.66148 0.15956 141 105 52
2.53393 -2.66355 0.17536 105 65 75
2.53171 -2.68541 0.17820 78 51 94
2.43736 -2.65119 0.26591 39 49 144
2.43951 -2.63001 0.26316 33 47 152
2.43218 -2.64114 0.25583 43 53 156
2.43447 -2.65703 0.27850 31 35 111
2.43332 -2.66375 0.29050 25 20 80
2.43118 -2.68486 0.29324 17 14 59
2.43560 -2.67225 0.30142 20 15 67
2.43346 -2.69334 0.30416 13 11 50
-0.04546 -0.21748 -0.79110 119 104 124
-0.02690 -0.21850 -0.81088 73 73 86
-0.01972 -0.21788 -0.80088 69 78 92
-0.02392 -0.22427 -0.80509 73 79 90
-0.02813 -0.23066 -0.80930 77 81 86
-0.00335 -0.26475 -0.76418 90 96 93
-0.00212 -0.25259 -0.76576 80 81 89
-0.00632 -0.25898 -0.76997 79 76 81
-0.01053 -0.26536 -0.77417 70 78 79
0.00383 -0.26413 -0.75418 91 100 96
0.00920 -0.27462 -0.76289 83 60 61
0.01890 -0.27874 -0.76748 102 89 105
0.01782 -0.28557 -0.75534 160 144 164
0.03128 -0.28886 -0.76560 219 204 198
0.03603 -0.29430 -0.76239 241 235 206
0.04518 -0.30532 -0.75535 253 242 203
0.04393 -0.31768 -0.75374 254 254 254
0.04813 -0.31120 -0.74935 254 253 227
0.04687 -0.32357 -0.74774 254 254 254
0.05472 -0.31630 -0.74882 254 254 243
0.05346 -0.32869 -0.74721 254 254 254
0.11705 -0.48945 -0.54418 251 249 249
0.10985 -0.49007 -0.55420 254 254 253
0.11849 -0.49538 -0.53636 224 200 213
0.12404 -0.50094 -0.53389 168 114 158
0.13172 -0.50633 -0.53414 229 235 215
0.13048 -0.51857 -0.53255 254 254 254
0.15240 -0.51070 -0.55100 254 254 254
0.15115 -0.52308 -0.54939 254 254 254
0.24384 -0.71571 -0.32906 254 254 254
0.23659 -0.71633 -0.33914 254 254 254
0.23959 -0.72215 -0.33330 254 254 254
0.25196 -0.72179 -0.32872 253 238 216
0.25978 -0.73357 -0.31890 213 221 224
0.27972 -0.74043 -0.33095 246 253 253
0.28418 -0.74643 -0.32651 251 253 251
0.28745 -0.75236 -0.32082 241 245 247
0.29109 -0.75831 -0.31550 217 229 226
0.29767 -0.76449 -0.31323 182 160 169
0.31587 -0.77157 -0.32291 131 93 110
0.32340 -0.77790 -0.32147 77 55 64
0.32884 -0.78409 -0.31786 68 60 56
0.32756 -0.79674 -0.31622 93 88 74
0.33660 -0.79050 -0.31658 85 79 60
0.33531 -0.80318 -0.31493 91 88 79
0.34566 -0.79705 -0.31657 90 87 66
0.37798 -0.82324 -0.31201 85 83 65
0.38708 -0.82998 -0.31175 78 79 55
0.40016 -0.83718 -0.31532 68 66 50
0.39884 -0.85016 -0.31364 42 38 48
0.41008 -0.84410 -0.31572 55 49 50
0.40876 -0.85712 -0.31403 40 40 43
0.41972 -0.85102 -0.31578 42 39 50
0.41839 -0.86409 -0.31408 36 40 37
2.28773 -1.43266 -1.54105 23 22 15
2.31170 -1.44835 -1.54364 27 28 17
2.32241 -1.46123 -1.53542 34 35 21
2.31987 -1.48627 -1.53216 43 40 44
2.31815 -1.47081 -1.51521 36 41 32
2.31562 -1.49578 -1.51197 41 42 50
2.28092 -1.70252 -1.10224 49 56 61
2.26687 -1.70373 -1.12179 51 59 75
2.27269 -1.71502 -1.11047 51 60 71
2.29029 -1.71485 -1.09337 45 52 48
2.29847 -1.72684 -1.08365 35 39 28
1.92286 -1.91921 -0.34330 34 20 36
1.91091 -1.92023 -0.35995 14 15 27
1.95025 -1.93745 -0.34574 61 60 28
1.94818 -1.95783 -0.34309 68 62 46
2.46830 -2.34423 -0.29354 11 14 59
2.47060 -2.32152 -0.29649 9 9 35
2.46045 -2.35616 -0.30140 16 21 78
2.46600 -2.36694 -0.29058 25 23 63
2.48326 -2.38411 -0.24710 57 44 30
2.48699 -2.39406 -0.23552 65 49 21
2.48830 -2.40290 -0.22290 59 34 21
2.48873 -2.41133 -0.20993 33 17 24
2.50208 -2.41019 -0.19135 24 16 35
2.49426 -2.42206 -0.19917 12 10 35
2.49362 -2.43815 -0.17274 12 12 41
2.49591 -2.41562 -0.17567 18 14 43
2.48811 -2.42746 -0.18347 5 8 41
2.50066 -2.44956 -0.16265 38 25 42
2.51234 -2.46311 -0.15446 60 22 23
2.52823 -2.47866 -0.14796 68 17 12
2.53744 -2.49112 -0.13867 74 22 22
2.53380 -2.49757 -0.12419 69 24 33
2.54758 -2.51219 -0.11672 73 38 29
2.57862 -2.53502 -0.11606 103 57 21
2.58993 -2.54857 -0.10746 140 62 13
2.60320 -2.56309 -0.09959 170 73 28
2.51063 -2.52685 -0.05071 187 117 94
2.52209 -2.54033 -0.04238 127 100 139
2.53958 -2.55676 -0.03632 108 110 156
2.55083 -2.57819 -0.01508 217 123 84
2.55419 -2.58779 -0.00361 222 123 78
2.54747 -2.59243 0.01154 213 134 105
2.53904 -2.59618 0.02724 204 140 116
2.54145 -2.60524 0.03894 201 137 110
2.54223 -2.61348 0.05120 196 136 121
2.55269 -2.62654 0.05999 174 143 158
2.54266 -2.62934 0.07603 104 99 169
2.54042 -2.65150 0.07891 39 52 157
2.52515 -2.62831 0.09458 37 48 153
2.52292 -2.65034 0.09745 36 51 152
2.53659 -2.64957 0.11533 39 56 135
2.53132 -2.65460 0.12944 88 94 100
2.52909 -2.67658 0.13230 143 126 50
2.53125 -2.66991 0.15398 141 112 49
2.52383 -2.67373 0.16863 111 75 53
2.52161 -2.69557 0.17147 83 55 95
2.45612 -2.66862 0.23856 47 53 150
2.45828 -2.64726 0.23578 34 49 151
2.45089 -2.65848 0.22839 45 51 151
2.44351 -2.66970 0.22100 42 53 151
2.43579 -2.66535 0.25677 35 41 127
2.42961 -2.66943 0.27042 25 27 90
2.42746 -2.69058 0.27317 18 17 66
2.43044 -2.67718 0.28183 20 18 70
2.42830 -2.69831 0.28458 14 13 56
-0.05881 -0.22001 -0.79062 253 246 238
-0.06174 -0.21433 -0.79632 254 254 254
-0.06588 -0.22061 -0.80046 254 254 254
-0.05515 -0.22547 -0.78614 171 172 169
-0.03356 -0.22561 -0.81107 91 96 96
-0.02669 -0.24348 -0.79043 80 85 90
-0.02546 -0.23136 -0.79200 77 80 91
-0.02965 -0.23772 -0.79620 82 85 91
-0.02249 -0.23711 -0.78623 79 82 92
-0.01953 -0.24287 -0.78046 82 84 93
-0.02510 -0.24962 -0.78245 74 81 88
-0.01794 -0.24900 -0.77249 83 85 88
-0.02213 -0.25536 -0.77668 74 82 82
-0.02632 -0.26173 -0.78087 95 94 92
-0.01170 -0.27221 -0.76183 78 79 86
0.00271 -0.27505 -0.77407 121 105 114
0.00261 -0.28163 -0.76341 191 176 169
0.00772 -0.28689 -0.76092 243 239 218
0.00648 -0.29911 -0.75933 254 254 254
0.01309 -0.29212 -0.75880 254 252 241
0.01185 -0.30435 -0.75721 254 254 254
0.01536 -0.29810 -0.75186 254 254 252
0.01412 -0.31032 -0.75027 254 254 254
0.02022 -0.30347 -0.74891 254 254 254
0.01898 -0.31571 -0.74732 254 254 254
0.02809 -0.30817 -0.75054 254 254 252
0.02684 -0.32045 -0.74894 254 254 254
0.03383 -0.31339 -0.74886 254 254 252
0.03258 -0.32570 -0.74726 254 254 254
0.10840 -0.49627 -0.54256 245 239 239
0.10851 -0.50230 -0.53304 182 145 199
0.11148 -0.50806 -0.52726 201 166 186
0.13428 -0.51221 -0.54717 244 252 244
0.13304 -0.52450 -0.54558 254 254 254
0.24479 -0.72810 -0.32983 254 243 224
0.24916 -0.73401 -0.32544 177 152 160
0.25361 -0.73993 -0.32113 204 219 228
0.27170 -0.74673 -0.33130 234 246 245
0.27477 -0.75263 -0.32542 218 228 213
0.27349 -0.75822 -0.31497 178 154 172
0.29940 -0.76579 -0.33304 121 84 115
0.30516 -0.77195 -0.32986 72 54 68
0.31222 -0.77824 -0.32800 69 63 58
0.31094 -0.79084 -0.32636 93 87 69
0.31865 -0.78450 -0.32545 85 81 59
0.31737 -0.79713 -0.32381 92 87 75
0.32412 -0.79071 -0.32188 92 88 65
0.34832 -0.81015 -0.31890 91 87 71
0.36721 -0.82357 -0.31942 81 80 51
0.38183 -0.83088 -0.32472 65 67 55
0.38052 -0.84381 -0.32304 44 43 46
0.39619 -0.83824 -0.32965 52 51 56
0.39487 -0.85125 -0.32796 40 41 44
0.40296 -0.84482 -0.32699 46 40 50
0.40164 -0.85785 -0.32529 39 41 42
2.27960 -1.44584 -1.55006 32 34 30
2.27708 -1.47073 -1.54682 43 43 46
2.31048 -1.46313 -1.55833 37 38 32
2.30794 -1.48818 -1.55507 44 44 54
2.32404 -1.47668 -1.55239 40 40 38
2.32149 -1.50179 -1.54912 49 43 58
2.25653 -1.71986 -1.08388 50 58 64
2.24256 -1.72105 -1.10332 54 57 66
2.24835 -1.73228 -1.09206 51 56 60
2.26511 -1.73191 -1.07455 42 49 38
2.26424 -1.75063 -1.04353 15 8 13
2.27816 -1.74944 -1.02414 5 4 3
2.27001 -1.76183 -1.03230 7 3 4
1.92831 -1.93465 -0.35710 36 28 31
1.93832 -1.94626 -0.35016 58 63 26
1.93626 -1.96662 -0.34751 70 57 44
2.43365 -2.30268 -0.35591 4 5 31
2.43595 -2.27996 -0.35887 4 4 13
2.42809 -2.29189 -0.36673 4 3 13
2.42024 -2.30382 -0.37459 4 3 9
2.44151 -2.29074 -0.34805 4 7 32
2.44706 -2.30153 -0.33724 7 12 47
2.46588 -2.32502 -0.35765 7 11 50
2.47939 -2.32386 -0.33884 9 13 49
2.46357 -2.34789 -0.35467 16 18 75
2.45471 -2.37846 -0.25897 63 45 16
2.44919 -2.36774 -0.26972 41 25 36
2.44978 -2.38446 -0.24359 84 70 12
2.45632 -2.39562 -0.23332 100 79 15
2.47860 -2.42215 -0.21675 57 36 50
2.48299 -2.43235 -0.20551 17 15 70
2.48731 -2.44252 -0.19425 7 10 72
2.49768 -2.45548 -0.18555 23 34 60
2.51344 -2.47097 -0.17908 71 60 45
2.52771 -2.48581 -0.17192 107 58 35
2.52541 -2.50852 -0.16896 146 143 144
2.53694 -2.49832 -0.16262 122 66 43
2.53320 -2.50472 -0.14799 125 88 88
2.54437 -2.51815 -0.13948 89 58 116
2.54778 -2.52792 -0.12780 72 61 118
2.50576 -2.51597 -0.09799 137 126 113
2.50804 -2.52508 -0.08604 199 134 73
2.50937 -2.53372 -0.07374 215 109 51
2.51010 -2.54205 -0.06123 219 131 99
2.51859 -2.55413 -0.05176 158 116 154
2.52438 -2.56491 -0.04123 137 122 150
2.52780 -2.57453 -0.02979 196 141 83
2.52554 -2.59690 -0.02688 232 145 86
2.53345 -2.58523 -0.01921 224 131 61
2.52655 -2.58975 -0.00394 221 151 113
2.52562 -2.59717 0.00904 193 144 142
2.52646 -2.60544 0.02133 166 116 161
2.52715 -2.61363 0.03364 154 105 178
2.52323 -2.61948 0.04759 128 91 169
2.51256 -2.62189 0.06390 84 70 166
2.50579 -2.62621 0.07872 51 53 164
2.50356 -2.64821 0.08158 43 49 157
2.52422 -2.65872 0.10935 42 55 133
2.51122 -2.65983 0.09125 37 49 160
2.51672 -2.66255 0.12423 92 94 92
2.51540 -2.67714 0.14917 141 112 33
2.50954 -2.68171 0.16331 117 83 47
2.50733 -2.70352 0.16615 90 52 86
2.45513 -2.68321 0.22912 36 47 140
2.43200 -2.67837 0.24830 29 31 110
2.42623 -2.68263 0.26186 22 21 77
2.42409 -2.70381 0.26461 18 14 58
-0.06106 -0.22572 -0.79791 254 253 251
-0.06814 -0.22633 -0.80777 254 254 254
-0.06521 -0.23202 -0.80206 254 254 254
-0.06244 -0.23270 -0.78506 223 228 217
-0.05772 -0.23784 -0.78235 128 132 128
-0.03379 -0.23746 -0.81112 75 80 87
-0.03260 -0.24374 -0.80243 69 70 85
-0.03383 -0.25587 -0.80085 125 115 149
-0.03046 -0.24973 -0.79530 74 61 76
-0.03092 -0.25643 -0.78399 83 68 68
-0.03215 -0.26852 -0.78242 201 207 189
-0.01695 -0.27885 -0.76435 109 92 115
-0.02202 -0.28662 -0.74588 185 175 191
-0.00136 -0.28797 -0.76802 232 233 235
-0.00260 -0.30017 -0.76643 252 253 254
0.00150 -0.29379 -0.76202 251 254 254
0.00026 -0.30599 -0.76044 254 254 254
0.09837 -0.49715 -0.54878 254 252 251
0.09960 -0.48501 -0.55036 254 254 254
0.09540 -0.49139 -0.55456 254 254 254
0.09120 -0.49776 -0.55876 254 254 254
0.10719 -0.50843 -0.54101 149 90 176
0.10667 -0.51448 -0.53065 212 201 217
0.12658 -0.51893 -0.54693 252 254 254
0.12534 -0.53120 -0.54534 254 254 254
0.23076 -0.72835 -0.33255 253 254 253
0.22777 -0.72254 -0.33837 254 254 254
0.23720 -0.73436 -0.33046 252 248 234
0.23472 -0.73985 -0.31870 180 179 190
0.23771 -0.74565 -0.31288 173 183 204
0.25200 -0.75221 -0.31915 169 140 187
0.28267 -0.76002 -0.34269 117 77 113
0.28883 -0.76619 -0.34002 69 48 79
0.28756 -0.77872 -0.33839 91 86 68
0.29548 -0.77241 -0.33782 70 66 67
0.29420 -0.78497 -0.33618 91 87 66
0.30132 -0.77860 -0.33474 87 80 63
0.30004 -0.79118 -0.33310 92 87 65
0.30824 -0.78489 -0.33276 93 86 64
0.30696 -0.79750 -0.33112 91 87 65
0.32535 -0.80359 -0.32282 90 87 73
0.33461 -0.81020 -0.32308 86 85 68
0.34638 -0.81710 -0.32583 80 80 58
0.35901 -0.82415 -0.32935 71 63 54
0.35771 -0.83699 -0.32768 42 42 48
0.37222 -0.83132 -0.33336 60 46 51
0.37092 -0.84423 -0.33168 42 42 49
0.38113 -0.83809 -0.33296 50 42 47
0.37981 -0.85104 -0.33127 41 41 51
1.99489 -1.34883 -1.41080 15 15 13
1.99724 -1.32561 -1.41382 11 12 14
1.98921 -1.33781 -1.42185 15 12 11
1.98118 -1.35000 -1.42989 14 14 19
2.00292 -1.33663 -1.40276 10 14 13
2.01575 -1.36305 -1.41247 21 21 23
2.22393 -1.73443 -1.05984 40 47 45
2.21008 -1.73562 -1.07912 46 56 57
2.21581 -1.74675 -1.06796 35 50 49
2.23538 -1.74730 -1.05262 38 46 33
2.23409 -1.75630 -1.03661 32 39 24
2.21480 -1.76901 -0.99345 10 3 7
2.22853 -1.76784 -0.97434 3 4 5
2.22049 -1.78005 -0.98239 6 3 3
1.89908 -1.92900 -0.36429 20 14 27
1.90113 -1.90878 -0.36692 16 17 19
1.89414 -1.91940 -0.37392 16 17 20
1.88714 -1.93002 -0.38092 16 19 19
1.89703 -1.94921 -0.36166 42 40 37
2.45672 -2.32807 -0.37852 4 4 26
2.44320 -2.32922 -0.39734 5 3 7
2.44880 -2.34009 -0.38644 4 4 16
2.46423 -2.33977 -0.36852 6 9 51
2.41014 -2.37368 -0.25027 74 59 9
2.39673 -2.37572 -0.23121 90 76 12
2.41319 -2.39941 -0.21246 110 80 38
2.44745 -2.42326 -0.21440 61 43 75
2.47229 -2.44288 -0.21208 22 21 97
2.47854 -2.45393 -0.20164 11 20 102
2.47625 -2.47650 -0.19871 13 26 127
2.48965 -2.46725 -0.19328 41 55 112
2.50694 -2.48350 -0.18748 95 106 129
2.52115 -2.49835 -0.18032 129 131 137
2.55736 -2.53185 -0.16903 139 129 156
2.52450 -2.52434 -0.14242 86 68 151
2.52820 -2.53421 -0.13090 60 61 147
2.52590 -2.55684 -0.12796 182 145 117
2.52274 -2.53966 -0.11570 132 128 138
2.50337 -2.53834 -0.09502 200 135 80
2.50189 -2.54561 -0.08159 218 112 51
2.49513 -2.55027 -0.06613 219 138 103
2.49183 -2.55657 -0.05209 180 138 161
2.49287 -2.56498 -0.03979 177 150 162
2.49730 -2.57504 -0.02882 220 162 107
2.50792 -2.59602 -0.00755 226 155 132
2.50023 -2.60770 -0.01524 225 141 102
2.50993 -2.60487 0.00432 207 162 164
2.51620 -2.61584 0.01458 190 152 170
2.51365 -2.62236 0.02809 175 139 168
2.49895 -2.62271 0.04597 133 106 141
2.48790 -2.62484 0.06240 79 63 126
2.49077 -2.63400 0.07375 50 44 141
2.48855 -2.65595 0.07661 46 48 156
2.50271 -2.66312 0.10656 48 60 152
2.50049 -2.68505 0.10941 115 125 114
2.49423 -2.66636 0.12178 107 115 116
2.50051 -2.67723 0.13186 146 139 58
2.49892 -2.68399 0.14462 135 108 27
2.49671 -2.70581 0.14745 122 95 50
2.49522 -2.68962 0.15804 115 78 50
2.46023 -2.69367 0.20575 48 49 138
2.46241 -2.67218 0.20295 55 50 133
2.45497 -2.68347 0.19552 73 52 113
2.44754 -2.69476 0.18808 86 63 99
2.44415 -2.69255 0.22287 32 36 124
2.42425 -2.68931 0.24108 26 24 94
2.42059 -2.69465 0.25400 22 17 67
2.41845 -2.71584 0.25675 15 13 52
-0.06706 -0.23912 -0.78838 254 248 239
-0.07412 -0.23972 -0.79820 254 254 254
-0.07120 -0.24540 -0.79252 254 251 251
-0.06343 -0.24459 -0.78387 165 142 162
-0.04774 -0.24662 -0.79925 87 41 74
-0.04076 -0.25122 -0.80012 79 53 91
-0.04199 -0.26332 -0.79855 233 241 216
-0.03378 -0.27546 -0.76926 144 123 139
-0.03500 -0.28752 -0.76769 237 237 232
-0.02403 -0.27944 -0.77443 153 108 139
-0.01462 -0.29008 -0.76843 244 243 240
-0.01882 -0.29646 -0.77263 252 249 250
-0.01585 -0.30223 -0.76685 251 249 251
-0.00702 -0.29473 -0.76997 247 245 249
-0.00825 -0.30691 -0.76839 251 252 254
0.09042 -0.50386 -0.54798 252 250 249
0.08328 -0.50447 -0.55794 254 254 253
0.10130 -0.51495 -0.54300 171 122 143
0.11112 -0.52019 -0.54622 229 235 235
0.10988 -0.53239 -0.54463 254 254 254
0.11746 -0.52573 -0.54480 254 254 254
0.11622 -0.53796 -0.54321 254 254 254
0.22161 -0.72886 -0.34049 253 253 252
0.22285 -0.71664 -0.34208 254 254 254
0.21862 -0.72306 -0.34631 254 254 254
0.22558 -0.73472 -0.33575 240 249 238
0.23127 -0.74069 -0.33287 215 215 170
0.24968 -0.74751 -0.34375 130 115 87
0.26722 -0.75437 -0.35353 70 50 72
0.27249 -0.76045 -0.34997 64 50 81
0.27122 -0.77294 -0.34835 92 84 72
0.27659 -0.76646 -0.34514 78 66 76
0.27532 -0.77895 -0.34352 94 85 69
0.28429 -0.77275 -0.34413 89 81 70
0.28302 -0.78528 -0.34250 93 86 63
0.31537 -0.80399 -0.33064 87 86 58
0.32620 -0.81075 -0.33259 80 79 42
0.32491 -0.82345 -0.33094 43 41 42
0.33663 -0.81752 -0.33406 68 64 39
0.33534 -0.83027 -0.33240 43 43 42
0.34605 -0.82423 -0.33441 52 50 46
0.34475 -0.83703 -0.33275 42 44 44
0.35558 -0.83100 -0.33481 43 42 49
0.35428 -0.84385 -0.33314 39 43 45
1.98114 -1.35982 -1.41399 21 26 28
1.96745 -1.36099 -1.43305 12 12 13
1.98973 -1.37145 -1.40541 32 39 41
1.98738 -1.39465 -1.40240 43 49 45
2.20621 -1.75318 -1.04615 42 56 48
2.19242 -1.75436 -1.06535 40 51 37
2.19813 -1.76545 -1.05424 46 57 56
2.20385 -1.77653 -1.04312 48 59 62
2.20422 -1.76188 -1.02972 48 59 44
2.20229 -1.77056 -1.01340 41 50 33
2.20475 -1.78059 -1.00013 30 25 9
2.20062 -1.78851 -0.98242 18 8 3
2.21430 -1.78734 -0.96337 4 4 3
2.18498 -1.79270 -0.95705 9 3 5
2.19858 -1.79153 -0.93811 4 4 2
2.19061 -1.80363 -0.94608 4 5 3
2.59738 -2.32572 -0.58640 46 42 30
2.59982 -2.30163 -0.58953 55 49 37
2.59149 -2.31428 -0.59787 52 46 35
2.60571 -2.31307 -0.57806 50 46 34
2.61161 -2.32450 -0.56660 45 39 28
2.60327 -2.33716 -0.57493 38 37 18
2.45581 -2.35158 -0.37622 6 7 37
2.44228 -2.35274 -0.39505 5 5 12
2.46159 -2.36254 -0.36539 10 16 62
2.47512 -2.36138 -0.34656 15 18 78
2.46719 -2.37341 -0.35449 13 21 78
2.45927 -2.38544 -0.36242 15 22 75
2.38872 -2.39532 -0.22575 103 82 30
2.38647 -2.41754 -0.22286 106 79 65
2.42622 -2.42880 -0.21627 61 43 92
2.45467 -2.45015 -0.21561 27 25 110
2.46195 -2.46166 -0.20566 19 26 118
2.50011 -2.49589 -0.19576 11 26 133
2.49781 -2.51856 -0.19281 37 44 133
2.51425 -2.51074 -0.18859 14 28 138
2.52037 -2.52180 -0.17800 21 44 146
2.52565 -2.53245 -0.16707 36 60 154
2.53120 -2.54323 -0.15624 50 68 152
2.48806 -2.54644 -0.09975 214 128 70
2.48579 -2.56882 -0.09684 203 141 117
2.48825 -2.55448 -0.08699 219 120 71
2.47806 -2.55739 -0.07016 201 135 138
2.47843 -2.56546 -0.05757 172 149 181
2.48212 -2.57515 -0.04630 187 158 149
2.49215 -2.58799 -0.03749 217 141 84
2.49003 -2.59477 -0.02401 223 126 75
2.50061 -2.61571 -0.00275 227 137 87
2.47741 -2.61178 0.01848 225 114 57
2.47685 -2.61923 0.03118 221 108 57
2.48173 -2.62942 0.04184 220 133 105
2.47810 -2.63526 0.05559 186 140 150
2.47767 -2.64270 0.06813 101 84 151
2.48136 -2.65988 0.09150 45 62 166
2.47852 -2.66601 0.10479 65 85 155
2.47631 -2.68785 0.10763 113 118 114
2.48215 -2.68306 0.12801 144 133 68
2.48045 -2.68971 0.14079 132 108 45
2.47824 -2.71148 0.14362 119 89 35
2.44612 -2.70140 0.20050 47 46 120
2.43115 -2.70078 0.21730 30 31 105
2.41352 -2.69864 0.23483 24 21 79
2.41137 -2.71986 0.23758 14 15 49
2.41515 -2.70680 0.24606 19 16 58
2.41300 -2.72800 0.24882 11 12 48
-0.06876 -0.25121 -0.78601 216 216 231
-0.07582 -0.25181 -0.79583 254 254 254
-0.07289 -0.25748 -0.79015 253 253 253
-0.06997 -0.26315 -0.78446 236 246 244
-0.07530 -0.25953 -0.76465 194 175 199
-0.06316 -0.26261 -0.77425 218 210 209
-0.06437 -0.27455 -0.77270 195 120 223
-0.04332 -0.28318 -0.76473 171 179 209
-0.05041 -0.28379 -0.77460 225 204 226
-0.04454 -0.29519 -0.76317 254 253 253
-0.02613 -0.29178 -0.77144 253 253 247
0.08341 -0.51046 -0.54838 248 247 243
0.08647 -0.51618 -0.54277 208 198 194
0.08939 -0.52192 -0.53698 213 185 157
0.10149 -0.52699 -0.54330 245 253 250
0.10026 -0.53915 -0.54172 254 254 254
0.20777 -0.72349 -0.35229 254 254 254
0.20900 -0.71129 -0.35388 254 254 254
0.20478 -0.71770 -0.35810 254 254 254
0.21198 -0.71708 -0.34807 254 254 254
0.21305 -0.72941 -0.34905 241 252 240
0.21303 -0.73503 -0.33990 210 218 193
0.23625 -0.74207 -0.35638 169 134 149
0.24970 -0.74861 -0.36193 106 64 66
0.25513 -0.75468 -0.35863 56 38 47
0.25387 -0.76711 -0.35702 77 74 60
0.26339 -0.76096 -0.35836 67 61 52
0.26212 -0.77343 -0.35674 84 82 64
0.26829 -0.76702 -0.35442 87 80 62
0.26702 -0.77951 -0.35280 88 85 72
0.29938 -0.79812 -0.34134 85 86 54
0.29630 -0.79214 -0.34734 89 85 61
0.31136 -0.80496 -0.34464 78 77 44
0.31911 -0.81143 -0.34346 63 60 48
0.31783 -0.82413 -0.34181 38 42 49
0.32857 -0.81811 -0.34399 47 47 47
0.32727 -0.83086 -0.34233 39 42 46
1.95820 -1.36877 -1.40930 18 22 28
1.94457 -1.36994 -1.42827 10 11 13
1.96248 -1.37943 -1.39716 32 39 42
2.18742 -1.78062 -1.01675 50 61 60
2.17371 -1.78180 -1.03583 51 60 69
2.17939 -1.79281 -1.02478 54 63 70
2.18507 -1.80383 -1.01373 54 65 60
2.18745 -1.78984 -1.00182 50 61 36
2.19270 -1.80071 -0.99051 43 49 25
2.15270 -1.80596 -0.93391 11 7 16
2.16619 -1.80481 -0.91513 4 6 2
2.14768 -1.81332 -0.91595 6 4 7
2.16113 -1.81217 -0.89722 4 7 3
2.15325 -1.82414 -0.90511 4 4 4
2.58375 -2.32719 -0.60651 47 45 24
2.58619 -2.30309 -0.60964 57 49 36
2.57785 -2.31575 -0.61798 54 48 36
2.59057 -2.33902 -0.59552 34 37 13
2.58598 -2.34600 -0.57869 20 22 6
2.60018 -2.34478 -0.55893 24 23 9
2.59186 -2.35741 -0.56724 9 9 5
2.58355 -2.37003 -0.57556 4 5 4
2.45528 -2.36691 -0.38769 4 7 27
2.44173 -2.36807 -0.40655 7 6 7
2.46423 -2.37930 -0.37835 7 14 52
2.40408 -2.43380 -0.21765 66 46 100
2.43972 -2.45860 -0.22026 35 32 116
2.43744 -2.48106 -0.21734 41 44 126
2.44576 -2.46952 -0.20980 30 36 122
2.44348 -2.49199 -0.20688 37 46 130
2.45474 -2.48184 -0.20061 29 40 128
2.47771 -2.50086 -0.19738 31 45 130
2.50403 -2.52965 -0.18230 35 42 138
2.51427 -2.54269 -0.17346 47 63 155
2.50668 -2.54709 -0.15720 111 122 165
2.49078 -2.55537 -0.12465 217 131 78
2.48850 -2.57785 -0.12173 192 144 136
2.48185 -2.55895 -0.10812 218 127 67
2.47266 -2.57023 -0.07878 139 102 179
2.46815 -2.57585 -0.06424 119 115 208
2.46605 -2.58264 -0.05072 166 169 192
2.47534 -2.59510 -0.04166 183 162 161
2.48110 -2.60581 -0.03121 179 157 164
2.48684 -2.61650 -0.02076 175 157 170
2.49222 -2.62702 -0.01017 184 146 135
2.45956 -2.61815 0.01469 205 120 58
2.46054 -2.62634 0.02680 211 90 10
2.46631 -2.63697 0.03711 211 93 45
2.46607 -2.64450 0.04962 213 139 129
2.46255 -2.65032 0.06328 146 116 165
2.46015 -2.65668 0.07648 60 52 151
2.46308 -2.66579 0.08774 47 64 159
2.46419 -2.67394 0.09962 66 83 150
2.46786 -2.69095 0.12281 137 124 69
2.45618 -2.69229 0.13901 123 94 34
2.44805 -2.71030 0.17799 82 63 101
2.44278 -2.70007 0.16774 111 82 69
2.43022 -2.70812 0.19589 40 40 112
2.40911 -2.70409 0.21472 27 26 89
2.40423 -2.70873 0.22812 20 18 65
2.40208 -2.72994 0.23088 6 12 48
-0.04584 -0.28907 -0.77154 249 253 247
-0.05000 -0.29539 -0.77570 254 254 254
-0.03156 -0.29844 -0.77363 249 249 251
-0.02879 -0.30423 -0.76757 244 248 247
-0.02328 -0.30937 -0.76589 243 242 238
-0.02031 -0.31512 -0.76012 247 243 243
-0.02451 -0.32149 -0.76432 251 252 251
0.07272 -0.51137 -0.55351 254 253 252
0.07394 -0.49931 -0.55507 254 254 254
0.06977 -0.50565 -0.55925 254 254 254
0.06560 -0.51198 -0.56342 254 254 254
0.07675 -0.51700 -0.54923 245 239 229
0.08197 -0.52256 -0.54652 190 167 176
0.09202 -0.53374 -0.54051 251 253 254
0.09079 -0.54586 -0.53894 254 254 254
0.19231 -0.71806 -0.36215 254 254 254
0.19355 -0.70590 -0.36373 254 254 254
0.18934 -0.71229 -0.36794 254 254 254
0.19652 -0.71167 -0.35794 254 254 254
0.19700 -0.72392 -0.35829 238 251 239
0.20611 -0.73004 -0.35938 209 207 191
0.22162 -0.73658 -0.36757 163 126 155
0.23362 -0.74299 -0.37170 84 67 81
0.24087 -0.74914 -0.37048 66 50 71
0.24654 -0.75522 -0.36749 77 63 61
0.24529 -0.76764 -0.36587 81 76 67
0.25333 -0.76139 -0.36567 77 69 63
0.25206 -0.77384 -0.36405 73 68 59
0.27726 -0.78606 -0.35456 88 86 64
0.28350 -0.79229 -0.35198 87 85 50
0.29533 -0.79908 -0.35530 75 78 46
0.30230 -0.80545 -0.35340 60 63 52
0.30102 -0.81810 -0.35175 42 42 40
0.31241 -0.81215 -0.35474 47 48 50
0.31112 -0.82486 -0.35309 43 43 40
0.31750 -0.81839 -0.35077 40 41 50
0.31621 -0.83111 -0.34911 41 44 43
1.93451 -1.37745 -1.40384 15 16 21
1.92095 -1.37861 -1.42273 9 10 12
1.94062 -1.38846 -1.39332 29 31 31
1.94514 -1.39912 -1.38145 42 45 40
1.95076 -1.41002 -1.37051 45 46 54
2.16553 -1.80665 -0.98542 54 64 53
2.15192 -1.80782 -1.00437 56 63 73
2.15756 -1.81876 -0.99339 55 66 73
2.15003 -1.81067 -0.96006 48 57 46
2.13211 -1.82273 -0.91866 21 14 28
2.12080 -1.82786 -0.89657 12 5 20
2.13416 -1.82671 -0.87797 4 5 8
2.12633 -1.83860 -0.88580 7 3 9
1.92812 -1.98088 -0.41342 21 20 25
1.91600 -1.98192 -0.43029 15 16 16
2.56806 -2.31883 -0.64013 54 53 39
2.57051 -2.29471 -0.64327 63 51 43
2.56216 -2.30738 -0.65162 57 52 44
2.57641 -2.30616 -0.63179 58 51 40
2.56599 -2.32691 -0.62446 46 47 31
2.56919 -2.33719 -0.61160 34 33 18
2.56675 -2.36125 -0.60847 7 6 6
2.56629 -2.34486 -0.59560 17 15 10
2.56386 -2.36886 -0.59248 4 5 3
2.56386 -2.35269 -0.57990 7 6 3
2.56144 -2.37664 -0.57679 5 4 5
2.45940 -2.38438 -0.40145 5 6 15
2.44581 -2.38555 -0.42037 8 6 6
2.45144 -2.39648 -0.40941 6 5 8
2.46595 -2.39573 -0.39093 7 11 42
2.47509 -2.40825 -0.38163 18 23 71
2.48870 -2.40709 -0.36269 18 23 80
2.48073 -2.41919 -0.37066 21 27 80
2.39478 -2.44475 -0.22466 77 56 107
2.42488 -2.46704 -0.22492 48 44 124
2.42261 -2.48947 -0.22201 44 45 124
2.46688 -2.51127 -0.20389 36 48 131
2.47977 -2.52555 -0.19630 46 51 134
2.47748 -2.54816 -0.19336 173 145 127
2.47362 -2.53061 -0.18058 73 75 147
2.48862 -2.54594 -0.17383 131 125 149
2.48076 -2.55811 -0.14448 211 107 63
2.48291 -2.56713 -0.13239 212 125 84
2.47015 -2.57665 -0.10140 133 107 155
2.43830 -2.56862 -0.07581 60 52 166
2.44498 -2.57976 -0.06578 54 60 182
2.44518 -2.58764 -0.05319 83 81 182
2.44919 -2.59742 -0.04212 77 72 177
2.44565 -2.60337 -0.02813 56 66 173
2.45478 -2.61575 -0.01908 31 45 169
2.45054 -2.62129 -0.00490 66 79 169
2.46516 -2.63648 0.00209 159 137 134
2.45099 -2.63687 0.01993 204 112 56
2.45252 -2.64530 0.03181 210 98 45
2.44507 -2.64906 0.04697 214 138 130
2.45180 -2.66015 0.05687 161 119 172
2.44509 -2.66422 0.07164 77 57 152
2.44900 -2.67382 0.08253 51 54 151
2.45202 -2.68295 0.09372 68 81 141
2.44981 -2.70473 0.09655 111 111 84
2.45116 -2.69001 0.10627 111 118 107
2.45231 -2.69812 0.11808 139 128 71
2.45079 -2.70479 0.13078 137 114 47
2.44421 -2.70872 0.14518 127 100 37
2.44306 -2.71553 0.15766 113 77 55
2.43255 -2.71727 0.17325 79 56 82
2.39750 -2.70567 0.19693 36 31 90
2.39291 -2.71045 0.21029 20 20 73
2.39076 -2.73167 0.21305 8 8 48
2.39667 -2.71975 0.22085 12 15 56
2.39452 -2.74095 0.22361 8 8 43
-0.06351 -0.28595 -0.77457 246 246 248
-0.06764 -0.29223 -0.77871 254 254 254
-0.05799 -0.29097 -0.77314 253 252 252
-0.04193 -0.29984 -0.77833 248 250 250
-0.03564 -0.30477 -0.77799 236 232 234
-0.03372 -0.31075 -0.77056 228 217 213
-0.02795 -0.31584 -0.76931 238 233 227
-0.02918 -0.32796 -0.76774 254 254 254
0.06751 -0.51779 -0.55627 254 252 250
0.06040 -0.51839 -0.56618 254 254 254
0.07377 -0.52325 -0.55502 243 228 215
0.07719 -0.52895 -0.54989 176 142 152
0.07880 -0.53477 -0.54235 229 223 204
0.07758 -0.54684 -0.54078 254 254 254
0.08382 -0.54037 -0.53936 254 254 254
0.08259 -0.55245 -0.53779 254 254 254
0.17817 -0.71272 -0.37333 253 254 254
0.17940 -0.70059 -0.37491 254 254 254
0.17520 -0.70696 -0.37911 254 254 254
0.18237 -0.70635 -0.36914 254 254 254
0.18324 -0.71858 -0.36998 238 251 234
0.19277 -0.72469 -0.37167 210 205 173
0.19928 -0.73068 -0.36986 162 126 154
0.19804 -0.74289 -0.36828 84 67 69
0.21728 -0.73738 -0.38099 80 60 90
0.22210 -0.74335 -0.37715 65 49 83
0.22085 -0.75569 -0.37554 91 84 67
0.22983 -0.74952 -0.37653 83 71 69
0.22857 -0.76190 -0.37492 91 85 69
0.23685 -0.75568 -0.37509 92 81 70
0.23560 -0.76809 -0.37347 88 84 65
0.24288 -0.76179 -0.37249 89 82 70
0.26807 -0.78653 -0.36294 79 85 55
0.26067 -0.78717 -0.37324 63 64 54
0.26374 -0.79311 -0.36728 60 58 49
0.27617 -0.79294 -0.36241 75 76 45
0.27490 -0.80550 -0.36077 43 42 42
0.28507 -0.79945 -0.36268 65 57 49
0.28379 -0.81206 -0.36104 39 42 44
0.29540 -0.80614 -0.36441 51 44 49
0.29412 -0.81880 -0.36277 38 44 45
0.30137 -0.81244 -0.36144 43 42 47
0.30008 -0.82512 -0.35979 41 44 49
1.91100 -1.38602 -1.39839 11 13 18
1.89749 -1.38718 -1.41719 9 11 10
1.90309 -1.39804 -1.40631 9 11 12
1.91819 -1.39724 -1.38888 19 22 26
1.92591 -1.40859 -1.37980 32 34 38
1.92635 -1.41826 -1.36453 41 43 52
1.93985 -1.41711 -1.34573 47 47 56
1.93194 -1.42911 -1.35364 45 47 58
1.92403 -1.44112 -1.36155 45 50 54
2.12944 -1.81850 -0.95932 56 66 70
2.11596 -1.81965 -0.97809 53 64 76
2.12154 -1.83049 -0.96722 57 64 73
2.12713 -1.84133 -0.95635 57 63 64
2.10971 -1.83863 -0.90220 35 33 29
2.10821 -1.84696 -0.88675 20 12 10
2.12153 -1.84582 -0.86821 5 5 7
2.11121 -1.85680 -0.87434 10 4 4
2.12452 -1.85566 -0.85581 5 8 8
2.11672 -1.86750 -0.86361 6 6 6
2.55485 -2.32049 -0.66052 54 54 32
2.55730 -2.29636 -0.66365 60 53 39
2.54895 -2.30903 -0.67200 57 53 44
2.55494 -2.32947 -0.64594 44 46 19
2.55292 -2.33753 -0.63028 30 27 14
2.55048 -2.36157 -0.62716 8 6 6
2.55489 -2.34726 -0.61679 16 9 11
2.55246 -2.37128 -0.61366 5 6 3
2.47344 -2.41486 -0.40634 7 8 28
2.45979 -2.41603 -0.42535 5 5 5
2.47032 -2.42182 -0.39114 11 19 63
2.48433 -2.43662 -0.38413 19 28 87
2.49798 -2.43545 -0.36513 29 31 63
2.48998 -2.44759 -0.37313 34 35 68
2.48199 -2.45973 -0.38112 31 31 60
2.37368 -2.44211 -0.23940 117 90 77
2.37468 -2.45055 -0.22683 87 69 118
2.37243 -2.47276 -0.22394 53 50 131
2.40555 -2.47328 -0.22755 56 53 130
2.42694 -2.49956 -0.21083 43 43 131
2.42814 -2.51608 -0.18528 101 111 155
2.46949 -2.55226 -0.17686 205 124 78
2.47325 -2.56209 -0.16540 211 110 53
2.47955 -2.57318 -0.15500 216 141 99
2.48017 -2.58144 -0.14225 199 144 140
2.47789 -2.60394 -0.13933 192 148 140
2.46826 -2.58343 -0.12440 137 87 134
2.44596 -2.58013 -0.10243 77 41 141
2.42686 -2.57833 -0.08193 56 37 154
2.43476 -2.59008 -0.07241 53 42 159
2.43252 -2.61220 -0.06953 179 148 174
2.43568 -2.59831 -0.06010 64 55 166
2.43344 -2.62040 -0.05723 178 147 169
2.44072 -2.60861 -0.04944 89 85 166
2.43848 -2.63070 -0.04657 179 144 170
2.44121 -2.61658 -0.03700 96 77 160
2.44865 -2.62810 -0.02729 74 48 159
2.43810 -2.63036 -0.01066 93 86 171
2.44429 -2.64122 -0.00050 162 129 138
2.44029 -2.64678 0.01350 204 105 70
2.44972 -2.65932 0.02243 217 109 70
2.43598 -2.65974 0.03997 207 145 141
2.44947 -2.67439 0.04738 125 91 172
2.43195 -2.67272 0.06614 59 45 159
2.44388 -2.68655 0.07411 67 79 159
2.43848 -2.69120 0.08834 79 92 130
2.43823 -2.70602 0.11287 132 121 69
2.43073 -2.71741 0.10537 131 114 46
2.43604 -2.72770 0.11569 122 103 48
2.43814 -2.71341 0.12508 128 109 60
2.43806 -2.72079 0.13724 127 107 49
2.42938 -2.72351 0.15232 115 85 51
2.40132 -2.71564 0.17389 79 49 61
2.38174 -2.71227 0.19239 33 21 66
2.37959 -2.73349 0.19515 11 10 51
2.38568 -2.72166 0.20291 15 13 58
2.38353 -2.74287 0.20567 10 9 57
-0.07838 -0.28859 -0.77137 253 252 251
-0.07718 -0.27670 -0.77292 178 131 218
-0.08540 -0.28919 -0.78115 253 254 253
-0.08250 -0.29483 -0.77549 254 254 254
-0.06279 -0.29742 -0.77620 253 254 254
-0.06693 -0.30371 -0.78035 238 232 231
-0.05233 -0.30126 -0.78287 245 242 248
-0.04166 -0.31156 -0.77919 215 192 196
-0.03575 -0.31661 -0.77823 231 224 215
-0.03698 -0.32871 -0.77665 254 254 254
-0.03442 -0.32272 -0.76983 249 251 246
-0.03564 -0.33482 -0.76826 254 254 254
0.06869 -0.52966 -0.55797 247 228 186
0.07301 -0.53529 -0.55407 201 176 107
0.07415 -0.54114 -0.54588 237 254 242
0.07293 -0.55321 -0.54431 254 254 254
0.16302 -0.70736 -0.38320 252 254 254
0.16424 -0.69527 -0.38477 254 254 254
0.16006 -0.70162 -0.38896 254 254 254
0.16720 -0.70101 -0.37902 254 254 254
0.16793 -0.71319 -0.37972 235 250 235
0.17848 -0.71931 -0.38275 206 195 180
0.17990 -0.72500 -0.37516 160 119 152
0.20155 -0.73184 -0.39077 85 61 75
0.20709 -0.73782 -0.38782 74 55 80
0.20585 -0.75013 -0.38622 92 83 67
0.21810 -0.74985 -0.38172 89 78 65
0.21383 -0.75633 -0.38599 91 85 63
0.21685 -0.76219 -0.38012 92 84 62
0.24650 -0.77462 -0.37627 79 78 61
0.24955 -0.78054 -0.37034 66 54 61
0.27634 -0.79997 -0.37165 48 45 36
0.26890 -0.80060 -0.38201 45 43 50
0.27198 -0.80658 -0.37601 43 43 45
0.27506 -0.81256 -0.37001 42 43 46
1.89637 -1.40605 -1.38483 14 14 20
1.88291 -1.40720 -1.40355 11 9 10
1.90786 -1.41825 -1.37904 26 26 32
1.91673 -1.42986 -1.37098 39 43 46
1.91442 -1.45271 -1.36801 48 52 52
2.09972 -1.86735 -0.87968 32 24 23
2.10808 -1.87904 -0.87085 17 10 18
2.12139 -1.87790 -0.85233 5 8 6
2.04326 -2.07121 -0.47507 56 57 47
2.05581 -2.07013 -0.45759 67 54 50
2.04846 -2.08130 -0.46495 65 56 45
2.04110 -2.09246 -0.47230 62 56 35
2.54269 -2.33153 -0.66681 42 38 19
2.54025 -2.35563 -0.66367 14 11 10
2.53320 -2.33637 -0.64709 26 18 10
2.53077 -2.36038 -0.64397 8 9 6
2.53899 -2.34774 -0.63562 12 7 6
2.53656 -2.37174 -0.63250 7 9 7
2.48210 -2.43466 -0.42242 5 5 14
2.46839 -2.43583 -0.44151 5 5 4
2.47407 -2.44686 -0.43045 6 5 9
2.48024 -2.44220 -0.40774 9 9 46
2.48071 -2.45079 -0.39422 16 22 70
2.37270 -2.46496 -0.23709 90 74 113
2.39960 -2.49385 -0.22300 40 49 132
2.39440 -2.49926 -0.20768 75 84 142
2.40687 -2.51327 -0.20014 144 135 137
2.42141 -2.52832 -0.19345 192 136 101
2.44270 -2.54675 -0.18960 206 109 50
2.45917 -2.56284 -0.18359 205 95 31
2.47103 -2.57670 -0.17555 210 116 64
2.46642 -2.58235 -0.16056 215 149 120
2.44913 -2.58160 -0.14036 204 154 146
2.44687 -2.60397 -0.13745 213 106 38
2.45963 -2.60262 -0.11888 188 145 140
2.45190 -2.61437 -0.12662 215 103 40
2.45737 -2.62498 -0.11597 216 102 45
2.46750 -2.61445 -0.10920 186 143 153
2.46840 -2.62274 -0.09671 183 144 167
2.43561 -2.63690 -0.03282 181 148 160
2.42259 -2.63802 -0.05094 221 113 46
2.43883 -2.64624 -0.02149 196 141 124
2.43219 -2.65043 -0.00639 211 116 78
2.43648 -2.66029 0.00448 221 124 67
2.43042 -2.66470 0.01924 238 175 120
2.43736 -2.67593 0.02907 206 160 171
2.44156 -2.68571 0.03992 106 79 169
2.42630 -2.69265 0.07022 139 133 193
2.42570 -2.69980 0.08271 136 111 136
2.42349 -2.72152 0.08554 138 119 70
2.42515 -2.70696 0.09515 130 112 69
2.42295 -2.72864 0.09797 146 125 57
2.42616 -2.72975 0.13130 127 104 60
2.40730 -2.72685 0.14991 106 75 51
2.37560 -2.71683 0.17276 58 37 44
2.37344 -2.73809 0.17553 10 6 44
2.37972 -2.72633 0.18325 21 14 53
2.37757 -2.74758 0.18601 10 9 45
-0.07627 -0.29964 -0.77536 250 254 252
-0.08331 -0.30024 -0.78515 248 253 249
-0.08039 -0.30590 -0.77948 226 217 218
-0.06014 -0.30846 -0.78101 213 185 185
-0.06136 -0.32047 -0.77945 236 222 202
-0.05721 -0.31416 -0.77530 209 174 177
-0.04689 -0.32455 -0.77110 250 253 243
-0.05106 -0.33088 -0.77527 254 254 253
-0.04811 -0.33660 -0.76953 254 254 254
0.06140 -0.53621 -0.55788 254 248 232
0.05429 -0.53682 -0.56778 254 254 254
0.05723 -0.54254 -0.56205 254 254 252
0.06530 -0.54186 -0.55346 254 237 207
0.06408 -0.55391 -0.55189 254 254 254
0.06930 -0.54752 -0.54914 254 254 254
0.06808 -0.55958 -0.54757 254 254 254
0.14794 -0.70203 -0.39298 250 254 254
0.14916 -0.68998 -0.39455 254 254 254
0.14499 -0.69631 -0.39872 254 254 254
0.15211 -0.69570 -0.38881 254 254 254
0.15338 -0.70786 -0.39019 232 250 238
0.16329 -0.71392 -0.39262 202 184 185
0.15796 -0.71925 -0.37715 150 111 143
0.18648 -0.72636 -0.40115 80 64 68
0.19242 -0.73235 -0.39871 77 65 77
0.19118 -0.74462 -0.39712 95 85 74
0.19796 -0.73833 -0.39580 89 73 66
0.19672 -0.75063 -0.39420 93 84 71
0.20357 -0.74434 -0.39292 92 79 68
0.20232 -0.75665 -0.39132 91 83 69
0.22824 -0.76871 -0.38364 90 84 62
0.22698 -0.78112 -0.38203 63 55 53
0.24413 -0.78133 -0.38274 71 76 47
0.24286 -0.79382 -0.38112 34 38 51
1.87986 -1.41598 -1.38525 19 13 23
1.89656 -1.42942 -1.38401 33 31 37
1.89425 -1.45222 -1.38105 52 56 53
1.91101 -1.44238 -1.38075 44 49 46
1.90869 -1.46525 -1.37778 51 54 55
2.08572 -1.88570 -0.86893 39 47 34
2.09872 -1.89904 -0.86323 29 31 15
2.10496 -1.90998 -0.85301 20 14 7
2.11825 -1.90885 -0.83452 9 9 6
2.10824 -1.91985 -0.84085 14 8 6
2.12152 -1.91872 -0.82237 9 9 5
2.11374 -1.93053 -0.83015 9 8 5
2.53314 -2.34367 -0.67449 22 17 17
2.53070 -2.36776 -0.67136 11 15 13
2.49247 -2.46380 -0.42556 7 6 28
2.47871 -2.46498 -0.44471 6 6 6
2.48441 -2.47604 -0.43362 4 5 19
2.48826 -2.47023 -0.40971 11 14 51
2.47999 -2.47469 -0.39199 21 24 54
2.46292 -2.48320 -0.35659 66 50 28
2.36000 -2.47422 -0.24252 103 87 92
2.38190 -2.49278 -0.23934 63 50 122
2.37114 -2.49544 -0.22148 75 80 146
2.38468 -2.50997 -0.21450 116 121 169
2.39683 -2.52384 -0.20685 152 134 159
2.40495 -2.53575 -0.19739 174 129 107
2.43028 -2.55623 -0.19536 188 117 73
2.42801 -2.57866 -0.19245 131 119 139
2.45009 -2.57403 -0.19083 194 104 64
2.44781 -2.59655 -0.18790 138 124 130
2.48003 -2.59697 -0.19051 196 100 51
2.48504 -2.64701 -0.11433 219 104 49
2.47726 -2.65882 -0.12212 192 146 98
2.48276 -2.66950 -0.11141 193 143 91
2.47391 -2.64911 -0.09693 220 103 47
2.47164 -2.67151 -0.09402 193 147 95
2.44698 -2.65839 -0.04791 218 106 43
2.43390 -2.65951 -0.06612 193 150 103
2.43204 -2.65824 -0.02944 214 98 44
2.43376 -2.66677 -0.01753 228 150 90
2.43397 -2.67450 -0.00507 246 212 164
