ply
format ascii 1.0
element face 0
property list uchar int vertex_indices
element vertex 1308
property float x
property float y
property float z
property uchar diffuse_red
property uchar diffuse_green
property uchar diffuse_blue
end_header
-0.10330 -0.30141 -0.76223 254 254 253
-0.09011 -0.29766 -0.76514 254 254 253
-0.08945 -0.31051 -0.76378 240 246 246
-0.07587 -0.30662 -0.76754 249 254 252
-0.06769 -0.31050 -0.77189 231 231 232
-0.06322 -0.31672 -0.76461 205 174 184
-0.05814 -0.32256 -0.75922 200 152 167
-0.04756 -0.32514 -0.77065 226 206 211
-0.04689 -0.33816 -0.76927 254 254 254
-0.04228 -0.33091 -0.76575 249 253 243
-0.04161 -0.34394 -0.76437 254 254 254
0.08998 -0.51268 -0.55531 246 241 236
0.09064 -0.52538 -0.55397 216 191 197
0.09573 -0.51812 -0.55197 173 175 183
0.10021 -0.52397 -0.54556 211 199 172
0.11079 -0.52797 -0.55363 249 253 242
0.11145 -0.54074 -0.55228 254 254 254
0.25079 -0.71816 -0.33610 254 241 226
0.24138 -0.71955 -0.34427 254 254 254
0.25404 -0.72385 -0.32803 100 108 156
0.26187 -0.72912 -0.32854 163 183 208
0.27256 -0.73417 -0.33430 240 245 248
0.29238 -0.75052 -0.32849 254 254 254
0.29173 -0.73795 -0.32982 254 254 254
0.28731 -0.74494 -0.33328 254 254 254
0.29680 -0.74354 -0.32503 254 254 254
0.30188 -0.74912 -0.32023 254 254 254
0.29952 -0.75597 -0.32744 245 254 254
0.30530 -0.76152 -0.32390 221 246 245
0.31496 -0.76686 -0.32726 200 180 203
0.32318 -0.77232 -0.32798 153 113 135
0.33065 -0.77784 -0.32729 90 69 83
0.33673 -0.78344 -0.32413 67 59 74
0.34480 -0.78898 -0.32440 78 68 78
0.34546 -0.80172 -0.32306 97 91 86
0.35276 -0.79454 -0.32441 88 80 77
0.35341 -0.80731 -0.32306 97 91 80
0.35982 -0.80016 -0.32284 92 85 75
0.36048 -0.81295 -0.32149 95 91 81
0.39001 -0.82279 -0.31935 91 91 87
0.39767 -0.82850 -0.31852 86 90 81
0.40696 -0.83423 -0.32037 82 84 61
0.42058 -0.84002 -0.32925 70 69 46
0.42125 -0.85305 -0.32787 38 38 36
0.42864 -0.84583 -0.32886 50 49 47
0.42931 -0.85888 -0.32747 36 37 42
0.44036 -0.85744 -0.32081 38 34 48
0.44103 -0.87051 -0.31943 35 36 39
1.88801 -1.41832 -1.39146 15 7 19
1.88685 -1.39601 -1.39382 10 9 9
1.87901 -1.40841 -1.39996 10 6 11
1.88916 -1.44062 -1.38910 37 38 45
2.13685 -1.77315 -0.96520 49 53 57
2.12055 -1.77556 -0.97937 51 55 65
2.12926 -1.78515 -0.97114 52 55 63
2.13126 -1.77829 -0.94380 52 46 38
2.11681 -1.78060 -0.91444 34 27 20
2.11619 -1.78716 -0.89792 17 7 9
2.13225 -1.78478 -0.88396 4 4 3
2.12477 -1.79660 -0.88981 7 3 3
1.96326 -1.91039 -0.35387 32 30 33
1.94918 -1.91247 -0.36611 20 21 27
1.97027 -1.91847 -0.34636 52 48 34
1.97123 -1.93711 -0.34439 66 57 49
-0.18082 -0.22621 -0.81137 254 254 254
-0.18148 -0.21350 -0.81271 254 254 254
-0.18595 -0.22057 -0.81621 254 254 254
-0.18529 -0.23328 -0.81487 253 254 254
-0.17844 -0.23411 -0.79655 232 228 219
-0.16493 -0.23293 -0.82200 180 153 127
-0.16675 -0.24419 -0.79214 189 199 186
-0.15309 -0.24312 -0.81760 208 244 245
-0.15528 -0.26403 -0.76413 173 158 201
-0.15972 -0.27105 -0.76760 113 109 171
-0.14798 -0.26799 -0.76694 146 117 149
-0.14096 -0.27221 -0.76865 130 94 116
-0.13720 -0.27882 -0.75921 143 110 170
-0.12589 -0.28005 -0.77524 196 191 223
-0.12523 -0.29281 -0.77389 253 254 253
-0.12222 -0.28675 -0.76543 242 248 239
-0.12156 -0.29949 -0.76408 254 254 254
-0.11583 -0.29155 -0.76470 252 253 248
-0.09518 -0.30517 -0.76690 250 254 254
-0.08214 -0.31489 -0.76562 219 198 211
-0.07511 -0.31948 -0.76645 196 147 180
-0.06753 -0.32377 -0.76895 206 163 181
-0.05922 -0.32768 -0.77357 238 217 208
-0.05855 -0.34068 -0.77219 254 254 254
-0.05465 -0.33385 -0.76654 252 252 245
-0.05398 -0.34684 -0.76516 254 254 254
0.07780 -0.51494 -0.55731 253 252 252
0.07714 -0.50227 -0.55865 254 254 254
0.07268 -0.50931 -0.56214 254 254 254
0.06822 -0.51636 -0.56563 254 254 252
0.08429 -0.52013 -0.55584 237 227 232
0.09712 -0.53061 -0.55239 243 235 230
0.09265 -0.53768 -0.55589 247 253 250
0.09778 -0.54333 -0.55104 254 254 254
0.10400 -0.53574 -0.55169 254 254 254
0.10466 -0.54849 -0.55034 254 254 254
0.24234 -0.72546 -0.33180 254 242 220
0.23297 -0.72685 -0.33994 254 254 254
0.24298 -0.73787 -0.33049 184 162 164
0.25243 -0.73052 -0.33667 126 147 144
0.24902 -0.73676 -0.31608 175 218 213
0.24966 -0.74914 -0.31477 211 242 242
0.26865 -0.74109 -0.33868 242 252 250
0.27428 -0.74661 -0.33497 251 254 254
0.27493 -0.75914 -0.33365 143 111 141
0.28006 -0.75213 -0.33153 232 249 244
0.28815 -0.75750 -0.33229 212 228 204
0.30030 -0.76266 -0.34038 180 167 156
0.30745 -0.76816 -0.33925 113 92 106
0.31368 -0.77373 -0.33643 72 58 91
0.32023 -0.77930 -0.33417 75 66 83
0.32089 -0.79199 -0.33282 96 90 83
0.32683 -0.78487 -0.33195 86 78 71
0.32749 -0.79758 -0.33060 97 92 83
0.33415 -0.79044 -0.33095 91 84 74
0.33480 -0.80317 -0.32961 97 93 87
0.34097 -0.79604 -0.32905 94 88 86
0.36928 -0.81859 -0.32281 92 91 82
0.37758 -0.82426 -0.32323 86 87 75
0.38708 -0.82995 -0.32558 76 74 63
0.38774 -0.84285 -0.32422 43 40 44
0.40298 -0.83569 -0.33858 64 54 54
0.40365 -0.84869 -0.33720 41 38 45
0.41117 -0.84148 -0.33853 49 43 48
0.41185 -0.85451 -0.33715 37 38 42
0.41799 -0.84728 -0.33613 40 39 38
0.41866 -0.86033 -0.33474 38 39 41
1.86622 -1.41977 -1.40031 17 9 23
1.86508 -1.39750 -1.40267 11 7 12
1.85724 -1.40988 -1.40880 13 7 12
1.86737 -1.44204 -1.39796 42 43 49
2.10555 -1.78451 -0.93291 54 56 55
2.08942 -1.78690 -0.94693 53 57 75
2.09804 -1.79638 -0.93879 53 57 67
2.10166 -1.79002 -0.91327 47 50 42
2.10049 -1.79635 -0.89624 36 39 24
2.10194 -1.80348 -0.88170 19 7 10
2.11791 -1.80111 -0.86782 4 4 6
2.11047 -1.81287 -0.87364 8 2 5
1.96032 -1.92212 -0.36179 34 30 40
1.94621 -1.92421 -0.37405 21 22 25
-0.19662 -0.22291 -0.82053 248 253 254
-0.19727 -0.21022 -0.82188 254 254 254
-0.20174 -0.21727 -0.82537 245 251 254
-0.20620 -0.22433 -0.82886 215 215 226
-0.19215 -0.21585 -0.81704 254 254 254
-0.19175 -0.22876 -0.81476 251 253 254
-0.18181 -0.24027 -0.80398 252 248 241
-0.17681 -0.24599 -0.79873 191 198 176
-0.17014 -0.25038 -0.79953 147 131 114
-0.16663 -0.25729 -0.78890 126 103 133
-0.16186 -0.26318 -0.78284 98 90 140
-0.15251 -0.27508 -0.77015 184 177 201
-0.14538 -0.27923 -0.77229 231 217 200
-0.13921 -0.28411 -0.77106 246 237 228
-0.13855 -0.29682 -0.76972 254 254 254
-0.13362 -0.28942 -0.76779 250 250 251
-0.11390 -0.30347 -0.76756 252 254 254
-0.10705 -0.30803 -0.76825 244 249 248
-0.10013 -0.31258 -0.76905 221 214 219
-0.09357 -0.31741 -0.76861 194 159 175
-0.08721 -0.32239 -0.76744 188 139 160
-0.07944 -0.32653 -0.77071 214 178 192
-0.07269 -0.33134 -0.77060 245 232 231
-0.07203 -0.34428 -0.76923 254 254 254
-0.06670 -0.33663 -0.76807 254 253 247
-0.06603 -0.34959 -0.76670 254 254 254
0.07287 -0.52213 -0.55965 247 242 236
0.07901 -0.52743 -0.55735 194 162 190
0.08288 -0.53344 -0.54948 212 190 190
0.23615 -0.73253 -0.33172 254 242 226
0.23179 -0.73941 -0.33513 224 228 224
0.23679 -0.74491 -0.33041 162 143 156
0.24868 -0.74333 -0.32705 200 226 227
0.26265 -0.75408 -0.32497 194 173 198
0.28881 -0.76419 -0.34511 89 81 91
0.28437 -0.77121 -0.34859 86 77 72
0.29709 -0.76962 -0.34611 71 69 79
0.29774 -0.78228 -0.34477 93 86 80
0.30327 -0.77519 -0.34324 79 73 70
0.30393 -0.78786 -0.34190 96 89 84
0.30942 -0.78077 -0.34028 87 80 74
0.31007 -0.79345 -0.33894 98 90 87
0.31566 -0.78636 -0.33746 93 87 82
0.31631 -0.79905 -0.33612 96 91 90
0.34363 -0.80875 -0.33120 94 93 88
0.35005 -0.81440 -0.32854 90 92 77
0.35833 -0.82004 -0.32906 84 84 57
0.37605 -0.82564 -0.34569 72 67 49
0.37672 -0.83858 -0.34432 44 44 43
0.38586 -0.83137 -0.34859 52 50 45
0.38653 -0.84436 -0.34721 40 40 43
1.81664 -1.40738 -1.39504 13 8 16
1.81550 -1.38530 -1.39738 10 10 7
1.80774 -1.39757 -1.40346 10 10 8
1.82441 -1.39510 -1.38897 10 8 9
1.83525 -1.41925 -1.39814 21 13 27
2.08015 -1.79733 -0.90616 54 56 61
2.06417 -1.79970 -0.92005 54 59 71
2.07271 -1.80910 -0.91198 56 60 67
2.08125 -1.81849 -0.90392 55 62 62
2.07929 -1.80367 -0.88944 50 57 45
2.07853 -1.81002 -0.87293 40 42 26
2.09465 -1.82187 -0.87185 23 10 11
2.11058 -1.81951 -0.85801 5 4 5
2.10316 -1.83123 -0.86381 10 3 5
1.97709 -1.94689 -0.37203 53 49 45
1.97806 -1.96566 -0.37004 63 55 42
-0.20637 -0.23449 -0.80395 224 227 231
-0.21588 -0.23590 -0.81222 200 208 214
-0.19842 -0.23767 -0.80993 230 229 234
-0.19334 -0.24330 -0.80506 236 242 245
-0.18858 -0.24919 -0.79898 246 250 248
-0.18334 -0.25469 -0.79467 203 207 214
-0.17734 -0.25960 -0.79312 172 159 160
-0.17301 -0.26582 -0.78549 202 183 175
-0.16527 -0.26942 -0.79008 231 219 201
-0.16079 -0.27554 -0.78298 240 236 226
-0.16014 -0.28822 -0.78164 252 252 253
-0.15486 -0.28057 -0.78101 247 247 246
-0.15420 -0.29326 -0.77967 254 254 254
-0.14962 -0.28612 -0.77658 253 251 250
-0.14896 -0.29881 -0.77524 254 254 254
-0.14405 -0.29144 -0.77329 254 253 252
-0.13268 -0.30194 -0.76740 252 254 254
-0.12677 -0.30707 -0.76516 246 252 249
-0.11959 -0.31136 -0.76711 229 221 221
-0.11195 -0.31541 -0.77046 201 170 174
-0.10605 -0.32062 -0.76798 179 137 137
-0.09917 -0.32524 -0.76864 192 152 144
-0.09251 -0.33003 -0.76850 228 208 193
-0.09185 -0.34289 -0.76714 254 254 252
-0.08522 -0.33446 -0.77031 248 247 236
-0.08455 -0.34736 -0.76895 254 254 254
-0.07845 -0.33925 -0.77037 254 253 251
-0.07778 -0.35218 -0.76900 254 254 254
0.06297 -0.52366 -0.56713 252 249 246
0.06232 -0.51100 -0.56847 254 254 254
0.05786 -0.51803 -0.57196 254 254 254
0.05341 -0.52507 -0.57544 254 254 253
0.06782 -0.52936 -0.56166 235 203 210
0.06847 -0.54202 -0.56032 240 199 209
0.07326 -0.53488 -0.55765 204 134 170
0.07963 -0.54013 -0.55591 239 227 232
0.08028 -0.55280 -0.55457 254 254 254
0.08597 -0.54540 -0.55406 254 254 254
0.09110 -0.55103 -0.54922 254 254 254
0.08663 -0.55809 -0.55272 254 254 254
0.22557 -0.73402 -0.33747 251 254 253
0.22493 -0.72165 -0.33878 254 254 254
0.22058 -0.72853 -0.34219 254 254 254
0.25055 -0.74977 -0.34232 148 131 158
0.26367 -0.75476 -0.35281 101 88 117
0.27265 -0.76009 -0.35534 70 61 98
0.27845 -0.76565 -0.35187 77 67 88
0.27911 -0.77827 -0.35053 93 87 82
0.33239 -0.81021 -0.33676 87 88 80
0.32276 -0.81163 -0.34513 68 59 51
0.32790 -0.81730 -0.34027 52 43 47
0.33305 -0.82296 -0.33541 47 40 43
0.34609 -0.81574 -0.34693 79 73 67
0.34675 -0.82858 -0.34557 46 41 48
0.35766 -0.82137 -0.35320 65 56 57
0.35833 -0.83428 -0.35183 43 42 50
0.37444 -0.83283 -0.35434 46 47 46
0.37511 -0.84580 -0.35297 41 43 46
1.77812 -1.40521 -1.38318 15 13 19
1.77699 -1.38331 -1.38550 10 11 6
1.76928 -1.39548 -1.39153 10 11 10
1.79614 -1.41691 -1.38585 23 22 31
1.82492 -1.43101 -1.40122 36 36 43
1.82607 -1.45314 -1.39888 50 53 60
2.06597 -1.82000 -0.87399 51 59 51
2.05011 -1.82235 -0.88777 51 61 69
2.05858 -1.83168 -0.87977 51 63 69
2.06897 -1.82750 -0.86099 41 44 30
2.08688 -1.83998 -0.86158 26 15 12
2.10277 -1.83763 -0.84778 5 4 3
2.09711 -1.84991 -0.85514 10 5 4
2.11300 -1.84755 -0.84133 5 6 6
2.10560 -1.85925 -0.84712 5 4 4
1.96414 -1.94947 -0.38531 36 35 32
1.94995 -1.95157 -0.39764 20 22 29
1.96511 -1.96825 -0.38332 56 50 39
-0.21117 -0.24181 -0.80602 200 208 215
-0.22068 -0.24322 -0.81428 198 201 205
-0.20587 -0.24721 -0.80208 198 200 212
-0.20032 -0.25241 -0.79903 203 204 217
-0.19492 -0.25775 -0.79541 230 236 241
-0.19427 -0.27036 -0.79408 248 251 252
-0.18963 -0.26319 -0.79134 227 235 241
-0.18362 -0.26807 -0.78991 218 212 223
-0.17840 -0.27358 -0.78554 235 234 233
-0.17775 -0.28621 -0.78420 254 254 254
-0.17233 -0.27844 -0.78425 250 251 246
-0.17168 -0.29109 -0.78291 254 254 254
-0.16663 -0.28361 -0.78157 251 250 251
-0.16597 -0.29627 -0.78023 254 254 254
-0.14289 -0.30378 -0.77369 247 252 249
-0.13690 -0.30884 -0.77176 232 225 227
-0.13625 -0.32157 -0.77041 171 129 127
-0.13018 -0.31343 -0.77228 208 180 191
-0.12457 -0.31878 -0.76899 183 142 145
-0.11755 -0.32323 -0.77036 179 138 120
-0.10955 -0.32711 -0.77483 208 176 153
-0.10372 -0.33240 -0.77209 241 226 208
-0.10306 -0.34524 -0.77073 254 254 253
-0.09655 -0.33688 -0.77364 252 250 239
-0.09588 -0.34975 -0.77228 254 254 254
0.05821 -0.53079 -0.56985 249 247 246
0.04865 -0.53221 -0.57816 254 254 254
0.05376 -0.53783 -0.57333 254 253 252
0.06237 -0.53670 -0.56267 219 208 222
0.07544 -0.54709 -0.56007 253 252 252
0.07098 -0.55414 -0.56356 254 254 254
0.07609 -0.55978 -0.55873 254 254 254
0.20495 -0.72454 -0.35247 254 254 254
0.20432 -0.71219 -0.35378 254 254 254
0.19997 -0.71906 -0.35718 254 254 254
0.20930 -0.71767 -0.34907 254 254 254
0.21429 -0.72316 -0.34436 254 254 254
0.20994 -0.73003 -0.34776 240 253 254
0.21390 -0.73561 -0.34103 215 241 239
0.23235 -0.73997 -0.36254 192 170 183
0.23553 -0.74567 -0.35419 111 99 134
0.23618 -0.75814 -0.35287 64 64 61
0.25209 -0.75037 -0.37157 69 61 84
0.25682 -0.75599 -0.36609 70 66 89
0.26282 -0.76152 -0.36304 81 69 77
0.26348 -0.77413 -0.36171 93 85 79
0.26894 -0.76706 -0.36018 85 75 76
0.26959 -0.77968 -0.35885 93 87 82
0.27560 -0.77258 -0.35830 89 83 82
0.27625 -0.78521 -0.35696 91 89 83
1.74419 -1.40392 -1.37635 14 15 21
1.74306 -1.38217 -1.37866 9 11 9
1.73541 -1.39426 -1.38465 8 11 10
1.75997 -1.41511 -1.37656 26 29 41
1.76110 -1.43692 -1.37425 46 51 59
1.77201 -1.42551 -1.37214 37 42 51
1.77314 -1.44734 -1.36983 48 51 56
1.80310 -1.44018 -1.39050 46 50 51
1.80424 -1.46220 -1.38817 50 52 61
2.05985 -1.83856 -0.86516 50 57 53
2.04403 -1.84091 -0.87891 53 59 72
2.05248 -1.85021 -0.87092 54 56 67
2.06522 -1.84681 -0.85436 43 48 36
2.07880 -1.85787 -0.85105 26 21 23
2.08567 -1.86663 -0.84163 13 6 17
2.10150 -1.86428 -0.82788 6 6 11
2.09413 -1.87593 -0.83364 7 4 10
-0.21521 -0.24848 -0.81098 189 190 200
-0.22472 -0.24989 -0.81925 221 219 227
-0.21020 -0.25413 -0.80591 196 202 218
-0.20526 -0.25984 -0.80057 221 222 235
-0.20461 -0.27243 -0.79924 252 252 253
-0.20071 -0.26585 -0.79378 244 245 249
-0.20006 -0.27844 -0.79245 248 248 254
-0.18924 -0.27600 -0.78905 249 249 249
-0.19368 -0.28301 -0.79252 250 250 254
-0.18859 -0.28861 -0.78771 253 253 254
-0.18334 -0.28097 -0.78723 252 252 251
-0.18269 -0.29359 -0.78589 254 254 254
-0.15915 -0.30066 -0.78148 251 254 254
-0.15849 -0.31334 -0.78014 191 154 145
-0.15369 -0.30605 -0.77783 241 243 244
-0.14749 -0.31094 -0.77675 215 194 200
-0.14254 -0.31670 -0.77128 183 143 152
-0.12838 -0.32543 -0.77478 189 152 144
-0.12187 -0.33023 -0.77446 223 205 188
-0.11496 -0.33481 -0.77540 246 242 226
-0.11430 -0.34763 -0.77404 254 254 254
-0.10831 -0.33958 -0.77538 253 252 247
-0.10765 -0.35243 -0.77402 254 254 254
0.05883 -0.54346 -0.56841 252 249 246
0.04927 -0.54488 -0.57672 254 254 254
0.05437 -0.55050 -0.57190 254 254 253
0.05948 -0.55612 -0.56707 254 254 253
0.06409 -0.54903 -0.56397 253 251 245
0.06474 -0.56169 -0.56263 254 254 254
0.18586 -0.71493 -0.37044 254 254 254
0.18522 -0.70257 -0.37175 254 254 254
0.18088 -0.70944 -0.37516 254 254 254
0.19021 -0.70806 -0.36704 254 254 254
0.19520 -0.71354 -0.36233 254 254 254
0.19084 -0.72042 -0.36572 247 254 254
0.19530 -0.72596 -0.35994 228 248 241
0.19594 -0.73831 -0.35863 80 73 91
0.21213 -0.73034 -0.37888 210 206 197
0.21860 -0.73576 -0.37695 167 146 164
0.22643 -0.74108 -0.37767 97 89 110
0.22708 -0.75361 -0.37635 77 72 65
0.23591 -0.74630 -0.38156 61 62 85
0.23656 -0.75889 -0.38023 73 72 66
0.24229 -0.75180 -0.37929 54 58 80
0.24294 -0.76439 -0.37795 75 73 62
0.25480 -0.76284 -0.37419 76 75 69
0.25036 -0.76986 -0.37766 83 80 71
0.25545 -0.77546 -0.37285 90 85 76
0.26018 -0.76843 -0.36992 88 82 77
0.26083 -0.78105 -0.36859 93 85 77
1.71313 -1.40318 -1.37262 13 14 15
1.71201 -1.38155 -1.37491 9 11 8
1.70440 -1.39358 -1.38086 11 11 12
1.69679 -1.40560 -1.38682 14 12 15
1.71731 -1.41179 -1.35881 24 29 30
2.05551 -1.85764 -0.85797 50 56 63
2.03972 -1.85998 -0.87170 53 54 69
2.04815 -1.86926 -0.86373 52 55 67
2.05659 -1.87855 -0.85576 49 57 56
2.05905 -1.86522 -0.84555 43 51 46
2.06812 -1.87472 -0.83817 31 33 28
2.08164 -1.88578 -0.83481 14 9 14
2.09744 -1.88344 -0.82108 6 8 11
2.09008 -1.89507 -0.82684 9 7 11
1.95058 -1.96487 -0.40854 21 24 26
1.94961 -1.94604 -0.41053 16 20 20
1.94298 -1.95651 -0.41571 16 21 16
1.93636 -1.96698 -0.42090 17 21 10
1.94396 -1.97534 -0.41372 23 23 14
1.95702 -1.97277 -0.40045 39 37 32
1.95799 -1.99159 -0.39846 55 48 42
-0.22209 -0.25754 -0.80494 234 234 231
-0.23157 -0.25895 -0.81317 246 248 248
-0.22144 -0.27009 -0.80361 254 254 253
-0.21674 -0.26287 -0.80127 244 245 243
-0.21609 -0.27543 -0.79994 254 254 254
-0.21117 -0.26804 -0.79840 249 249 251
-0.21052 -0.28060 -0.79707 254 254 254
-0.17652 -0.29841 -0.78497 250 254 254
-0.17039 -0.30327 -0.78386 240 251 239
-0.16418 -0.30811 -0.78293 223 201 184
-0.15437 -0.31965 -0.77183 172 131 122
-0.14768 -0.32421 -0.77248 172 133 120
-0.13958 -0.32789 -0.77783 203 169 163
-0.13423 -0.33341 -0.77368 237 219 212
-0.13358 -0.34616 -0.77233 254 254 253
-0.12650 -0.33742 -0.77756 250 249 241
-0.12584 -0.35021 -0.77621 254 254 254
-0.11997 -0.34224 -0.77726 253 253 251
-0.11931 -0.35505 -0.77590 254 254 254
0.17103 -0.71088 -0.38221 251 254 254
0.17039 -0.69853 -0.38352 254 254 254
0.16604 -0.70539 -0.38692 254 254 254
0.17538 -0.70401 -0.37881 254 254 254
0.17674 -0.71629 -0.37900 237 251 243
0.18020 -0.72194 -0.37116 213 225 207
0.19785 -0.72617 -0.39222 186 162 188
0.20667 -0.73137 -0.39510 132 102 133
0.20732 -0.74390 -0.39377 82 75 70
0.21862 -0.74235 -0.38921 78 69 89
0.21421 -0.74933 -0.39267 85 80 74
0.21927 -0.75490 -0.38788 89 82 72
0.22526 -0.74780 -0.38753 81 68 68
0.22590 -0.76037 -0.38620 87 81 69
0.26892 -0.78654 -0.36944 89 87 78
0.27484 -0.79213 -0.36615 81 82 69
0.27995 -0.79775 -0.36132 68 72 60
1.67950 -1.40943 -1.34637 18 16 21
1.66332 -1.41183 -1.36043 14 13 13
1.67196 -1.42134 -1.35226 15 13 18
2.05759 -1.88520 -0.84103 46 54 43
2.04184 -1.88753 -0.85472 49 56 54
2.05025 -1.89679 -0.84677 48 59 55
2.06905 -1.89554 -0.83583 35 40 28
2.08706 -1.90825 -0.83649 25 13 17
2.10288 -1.90591 -0.82275 8 9 10
2.09551 -1.91755 -0.82851 14 7 8
-0.19328 -0.29580 -0.79026 252 254 254
-0.19836 -0.29021 -0.79506 253 253 254
-0.18759 -0.30095 -0.78768 243 251 247
-0.18194 -0.30614 -0.78492 223 214 214
-0.17643 -0.31144 -0.78161 194 163 158
-0.17136 -0.31707 -0.77669 171 130 120
-0.16543 -0.32210 -0.77485 167 124 110
-0.15898 -0.32680 -0.77476 182 147 127
-0.15187 -0.33109 -0.77693 214 193 177
-0.14427 -0.33511 -0.78062 242 233 226
-0.14362 -0.34785 -0.77927 254 254 254
-0.13772 -0.33986 -0.78060 252 250 247
-0.13706 -0.35262 -0.77925 254 254 254
0.15122 -0.70136 -0.39865 254 254 254
0.15058 -0.68901 -0.39996 254 254 254
0.14624 -0.69587 -0.40336 254 254 254
0.15556 -0.69449 -0.39525 254 254 254
0.16055 -0.69997 -0.39055 254 254 254
0.15657 -0.70679 -0.39472 244 253 254
0.16156 -0.71228 -0.39004 225 244 241
0.17426 -0.71692 -0.40142 200 176 195
0.18127 -0.72224 -0.40081 160 130 147
0.18192 -0.73471 -0.39949 82 69 67
0.19001 -0.72742 -0.40369 93 80 92
0.19065 -0.73992 -0.40236 84 75 77
0.19854 -0.73265 -0.40605 76 65 103
0.19919 -0.74520 -0.40472 89 82 80
0.20408 -0.73818 -0.40224 84 69 85
0.20473 -0.75073 -0.40091 91 86 80
0.24939 -0.77670 -0.38788 76 81 67
0.24429 -0.77108 -0.39270 73 71 59
0.25486 -0.78231 -0.38375 80 83 71
0.27682 -0.79314 -0.39641 64 60 50
0.27748 -0.80593 -0.39506 33 32 36
0.28042 -0.79887 -0.38859 48 43 45
0.28108 -0.81164 -0.38723 33 28 34
0.28691 -0.80451 -0.38623 40 34 41
0.29657 -0.80307 -0.37783 53 53 51
0.28757 -0.81729 -0.38487 32 26 32
2.07603 -1.91233 -0.85460 48 56 47
2.06019 -1.91467 -0.86837 49 59 64
2.06865 -1.92399 -0.86037 51 60 61
2.08982 -1.92358 -0.85141 42 44 32
2.10176 -1.93417 -0.84651 31 24 16
2.11765 -1.93182 -0.83270 9 9 13
2.12225 -1.94792 -0.84920 17 11 16
2.13820 -1.94556 -0.83533 6 11 7
2.13077 -1.95730 -0.84115 9 9 11
-0.20959 -0.29294 -0.79683 248 245 247
-0.21466 -0.28736 -0.80162 254 254 253
-0.20516 -0.28596 -0.79337 253 253 254
-0.20382 -0.29800 -0.79466 240 242 241
-0.19867 -0.30353 -0.79014 226 223 228
-0.19387 -0.30932 -0.78431 199 185 198
-0.18704 -0.31364 -0.78594 177 148 159
-0.18083 -0.31844 -0.78524 166 137 127
-0.17568 -0.32400 -0.78063 169 139 115
-0.17089 -0.32982 -0.77473 202 167 147
-0.16254 -0.33323 -0.78145 236 217 199
-0.16188 -0.34591 -0.78010 254 254 252
-0.15532 -0.33747 -0.78399 249 246 235
-0.15466 -0.35019 -0.78265 254 254 254
-0.14930 -0.34255 -0.78222 253 252 251
-0.14865 -0.35528 -0.78087 254 254 254
0.12761 -0.69236 -0.40674 254 254 254
0.12698 -0.68007 -0.40804 254 254 254
0.12265 -0.68690 -0.41143 254 254 254
0.13194 -0.68553 -0.40336 254 254 254
0.13690 -0.69099 -0.39867 254 254 254
0.13373 -0.69767 -0.40457 248 254 254
0.14000 -0.70297 -0.40269 232 250 239
0.15984 -0.71279 -0.41433 181 152 187
0.17213 -0.71753 -0.42494 128 97 125
0.17278 -0.73005 -0.42361 82 74 71
0.18105 -0.72877 -0.41292 81 69 87
0.22656 -0.76706 -0.39976 83 83 63
0.22147 -0.76145 -0.40457 91 85 74
0.23610 -0.76564 -0.39147 79 77 63
0.23374 -0.77255 -0.39908 73 76 51
0.24455 -0.77788 -0.40545 62 63 54
0.25253 -0.78340 -0.40616 60 60 60
0.26046 -0.78895 -0.40671 53 50 48
0.26112 -0.80173 -0.40536 37 37 33
0.26804 -0.79454 -0.40650 43 42 33
0.26870 -0.80734 -0.40514 35 36 40
0.27391 -0.80020 -0.40298 35 37 37
0.27457 -0.81301 -0.40162 35 34 37
2.09206 -1.93881 -0.86594 51 57 54
2.07614 -1.94116 -0.87978 52 61 70
2.08464 -1.95053 -0.87174 52 61 66
2.09831 -1.94733 -0.85586 46 50 40
2.10836 -1.95726 -0.84922 29 38 31
2.13524 -1.97350 -0.85757 14 14 21
2.15125 -1.97113 -0.84365 9 10 11
2.14379 -1.98292 -0.84949 8 9 10
2.13633 -1.99471 -0.85533 6 6 6
-0.22622 -0.29042 -0.80180 252 254 253
-0.22687 -0.27789 -0.80313 254 254 254
-0.23128 -0.28486 -0.80658 252 253 254
-0.22181 -0.28346 -0.79835 254 254 254
-0.22005 -0.29511 -0.80132 239 248 241
-0.21460 -0.30039 -0.79802 208 213 207
-0.21008 -0.30638 -0.79116 176 164 181
-0.20355 -0.31086 -0.79191 158 138 153
-0.19793 -0.31604 -0.78915 159 136 135
-0.19134 -0.32054 -0.78995 167 128 109
-0.18578 -0.32581 -0.78686 157 109 95
-0.18068 -0.33141 -0.78207 184 132 149
-0.17295 -0.33522 -0.78677 230 206 211
-0.17229 -0.34788 -0.78543 254 254 253
-0.16679 -0.34015 -0.78567 251 249 242
-0.16614 -0.35283 -0.78433 254 254 254
0.11038 -0.68871 -0.41285 254 254 254
0.10974 -0.67645 -0.41414 254 254 254
0.10543 -0.68326 -0.41752 254 254 254
0.11469 -0.68189 -0.40947 254 254 254
0.11676 -0.69395 -0.41136 242 252 247
0.12508 -0.69896 -0.41407 218 233 221
0.12510 -0.70506 -0.39856 194 165 190
0.15298 -0.71390 -0.42796 90 78 83
0.15363 -0.72637 -0.42664 86 78 74
0.15719 -0.71952 -0.42145 87 71 102
0.15784 -0.73198 -0.42013 91 84 73
0.16492 -0.72478 -0.42243 88 69 75
0.16556 -0.73727 -0.42110 93 87 75
0.21464 -0.76861 -0.40326 85 82 62
0.21399 -0.75601 -0.40459 93 86 81
0.20956 -0.76301 -0.40806 91 85 73
0.20513 -0.77002 -0.41153 76 70 65
0.22663 -0.77383 -0.41226 71 70 58
0.23622 -0.77924 -0.41632 58 55 46
0.23688 -0.79197 -0.41497 38 40 36
0.24669 -0.78466 -0.42200 42 43 41
0.24735 -0.79745 -0.42064 39 39 36
0.25221 -0.79033 -0.41783 42 42 47
0.25287 -0.80312 -0.41648 40 38 34
2.10074 -1.96273 -0.87058 44 60 51
2.11195 -1.97313 -0.86494 27 38 26
2.11304 -1.99429 -0.86270 7 5 7
2.13551 -1.98822 -0.87034 12 11 15
2.13661 -2.00948 -0.86809 4 5 3
-0.23664 -0.29260 -0.80623 235 241 242
-0.24169 -0.28704 -0.81100 231 229 233
-0.23247 -0.29885 -0.79800 221 216 228
-0.22600 -0.30329 -0.79879 177 153 184
-0.22164 -0.30938 -0.79135 132 107 136
-0.21582 -0.31436 -0.78954 122 101 110
-0.20879 -0.31846 -0.79225 143 116 113
-0.20236 -0.32304 -0.79261 160 136 128
-0.19589 -0.32764 -0.79298 187 167 127
-0.19104 -0.33340 -0.78732 215 192 158
-0.18398 -0.33764 -0.78973 237 220 214
-0.18333 -0.35028 -0.78839 254 254 253
-0.17771 -0.34247 -0.78913 250 246 246
-0.17706 -0.35513 -0.78779 254 254 254
0.08742 -0.67978 -0.42154 254 254 254
0.08679 -0.66757 -0.42283 254 254 254
0.08249 -0.67436 -0.42619 254 254 254
0.09171 -0.67299 -0.41817 254 254 254
0.09664 -0.67841 -0.41352 254 254 254
0.09366 -0.68501 -0.41986 246 254 254
0.09952 -0.69031 -0.41730 230 249 237
0.10889 -0.69513 -0.42257 212 205 193
0.12748 -0.70497 -0.43236 107 91 105
0.12812 -0.71737 -0.43104 84 71 77
0.13481 -0.71020 -0.43273 87 65 104
0.13545 -0.72262 -0.43141 89 81 77
0.14258 -0.71540 -0.43400 89 72 81
0.14322 -0.72786 -0.43268 93 84 73
2.10276 -1.97189 -0.90093 45 55 62
2.09418 -1.96245 -0.90903 51 62 76
2.08670 -1.97427 -0.91488 48 60 77
2.10672 -1.97958 -0.88862 30 31 45
2.12297 -1.99194 -0.88748 14 13 15
2.12406 -2.01323 -0.88522 5 3 3
-0.24558 -0.29358 -0.81650 204 201 202
-0.24623 -0.28106 -0.81783 231 230 237
-0.25064 -0.28802 -0.82127 224 226 226
-0.25504 -0.29498 -0.82472 184 162 175
-0.24494 -0.30611 -0.81517 138 102 111
-0.24130 -0.29976 -0.80867 179 163 186
-0.23788 -0.30660 -0.79742 147 121 142
-0.23210 -0.31156 -0.79561 131 95 114
-0.22604 -0.31634 -0.79480 138 101 122
-0.21861 -0.32011 -0.79924 176 149 138
-0.21167 -0.32431 -0.80161 216 202 180
-0.20491 -0.32868 -0.80318 232 226 204
-0.19947 -0.33404 -0.79969 241 237 208
-0.19881 -0.34666 -0.79835 254 254 252
-0.19415 -0.33949 -0.79569 249 246 230
-0.19350 -0.35212 -0.79435 254 254 254
-0.18819 -0.34451 -0.79408 253 252 249
-0.18754 -0.35715 -0.79274 254 254 254
0.06969 -0.67630 -0.42586 253 254 254
0.06906 -0.66413 -0.42715 254 254 254
0.06478 -0.67090 -0.43050 254 254 254
0.07397 -0.66954 -0.42251 254 254 254
0.07605 -0.68148 -0.42460 240 252 244
0.07464 -0.68784 -0.40538 217 226 212
0.10770 -0.69540 -0.44901 142 119 127
0.10834 -0.70780 -0.44770 81 71 70
0.11203 -0.70099 -0.44278 89 80 97
0.11267 -0.71338 -0.44147 83 75 78
0.18351 -0.75441 -0.44083 86 84 68
0.18416 -0.76705 -0.43949 54 53 57
0.23676 -0.79305 -0.44239 40 44 38
0.23742 -0.80588 -0.44103 33 34 20
2.10878 -1.98888 -0.91920 40 50 58
2.09265 -1.99127 -0.93322 51 59 77
2.11565 -1.99769 -0.90946 24 14 40
2.11246 -2.00261 -0.89060 11 3 10
-0.25279 -0.30282 -0.80855 152 118 127
-0.26221 -0.30421 -0.81674 148 106 119
-0.24217 -0.31346 -0.80127 147 109 125
-0.23553 -0.31776 -0.80288 189 155 150
-0.22762 -0.32115 -0.80934 221 203 191
-0.22031 -0.32507 -0.81323 239 231 213
-0.21966 -0.33768 -0.81190 254 254 253
-0.21495 -0.33047 -0.80951 250 247 237
-0.21430 -0.34308 -0.80817 254 254 254
-0.20944 -0.33576 -0.80631 253 253 247
-0.20878 -0.34838 -0.80498 254 254 254
-0.20391 -0.34106 -0.80314 254 254 248
-0.20326 -0.35369 -0.80181 254 254 254
0.04761 -0.66739 -0.43579 254 254 254
0.04699 -0.65526 -0.43707 254 254 254
0.04272 -0.66201 -0.44041 254 254 254
0.05188 -0.66065 -0.43245 254 254 254
0.05678 -0.66604 -0.42782 254 254 254
0.05312 -0.67268 -0.43262 247 253 254
0.05900 -0.67791 -0.43032 230 248 238
0.06091 -0.68988 -0.40264 173 140 170
0.06153 -0.70193 -0.40136 83 68 66
0.08905 -0.69190 -0.45196 97 86 100
0.08969 -0.70424 -0.45065 84 75 68
0.09601 -0.69711 -0.45179 85 68 100
0.09665 -0.70947 -0.45048 90 82 66
0.10099 -0.70260 -0.44707 89 72 78
0.10163 -0.71496 -0.44576 93 84 72
0.15683 -0.74519 -0.44376 86 85 61
0.15618 -0.73263 -0.44509 94 85 73
0.15176 -0.73961 -0.44854 89 86 65
0.14735 -0.74659 -0.45200 76 71 53
0.16124 -0.73821 -0.44030 92 86 73
0.16658 -0.75040 -0.44903 81 78 60
0.17690 -0.75561 -0.45537 74 65 66
0.17755 -0.76828 -0.45403 46 41 56
0.20136 -0.77197 -0.45995 49 49 56
0.19687 -0.77908 -0.46346 41 44 50
0.20202 -0.78475 -0.45859 40 43 45
0.20653 -0.77765 -0.45511 45 48 52
0.20719 -0.79042 -0.45376 36 41 42
0.22668 -0.79450 -0.45003 37 41 35
0.21699 -0.79593 -0.45845 35 37 37
0.22216 -0.80163 -0.45356 34 35 30
0.22734 -0.80733 -0.44867 32 35 24
2.10447 -2.00200 -0.92804 47 56 62
2.08832 -2.00439 -0.94207 56 62 83
2.09694 -2.01388 -0.93392 54 59 71
2.11200 -2.01107 -0.91888 37 40 45
2.10444 -2.01422 -0.89595 24 13 19
2.10624 -2.02099 -0.88169 10 4 6
2.12226 -2.01862 -0.86777 3 4 4
2.11479 -2.03041 -0.87360 4 3 4
2.10733 -2.04220 -0.87944 8 6 3
2.06045 -2.10501 -0.57265 24 21 11
2.05943 -2.08514 -0.57476 14 17 9
2.05243 -2.09619 -0.58023 15 16 6
2.06745 -2.09396 -0.56718 13 14 11
2.07546 -2.10279 -0.55961 13 8 9
2.06218 -2.11114 -0.55996 27 21 15
2.06937 -2.11959 -0.55175 21 17 17
2.09503 -2.13605 -0.55839 16 17 21
2.09605 -2.15599 -0.55627 23 24 20
2.13689 -2.17039 -0.54958 42 48 22
2.19954 -2.20333 -0.58479 38 38 16
2.21496 -2.20104 -0.57139 48 48 21
2.20778 -2.21240 -0.57701 28 26 8
2.20059 -2.22375 -0.58263 12 13 7
-0.25718 -0.30975 -0.81198 160 120 113
-0.26660 -0.31115 -0.82017 206 179 168
-0.25069 -0.31413 -0.81315 195 162 145
-0.24431 -0.31864 -0.81379 223 205 193
-0.23708 -0.32254 -0.81766 242 233 220
-0.23644 -0.33511 -0.81633 254 254 253
-0.23118 -0.32749 -0.81618 252 249 240
-0.23053 -0.34007 -0.81485 254 254 254
-0.22541 -0.33257 -0.81410 254 254 249
-0.22476 -0.34516 -0.81277 254 254 254
0.03047 -0.66393 -0.44082 252 254 254
0.02985 -0.65183 -0.44210 254 254 254
0.02559 -0.65856 -0.44543 254 254 254
0.03472 -0.65720 -0.43749 254 254 254
0.03736 -0.66894 -0.44111 239 251 240
0.04253 -0.67428 -0.43716 216 221 197
0.05118 -0.67905 -0.44154 190 158 190
0.05938 -0.68394 -0.44474 144 117 136
0.06001 -0.69615 -0.44345 83 75 61
0.07078 -0.68839 -0.45538 98 85 86
0.07141 -0.70068 -0.45408 89 79 76
0.07702 -0.69367 -0.45370 95 74 97
0.07766 -0.70597 -0.45240 94 83 73
0.15626 -0.75187 -0.45557 64 58 55
0.15691 -0.76447 -0.45424 43 40 45
0.16883 -0.75692 -0.46693 55 50 51
0.16948 -0.76961 -0.46558 42 40 44
0.17783 -0.76230 -0.47041 51 43 54
0.17849 -0.77503 -0.46906 42 40 46
2.10666 -2.02381 -0.92678 50 58 55
2.09051 -2.02620 -0.94083 55 60 75
2.09914 -2.03570 -0.93267 55 59 64
2.11402 -2.03280 -0.91746 42 43 36
2.09322 -2.03057 -0.88246 23 17 15
2.06058 -2.11376 -0.59822 17 16 15
2.05955 -2.09378 -0.60033 15 17 10
2.05252 -2.10489 -0.60583 15 16 13
2.04549 -2.11600 -0.61133 14 15 14
2.07941 -2.12729 -0.59945 39 37 22
2.09106 -2.13774 -0.59473 47 43 37
2.09936 -2.14674 -0.58723 38 36 34
2.12507 -2.16337 -0.59381 28 29 25
2.22993 -2.23141 -0.62006 18 16 12
2.23099 -2.25207 -0.61787 10 12 9
-0.25890 -0.31455 -0.82642 228 214 191
-0.26836 -0.31595 -0.83464 247 241 230
-0.25418 -0.32037 -0.82029 245 236 219
-0.25354 -0.33289 -0.81897 254 254 253
-0.24805 -0.32509 -0.81993 253 250 242
-0.24740 -0.33762 -0.81861 254 254 254
-0.24169 -0.32967 -0.82038 254 254 250
-0.24104 -0.34223 -0.81905 254 254 254
0.01044 -0.65476 -0.45510 254 254 254
0.00981 -0.64269 -0.45638 254 254 254
0.00556 -0.64940 -0.45970 254 254 254
0.01469 -0.64805 -0.45177 254 254 254
0.01956 -0.65341 -0.44717 254 254 254
0.02101 -0.66534 -0.44794 228 244 241
0.02863 -0.67022 -0.45010 210 188 202
0.03550 -0.67527 -0.45032 171 138 150
0.03613 -0.68742 -0.44903 85 68 62
0.04723 -0.67956 -0.46225 102 87 86
0.04786 -0.69179 -0.46095 86 76 74
0.05302 -0.68486 -0.45966 94 74 103
0.05366 -0.69710 -0.45837 91 83 73
0.13989 -0.74783 -0.46474 60 56 41
0.14054 -0.76041 -0.46341 45 43 43
0.14726 -0.75324 -0.46499 54 48 47
0.14791 -0.76584 -0.46366 43 42 43
0.15433 -0.75869 -0.46452 48 41 49
0.15498 -0.77132 -0.46318 40 43 42
1.45716 -1.51434 -1.04467 19 22 24
1.44242 -1.51652 -1.05747 14 14 12
1.45029 -1.52518 -1.05004 14 14 15
2.09552 -2.04028 -0.91322 55 59 48
2.07824 -2.03930 -0.88138 34 32 26
2.07741 -2.04489 -0.86482 13 7 6
2.09332 -2.04254 -0.85100 3 5 2
2.08591 -2.05424 -0.85679 5 4 2
2.06171 -2.12842 -0.61049 17 18 22
2.04658 -2.13066 -0.62364 14 15 13
2.08091 -2.14218 -0.61203 36 40 36
2.09929 -2.15562 -0.61281 48 52 52
2.10033 -2.17579 -0.61067 51 55 55
2.11018 -2.16579 -0.60736 48 50 48
2.12187 -2.17633 -0.60254 39 42 33
-0.26465 -0.32258 -0.82430 253 252 243
-0.27408 -0.32397 -0.83250 254 254 252
-0.26904 -0.32952 -0.82774 254 254 254
-0.26400 -0.33507 -0.82297 254 254 254
-0.25835 -0.32714 -0.82473 254 254 250
-0.25770 -0.33966 -0.82340 254 254 254
-0.00941 -0.64560 -0.46969 254 254 254
-0.01003 -0.63353 -0.47096 254 254 254
-0.01428 -0.64024 -0.47429 254 254 254
-0.00517 -0.63889 -0.46637 254 254 254
-0.00030 -0.64425 -0.46177 254 254 254
-0.00378 -0.65080 -0.46705 251 254 254
0.00040 -0.65630 -0.46070 237 249 240
0.00539 -0.66163 -0.45639 216 213 206
0.01389 -0.66632 -0.46093 186 157 197
0.02143 -0.67124 -0.46293 135 116 137
0.02205 -0.68339 -0.46164 85 76 79
0.03216 -0.67564 -0.47275 100 82 112
0.03279 -0.68787 -0.47146 91 83 79
0.03824 -0.68089 -0.47092 98 79 90
0.03887 -0.69313 -0.46962 94 84 73
0.10332 -0.72761 -0.47655 84 82 61
0.10268 -0.71512 -0.47787 92 86 70
0.09828 -0.72207 -0.48131 86 85 67
0.10772 -0.72067 -0.47311 91 85 70
0.11276 -0.72622 -0.46834 88 85 67
0.12674 -0.74353 -0.48099 58 53 43
0.12231 -0.75053 -0.48446 47 44 42
0.12739 -0.75612 -0.47966 44 44 46
0.13001 -0.74927 -0.47214 53 47 47
0.13066 -0.76184 -0.47081 44 43 35
1.46323 -1.53534 -1.04881 19 20 27
1.44846 -1.53753 -1.06164 13 14 12
1.48930 -1.54945 -1.06350 31 42 39
1.49812 -1.55846 -1.05704 46 55 53
1.51301 -1.55625 -1.04410 53 60 64
1.50607 -1.56721 -1.04953 52 58 69
2.06919 -2.03853 -0.91767 56 61 71
2.06063 -2.02910 -0.92576 56 64 80
2.05316 -2.04090 -0.93161 59 69 88
2.07557 -2.04707 -0.90756 54 56 56
2.08165 -2.05547 -0.89718 39 41 38
2.06966 -2.05646 -0.87030 20 11 19
2.07890 -2.06611 -0.86295 9 4 8
2.09481 -2.06376 -0.84913 4 5 3
2.08740 -2.07546 -0.85493 4 4 5
2.06561 -2.14438 -0.62514 18 19 24
2.05043 -2.14663 -0.63834 14 15 12
2.08194 -2.15694 -0.62429 35 38 43
2.09589 -2.16848 -0.62141 48 53 57
2.09694 -2.18868 -0.61927 52 56 62
2.11768 -2.18887 -0.61048 44 50 41
-0.02565 -0.64208 -0.47623 253 254 254
-0.02627 -0.63005 -0.47750 254 254 254
-0.03050 -0.63674 -0.48082 254 254 254
-0.02142 -0.63539 -0.47292 254 254 254
-0.01969 -0.64719 -0.47456 243 252 247
-0.01443 -0.65246 -0.47098 226 235 223
-0.01200 -0.65829 -0.46010 205 180 196
-0.00020 -0.66231 -0.47337 164 133 146
0.00043 -0.67442 -0.47209 84 73 70
0.00964 -0.66678 -0.48138 105 94 107
0.01027 -0.67896 -0.48009 87 78 83
0.01575 -0.67198 -0.47976 97 77 119
0.01638 -0.68417 -0.47847 91 82 78
0.02146 -0.67726 -0.47710 90 70 83
0.02209 -0.68947 -0.47581 93 86 76
0.06650 -0.71389 -0.46977 92 85 69
0.06153 -0.70841 -0.47447 91 85 71
0.07085 -0.70703 -0.46637 94 86 75
0.07582 -0.71251 -0.46167 94 84 72
0.07148 -0.71937 -0.46507 90 82 60
0.08387 -0.72402 -0.47781 84 78 54
0.08825 -0.71711 -0.47439 91 83 68
0.10305 -0.73415 -0.48955 61 58 55
0.10369 -0.74670 -0.48822 47 47 50
0.11068 -0.73948 -0.49068 57 53 56
0.11133 -0.75206 -0.48935 46 45 47
0.11621 -0.74503 -0.48693 49 47 51
0.11686 -0.75761 -0.48560 46 44 44
1.45440 -1.54563 -1.05178 12 14 15
1.43964 -1.54781 -1.06461 12 13 10
1.44752 -1.55649 -1.05716 10 12 11
1.47355 -1.55772 -1.05813 16 20 27
1.49475 -1.57051 -1.06680 28 40 47
1.50507 -1.58000 -1.06213 43 55 61
1.51999 -1.57779 -1.04916 57 58 66
1.51304 -1.58877 -1.05460 53 61 66
2.04988 -2.04548 -0.91243 58 65 78
2.03391 -2.04785 -0.92631 59 70 92
2.04244 -2.05724 -0.91825 59 68 82
2.05740 -2.05446 -0.90343 53 58 67
2.06487 -2.06340 -0.89439 45 51 52
2.06637 -2.06987 -0.87988 33 34 35
2.07229 -2.07815 -0.86948 20 11 18
2.08107 -2.08762 -0.86170 8 5 6
2.09698 -2.08526 -0.84788 4 4 7
2.08956 -2.09698 -0.85367 5 4 7
2.08215 -2.10869 -0.85947 8 5 10
2.06475 -2.15832 -0.63588 19 17 26
2.04953 -2.16058 -0.64911 16 16 14
2.08046 -2.17066 -0.63453 36 39 47
2.08151 -2.19086 -0.63239 52 58 68
2.09468 -2.18235 -0.63185 49 55 64
2.09572 -2.20259 -0.62971 53 56 64
2.10193 -2.19622 -0.60899 48 52 46
-0.04779 -0.63353 -0.48421 254 254 254
-0.04841 -0.62154 -0.48548 254 254 254
-0.05263 -0.62820 -0.48878 254 254 254
-0.04357 -0.62686 -0.48091 254 254 254
-0.03874 -0.63218 -0.47634 254 254 254
-0.04204 -0.63864 -0.48210 248 254 252
-0.03639 -0.64379 -0.47970 235 247 235
-0.03102 -0.64901 -0.47651 218 207 198
-0.02784 -0.65469 -0.46754 184 154 187
-0.01494 -0.65843 -0.48410 134 107 120
-0.01431 -0.67053 -0.48282 84 73 75
-0.00739 -0.66329 -0.48643 101 78 107
-0.00676 -0.67543 -0.48514 91 81 75
-0.00110 -0.66843 -0.48539 97 76 85
-0.00047 -0.68059 -0.48410 94 86 73
0.04852 -0.71027 -0.47358 88 86 78
0.04788 -0.69798 -0.47488 94 86 76
0.04356 -0.70481 -0.47827 90 85 78
0.05284 -0.70344 -0.47020 93 86 75
0.06306 -0.71454 -0.49208 85 81 60
0.06914 -0.71993 -0.48993 80 69 63
0.06978 -0.73236 -0.48862 48 51 54
0.07451 -0.72541 -0.48604 67 64 57
0.07515 -0.73784 -0.48472 51 48 49
0.09395 -0.73552 -0.49868 57 51 53
0.09460 -0.74807 -0.49735 47 49 44
1.46106 -1.56691 -1.05667 10 12 18
1.44627 -1.56910 -1.06952 9 11 8
1.45417 -1.57780 -1.06206 9 10 11
1.46207 -1.58649 -1.05460 8 8 12
1.48204 -1.57968 -1.06519 15 17 28
1.50586 -1.59342 -1.07697 29 40 43
1.51678 -1.60315 -1.07296 44 59 61
1.53177 -1.60093 -1.05993 57 60 70
1.52479 -1.61196 -1.06539 54 61 69
2.04452 -2.06394 -0.90416 58 65 76
2.02858 -2.06630 -0.91801 63 69 86
2.03709 -2.07567 -0.90996 64 69 81
2.05335 -2.07345 -0.89642 54 60 65
2.06037 -2.08219 -0.88699 47 57 52
2.06606 -2.09036 -0.87636 36 37 33
2.07722 -2.10085 -0.87076 18 13 18
2.05155 -2.16677 -0.63628 22 18 33
2.03636 -2.16902 -0.64948 14 15 15
2.07506 -2.18266 -0.64151 40 45 53
2.07610 -2.20287 -0.63937 56 63 68
2.10425 -2.21175 -0.62229 49 53 50
2.08896 -2.21401 -0.63558 54 56 62
2.09713 -2.22300 -0.62787 50 52 52
2.12149 -2.22490 -0.62200 39 41 33
-0.06399 -0.63011 -0.49021 253 254 253
-0.06461 -0.61815 -0.49147 254 254 254
-0.06882 -0.62480 -0.49476 254 254 254
-0.05979 -0.62346 -0.48692 254 254 254
-0.05824 -0.63520 -0.48822 242 250 242
-0.05355 -0.64054 -0.48328 224 231 213
-0.04723 -0.64552 -0.48278 199 178 193
-0.04661 -0.65751 -0.48151 100 77 87
-0.02321 -0.65961 -0.49435 98 78 108
-0.01724 -0.66478 -0.49258 91 67 75
-0.01662 -0.67691 -0.49129 95 88 78
0.06417 -0.72080 -0.50884 64 58 46
0.06482 -0.73328 -0.50752 50 49 53
0.06854 -0.72642 -0.50246 60 52 57
0.06919 -0.73889 -0.50114 47 50 50
1.48417 -1.59973 -1.06447 12 13 21
1.46930 -1.60194 -1.07740 9 10 10
1.47724 -1.61068 -1.06989 7 8 14
1.51990 -1.61744 -1.09068 27 39 49
1.52932 -1.62673 -1.08475 43 55 61
1.54438 -1.62450 -1.07166 58 61 72
1.53736 -1.63559 -1.07715 54 60 71
2.04229 -2.08363 -0.89882 62 66 74
2.02637 -2.08599 -0.91266 67 74 87
2.03487 -2.09535 -0.90462 68 71 81
2.05113 -2.09314 -0.89111 54 62 66
2.05994 -2.10263 -0.88335 46 57 50
2.07725 -2.11577 -0.88340 26 26 34
2.08869 -2.12641 -0.87800 11 8 14
2.10468 -2.12404 -0.86411 5 5 10
2.09723 -2.13581 -0.86993 6 5 8
2.08979 -2.14757 -0.87576 7 6 7
2.03540 -2.17382 -0.63414 24 21 33
2.02026 -2.17606 -0.64730 13 14 13
2.06433 -2.19225 -0.64403 46 55 63
2.06538 -2.21243 -0.64190 60 64 59
2.10145 -2.23020 -0.61699 41 40 39
2.08618 -2.23247 -0.63026 49 51 51
-0.08359 -0.62107 -0.50452 253 254 254
-0.08421 -0.60913 -0.50579 254 254 254
-0.08841 -0.61576 -0.50907 254 254 254
-0.07939 -0.61443 -0.50124 254 254 254
-0.07457 -0.61973 -0.49669 254 254 254
-0.07875 -0.62636 -0.50005 246 253 252
-0.07813 -0.63830 -0.49878 157 134 139
-0.07411 -0.63171 -0.49500 233 244 235
-0.06735 -0.63655 -0.49587 216 202 199
-0.06673 -0.64852 -0.49460 104 82 105
-0.06015 -0.64132 -0.49791 183 154 177
-0.05224 -0.64597 -0.50178 130 111 114
-0.05162 -0.65802 -0.50050 91 77 79
0.03008 -0.70687 -0.50723 80 75 57
0.02944 -0.69451 -0.50854 92 87 73
0.02074 -0.70825 -0.51534 70 63 46
0.03072 -0.71923 -0.50592 57 53 34
0.04466 -0.71111 -0.52653 72 65 39
0.04531 -0.72359 -0.52521 55 53 41
1.50540 -1.62606 -1.08703 13 11 31
1.49039 -1.62828 -1.10007 10 13 13
1.49841 -1.63710 -1.09250 10 9 15
1.52186 -1.63767 -1.08969 26 35 46
1.53298 -1.64755 -1.08581 42 51 62
1.54806 -1.64532 -1.07271 60 63 63
1.54103 -1.65641 -1.07820 54 62 64
2.04378 -2.10488 -0.89697 58 64 74
2.02786 -2.10724 -0.91080 69 73 86
2.05305 -2.11458 -0.88965 48 59 61
2.05962 -2.12310 -0.87982 32 38 44
2.07703 -2.13634 -0.87996 14 15 21
2.07812 -2.15747 -0.87772 6 5 8
2.01795 -2.18018 -0.63081 25 23 33
2.00286 -2.18242 -0.64393 12 14 16
2.04532 -2.19797 -0.63952 52 58 60
2.07763 -2.23362 -0.60876 42 43 40
2.06245 -2.23587 -0.62196 45 48 49
2.07867 -2.25372 -0.60664 29 31 32
2.10066 -2.24956 -0.61334 29 28 29
2.10170 -2.26976 -0.61120 26 29 27
-0.09743 -0.61710 -0.51691 252 254 252
-0.09804 -0.60516 -0.51817 254 254 254
-0.10224 -0.61180 -0.52146 254 254 254
-0.09323 -0.61046 -0.51362 254 254 254
-0.09298 -0.62250 -0.51127 240 248 239
-0.09237 -0.63443 -0.51001 119 107 118
-0.08907 -0.62803 -0.50411 221 225 212
-0.07897 -0.63203 -0.51470 196 175 195
-0.06681 -0.64212 -0.51254 111 98 110
-0.07105 -0.64881 -0.51585 85 77 75
-0.06619 -0.65415 -0.51126 91 82 80
0.03170 -0.71296 -0.52578 61 57 48
0.02231 -0.71436 -0.53394 58 50 44
0.02733 -0.71988 -0.52920 54 51 48
0.03235 -0.72540 -0.52446 52 51 41
1.50488 -1.64541 -1.08305 13 10 21
1.48989 -1.64763 -1.09608 11 14 13
1.49790 -1.65645 -1.08852 7 12 11
1.52469 -1.65822 -1.08977 25 26 49
1.53983 -1.66949 -1.09070 43 56 62
1.55494 -1.66726 -1.07756 58 63 64
1.54790 -1.67838 -1.08307 56 64 68
2.03753 -2.11711 -0.90387 61 66 78
2.02160 -2.11947 -0.91771 66 73 91
2.04762 -2.12716 -0.89730 52 59 67
2.05149 -2.13449 -0.88496 36 43 44
2.06431 -2.14575 -0.88091 13 14 27
2.06540 -2.16685 -0.87868 7 4 12
1.99691 -2.18477 -0.62435 20 20 35
1.98190 -2.18700 -0.63740 11 14 17
2.02222 -2.20167 -0.63146 43 45 48
2.02326 -2.22167 -0.62934 46 50 46
2.04185 -2.21596 -0.63359 53 55 51
2.05701 -2.21371 -0.62041 54 55 55
2.04994 -2.22487 -0.62594 50 52 52
2.04288 -2.23603 -0.63146 47 48 49
2.06246 -2.24096 -0.60758 39 43 40
2.04732 -2.24320 -0.62074 43 46 46
2.06350 -2.26101 -0.60546 27 32 32
-0.11935 -0.60877 -0.52399 253 254 254
-0.11996 -0.59688 -0.52525 254 254 254
-0.12414 -0.60349 -0.52852 254 254 254
-0.11516 -0.60216 -0.52071 254 254 254
-0.11036 -0.60744 -0.51618 254 254 254
-0.11415 -0.61394 -0.52066 245 252 251
-0.10667 -0.61850 -0.52407 232 241 234
-0.10387 -0.62433 -0.51358 213 192 203
-0.10326 -0.63623 -0.51232 107 80 110
-0.09290 -0.62805 -0.52709 179 147 177
-0.09228 -0.64005 -0.52582 89 71 78
-0.07542 -0.64335 -0.52182 101 77 79
-0.07480 -0.65539 -0.52055 97 89 75
1.51512 -1.66843 -1.09215 10 10 30
1.50006 -1.67066 -1.10523 9 12 11
1.50810 -1.67951 -1.09764 8 8 17
1.53625 -1.68182 -1.10040 26 30 55
1.54015 -1.68925 -1.08772 48 62 58
1.55526 -1.68702 -1.07459 61 64 71
1.54822 -1.69814 -1.08010 61 66 72
2.03325 -2.13022 -0.91263 64 68 83
2.01731 -2.13258 -0.92648 68 76 96
2.02583 -2.14195 -0.91844 68 74 89
2.04211 -2.13974 -0.90490 57 64 71
2.05013 -2.14890 -0.89639 43 49 48
2.05416 -2.15627 -0.88419 17 12 35
1.98780 -2.19483 -0.62800 16 18 32
1.97279 -2.19705 -0.64104 10 13 14
2.01385 -2.21215 -0.63582 33 40 40
-0.13980 -0.60011 -0.53501 254 254 254
-0.14041 -0.58825 -0.53627 254 254 254
-0.14458 -0.59485 -0.53954 254 254 254
-0.13562 -0.59352 -0.53175 254 254 254
-0.13084 -0.59879 -0.52723 254 254 254
-0.13462 -0.60526 -0.53170 250 253 252
-0.11988 -0.61436 -0.53834 220 217 214
-0.11668 -0.62010 -0.52892 195 168 201
-0.11606 -0.63203 -0.52765 97 75 88
-0.10559 -0.62375 -0.54315 152 131 149
-0.10497 -0.63576 -0.54188 87 75 74
1.52720 -1.69225 -1.10347 16 12 36
1.51208 -1.69449 -1.11662 10 10 10
1.53687 -1.70171 -1.09777 36 47 49
1.54253 -1.70974 -1.08722 53 64 70
1.55765 -1.70750 -1.07409 61 66 74
1.55060 -1.71863 -1.07960 62 66 76
1.54356 -1.72975 -1.08510 61 64 74
2.03342 -2.15091 -0.90952 64 73 81
2.01748 -2.15327 -0.92337 71 78 90
2.02599 -2.16265 -0.91533 68 78 87
2.04154 -2.16011 -0.90111 52 62 65
2.03024 -2.16054 -0.87466 31 24 48
2.05389 -2.17673 -0.88070 14 5 14
2.06980 -2.17437 -0.86688 3 4 6
2.06239 -2.18608 -0.87267 6 3 5
2.00054 -2.21524 -0.65047 14 17 27
1.98543 -2.21748 -0.66360 9 13 11
2.02055 -2.22981 -0.65309 29 41 33
2.03211 -2.24038 -0.64838 43 50 42
2.04022 -2.24931 -0.64072 44 47 47
2.03315 -2.26048 -0.64625 29 32 43
-0.15194 -0.59567 -0.55242 252 254 254
-0.15256 -0.58378 -0.55368 254 254 254
-0.15674 -0.59039 -0.55695 254 254 254
-0.14776 -0.58906 -0.54915 254 254 254
-0.14685 -0.60085 -0.54883 243 252 250
-0.14409 -0.60674 -0.53789 229 238 232
-0.13293 -0.61016 -0.55320 209 193 197
-0.12968 -0.61591 -0.54381 171 147 162
-0.12051 -0.62003 -0.55258 121 110 112
-0.11359 -0.62481 -0.55430 108 84 118
-0.11297 -0.63684 -0.55302 95 85 80
1.52796 -1.70618 -1.11852 12 11 16
1.51279 -1.70843 -1.13171 10 11 13
1.53892 -1.71613 -1.11433 27 35 42
1.53545 -1.72085 -1.09269 45 57 63
2.03443 -2.17198 -0.90722 59 70 78
2.01849 -2.17434 -0.92107 70 79 96
2.04301 -2.18138 -0.89923 48 49 60
2.04340 -2.18703 -0.88365 31 21 27
2.05318 -2.19697 -0.87682 13 6 6
2.06909 -2.19461 -0.86300 5 4 6
2.06168 -2.20632 -0.86880 5 4 5
2.05427 -2.21802 -0.87459 9 4 5
1.99711 -2.22809 -0.65910 11 15 20
1.98199 -2.23033 -0.67225 9 13 8
1.99006 -2.23922 -0.66462 9 14 13
2.02333 -2.24571 -0.66709 21 31 27
-0.17135 -0.58672 -0.56651 253 254 254
-0.17197 -0.57485 -0.56777 254 254 254
-0.17615 -0.58145 -0.57104 254 254 254
-0.16718 -0.58012 -0.56324 254 254 254
-0.16239 -0.58540 -0.55872 254 254 254
-0.16630 -0.59191 -0.56285 248 253 250
-0.16133 -0.59713 -0.55889 238 244 234
-0.15604 -0.60225 -0.55598 219 211 211
-0.14765 -0.60645 -0.56288 190 167 201
-0.14534 -0.61248 -0.55041 146 132 149
-0.14472 -0.62439 -0.54915 87 76 78
-0.12867 -0.62112 -0.56325 105 78 91
-0.12258 -0.62613 -0.56252 88 75 66
-0.12196 -0.63816 -0.56124 98 89 79
-0.11699 -0.63128 -0.56018 88 78 80
-0.11636 -0.64332 -0.55890 98 89 83
-0.08146 -0.66204 -0.55118 92 90 74
-0.08209 -0.64990 -0.55247 98 89 80
-0.08636 -0.65665 -0.55581 96 89 83
-0.07719 -0.65529 -0.54784 96 90 78
-0.07229 -0.66068 -0.54321 96 89 78
-0.07615 -0.66735 -0.54776 91 88 68
-0.06697 -0.66599 -0.53979 95 89 83
1.51737 -1.71606 -1.11972 13 13 16
1.50222 -1.71831 -1.13288 10 10 10
1.52441 -1.72458 -1.11080 26 31 37
2.02966 -2.18493 -0.91553 66 76 86
2.01370 -2.18729 -0.92939 74 81 105
2.02223 -2.19667 -0.92134 71 78 93
2.03578 -2.19320 -0.90522 62 74 74
2.04264 -2.20181 -0.89564 54 53 54
2.04744 -2.20945 -0.88416 23 15 8
-0.18608 -0.58312 -0.57558 252 253 252
-0.18669 -0.57126 -0.57684 254 254 254
-0.19086 -0.57785 -0.58010 254 254 254
-0.18191 -0.57652 -0.57232 254 254 254
-0.18085 -0.58823 -0.57255 243 249 243
-0.17603 -0.59349 -0.56813 230 231 228
-0.16977 -0.59829 -0.56846 207 192 208
-0.16915 -0.61017 -0.56720 103 81 100
-0.16267 -0.60285 -0.57144 171 152 163
-0.15011 -0.61258 -0.57174 112 85 128
-0.14949 -0.62455 -0.57048 97 85 82
-0.14359 -0.61742 -0.57254 96 74 91
-0.14297 -0.62941 -0.57127 99 89 79
-0.12625 -0.63267 -0.56757 98 88 77
-0.13535 -0.63402 -0.57547 98 89 80
-0.13049 -0.63937 -0.57088 96 90 82
-0.12563 -0.64471 -0.56629 96 90 79
-0.09726 -0.65839 -0.55860 93 87 78
-0.09789 -0.64627 -0.55989 98 88 86
-0.10215 -0.65301 -0.56322 95 88 80
-0.09300 -0.65165 -0.55527 98 88 82
-0.08992 -0.66325 -0.56124 88 83 77
-0.08239 -0.66811 -0.56433 80 72 65
-0.08176 -0.68030 -0.56304 55 49 57
1.51436 -1.72871 -1.13024 12 11 12
1.49919 -1.73096 -1.14343 10 11 8
1.51262 -1.73397 -1.11051 26 28 34
2.03346 -2.20732 -0.91584 70 79 86
2.01749 -2.20968 -0.92972 75 81 97
2.03839 -2.21502 -0.90441 66 76 68
2.03872 -2.22054 -0.88874 36 31 19
2.04885 -2.23066 -0.88223 16 8 12
2.06476 -2.22831 -0.86840 5 4 8
2.05735 -2.24002 -0.87420 8 3 8
2.04993 -2.25173 -0.87999 13 6 9
-0.20762 -0.57503 -0.58188 253 254 254
-0.20823 -0.56323 -0.58313 254 254 254
-0.21239 -0.56979 -0.58638 254 254 254
-0.20347 -0.56847 -0.57863 254 254 254
-0.19871 -0.57371 -0.57413 254 254 254
-0.20170 -0.57986 -0.58139 248 253 251
-0.19606 -0.58480 -0.57985 236 241 237
-0.19239 -0.59044 -0.57159 219 207 217
-0.19178 -0.60226 -0.57034 113 83 115
-0.18567 -0.59504 -0.57363 188 162 184
-0.18506 -0.60690 -0.57237 95 72 79
-0.17953 -0.59987 -0.57364 147 127 137
-0.17892 -0.61175 -0.57238 86 76 84
-0.17279 -0.60453 -0.57556 117 99 128
-0.17218 -0.61644 -0.57430 93 84 84
-0.16040 -0.61429 -0.57555 87 73 76
-0.16460 -0.62093 -0.57884 98 87 80
-0.15978 -0.62624 -0.57429 98 89 79
-0.11789 -0.64938 -0.57056 94 89 78
-0.10876 -0.64803 -0.56263 97 88 80
-0.11044 -0.65417 -0.57380 90 86 70
-0.10424 -0.65927 -0.57313 83 78 57
-0.09570 -0.66389 -0.57940 70 60 63
-0.08715 -0.66858 -0.58555 60 51 59
-0.08151 -0.67388 -0.58293 58 49 58
-0.08088 -0.68615 -0.58163 51 48 50
1.51143 -1.74143 -1.14089 12 11 13
1.49623 -1.74368 -1.15410 8 11 7
1.50992 -1.74673 -1.12136 25 28 32
2.03092 -2.22138 -0.92630 74 82 93
2.01492 -2.22375 -0.94020 79 86 100
2.03748 -2.22985 -0.91636 65 77 71
2.00924 -2.22176 -0.87388 40 37 29
2.01032 -2.24265 -0.87167 24 17 17
2.02931 -2.23659 -0.87675 21 12 17
-0.22476 -0.57244 -0.58179 251 253 251
-0.22537 -0.56069 -0.58303 254 254 254
-0.22950 -0.56722 -0.58626 254 254 254
-0.22063 -0.56591 -0.57855 254 254 254
-0.21861 -0.57713 -0.58232 242 248 237
-0.21313 -0.58209 -0.58039 228 227 217
-0.21252 -0.59387 -0.57914 124 96 122
-0.20688 -0.58679 -0.58109 206 190 201
