ply
format ascii 1.0
element face 0
property list uchar int vertex_indices
element vertex 1353
property float x
property float y
property float z
property uchar diffuse_red
property uchar diffuse_green
property uchar diffuse_blue
end_header
3.06938 -2.17528 0.65590 205 212 214
3.05060 -2.19784 0.63808 175 184 198
2.71641 -2.18498 0.83990 162 158 125
2.70366 -2.18397 0.82170 183 189 181
2.72415 -2.19686 0.84844 66 48 44
2.72379 -2.20757 0.86031 54 54 76
2.69770 -2.23569 0.90569 64 58 61
2.68917 -2.24594 0.89759 55 58 61
2.69326 -2.25720 0.90751 60 57 67
2.69110 -2.24526 0.91984 65 61 57
2.68840 -2.25540 0.93240 81 83 68
2.91231 -2.37962 0.94075 147 155 153
2.90341 -2.39031 0.93230 151 159 154
2.90768 -2.40204 0.94265 161 160 149
2.93346 -2.39445 0.94490 155 159 151
2.92881 -2.41696 0.94682 126 122 124
2.97289 -2.41277 0.94251 124 118 128
2.96820 -2.43547 0.94443 132 139 128
2.97721 -2.42465 0.95298 112 118 134
2.97253 -2.44735 0.95491 141 149 134
2.99468 -2.43904 0.95875 126 143 150
2.98998 -2.46181 0.96068 147 157 158
3.00756 -2.45261 0.96622 159 178 182
3.01354 -2.46487 0.97618 184 194 194
3.02695 -2.46593 0.99530 185 192 190
3.01789 -2.47681 0.98671 186 191 187
3.00883 -2.48769 0.97811 181 189 188
1.56622 -2.25369 1.56623 64 62 63
1.55739 -2.25299 1.55363 116 112 99
1.55834 -2.25914 1.57663 50 51 41
1.56740 -2.26839 1.58156 39 42 34
1.57364 -2.27702 1.58741 26 26 24
1.57054 -2.29204 1.58869 21 18 12
1.39291 -0.64937 -0.10104 125 112 83
1.38267 -0.64856 -0.11564 212 186 150
1.38931 -0.66680 -0.09956 114 92 75
1.39762 -0.65800 -0.09433 127 120 101
1.40786 -0.65881 -0.07972 182 165 149
1.40094 -0.66712 -0.08629 176 166 142
1.39402 -0.67543 -0.09285 157 147 137
1.18792 -0.77938 0.15818 148 129 95
1.17853 -0.77864 0.14478 191 171 152
1.18157 -0.78700 0.15216 170 152 132
1.19701 -0.78575 0.15991 75 63 60
1.20071 -0.79392 0.16670 52 40 58
1.20366 -0.80234 0.17420 36 30 38
1.40926 -0.95312 0.22086 24 18 27
1.41274 -0.93623 0.21942 17 17 25
1.40604 -0.94428 0.21306 21 16 21
1.41596 -0.94507 0.22722 16 16 26
1.42351 -0.95930 0.21944 30 23 34
1.42994 -0.96742 0.22461 37 30 41
1.42643 -0.98439 0.22605 52 54 62
1.44664 -0.97316 0.22131 44 41 48
1.44312 -0.99022 0.22275 50 51 56
1.46216 -0.97927 0.21907 53 52 52
1.50521 -0.99888 0.21580 50 53 46
1.49832 -1.00715 0.20927 45 42 39
1.50163 -1.01622 0.21727 48 40 45
1.53558 -1.02183 0.22343 60 50 53
1.54688 -1.02933 0.22514 84 75 73
1.55058 -1.03842 0.23293 108 102 105
1.56541 -1.04531 0.23195 122 115 123
1.57364 -1.05356 0.23623 129 121 128
1.57870 -1.06245 0.24303 133 127 129
1.58715 -1.07072 0.24720 137 131 129
1.59487 -1.07915 0.25198 142 133 130
1.59633 -1.08875 0.26162 147 136 130
1.59522 -1.09880 0.27320 154 140 130
1.59103 -1.10935 0.28711 164 145 134
1.58633 -1.11994 0.30135 173 151 136
1.58360 -1.13014 0.31404 179 159 139
1.57805 -1.14077 0.32881 184 167 143
1.58257 -1.14971 0.33598 189 176 147
1.58667 -1.15873 0.34346 196 182 158
1.59079 -1.16775 0.35094 203 186 171
1.59564 -1.17666 0.35788 209 193 182
1.60258 -1.18528 0.36330 216 201 190
1.61227 -1.19352 0.36674 217 210 194
1.62194 -1.20181 0.37024 210 205 190
1.62691 -1.21079 0.37718 188 177 182
1.63491 -1.21937 0.38196 150 136 153
1.64660 -1.22750 0.38413 116 105 118
1.64295 -1.24517 0.38563 93 81 77
1.66176 -1.23523 0.38388 100 79 103
1.65810 -1.25297 0.38539 97 86 77
1.71136 -1.27799 0.40210 96 81 70
1.70083 -1.27716 0.38707 96 90 52
1.72187 -1.28661 0.40548 120 110 124
1.75074 -1.29334 0.39627 195 203 222
1.73977 -1.30429 0.41451 227 234 250
1.75985 -1.31209 0.41151 212 220 243
1.75610 -1.33023 0.41305 174 185 221
2.00424 -1.33019 0.29125 159 169 213
1.99278 -1.32929 0.27491 146 157 193
1.99650 -1.33949 0.28391 141 152 190
2.03752 -1.33794 0.28063 160 175 217
2.05157 -1.34741 0.28292 173 194 235
2.10907 -1.35362 0.25674 173 177 236
2.11720 -1.36379 0.26318 158 162 206
2.13108 -1.37358 0.26591 162 159 216
2.13872 -1.39465 0.28451 228 231 235
2.14737 -1.40489 0.29072 238 241 247
2.15879 -1.41500 0.29521 231 231 249
2.15121 -1.42620 0.31176 182 188 234
2.15888 -1.44727 0.33035 177 184 212
2.19546 -1.46712 0.33104 246 245 244
2.20306 -1.47760 0.33811 242 251 252
2.23204 -1.48732 0.33211 219 239 241
2.28059 -1.51846 0.33826 79 92 130
2.29374 -1.52906 0.34229 82 88 109
2.29030 -1.54007 0.35626 48 54 66
2.30591 -1.55068 0.35890 21 25 45
2.30162 -1.57144 0.36066 13 13 15
2.31846 -1.56142 0.36342 15 12 33
2.31416 -1.58223 0.36519 11 8 16
2.33543 -1.57215 0.36540 17 12 25
2.35653 -1.58293 0.36506 13 12 19
2.39620 -1.60479 0.36618 15 6 14
2.41539 -1.61587 0.36727 44 21 29
2.42854 -1.62701 0.37189 100 69 69
2.44424 -1.63823 0.37513 168 145 108
2.45698 -1.64949 0.38011 202 200 128
2.47221 -1.66083 0.38375 193 193 132
2.47894 -1.67210 0.39219 153 131 122
2.47451 -1.69360 0.39402 90 78 70
2.47887 -1.68328 0.40442 106 73 95
2.49422 -1.69475 0.40813 85 63 70
2.48978 -1.71628 0.40996 98 86 69
2.51480 -1.70641 0.40906 93 80 74
2.51033 -1.72803 0.41090 97 84 70
2.62533 -1.76643 0.41121 88 74 61
2.61233 -1.76540 0.39265 97 85 70
2.61655 -1.77699 0.40287 96 87 71
2.64305 -1.77857 0.41430 77 58 66
2.63846 -1.80078 0.41618 97 89 76
2.65820 -1.79067 0.41882 86 73 63
2.65360 -1.81295 0.42071 100 86 81
2.67427 -1.80288 0.42293 97 87 76
2.66966 -1.82522 0.42482 98 87 74
2.98873 -1.91597 0.36611 138 101 117
3.03649 -1.93161 0.35581 128 100 98
3.09461 -1.94828 0.34070 106 75 58
3.07644 -1.95928 0.36310 86 46 60
3.07142 -1.98359 0.36517 82 29 36
3.10406 -1.97386 0.36318 82 35 51
3.09902 -1.99830 0.36526 81 23 23
3.12534 -1.98804 0.36646 84 31 44
3.12027 -2.01257 0.36854 76 23 25
3.15745 -2.00326 0.36465 78 29 42
3.15236 -2.02793 0.36675 66 32 23
3.19106 -2.01876 0.36231 62 31 38
3.18593 -2.04359 0.36441 48 33 21
3.23038 -2.03495 0.35744 43 25 32
3.22522 -2.05997 0.35956 32 27 19
3.39323 -2.11519 0.35165 32 36 32
3.37808 -2.11399 0.33004 29 29 25
3.46732 -2.13622 0.33214 91 94 70
3.45785 -2.14830 0.35074 159 152 106
3.45846 -2.16145 0.36474 125 108 82
3.50024 -2.17940 0.36038 47 45 54
3.50524 -2.19314 0.37250 37 48 51
3.49738 -2.20531 0.39028 65 82 83
3.49197 -2.23151 0.39250 127 143 151
3.04971 -2.17412 0.61272 185 201 203
3.05575 -2.18672 0.62300 188 193 198
2.70330 -2.19468 0.83359 163 156 128
2.69056 -2.19367 0.81541 226 229 220
2.69469 -2.20502 0.82542 212 207 178
2.73297 -2.22058 0.84484 47 33 51
2.72586 -2.23027 0.85948 48 49 56
2.72137 -2.25202 0.86133 47 53 59
2.71625 -2.23952 0.87507 53 56 65
2.71178 -2.26119 0.87691 50 55 62
2.68861 -2.26702 0.92090 77 78 76
2.70219 -2.27982 0.92708 100 104 94
2.71482 -2.28082 0.94510 108 115 115
2.70629 -2.29107 0.93700 106 108 102
2.69775 -2.30133 0.92890 99 104 101
3.02931 -2.48069 0.95875 167 180 185
3.01582 -2.47963 0.93951 152 151 151
1.56565 -2.26207 1.55880 62 61 64
1.55680 -2.26136 1.54618 112 107 92
1.57097 -2.27050 1.56495 49 51 48
1.57289 -2.27817 1.57222 38 41 33
1.57896 -2.28680 1.57815 26 25 23
1.57585 -2.30188 1.57943 19 19 13
1.40650 -0.65039 -0.12745 165 141 104
1.39954 -0.65876 -0.13407 197 176 152
1.19801 -0.79096 0.14697 100 96 80
1.18857 -0.79021 0.13350 187 169 149
1.20304 -0.79873 0.15254 60 49 60
1.20378 -0.80790 0.16213 42 36 42
1.20803 -0.81593 0.16844 26 23 23
1.21748 -0.81667 0.18192 25 18 27
1.21110 -0.82434 0.17586 21 19 15
1.20471 -0.83200 0.16981 22 21 21
1.37916 -0.94771 0.21333 26 19 34
1.38263 -0.93093 0.21191 19 19 25
1.37597 -0.93893 0.20559 21 20 27
1.38582 -0.93971 0.21966 20 16 26
1.39707 -0.95289 0.20862 33 23 38
1.40545 -0.96047 0.21206 40 34 43
1.40196 -0.97737 0.21349 54 56 56
1.41630 -0.96750 0.21345 49 47 46
1.41280 -0.98445 0.21489 49 50 56
1.42395 -0.97534 0.21759 52 53 54
1.47959 -1.00147 0.21392 42 45 41
1.52257 -1.02160 0.21102 58 45 46
1.52506 -1.03090 0.21974 75 61 61
1.53998 -1.03767 0.21850 95 81 82
1.53267 -1.04896 0.23507 113 104 102
1.54361 -1.05660 0.23708 128 119 120
1.54893 -1.06537 0.24359 138 129 132
1.55740 -1.07356 0.24764 144 138 137
1.56030 -1.08282 0.25607 151 145 144
1.56508 -1.09173 0.26305 159 151 150
1.56784 -1.10102 0.27159 168 158 152
1.56513 -1.11126 0.28436 176 162 153
1.56255 -1.12144 0.29698 182 164 157
1.56281 -1.13110 0.30738 188 168 159
1.56038 -1.14118 0.31981 193 173 159
1.56100 -1.15073 0.32989 196 180 164
1.55741 -1.16813 0.33137 214 202 191
1.56535 -1.15967 0.33714 203 188 172
1.57225 -1.16822 0.34248 210 195 180
1.57746 -1.17705 0.34912 213 201 190
1.58433 -1.18565 0.35454 214 206 196
1.59124 -1.19426 0.35995 205 199 191
1.59523 -1.20332 0.36753 182 170 177
1.60568 -1.21148 0.37040 145 131 146
1.61936 -1.21925 0.37097 114 100 120
1.61573 -1.23684 0.37246 94 84 80
1.62560 -1.22808 0.37700 98 81 102
1.62196 -1.24568 0.37850 98 88 72
1.64425 -1.23532 0.37411 90 80 77
1.64060 -1.25302 0.37561 99 89 73
1.69251 -1.26834 0.38224 97 89 68
1.70630 -1.28632 0.39390 115 111 77
1.77176 -1.28913 0.35906 155 156 156
1.75642 -1.30065 0.38054 191 203 220
1.74707 -1.31146 0.39776 197 208 233
1.74332 -1.32958 0.39930 159 170 209
1.77772 -1.31832 0.38751 187 197 231
1.77395 -1.33661 0.38906 144 156 191
2.03216 -1.34712 0.27159 135 149 186
2.07215 -1.35462 0.25662 115 133 180
2.08228 -1.36457 0.26163 118 125 189
2.09659 -1.37425 0.26392 141 155 197
2.11821 -1.38351 0.26151 179 198 239
2.12976 -1.39353 0.26577 208 221 247
2.14410 -1.40343 0.26829 216 232 245
2.14219 -1.41434 0.28132 197 213 236
2.14369 -1.42503 0.29213 185 182 226
2.12955 -1.43651 0.31287 170 167 223
2.16859 -1.45606 0.31162 239 245 243
2.18697 -1.46603 0.31187 252 252 252
2.19808 -1.47638 0.31674 247 254 249
2.21713 -1.48648 0.31675 184 163 224
2.24215 -1.50736 0.32507 85 95 144
2.26280 -1.51765 0.32436 84 87 121
2.26889 -1.52841 0.33258 52 57 88
2.27692 -1.53913 0.33965 24 27 61
2.28539 -1.54987 0.34649 16 14 38
2.28111 -1.57058 0.34825 10 8 16
2.29651 -1.56060 0.35177 14 14 22
2.34477 -1.59295 0.35917 16 4 10
2.36378 -1.60387 0.36010 33 8 15
2.39926 -1.61488 0.35157 89 62 54
2.41117 -1.62601 0.35683 166 148 100
2.42376 -1.63719 0.36176 214 210 143
2.43511 -1.64841 0.36745 208 206 151
2.44633 -1.65967 0.37326 164 142 124
2.44304 -1.67076 0.38729 108 81 88
2.45348 -1.68205 0.39358 83 68 65
2.44907 -1.70345 0.39540 99 87 78
2.48325 -1.70496 0.40137 98 86 70
2.47471 -1.71521 0.39326 99 87 75
2.47881 -1.72648 0.40319 97 87 79
2.63919 -1.78938 0.40330 98 88 74
2.62612 -1.78834 0.38466 96 88 67
2.63036 -1.79998 0.39492 97 88 69
2.63460 -1.81161 0.40519 97 87 73
2.92342 -1.88715 0.34550 135 91 99
2.92830 -1.86349 0.34349 114 80 84
2.91891 -1.87477 0.33458 118 85 82
2.93281 -1.87587 0.35441 129 82 90
2.92793 -1.89953 0.35642 136 88 100
2.97625 -1.91497 0.34530 131 101 100
2.98885 -1.92806 0.35231 116 87 92
3.02757 -1.94317 0.34639 84 53 56
3.02259 -1.96731 0.34844 75 25 27
3.03928 -1.95636 0.35403 79 32 49
3.06265 -1.97053 0.35598 80 32 44
3.39600 -2.12890 0.33596 27 30 22
3.38081 -2.12769 0.31428 28 26 31
3.48494 -2.15182 0.30948 71 81 49
3.44012 -2.15989 0.34426 149 144 91
3.48018 -2.17763 0.34045 114 93 67
3.50056 -2.19321 0.34567 40 34 31
3.50275 -2.20664 0.35908 39 46 48
3.50961 -2.22064 0.37041 63 74 76
3.50418 -2.24696 0.37264 121 137 138
3.04559 -2.18612 0.60148 175 187 192
3.05742 -2.19951 0.60927 190 193 198
3.05251 -2.22329 0.61129 213 224 229
2.73465 -2.22174 0.82054 119 73 64
2.72179 -2.22072 0.80220 224 227 210
2.73800 -2.23306 0.83097 45 25 31
2.73723 -2.24374 0.84310 39 46 55
2.73272 -2.26559 0.84496 43 51 55
2.71553 -2.27247 0.88706 56 55 69
2.70280 -2.27146 0.86890 49 52 59
2.70693 -2.28280 0.87890 56 56 67
2.70766 -2.28182 0.90184 73 74 82
2.70217 -2.29151 0.91561 91 97 94
2.87484 -2.38643 0.91932 141 148 140
2.86172 -2.38539 0.90060 136 135 129
2.89888 -2.40181 0.92221 151 159 160
2.90316 -2.41356 0.93257 163 165 166
2.89425 -2.42426 0.92412 162 166 162
3.02141 -2.49188 0.94967 153 157 170
1.56860 -2.27128 1.55018 62 59 59
1.55972 -2.27057 1.53751 109 102 83
1.57147 -2.27918 1.55715 49 51 50
1.57556 -2.28737 1.56373 39 40 33
1.57244 -2.30248 1.56501 25 25 23
1.58048 -2.29576 1.57005 25 24 23
1.57736 -2.31088 1.57133 17 19 19
1.43177 -0.65785 -0.15394 129 114 97
1.42473 -0.66631 -0.16063 171 150 119
1.42811 -0.67560 -0.15244 124 91 81
1.19287 -0.79822 0.13975 143 127 105
1.18342 -0.79747 0.12627 197 176 160
1.18649 -0.80589 0.13369 171 155 129
1.20633 -0.80328 0.13739 71 64 64
1.20980 -0.81160 0.14448 50 42 53
1.21158 -0.82046 0.15315 33 28 34
1.20825 -0.83660 0.15452 25 26 33
1.36058 -0.93954 0.19630 27 24 30
1.36403 -0.92280 0.19488 20 23 22
1.35739 -0.93078 0.18857 24 23 31
1.36722 -0.93156 0.20261 20 21 16
1.37309 -0.94598 0.19602 33 30 43
1.38092 -0.95364 0.19982 42 37 55
1.37744 -0.97047 0.20125 57 59 73
1.39913 -0.96843 0.20536 55 57 60
1.39564 -0.98534 0.20680 44 46 61
1.43250 -0.98956 0.20896 47 46 56
1.42248 -0.98877 0.19466 40 43 56
1.44386 -0.99667 0.21008 41 40 46
1.48980 -1.01577 0.20408 55 43 45
1.50936 -1.02141 0.19881 69 52 60
1.51465 -1.03012 0.20525 85 68 71
1.51934 -1.03897 0.21220 98 86 85
1.50683 -1.05127 0.23300 111 101 98
1.51656 -1.05909 0.23586 124 114 109
1.52784 -1.06665 0.23753 137 127 122
1.53236 -1.07554 0.24463 150 139 138
1.53829 -1.08419 0.25063 160 150 149
1.53743 -1.09409 0.26198 170 160 158
1.53999 -1.10336 0.27062 179 169 165
1.54213 -1.11269 0.27959 186 174 167
1.54332 -1.12218 0.28929 192 176 170
1.54231 -1.13202 0.30067 195 179 175
1.54354 -1.14147 0.31029 198 183 176
1.53996 -1.15884 0.31176 213 203 189
1.54594 -1.15071 0.31900 203 187 178
1.54897 -1.15984 0.32723 208 193 183
1.56136 -1.17713 0.33891 214 206 196
1.56769 -1.18579 0.34469 202 195 189
1.57232 -1.19471 0.35175 179 166 173
1.57461 -1.20398 0.36056 145 129 145
1.59060 -1.21133 0.35924 116 97 117
1.58699 -1.22883 0.36073 94 84 76
1.59879 -1.21983 0.36375 96 78 94
1.59518 -1.23735 0.36524 98 89 76
1.60801 -1.22822 0.36754 90 79 80
1.60439 -1.24578 0.36903 98 90 77
1.67408 -1.26843 0.37288 93 86 77
1.67067 -1.25908 0.36464 96 89 79
1.68768 -1.27662 0.37388 82 76 62
1.69060 -1.28605 0.38250 91 90 70
1.76590 -1.28776 0.34027 146 157 144
1.76489 -1.29783 0.35189 179 191 205
1.76110 -1.31614 0.35344 156 168 203
1.76757 -1.30749 0.36090 181 194 221
2.04081 -1.34457 0.24146 122 135 180
2.03704 -1.33421 0.23231 135 151 185
2.05975 -1.35375 0.24042 103 113 161
2.06730 -1.36388 0.24709 99 111 157
2.07503 -1.37402 0.25367 113 129 166
2.09283 -1.38350 0.25363 125 139 190
2.10169 -1.39365 0.25956 116 114 178
2.11088 -1.40381 0.26530 135 132 166
2.13309 -1.41324 0.26262 151 156 217
2.13511 -1.42391 0.27311 151 151 203
2.14631 -1.43408 0.27770 180 188 220
2.15843 -1.44425 0.28174 230 227 243
2.15172 -1.45535 0.29783 248 248 249
2.17890 -1.47572 0.30421 245 254 254
2.16522 -1.48700 0.32459 198 192 229
2.21122 -1.49615 0.30767 93 114 156
2.23603 -1.50622 0.30416 76 93 127
2.24693 -1.51680 0.30936 60 63 95
2.25655 -1.52745 0.31539 31 31 64
2.25229 -1.54811 0.31714 14 12 29
2.26655 -1.53813 0.32123 19 14 49
2.27221 -1.54893 0.32974 16 15 35
2.27870 -1.55972 0.33776 13 13 25
2.29804 -1.58130 0.35007 11 5 7
2.31352 -1.59210 0.35283 29 6 16
2.36394 -1.60285 0.33507 81 51 54
2.37603 -1.61389 0.34009 160 131 89
2.39158 -1.62500 0.34314 212 209 142
2.40384 -1.63615 0.34818 213 214 162
2.41183 -1.64732 0.35573 172 149 138
2.41620 -1.65847 0.36538 111 85 95
2.42286 -1.66966 0.37373 79 63 74
2.41846 -1.69098 0.37554 97 85 66
2.43216 -1.68090 0.38060 87 72 76
2.42776 -1.70225 0.38241 98 85 68
2.44342 -1.69222 0.38640 96 85 74
2.43901 -1.71361 0.38822 98 85 74
2.89193 -1.88492 0.33474 116 95 86
2.89679 -1.86136 0.33274 96 84 75
2.88744 -1.87259 0.32387 96 85 79
2.87809 -1.88382 0.31499 97 84 77
2.90349 -1.89772 0.34199 129 113 111
2.92375 -1.91117 0.34485 122 90 86
2.97997 -1.93952 0.34298 81 44 43
2.99634 -1.95298 0.34813 74 31 29
3.04449 -1.98139 0.35104 77 24 24
3.03949 -2.00563 0.35310 83 63 55
3.06725 -1.99565 0.35332 82 36 40
3.09066 -2.01007 0.35540 80 45 33
3.11984 -2.02512 0.35480 72 32 32
3.11477 -2.04970 0.35688 57 23 19
3.40068 -2.14290 0.31929 22 24 23
3.38544 -2.14169 0.29755 26 25 24
3.48091 -2.16511 0.29662 60 70 42
3.47547 -2.19146 0.29886 117 114 63
3.46421 -2.17635 0.31872 131 127 67
3.45879 -2.20258 0.32094 82 63 30
3.49377 -2.19303 0.31967 99 77 42
3.49545 -2.20642 0.33335 35 27 25
3.49809 -2.21991 0.34658 36 43 52
3.49265 -2.24625 0.34882 65 70 84
3.51822 -2.23563 0.35201 56 66 77
3.51277 -2.26206 0.35425 134 152 161
2.74559 -2.25685 0.82784 33 44 43
2.74106 -2.27880 0.82970 46 50 61
2.71933 -2.29553 0.88559 71 68 82
2.70658 -2.29452 0.86739 56 55 67
2.70147 -2.30313 0.90437 87 94 91
2.70995 -2.31518 0.91261 93 98 100
2.72265 -2.31619 0.93072 103 101 107
2.71407 -2.32650 0.92258 106 111 100
2.70549 -2.33680 0.91444 110 126 120
2.86669 -2.39721 0.91064 145 144 143
2.86208 -2.41956 0.91253 162 169 163
2.89183 -2.41287 0.91306 153 156 158
3.03170 -2.49563 0.92178 176 180 169
3.03646 -2.47254 0.91982 159 170 155
3.01813 -2.49456 0.90243 150 162 165
3.02253 -2.50664 0.91308 182 190 184
2.99899 -2.50010 0.94583 158 152 151
2.99426 -2.52299 0.94777 146 152 151
1.56828 -2.27979 1.54260 59 56 54
1.55939 -2.27908 1.52991 107 100 77
1.56227 -2.28701 1.53689 57 54 47
1.56516 -2.29493 1.54388 46 49 50
1.57116 -2.28771 1.54958 48 51 51
1.56804 -2.30285 1.55087 35 40 34
1.58270 -2.29767 1.55373 38 40 32
1.57957 -2.31285 1.55502 23 25 24
1.54040 -0.61524 -0.28519 215 195 150
1.53687 -0.60555 -0.29374 230 218 195
1.53305 -0.62407 -0.29217 239 233 198
1.53658 -0.63376 -0.28362 210 181 125
1.20382 -0.80972 0.12763 93 88 76
1.19432 -0.80897 0.11408 185 169 144
1.21368 -0.81604 0.12872 57 50 48
1.21426 -0.82531 0.13855 41 37 39
1.21092 -0.84150 0.13993 34 28 21
1.35752 -0.91779 0.15523 29 23 38
1.36100 -0.90097 0.15380 21 22 31
1.35432 -0.90899 0.14746 25 23 35
1.36420 -0.90977 0.16156 22 21 28
1.36741 -0.91858 0.16933 23 21 34
1.35889 -0.92707 0.16460 35 25 46
1.35977 -0.93647 0.17440 38 30 52
1.35630 -0.95327 0.17582 56 69 75
1.36694 -0.94426 0.17870 45 45 58
1.36347 -0.96109 0.18013 53 63 70
1.37543 -0.95176 0.18191 50 56 61
1.37195 -0.96863 0.18334 52 58 66
1.38040 -0.96016 0.18817 53 62 72
1.37692 -0.97703 0.18961 49 53 68
1.42695 -0.99742 0.20151 45 42 54
1.43758 -1.00471 0.20321 44 38 42
1.45311 -1.01097 0.20089 52 38 48
1.47255 -1.01648 0.19542 66 49 57
1.50270 -1.01984 0.18125 81 67 65
1.51046 -1.02805 0.18566 95 83 75
1.48350 -1.04340 0.21848 110 97 86
1.48046 -1.05372 0.23161 121 108 97
1.48699 -1.06211 0.23695 129 116 106
1.49475 -1.07028 0.24132 138 126 116
1.50300 -1.07838 0.24533 150 139 130
1.50807 -1.08712 0.25192 167 155 149
1.51100 -1.09626 0.26022 180 166 163
1.51549 -1.10512 0.26729 186 174 172
1.51914 -1.11414 0.27502 192 182 175
1.52584 -1.12263 0.28037 198 185 175
1.52817 -1.13188 0.28915 203 188 178
1.52458 -1.14925 0.29063 216 204 186
1.53003 -1.14121 0.29828 208 192 181
1.53348 -1.15027 0.30619 211 197 184
1.53892 -1.16861 0.32310 211 205 188
1.54496 -1.17727 0.32903 201 194 183
1.54998 -1.18610 0.33574 176 164 171
1.54753 -1.19604 0.34811 142 127 138
1.56588 -1.20295 0.34483 115 96 112
1.56229 -1.22038 0.34631 95 83 73
1.57153 -1.21175 0.35114 97 78 90
1.56793 -1.22919 0.35262 98 88 72
1.58050 -1.22010 0.35499 91 78 76
1.57690 -1.23758 0.35648 98 90 77
1.61907 -1.25357 0.36888 95 91 73
1.63216 -1.26162 0.36997 89 89 67
1.64530 -1.26974 0.37109 78 76 61
1.67979 -1.27548 0.35698 61 58 57
1.69575 -1.28348 0.35630 40 42 52
1.69106 -1.29378 0.37038 55 68 88
1.75862 -1.29650 0.33336 122 144 170
1.78196 -1.30410 0.32788 157 175 208
1.83680 -1.31892 0.31165 142 155 193
1.82936 -1.32785 0.30459 123 138 169
2.05064 -1.34190 0.21022 95 99 142
2.05476 -1.32197 0.20853 140 152 188
2.04684 -1.33147 0.20102 127 138 171
2.08969 -1.34957 0.19552 64 74 117
2.10344 -1.35936 0.19812 61 67 110
2.09921 -1.37051 0.21287 76 89 113
2.11015 -1.38057 0.21743 73 86 120
2.12159 -1.39064 0.22171 59 62 125
2.12845 -1.40104 0.22906 83 77 128
2.11176 -1.41286 0.25192 131 146 165
2.12846 -1.42267 0.25280 158 171 217
2.13462 -1.43313 0.26062 198 206 228
2.14779 -1.44324 0.26393 229 244 242
2.15227 -1.45383 0.27290 238 251 253
2.15390 -1.46454 0.28368 219 250 254
2.16014 -1.47505 0.29153 215 246 249
2.18855 -1.48474 0.28534 187 161 221
2.20766 -1.49491 0.28518 96 106 169
2.21588 -1.50551 0.29195 72 77 108
2.23528 -1.51582 0.29177 36 47 59
2.24671 -1.52643 0.29665 19 18 43
2.24244 -1.54710 0.29840 9 11 21
2.25165 -1.53722 0.30557 15 11 33
2.24739 -1.55790 0.30733 11 7 21
2.26504 -1.55878 0.32130 10 9 20
2.26885 -1.56962 0.33095 11 6 9
2.27804 -1.58041 0.33734 27 4 16
2.33079 -1.59093 0.31765 65 44 56
2.33549 -1.60192 0.32694 137 115 105
2.35624 -1.61291 0.32671 208 198 160
2.36965 -1.62399 0.33092 216 218 162
2.38285 -1.63512 0.33532 177 155 141
2.38357 -1.64620 0.34706 113 79 107
2.38996 -1.65733 0.35548 78 55 82
2.38558 -1.67855 0.35729 95 84 81
2.40257 -1.66855 0.36034 85 69 73
2.39818 -1.68983 0.36215 96 85 79
2.41246 -1.67979 0.36681 94 82 68
2.40807 -1.70109 0.36862 97 85 70
2.88170 -1.89609 0.32632 101 90 77
2.86786 -1.89500 0.30658 96 85 69
2.90817 -1.90995 0.32586 89 59 81
2.92314 -1.92310 0.33143 79 42 56
2.91824 -1.94684 0.33344 78 28 40
2.93712 -1.93624 0.33756 80 59 39
2.96191 -1.95027 0.33829 81 37 32
2.98441 -1.96424 0.34029 70 19 31
2.97945 -1.98824 0.34233 83 64 60
2.99791 -1.97755 0.34691 75 25 30
3.01681 -1.99138 0.35089 80 49 39
3.06484 -2.02023 0.35411 78 51 41
3.05981 -2.04458 0.35618 68 35 24
3.08832 -2.03476 0.35616 69 33 31
3.08328 -2.05922 0.35823 59 29 17
3.41358 -2.15793 0.29871 19 22 23
3.39826 -2.15671 0.27685 26 27 21
3.46699 -2.17726 0.28830 54 64 46
3.46155 -2.20360 0.29053 101 99 34
3.49459 -2.22019 0.31907 33 16 20
3.48914 -2.24659 0.32131 102 99 73
3.49180 -2.23300 0.33478 42 36 47
3.48636 -2.25937 0.33702 143 146 140
2.69892 -2.23974 0.81179 146 120 110
2.68612 -2.23873 0.79353 219 225 216
2.73257 -2.25581 0.80950 47 24 15
2.75153 -2.26967 0.81349 40 44 48
2.74698 -2.29170 0.81536 45 51 42
2.70998 -2.31640 0.88938 86 90 84
2.71312 -2.32757 0.89979 88 94 97
2.79330 -2.36336 0.89158 152 168 156
2.80206 -2.35284 0.89989 120 129 108
2.80627 -2.36439 0.91008 128 128 114
2.81185 -2.37756 0.89618 166 172 162
2.82678 -2.39115 0.90226 164 167 164
2.82220 -2.41336 0.90415 162 174 179
2.86284 -2.40882 0.90030 163 169 165
2.85822 -2.43119 0.90220 162 174 177
3.00305 -2.51375 0.93243 172 172 163
2.99831 -2.53671 0.93437 147 149 150
1.21393 -0.81217 0.10586 138 122 93
1.20437 -0.81141 0.09222 193 179 155
1.20747 -0.81993 0.09973 168 148 124
1.21674 -0.82078 0.11364 71 64 36
1.21825 -0.82979 0.12266 50 44 40
1.34496 -0.90806 0.13288 27 28 39
1.34843 -0.89123 0.13145 22 24 31
1.34175 -0.89926 0.12511 27 26 37
1.35164 -0.90004 0.13922 23 23 34
1.35021 -0.91633 0.13883 35 32 49
1.35464 -0.92483 0.14553 45 35 59
1.35116 -0.94169 0.14697 64 71 71
1.35933 -0.93327 0.15201 53 49 65
1.35584 -0.95014 0.15344 59 67 68
1.36276 -0.94204 0.15960 56 65 67
1.39728 -0.99148 0.19331 46 45 54
1.39405 -0.98260 0.18548 48 47 67
1.40487 -0.99936 0.19743 51 50 61
1.41691 -1.00628 0.19784 64 66 71
1.43508 -1.01192 0.19316 73 74 62
1.46432 -1.01526 0.17932 81 69 65
1.47391 -1.03273 0.19280 105 96 85
1.45836 -1.04568 0.21635 120 110 96
1.46013 -1.05498 0.22553 129 117 101
1.46490 -1.06368 0.23224 136 121 108
1.47110 -1.07211 0.23780 146 130 115
1.47335 -1.08131 0.24658 157 142 126
1.47566 -1.09050 0.25530 169 157 150
1.48097 -1.09913 0.26162 183 170 159
1.48663 -1.10771 0.26766 194 179 164
1.49440 -1.11592 0.27204 198 185 175
1.50226 -1.12415 0.27639 202 190 181
1.49870 -1.14144 0.27786 217 205 195
1.51170 -1.13215 0.27953 208 195 182
1.51482 -1.14124 0.28767 213 200 185
1.52457 -1.15887 0.30122 212 206 186
1.52863 -1.16782 0.30864 198 191 182
1.52745 -1.17759 0.32010 173 160 159
1.52298 -1.18783 0.33403 138 124 130
1.54557 -1.20360 0.33785 95 80 85
1.54198 -1.22097 0.33932 96 88 75
1.55622 -1.21165 0.34033 92 79 74
1.55263 -1.22906 0.34181 99 88 72
1.59251 -1.24516 0.35547 96 90 75
1.60121 -1.25368 0.35962 88 86 62
1.61543 -1.26157 0.35979 73 73 49
1.65034 -1.26709 0.34495 54 54 45
1.66591 -1.27503 0.34436 42 40 43
1.66222 -1.29295 0.34588 32 30 44
1.67864 -1.28337 0.34591 36 35 45
1.67493 -1.30134 0.34744 31 31 48
1.69518 -1.29136 0.34480 24 30 48
1.69146 -1.30941 0.34633 34 35 52
1.70549 -1.30008 0.34822 31 47 69
1.81525 -1.29877 0.28105 79 103 131
1.81138 -1.31750 0.28264 79 95 115
1.79775 -1.31064 0.30458 119 142 186
1.80121 -1.32038 0.31323 129 147 183
1.96079 -1.32635 0.22423 109 120 156
1.97225 -1.32726 0.24059 133 146 178
2.06221 -1.33906 0.17748 75 77 123
2.10368 -1.34659 0.16093 39 41 75
2.09949 -1.36689 0.16265 40 48 64
2.11924 -1.35633 0.16232 38 46 73
2.11504 -1.37669 0.16405 47 49 69
2.12258 -1.36702 0.17209 43 49 73
2.12429 -1.37783 0.18295 50 54 76
2.12935 -1.38840 0.19155 57 60 93
2.12983 -1.39926 0.20321 63 72 100
2.12786 -1.41025 0.21648 88 102 126
2.11587 -1.42177 0.23633 106 125 162
2.11448 -1.43263 0.24911 131 149 200
2.12722 -1.44274 0.25260 179 201 249
2.13861 -1.45297 0.25703 184 177 246
2.13533 -1.46389 0.27101 171 149 223
2.18861 -1.47245 0.24852 106 113 168
2.20167 -1.48284 0.25213 97 100 158
2.20597 -1.49359 0.26139 78 75 147
2.20877 -1.50440 0.27159 49 51 92
2.21678 -1.51504 0.27850 24 27 57
2.23079 -1.52556 0.28169 14 13 28
2.22652 -1.54621 0.28344 6 6 17
2.23939 -1.53626 0.28831 11 12 22
2.25512 -1.56868 0.31454 22 3 12
2.26722 -1.57943 0.31912 59 35 27
2.30074 -1.59007 0.31076 132 95 79
2.31749 -1.60097 0.31272 197 180 151
2.33520 -1.61194 0.31418 217 212 176
2.33779 -1.62296 0.32476 185 158 139
2.33344 -1.64403 0.32655 73 60 60
2.33861 -1.63397 0.33638 114 86 86
2.33426 -1.65502 0.33816 77 67 62
2.35509 -1.64509 0.33873 69 47 72
2.36602 -1.65621 0.34443 74 56 74
2.37922 -1.66741 0.34884 88 76 74
2.86723 -1.90697 0.32012 91 78 62
2.85341 -1.90587 0.30040 96 85 66
2.90089 -1.92139 0.31584 76 31 59
2.91288 -1.93436 0.32291 75 32 43
2.94706 -1.96123 0.33201 79 23 30
2.93758 -1.97262 0.32302 86 74 57
2.96896 -1.97518 0.33425 77 39 54
2.99971 -2.00221 0.34556 79 60 39
2.99474 -2.02630 0.34761 64 29 28
3.02848 -2.01705 0.34466 72 36 46
3.02348 -2.04128 0.34672 65 35 27
3.04598 -2.03096 0.34948 68 33 37
3.04097 -2.05526 0.35154 69 34 22
3.39182 -2.16901 0.29424 21 25 20
3.37654 -2.16780 0.27245 22 22 22
3.43879 -2.18768 0.28665 51 61 26
3.43337 -2.21392 0.28888 85 71 45
3.47864 -2.23207 0.31162 57 42 32
3.46315 -2.23085 0.28951 77 58 45
3.46817 -2.24465 0.30168 89 82 64
2.66283 -2.24577 0.81524 158 136 125
2.65012 -2.24477 0.79711 213 221 216
2.73475 -2.26803 0.79665 48 26 16
2.75342 -2.28191 0.80074 37 44 45
2.74887 -2.30400 0.80262 46 49 47
2.73138 -2.32135 0.85732 70 64 78
2.71853 -2.32033 0.83899 54 53 69
2.71174 -2.32857 0.87703 83 84 82
2.71711 -2.34017 0.88657 79 89 97
2.73360 -2.35380 0.89169 102 117 122
2.79353 -2.37554 0.87972 152 172 174
2.80405 -2.38830 0.88745 170 184 185
2.81071 -2.40036 0.89673 168 177 180
2.80613 -2.42252 0.89861 166 177 184
1.38021 -0.57849 -0.27104 246 243 231
1.38388 -0.56070 -0.27255 250 246 236
1.36976 -0.57766 -0.28595 254 254 253
1.38727 -0.57001 -0.26434 240 234 225
1.39066 -0.57932 -0.25613 249 251 253
1.37654 -0.59628 -0.26953 244 241 228
1.38367 -0.58777 -0.26289 246 239 230
1.39412 -0.58860 -0.24798 254 254 254
1.37999 -0.60556 -0.26138 239 224 221
1.22496 -0.82395 0.09357 96 91 73
1.21534 -0.82319 0.07985 179 163 142
1.21846 -0.83176 0.08741 141 123 102
1.22158 -0.84032 0.09496 83 70 38
1.22094 -0.83472 0.10788 63 53 45
1.22575 -0.84275 0.11382 45 34 34
1.23534 -0.84351 0.12751 27 28 35
1.22886 -0.85129 0.12136 32 31 41
1.32269 -0.90096 0.11930 32 26 43
1.32615 -0.88419 0.11788 24 26 38
1.31949 -0.89218 0.11156 30 27 34
1.32935 -0.89297 0.12562 24 27 39
1.33053 -0.90850 0.12286 38 30 51
1.33737 -0.91633 0.12736 38 39 56
1.33389 -0.93316 0.12879 64 76 79
1.34227 -0.92469 0.13361 50 57 68
1.33879 -0.94153 0.13504 66 69 79
1.34836 -0.93276 0.13882 63 71 72
1.37220 -0.98461 0.18155 53 57 71
1.36898 -0.97577 0.17375 54 55 59
1.37887 -0.99264 0.18636 58 60 74
1.38829 -1.00008 0.18886 71 74 69
1.41163 -1.00443 0.17952 93 92 84
1.42489 -1.01115 0.17890 111 113 108
1.43450 -1.01873 0.18145 118 119 106
1.44112 -1.02700 0.18655 118 105 99
1.44516 -1.03584 0.19385 123 107 102
1.44233 -1.04610 0.20688 131 116 103
1.44284 -1.05565 0.21709 136 123 107
1.44667 -1.06450 0.22454 143 128 115
1.44805 -1.07385 0.23400 151 136 128
1.44560 -1.08392 0.24659 164 148 135
1.44712 -1.09320 0.25590 177 160 146
1.44983 -1.10224 0.26423 187 170 160
1.45867 -1.11016 0.26761 195 180 163
1.46660 -1.11828 0.27176 201 188 168
1.46306 -1.13543 0.27321 215 205 187
1.47501 -1.12635 0.27556 209 194 180
1.48560 -1.13409 0.27768 215 200 190
1.50388 -1.15017 0.28435 214 207 192
1.50211 -1.16960 0.30684 168 160 153
1.49868 -1.17967 0.32002 135 122 128
1.49513 -1.19688 0.32148 89 79 71
1.51436 -1.18679 0.31837 110 89 102
1.51079 -1.20408 0.31984 93 86 66
1.52301 -1.19504 0.32223 92 76 79
1.51943 -1.21236 0.32370 97 89 63
1.53053 -1.20349 0.32699 90 81 69
1.52695 -1.22083 0.32846 96 88 70
1.56528 -1.23695 0.34283 97 90 72
1.57511 -1.24526 0.34605 89 84 70
1.58889 -1.25311 0.34636 74 68 60
1.61827 -1.25914 0.33522 53 50 38
1.61461 -1.27687 0.33672 17 12 13
1.63026 -1.26740 0.33707 33 31 20
1.62659 -1.28518 0.33858 17 15 21
1.63993 -1.27598 0.34067 23 21 25
1.65522 -1.28397 0.34022 26 23 38
1.65153 -1.30187 0.34174 30 30 43
1.73594 -1.31480 0.32534 54 60 73
1.72519 -1.31395 0.31000 37 32 45
1.72868 -1.32352 0.31845 44 42 43
1.73216 -1.33309 0.32689 54 59 54
1.89184 -1.33056 0.24833 77 77 111
2.05625 -1.33764 0.15659 29 35 72
2.06904 -1.34745 0.15967 24 29 64
2.09849 -1.35605 0.15131 27 35 52
2.12968 -1.38663 0.16614 51 50 75
2.11768 -1.38568 0.14902 50 58 70
2.13440 -1.39727 0.17501 56 56 89
2.13185 -1.40835 0.18877 57 67 97
2.12981 -1.41936 0.20215 67 76 111
2.13023 -1.43020 0.21384 67 75 125
2.13715 -1.44069 0.22122 69 84 144
2.14709 -1.45105 0.22662 80 97 170
2.16220 -1.46122 0.22869 78 78 162
2.17366 -1.47161 0.23320 92 90 153
2.18228 -1.48216 0.23962 93 93 129
2.18529 -1.49294 0.24967 80 75 105
2.19213 -1.50358 0.25727 29 36 54
2.20514 -1.51407 0.26095 17 14 52
2.20089 -1.53467 0.26270 7 8 19
2.21445 -1.52471 0.26704 12 13 28
2.22207 -1.53542 0.27423 7 10 19
2.23690 -1.55691 0.28895 13 4 8
2.24574 -1.56767 0.29547 35 22 15
2.26943 -1.57831 0.29285 98 74 50
2.27932 -1.58917 0.29883 168 157 110
2.29488 -1.60004 0.30139 203 206 155
2.30294 -1.61099 0.30858 184 166 143
2.31047 -1.62196 0.31612 130 100 95
2.30614 -1.64294 0.31790 80 71 65
2.32094 -1.63297 0.32192 81 60 68
2.35411 -1.66625 0.33853 75 62 64
2.34572 -1.67633 0.33057 58 44 36
2.36434 -1.67742 0.34465 81 69 69
2.37733 -1.68867 0.34919 91 82 79
2.38137 -1.69978 0.35899 95 85 80
2.37295 -1.70990 0.35100 94 83 75
2.85529 -1.91799 0.31263 89 77 62
2.84148 -1.91690 0.29292 92 83 66
2.87336 -1.93132 0.31638 69 30 39
2.86849 -1.95491 0.31839 77 51 40
2.88617 -1.94432 0.32295 71 30 26
2.89315 -1.95689 0.33258 78 60 47
2.93723 -1.98468 0.33654 75 62 38
2.98157 -2.00073 0.32739 69 36 47
2.97660 -2.02480 0.32943 61 31 21
3.00577 -2.01514 0.32862 65 23 25
3.00078 -2.03932 0.33068 62 29 25
3.36714 -2.17968 0.29123 22 19 21
3.36179 -2.20561 0.29343 84 92 83
3.42481 -2.19975 0.27844 48 42 27
3.41940 -2.22597 0.28067 127 122 84
2.71690 -2.26621 0.78031 171 155 140
2.70399 -2.26519 0.76189 205 218 213
2.73814 -2.28051 0.78321 55 31 21
2.73358 -2.30258 0.78509 36 41 28
2.75393 -2.29399 0.78852 37 43 51
2.74936 -2.31612 0.79040 45 50 45
2.74336 -2.33544 0.84061 66 63 77
2.73045 -2.33442 0.82219 54 54 64
2.73883 -2.35742 0.84248 75 80 78
2.72110 -2.34218 0.86152 82 84 78
2.72526 -2.35361 0.87160 75 83 90
2.72373 -2.36398 0.88396 95 107 120
2.79058 -2.38718 0.86907 150 169 180
2.79594 -2.39899 0.87884 175 188 193
2.79137 -2.42114 0.88072 178 188 190
2.80180 -2.41090 0.88842 173 183 187
2.79722 -2.43306 0.89031 170 179 187
2.93270 -2.48052 0.88593 163 174 176
2.92836 -2.46861 0.87542 162 175 182
2.91932 -2.47946 0.86684 165 175 181
2.94174 -2.46967 0.89451 162 165 161
2.94607 -2.48158 0.90502 132 130 137
2.93704 -2.49244 0.89644 140 144 156
1.57673 -2.30779 1.51646 56 50 43
1.57989 -2.29251 1.51516 101 93 75
1.57382 -2.29979 1.50941 100 88 59
1.58571 -2.30850 1.52926 45 49 47
1.57965 -2.31578 1.52351 47 49 45
1.57358 -2.32306 1.51775 47 46 47
1.35389 -0.59435 -0.25779 252 252 247
1.34352 -0.59353 -0.27259 254 254 254
1.34688 -0.60277 -0.26444 254 254 253
1.35025 -0.61201 -0.25629 252 252 244
1.41706 -0.70803 -0.17086 175 142 95
1.42073 -0.69024 -0.17237 186 153 77
1.41367 -0.69872 -0.17907 249 232 172
1.42412 -0.69955 -0.16416 144 117 105
1.42751 -0.70886 -0.15595 152 140 140
1.41335 -0.71967 -0.15572 157 142 110
1.42377 -0.72050 -0.14085 180 167 151
1.41673 -0.72896 -0.14753 162 150 143
1.40969 -0.73741 -0.15422 165 154 133
1.22728 -0.84811 0.10007 58 51 53
1.21766 -0.84734 0.08634 100 98 87
1.23566 -0.85511 0.10269 39 34 48
1.24531 -0.85588 0.11645 28 30 39
1.23879 -0.86370 0.11026 31 30 39
1.23227 -0.87153 0.10408 39 28 46
1.29970 -0.89415 0.10662 31 29 43
1.30315 -0.87744 0.10520 24 29 34
1.29651 -0.88541 0.09891 28 32 39
1.30633 -0.88619 0.11292 26 26 34
1.30680 -0.90183 0.11076 42 33 44
1.31473 -0.90931 0.11417 51 39 58
1.31127 -0.92607 0.11559 73 78 94
1.31958 -0.91764 0.12041 61 61 75
1.32669 -0.92540 0.12462 65 75 79
1.34540 -0.94949 0.13979 61 62 72
1.33870 -0.95753 0.13344 54 52 74
1.34861 -0.95831 0.14757 56 57 64
1.35810 -0.97522 0.16044 58 59 73
1.35489 -0.96639 0.15265 52 54 61
1.36480 -0.96717 0.16680 52 58 65
1.36217 -0.98385 0.16749 65 68 78
1.36784 -0.99211 0.17315 73 78 84
1.37873 -0.99920 0.17431 85 89 88
1.37523 -1.01614 0.17575 147 150 142
1.40055 -1.00387 0.16612 103 107 102
1.39985 -1.03290 0.19862 153 157 143
1.41780 -1.03869 0.19403 144 137 121
1.43029 -1.04571 0.19415 138 124 116
1.43102 -1.05520 0.20418 141 128 117
1.42827 -1.06538 0.21711 148 137 123
1.42485 -1.07564 0.23055 160 144 135
1.42042 -1.08606 0.24476 174 153 142
1.42246 -1.09519 0.25360 182 163 148
1.42445 -1.10431 0.26247 190 172 156
1.43169 -1.11247 0.26705 198 181 163
1.42818 -1.12949 0.26849 209 198 176
1.43886 -1.12067 0.27172 205 188 171
1.44784 -1.12857 0.27495 209 198 181
1.47119 -1.14358 0.27724 212 205 186
1.48418 -1.15096 0.27744 196 185 183
1.48073 -1.16107 0.29073 168 156 161
1.47346 -1.17176 0.30698 134 117 133
1.46992 -1.18889 0.30844 91 77 78
1.48812 -1.17894 0.30595 106 87 101
1.48457 -1.19615 0.30741 95 85 74
1.54061 -1.22850 0.32857 92 89 76
1.54881 -1.23696 0.33290 87 82 68
1.56151 -1.24487 0.33387 74 68 61
1.58629 -1.25132 0.32583 53 49 48
1.59877 -1.25942 0.32715 33 28 34
1.59512 -1.27710 0.32865 16 13 17
1.61229 -1.26746 0.32775 22 16 24
1.60863 -1.28520 0.32926 18 13 13
2.09577 -1.36534 0.13996 30 38 44
2.12071 -1.37450 0.13482 41 50 57
2.12606 -1.39608 0.15539 58 64 82
2.13291 -1.40661 0.16282 67 73 91
2.13755 -1.41728 0.17177 79 86 98
2.13166 -1.42852 0.18780 83 85 104
2.13086 -1.43945 0.20036 81 84 110
2.13438 -1.45014 0.21001 109 107 138
2.14029 -1.46071 0.21808 117 124 149
2.15197 -1.47106 0.22237 108 114 141
2.16591 -1.49224 0.23724 72 70 87
2.17766 -1.50271 0.24160 27 32 42
2.17343 -1.52323 0.24335 9 4 20
2.18772 -1.51327 0.24712 12 11 31
2.19516 -1.52394 0.25435 11 10 30
2.21346 -1.54527 0.26672 8 4 8
2.22348 -1.55597 0.27242 25 5 9
2.23953 -1.56663 0.27436 70 54 25
2.24234 -1.57750 0.28465 139 127 82
2.26422 -1.58822 0.28310 179 187 138
2.27515 -1.59910 0.28844 179 175 150
2.27831 -1.61003 0.29858 131 113 122
2.27400 -1.63092 0.30035 81 69 76
2.28550 -1.62096 0.30626 77 66 90
2.28118 -1.64187 0.30803 86 75 73
2.29893 -1.63195 0.31017 69 62 71
2.29460 -1.65291 0.31195 87 77 70
2.32008 -1.65402 0.32162 82 75 62
2.31173 -1.66405 0.31369 83 74 64
2.33158 -1.66513 0.32685 72 60 54
2.32723 -1.68621 0.32864 61 54 46
2.34601 -1.68732 0.34253 69 60 47
2.36389 -1.69868 0.34414 87 79 68
2.35951 -1.71988 0.34594 95 84 72
2.83373 -1.92828 0.31024 92 81 59
2.81995 -1.92719 0.29059 93 82 66
2.82442 -1.93946 0.30141 95 82 57
2.85049 -1.94151 0.31460 83 58 45
2.87904 -1.96776 0.32613 71 60 42
2.87416 -1.99139 0.32814 60 22 31
2.93997 -1.99715 0.32130 57 18 19
2.93504 -2.02106 0.32333 57 21 24
3.38384 -2.19538 0.26863 48 41 46
2.80141 -2.29202 0.73191 179 172 153
2.78820 -2.29097 0.71306 198 213 208
2.74459 -2.29357 0.76840 61 48 25
2.74001 -2.31572 0.77028 42 38 26
2.74916 -2.34854 0.82634 63 66 75
2.73620 -2.34752 0.80785 54 53 67
2.74461 -2.37060 0.82821 75 76 79
2.73041 -2.36658 0.85776 68 76 88
2.72200 -2.37568 0.87295 85 100 110
2.78091 -2.39757 0.86108 147 169 178
2.78262 -2.40867 0.87230 179 194 195
2.91692 -2.48999 0.87994 172 178 178
2.91222 -2.51272 0.88187 192 204 199
1.53234 -2.29857 1.51593 116 102 72
1.53545 -2.28348 1.51465 147 141 113
1.52946 -2.29067 1.50897 172 169 142
1.52347 -2.29786 1.50329 201 197 174
1.52922 -2.31365 1.51721 54 42 32
1.57251 -2.31551 1.51007 57 45 39
1.56935 -2.33080 1.51137 45 46 44
1.35162 -0.72559 -0.13137 254 253 240
1.34829 -0.71647 -0.13941 254 254 253
1.34138 -0.72478 -0.14598 254 254 254
1.34470 -0.73390 -0.13793 254 254 254
1.37439 -0.72828 -0.14249 250 237 188
1.38882 -0.73385 -0.14525 195 178 127
1.23406 -0.85193 0.08127 73 58 56
1.23417 -0.86145 0.09174 51 36 50
1.27047 -0.88920 0.10001 38 32 43
1.27389 -0.87259 0.09860 31 31 33
1.26730 -0.88051 0.09234 33 30 40
1.27706 -0.88128 0.10626 30 32 37
1.28231 -0.89548 0.09963 41 39 42
1.29172 -0.90249 0.10157 51 48 61
1.28827 -0.91919 0.10299 80 85 92
1.29816 -0.91035 0.10629 64 73 81
1.30522 -0.91806 0.11047 77 80 89
1.31847 -0.93381 0.11970 65 72 86
1.31500 -0.95060 0.12113 51 58 74
1.32441 -0.94189 0.12498 57 66 78
1.33136 -0.94974 0.12937 50 59 76
1.34315 -0.96604 0.14012 60 54 77
1.34671 -0.97479 0.14760 66 63 81
1.35192 -0.98314 0.15363 75 76 88
1.35607 -0.99176 0.16060 88 89 93
1.35259 -1.00864 0.16203 140 140 131
1.36514 -0.99925 0.16328 98 103 97
1.40629 -0.99950 0.13809 120 127 117
1.37496 -1.02578 0.18659 160 166 167
1.36759 -1.03693 0.20349 168 174 180
1.36984 -1.04595 0.21209 174 178 178
1.39129 -1.05096 0.20436 161 158 147
1.40935 -1.05679 0.19964 152 138 127
1.40861 -1.06653 0.21088 157 144 129
1.40331 -1.07714 0.22591 167 156 143
1.39842 -1.08761 0.24053 180 161 157
1.40053 -1.09668 0.24928 189 168 159
1.40448 -1.10540 0.25649 195 177 159
1.40098 -1.12233 0.25792 206 196 175
1.41021 -1.11380 0.26224 199 184 165
1.41592 -1.12221 0.26802 205 191 169
1.43431 -1.13789 0.27400 206 200 183
1.44447 -1.14562 0.27627 194 184 177
1.44645 -1.16423 0.29566 129 111 123
1.44293 -1.18128 0.29711 90 77 78
1.46280 -1.17105 0.29310 102 80 100
1.45926 -1.18818 0.29455 94 83 77
1.47325 -1.17889 0.29531 89 71 83
1.46970 -1.19606 0.29677 95 86 75
1.51080 -1.22086 0.31854 91 89 63
1.50750 -1.21180 0.31056 95 89 69
1.51962 -1.22916 0.32228 86 82 57
1.53301 -1.23689 0.32255 70 68 53
1.55288 -1.24384 0.31795 48 47 46
1.54927 -1.26134 0.31944 11 10 18
1.56328 -1.25210 0.32067 30 26 39
1.55965 -1.26965 0.32216 13 13 15
1.57640 -1.26008 0.32138 19 17 28
1.57277 -1.27768 0.32288 15 15 13
1.59120 -1.26792 0.32090 14 13 19
1.58756 -1.28559 0.32240 16 15 13
2.09571 -1.37447 0.12671 26 33 34
2.08373 -1.37352 0.10962 21 24 20
2.08762 -1.38419 0.11903 16 22 25
2.11179 -1.38431 0.12766 35 44 46
2.12958 -1.39413 0.12752 42 55 61
2.13654 -1.40469 0.13491 51 63 78
2.13762 -1.41562 0.14634 66 72 93
2.13985 -1.42647 0.15697 84 92 100
2.12839 -1.43801 0.17684 97 105 117
2.13582 -1.44854 0.18390 120 128 139
2.13753 -1.45935 0.19481 153 164 170
2.14309 -1.46998 0.20315 140 151 168
2.15225 -1.49135 0.22114 44 62 80
2.16209 -1.50187 0.22670 18 19 34
2.16684 -1.51257 0.23561 8 7 18
2.18676 -1.53376 0.24675 16 5 11
2.19692 -1.54440 0.25225 22 4 13
2.20297 -1.55515 0.26041 52 36 35
2.19871 -1.57579 0.26216 164 153 100
2.21697 -1.56581 0.26355 112 89 75
2.22362 -1.57661 0.27139 164 157 112
2.24289 -1.58732 0.27133 176 162 131
2.24606 -1.59821 0.28142 138 109 130
2.24177 -1.61900 0.28319 79 69 66
2.25442 -1.60908 0.28829 88 73 92
2.25012 -1.62990 0.29005 82 74 70
2.26392 -1.61998 0.29448 76 65 84
2.25962 -1.64083 0.29625 86 76 68
2.32145 -1.67515 0.31997 71 66 54
2.31710 -1.69622 0.32176 56 48 52
2.33750 -1.69738 0.33465 71 62 52
2.33315 -1.71850 0.33645 90 83 58
2.34670 -1.70856 0.34134 88 78 64
2.34234 -1.72971 0.34314 95 84 66
2.83412 -1.95215 0.30946 85 77 43
2.82928 -1.97562 0.31146 66 19 20
2.84954 -1.96535 0.31454 72 40 41
2.84468 -1.98889 0.31654 62 30 32
2.86620 -1.97872 0.31904 59 18 40
2.86133 -2.00233 0.32104 62 34 34
2.97998 -2.03755 0.31377 57 24 18
2.97500 -2.06169 0.31582 71 43 53
2.98898 -2.05063 0.32268 61 31 34
3.00318 -2.05175 0.34294 63 26 23
2.99358 -2.06327 0.33384 63 33 38
3.04573 -2.09327 0.33479 61 29 27
3.05077 -2.06886 0.33272 67 30 27
3.04108 -2.08050 0.32352 68 40 41
3.06007 -2.09441 0.35525 44 18 12
3.04069 -2.11768 0.33686 39 10 8
3.06374 -2.10755 0.33945 43 17 14
3.07812 -2.10869 0.35997 30 18 11
3.06840 -2.12036 0.35075 26 11 13
3.12712 -2.13955 0.33567 26 9 14
3.29241 -2.18475 0.28345 111 111 68
2.95749 -2.22595 0.53630 163 186 197
2.94362 -2.22485 0.51651 130 138 129
2.94812 -2.23720 0.52741 138 162 176
2.79869 -2.30378 0.72075 182 183 167
2.78546 -2.30273 0.70188 186 203 202
2.74641 -2.30594 0.75549 66 55 37
2.73662 -2.37985 0.84339 70 72 85
2.72370 -2.37882 0.82496 77 73 70
2.72789 -2.39033 0.83511 72 71 76
2.73603 -2.39044 0.85549 79 90 99
2.76771 -2.40727 0.85452 143 164 175
2.78639 -2.42169 0.85893 180 194 200
2.79547 -2.43428 0.86725 180 189 193
2.82081 -2.45017 0.86916 172 177 187
2.83393 -2.45121 0.88789 163 175 182
2.82507 -2.46186 0.87947 166 172 176
2.81620 -2.47250 0.87106 169 177 180
2.86778 -2.48151 0.87481 174 186 186
2.85883 -2.49226 0.86632 165 178 185
2.90388 -2.49998 0.87292 191 207 204
2.89919 -2.52270 0.87485 180 197 206
1.53685 -2.30831 1.50658 125 108 82
1.52795 -2.30761 1.49389 207 199 181
1.32190 -0.75159 -0.10404 253 252 243
1.31176 -0.75079 -0.11850 254 254 254
1.34899 -0.75290 -0.11953 232 224 195
1.37948 -0.75330 -0.13816 172 140 115
1.38981 -0.75412 -0.12342 166 152 148
1.36138 -0.76930 -0.10909 160 131 127
1.26733 -0.83821 0.02622 106 105 97
1.26703 -0.84802 0.03729 106 97 76
1.24669 -0.86369 0.06741 90 80 78
1.23783 -0.87585 0.08645 55 26 58
1.24752 -0.87662 0.10028 36 30 41
1.24607 -0.88303 0.08925 46 25 53
1.25538 -0.88993 0.09110 47 36 53
1.27428 -0.89421 0.08402 60 55 73
1.27084 -0.91088 0.08544 85 92 91
1.27870 -0.90259 0.09056 78 81 82
1.28563 -0.91030 0.09478 88 87 90
1.29783 -0.92624 0.10484 70 76 89
1.29437 -0.94299 0.10626 58 56 70
1.30326 -0.93442 0.11052 63 68 85
1.30956 -0.94239 0.11542 55 61 75
1.32268 -0.95827 0.12483 49 57 67
1.32944 -0.96619 0.12940 62 61 75
1.33436 -0.97459 0.13565 77 74 91
1.33433 -0.98419 0.14631 86 86 100
1.33086 -1.00102 0.14774 138 141 144
1.33338 -0.99397 0.15776 98 103 114
1.32992 -1.01078 0.15919 150 155 155
1.38980 -0.99044 0.11855 122 119 119
1.36929 -1.01446 0.15804 154 160 160
1.34123 -1.03025 0.19311 167 174 178
1.35127 -1.03754 0.19492 177 182 192
1.35365 -1.04651 0.20340 189 192 202
1.35475 -1.05575 0.21296 198 201 202
1.36409 -1.06328 0.21547 190 186 178
1.38399 -1.06870 0.20904 179 162 146
1.38845 -1.07732 0.21582 181 161 145
1.38250 -1.08799 0.23138 189 170 152
1.38508 -1.09695 0.23971 195 176 161
1.38159 -1.11384 0.24114 207 193 171
1.38747 -1.10595 0.24820 201 182 165
1.39279 -1.11439 0.25424 205 189 167
1.40467 -1.13111 0.26536 202 193 174
1.41176 -1.13929 0.27001 187 177 169
1.42028 -1.14725 0.27352 161 153 151
1.41794 -1.15708 0.28589 129 108 129
1.41444 -1.17404 0.28733 89 78 75
1.43075 -1.16438 0.28597 98 76 93
1.42724 -1.18139 0.28741 94 85 72
1.48308 -1.21305 0.30725 91 88 70
1.47980 -1.20404 0.29931 94 87 73
1.49408 -1.22097 0.30916 83 83 56
1.50312 -1.22922 0.31266 67 68 45
1.52027 -1.23641 0.30991 50 48 35
1.51669 -1.25380 0.31139 14 8 17
1.52641 -1.24514 0.31576 31 26 26
1.52282 -1.26254 0.31724 14 11 15
1.53737 -1.25327 0.31793 17 13 22
1.53377 -1.27072 0.31941 12 13 13
2.11692 -1.39321 0.11071 17 23 27
2.10485 -1.39225 0.09349 11 17 20
2.10876 -1.40300 0.10297 12 17 16
2.11268 -1.41375 0.11245 18 18 20
2.13186 -1.40328 0.11253 22 27 35
2.14900 -1.41329 0.11293 35 38 58
2.15760 -1.42386 0.11927 53 61 77
2.13400 -1.43614 0.14766 74 94 114
2.13040 -1.44726 0.16226 99 126 146
2.12551 -1.45839 0.17767 140 161 178
2.12941 -1.46910 0.18711 148 167 176
2.13290 -1.47982 0.19682 116 125 135
2.13832 -1.49046 0.20525 42 64 58
2.14390 -1.50111 0.21358 10 12 27
2.14977 -1.51177 0.22173 7 3 12
2.15942 -1.52233 0.22742 14 3 7
2.16846 -1.53295 0.23354 30 5 22
2.17685 -1.54360 0.24012 57 41 57
2.21969 -1.55369 0.22451 99 67 59
2.21772 -1.56466 0.23792 139 127 98
2.24020 -1.58627 0.24785 141 111 109
2.22336 -1.59729 0.27061 101 85 82
2.23427 -1.60813 0.27581 81 69 75
2.22999 -1.62890 0.27757 73 67 67
2.28930 -1.66294 0.30221 84 79 64
2.28530 -1.65196 0.29253 90 77 64
2.30112 -1.67404 0.30714 72 73 65
2.31064 -1.68515 0.31351 58 55 56
2.32549 -1.70736 0.32887 73 67 53
2.32114 -1.72845 0.33066 92 82 61
2.82510 -1.95144 0.28723 90 79 60
2.82063 -1.93915 0.27639 93 79 69
2.81130 -1.95035 0.26753 92 79 69
2.83311 -1.96404 0.29620 80 40 43
2.91527 -2.01940 0.30625 61 24 40
2.91034 -2.04329 0.30828 67 50 50
2.94956 -2.03483 0.30192 63 29 41
2.94460 -2.05888 0.30396 67 46 41
2.96536 -2.04855 0.30727 65 38 40
3.00409 -2.07694 0.31455 65 32 41
3.01704 -2.09056 0.32156 57 23 28
3.01202 -2.11489 0.32363 40 8 15
3.03253 -2.10451 0.32736 51 16 17
3.07575 -2.13405 0.33309 37 7 13
3.07493 -2.14624 0.34714 83 55 47
3.05628 -2.15620 0.36986 160 143 102
3.05124 -2.18062 0.37193 207 178 124
3.06175 -2.16908 0.38073 206 190 130
3.05671 -2.19350 0.38281 208 178 122
3.04732 -2.17939 0.40120 207 182 124
3.01784 -2.18761 0.42876 195 169 116
3.01286 -2.21173 0.43081 166 147 106
2.93169 -2.24645 0.54795 159 180 196
2.93616 -2.25874 0.55879 163 174 187
2.81158 -2.31823 0.70274 180 188 173
2.79828 -2.31718 0.68377 168 185 203
2.77000 -2.32213 0.73308 83 67 65
2.76899 -2.33292 0.74569 44 32 26
2.78212 -2.33396 0.76443 48 47 46
2.78206 -2.34619 0.75224 48 49 38
2.79522 -2.34724 0.77102 51 50 57
2.78633 -2.35792 0.76258 52 52 52
2.77744 -2.36860 0.75414 54 52 54
2.73641 -2.40268 0.84349 71 78 91
2.72347 -2.40166 0.82503 70 71 67
2.75330 -2.41671 0.84849 137 159 173
2.78704 -2.43417 0.84675 181 199 204
2.78245 -2.45641 0.84864 187 201 200
2.79991 -2.44755 0.85356 184 195 197
2.82080 -2.46263 0.85723 176 183 189
2.81618 -2.48502 0.85913 171 182 184
2.88669 -2.50907 0.86755 168 184 198
2.87337 -2.50802 0.84855 165 177 180
2.89067 -2.53179 0.89026 196 211 217
2.90398 -2.53284 0.90925 188 185 176
2.88600 -2.55443 0.89219 148 159 184
2.68519 -2.52832 1.01494 229 231 230
2.68962 -2.50687 1.01312 189 186 178
2.67259 -2.52732 0.99697 199 214 242
2.68077 -2.54977 1.01677 239 246 247
2.69056 -2.53984 1.02437 227 230 228
2.68613 -2.56129 1.02620 241 244 245
2.69757 -2.55175 1.03321 225 227 228
2.69313 -2.57322 1.03503 236 237 242
1.54838 -2.31985 1.49470 126 101 79
1.53943 -2.31914 1.48193 209 200 185
1.59739 -2.33930 1.48562 54 39 26
1.60034 -2.34740 1.49277 45 49 43
1.59419 -2.35478 1.48694 46 50 45
1.30474 -0.76318 -0.10028 254 253 253
1.29464 -0.76238 -0.11468 254 254 254
1.29792 -0.77138 -0.10675 254 254 254
1.30856 -0.77200 -0.09289 251 242 226
1.35303 -0.76788 -0.12559 212 187 163
1.34040 -0.78204 -0.10185 206 189 154
1.33784 -0.79295 -0.08810 156 125 97
1.26573 -0.85441 0.02585 129 123 101
1.25217 -0.86807 0.04962 113 106 97
1.24002 -0.88120 0.07191 72 53 64
1.25654 -0.88606 0.06687 71 66 73
1.26281 -0.89390 0.07163 88 95 84
1.26695 -0.90236 0.07841 94 103 92
1.27848 -0.91841 0.08898 77 85 87
1.27503 -0.93511 0.09039 61 56 63
1.28376 -0.92659 0.09474 69 77 78
1.28962 -0.93463 0.09998 59 65 74
1.30222 -0.95056 0.10973 55 54 68
1.30742 -0.95884 0.11564 62 67 86
1.31212 -0.96725 0.12202 78 81 85
1.31193 -0.97686 0.13284 89 93 93
1.30847 -0.99364 0.13426 142 147 140
1.31204 -0.98638 0.14335 103 108 100
1.30859 -1.00313 0.14477 155 156 157
1.34037 -1.01794 0.16054 163 168 166
1.32421 -1.03106 0.18535 174 179 190
1.33021 -1.03920 0.19061 191 195 209
1.33142 -1.04839 0.20006 204 209 216
1.33357 -1.05736 0.20869 220 223 228
1.33012 -1.07409 0.21011 241 247 247
1.33840 -1.06577 0.21499 228 232 230
1.34527 -1.07378 0.21955 223 220 208
1.35913 -1.08041 0.21817 203 190 170
1.36575 -1.08855 0.22303 197 180 166
1.36228 -1.10540 0.22446 208 195 176
1.36989 -1.09719 0.23002 202 183 168
1.37328 -1.10597 0.23764 204 189 170
