ply
format ascii 1.0
element face 0
property list uchar int vertex_indices
element vertex 1319
property float x
property float y
property float z
property uchar diffuse_red
property uchar diffuse_green
property uchar diffuse_blue
end_header
1.68637 0.07615 -0.82446 209 186 147
1.69499 0.06836 -0.81856 165 141 111
1.68052 0.05283 -0.79353 153 117 112
1.66579 0.03734 -0.76844 171 112 129
1.67476 0.02974 -0.76293 170 125 154
1.66003 0.01444 -0.73806 146 118 172
1.67021 0.00725 -0.73355 134 97 176
1.66624 -0.00447 -0.71758 152 143 158
1.64907 -0.02027 -0.69109 182 195 178
1.63990 -0.03345 -0.67116 227 220 214
1.63929 -0.04390 -0.65814 233 212 202
1.62384 -0.05883 -0.63344 224 186 178
1.61375 -0.07201 -0.61311 220 171 149
1.61298 -0.08233 -0.60019 197 152 117
1.61081 -0.10305 -0.57398 170 151 173
1.58378 -0.12081 -0.54096 229 221 231
1.56440 -0.13619 -0.51406 251 253 252
1.57581 -0.13548 -0.49978 254 254 254
1.56875 -0.14475 -0.50543 254 254 254
1.56168 -0.15403 -0.51107 254 254 254
1.63391 -0.22497 -0.43480 251 247 246
1.62679 -0.23432 -0.44048 254 254 253
1.63117 -0.24294 -0.43178 254 254 254
1.64514 -0.26095 -0.39558 252 240 243
1.63367 -0.26167 -0.40993 254 254 253
1.63606 -0.27269 -0.37744 243 218 191
1.66755 -0.27502 -0.38779 111 66 50
1.66480 -0.29302 -0.38478 105 87 71
1.67553 -0.28284 -0.38158 95 83 67
1.67277 -0.30087 -0.37856 108 94 79
1.35498 -0.50758 0.02719 73 66 36
1.35114 -0.50001 0.01956 81 71 56
1.34489 -0.50821 0.01457 85 74 64
1.35523 -0.52396 0.04709 64 52 43
1.14882 -0.63320 0.26700 80 72 54
1.13962 -0.63378 0.25549 85 73 56
1.14312 -0.64068 0.26245 85 72 56
1.15496 -0.63975 0.27241 93 84 68
1.15276 -0.65413 0.27483 114 110 93
1.16734 -0.65286 0.28324 95 95 58
1.16285 -0.66080 0.29481 49 44 27
1.62915 -0.85147 0.33215 9 9 43
1.61873 -0.85212 0.31911 20 24 16
1.95767 -0.97545 0.34582 165 173 185
1.96037 -0.95778 0.34285 252 254 253
1.95337 -0.96697 0.33726 221 240 236
1.96467 -0.96627 0.35140 239 248 248
1.94123 -0.98397 0.36311 84 69 131
1.93127 -0.99239 0.37756 40 23 78
1.94187 -1.00081 0.38339 52 37 49
1.95600 -1.00927 0.38781 70 54 56
1.95327 -1.02602 0.40940 77 41 45
1.97293 -1.03463 0.41167 94 71 82
1.97108 -1.04298 0.42264 108 106 130
1.97639 -1.05143 0.43073 124 139 169
1.99860 -1.06022 0.43216 188 199 217
2.00989 -1.05952 0.44630 252 254 254
2.00290 -1.06870 0.44071 241 250 254
3.87516 -1.43720 0.10580 119 89 112
3.87919 -1.41079 0.10137 176 158 130
3.85827 -1.43825 0.08467 75 59 82
4.06103 -1.46538 0.06229 83 66 86
4.01690 -1.47398 0.09129 67 71 92
4.06939 -1.49113 0.09023 134 150 178
3.96224 -1.49361 0.13818 200 210 225
3.97230 -1.50677 0.15003 222 223 229
3.96822 -1.53350 0.15451 223 224 229
3.05598 -1.89751 1.01123 237 239 240
3.05918 -1.87657 1.00772 238 239 241
3.05088 -1.88745 1.00109 238 239 240
3.06428 -1.88662 1.01785 239 240 242
3.04244 -1.90376 1.02454 230 230 233
3.03591 -1.91138 1.03658 228 229 227
3.03274 -1.93218 1.04006 212 216 234
3.02819 -1.91870 1.04876 229 226 230
3.02502 -1.93944 1.05224 213 222 235
3.01152 -1.94177 1.08391 211 222 243
3.00363 -1.94887 1.09588 196 206 233
3.00275 -1.95744 1.10672 162 162 202
2.99389 -1.96424 1.11874 129 122 165
3.00925 -1.98507 1.13774 92 96 111
3.02493 -1.99731 1.14610 86 87 89
3.02130 -2.01388 1.16786 85 80 80
0.95280 0.30256 -0.81113 164 203 254
0.95523 0.31843 -0.81379 178 213 250
0.94894 0.31018 -0.81881 168 206 253
0.95909 0.31081 -0.80611 174 210 252
0.94651 0.29430 -0.81615 120 142 233
0.95459 0.29382 -0.80120 158 198 254
0.95161 0.28257 -0.78616 150 187 253
0.95646 0.27551 -0.77957 137 170 251
0.98617 0.28146 -0.79949 124 157 247
1.01473 0.27683 -0.80595 88 101 193
1.01799 0.26874 -0.79745 71 75 137
1.03429 0.26729 -0.80259 69 74 104
1.03181 0.25108 -0.79987 56 53 95
1.03711 0.25894 -0.79358 70 75 95
1.03464 0.24274 -0.79086 57 63 94
1.04030 0.25079 -0.78495 64 68 92
1.03783 0.23459 -0.78224 61 75 94
1.06114 0.19318 -0.72330 37 36 64
1.06414 0.17541 -0.70283 53 44 86
1.06316 0.16541 -0.69017 60 65 112
1.10259 0.16431 -0.70558 89 111 173
1.11689 0.16114 -0.70778 99 134 194
1.11439 0.14478 -0.70503 105 150 241
1.11874 0.15234 -0.69779 106 148 213
1.11625 0.13600 -0.69505 108 150 241
1.12657 0.14619 -0.69360 110 151 226
1.12407 0.12983 -0.69086 109 150 240
1.13216 0.13904 -0.68722 107 153 236
1.35346 0.08316 -0.71289 194 219 226
1.35612 0.10054 -0.71580 125 132 136
1.34234 0.08247 -0.72680 77 116 208
1.34658 0.07412 -0.71839 144 176 233
1.37636 0.08192 -0.72110 242 251 246
1.59243 0.04742 -0.77070 254 254 246
1.58960 0.02889 -0.76759 254 254 253
1.61179 0.04355 -0.77419 254 251 231
1.66337 0.05039 -0.80449 245 235 209
1.69018 0.04867 -0.81378 237 217 186
1.69554 0.03977 -0.80516 235 205 178
1.71105 0.03416 -0.80489 207 175 154
1.66543 0.00882 -0.75448 158 115 122
1.67274 0.00066 -0.74760 145 106 138
1.65469 -0.01551 -0.72015 173 162 168
1.65512 -0.02576 -0.70778 204 202 194
1.66615 -0.03272 -0.70395 233 234 227
1.67558 -0.04021 -0.69878 247 245 242
1.65851 -0.05573 -0.67254 252 243 235
1.64358 -0.07046 -0.64817 253 239 223
1.62643 -0.08572 -0.62220 240 223 181
1.61279 -0.09981 -0.59916 208 178 117
1.61611 -0.10889 -0.58945 199 151 118
1.60243 -0.12281 -0.56660 219 180 169
1.57524 -0.14042 -0.53349 246 249 252
1.64918 -0.26767 -0.40918 253 248 247
1.63767 -0.26839 -0.42358 254 254 253
1.63608 -0.28034 -0.38810 235 221 202
1.66740 -0.28279 -0.39841 121 84 103
1.66464 -0.30084 -0.39538 110 92 83
1.35023 -0.51553 0.02125 80 72 51
1.34013 -0.51616 0.00862 88 76 65
1.35037 -0.52372 0.03122 58 40 45
1.34797 -0.53948 0.03386 58 52 46
1.35206 -0.53164 0.04020 63 54 45
1.15482 -0.64649 0.26460 90 79 67
1.14560 -0.64707 0.25306 88 73 59
1.16926 -0.65939 0.27425 102 99 82
1.16502 -0.66730 0.28573 56 48 42
1.16893 -0.67417 0.29248 34 26 26
1.17815 -0.67359 0.30402 27 24 18
1.17244 -0.68109 0.29945 27 23 20
1.16673 -0.68859 0.29489 26 23 22
1.64518 -0.85899 0.31627 8 11 29
1.63468 -0.85964 0.30314 19 23 10
1.59054 -0.87708 0.36163 201 225 237
1.60083 -0.87643 0.37450 250 254 254
1.59446 -0.88479 0.36941 242 247 252
1.58809 -0.89315 0.36433 234 226 237
1.86427 -0.95152 0.33641 249 250 252
1.86691 -0.93421 0.33351 254 254 254
1.86005 -0.94321 0.32804 254 254 254
1.87112 -0.94252 0.34189 254 254 254
1.87534 -0.95083 0.35026 252 254 254
1.87242 -0.95979 0.34307 222 236 244
1.88351 -0.95910 0.35694 249 250 253
1.87160 -0.96814 0.35364 188 190 228
1.87098 -0.97647 0.36409 115 114 168
1.90234 -0.98472 0.36086 45 43 83
1.92412 -0.99309 0.36186 34 14 49
1.92434 -1.00148 0.37203 52 23 47
1.93595 -1.00992 0.37742 82 50 52
1.94165 -1.01835 0.38531 119 89 68
1.94669 -1.02677 0.39348 117 84 59
1.95209 -1.03520 0.40151 112 73 56
1.94941 -1.05275 0.40445 177 154 140
1.95209 -1.04356 0.41173 137 107 93
1.96102 -1.05205 0.41833 140 114 131
1.95834 -1.06960 0.42127 158 126 136
1.96574 -1.06048 0.42665 127 116 152
1.97465 -1.06901 0.43330 143 166 204
4.06834 -1.48119 0.04793 73 57 68
4.02423 -1.48969 0.07708 68 67 74
4.11485 -1.51059 0.06415 111 122 147
3.95396 -1.50772 0.12902 182 195 203
3.94690 -1.51921 0.14609 214 218 224
3.94283 -1.54586 0.15055 220 221 227
3.06384 -1.90265 0.99071 234 236 238
3.06705 -1.88161 0.98718 237 237 241
3.05871 -1.89255 0.98052 237 238 239
3.04768 -1.90839 1.00460 221 223 229
3.04448 -1.92933 1.00811 192 194 207
3.03749 -1.91529 1.01737 204 207 215
3.03126 -1.92294 1.02939 207 207 217
3.01095 -1.94530 1.06538 206 221 237
3.00391 -1.95259 1.07730 181 190 217
2.99858 -1.96022 1.08890 141 140 174
2.99287 -1.96772 1.10051 112 111 145
3.00877 -1.97998 1.10876 96 94 121
3.00563 -2.00053 1.11221 73 70 81
3.01208 -1.98947 1.11896 87 85 108
3.02410 -2.00092 1.12787 76 72 90
3.02573 -2.01002 1.13831 86 82 76
3.02541 -2.01866 1.14903 98 97 101
3.19589 -2.12958 1.21233 99 103 112
0.99022 0.32772 -0.87598 134 168 249
0.99269 0.34391 -0.87869 172 207 252
0.98628 0.33549 -0.88382 153 188 254
0.97986 0.32707 -0.88894 109 137 222
1.01112 0.31912 -0.87444 112 138 230
1.02307 0.31554 -0.87520 105 130 224
1.01036 0.29893 -0.84933 92 110 197
1.00705 0.28735 -0.83370 81 96 180
1.00766 0.27786 -0.82233 70 83 147
1.00520 0.26171 -0.81962 28 33 74
1.02353 0.27625 -0.82718 63 67 96
1.03503 0.27230 -0.82730 56 55 90
1.04037 0.26519 -0.82087 47 46 92
1.04027 0.22608 -0.77284 68 77 98
1.03850 0.21554 -0.75915 65 70 80
1.04698 0.20998 -0.75598 54 59 82
1.05037 0.20196 -0.74760 49 52 94
1.04790 0.18578 -0.74489 80 99 163
1.05694 0.19544 -0.74243 52 55 106
1.05987 0.18720 -0.73358 59 70 115
1.06933 0.18200 -0.73129 75 96 144
1.06507 0.17042 -0.71524 94 117 162
1.07874 0.16713 -0.71709 109 144 195
1.09012 0.16272 -0.71659 115 151 216
1.09436 0.15503 -0.70898 113 150 229
1.10819 0.15164 -0.71077 109 151 237
1.10569 0.13530 -0.70803 101 142 231
1.13757 0.12609 -0.69209 106 145 231
1.12706 0.12544 -0.70524 112 145 226
1.13506 0.10967 -0.68934 102 115 180
1.15325 0.12322 -0.69532 106 140 227
1.36155 0.06984 -0.71958 219 230 243
1.36498 0.06116 -0.71042 249 249 248
1.36923 0.05279 -0.70197 252 248 246
1.36232 0.04372 -0.70749 253 253 252
1.62905 0.03162 -0.78795 254 253 247
1.61706 0.03087 -0.80295 254 254 254
1.64476 0.02630 -0.78818 247 242 233
1.68501 0.01826 -0.79567 211 181 186
1.67664 0.00499 -0.77578 203 166 143
1.67506 -0.00604 -0.76156 206 178 148
1.66658 -0.01920 -0.74177 213 196 171
1.64897 -0.03508 -0.71469 211 203 195
1.64283 -0.04731 -0.69704 206 202 205
1.65598 -0.05363 -0.69495 225 222 226
1.64812 -0.06630 -0.67602 239 248 244
1.63246 -0.09137 -0.63852 249 246 237
1.61265 -0.10725 -0.61050 242 229 206
1.61234 -0.11739 -0.59793 236 218 171
1.61159 -0.13761 -0.57279 236 222 205
1.59093 -0.15328 -0.54467 251 253 254
1.60248 -0.15256 -0.53022 254 254 254
1.59533 -0.16195 -0.53593 254 254 254
1.58818 -0.17133 -0.54164 253 254 254
1.66237 -0.27232 -0.42939 252 250 242
1.65078 -0.27305 -0.44389 254 254 254
1.64104 -0.28689 -0.40233 215 204 181
1.67459 -0.28895 -0.41426 120 89 87
1.67182 -0.30708 -0.41122 114 87 85
1.36891 -0.51956 0.00039 89 76 59
1.35872 -0.52020 -0.01235 92 80 69
1.15452 -0.65329 0.25684 89 77 66
1.14528 -0.65387 0.24528 90 73 66
1.16691 -0.65910 0.25863 114 109 89
1.17000 -0.66611 0.26591 113 103 93
1.17265 -0.67318 0.27343 63 48 50
1.17624 -0.68012 0.28041 32 24 23
1.17403 -0.69462 0.28284 26 26 16
1.65579 -0.86684 0.30287 7 11 25
1.64523 -0.86750 0.28966 20 23 12
1.63462 -0.87570 0.32286 53 77 117
1.63212 -0.89207 0.32560 198 216 227
1.82908 -0.95249 0.33329 247 247 250
1.83171 -0.93531 0.33041 254 254 254
1.82490 -0.94424 0.32497 252 254 254
1.85282 -0.96056 0.33296 206 209 222
1.85470 -0.96887 0.34235 129 124 161
1.86061 -0.98546 0.36015 39 26 83
1.90906 -0.99379 0.34950 56 35 52
1.89870 -1.00213 0.36420 89 70 71
1.92013 -1.01060 0.36535 123 104 87
1.92484 -1.01900 0.37363 151 123 62
1.92092 -1.02731 0.38552 164 136 59
1.92823 -1.03573 0.39270 162 137 78
1.93414 -1.04415 0.40048 167 150 114
1.95424 -1.06118 0.41272 174 129 135
1.96089 -1.07798 0.43046 126 130 159
1.96753 -1.08646 0.43800 132 165 203
2.87937 -1.21621 0.20431 80 66 125
2.89343 -1.21533 0.22189 189 119 210
2.87602 -1.23818 0.20799 151 109 97
2.84097 -1.22436 0.23086 79 50 93
2.85489 -1.22349 0.24826 164 108 130
2.83765 -1.24611 0.23450 144 103 101
4.04352 -1.51908 0.07431 91 94 109
3.95308 -1.52257 0.11756 158 175 175
3.94983 -1.53444 0.13351 207 215 219
3.94575 -1.56115 0.13799 216 217 224
3.05954 -1.90536 0.97221 232 232 236
3.06276 -1.88427 0.96867 238 237 239
3.05440 -1.89524 0.96200 239 240 240
3.05035 -1.91253 0.98497 215 215 225
3.03701 -1.91879 0.99840 200 202 214
3.02440 -1.93406 1.02257 201 204 227
3.01765 -1.94153 1.03464 205 221 241
3.01131 -1.94905 1.04659 198 208 225
2.98130 -1.95137 1.06237 165 158 193
2.98961 -1.96196 1.07178 122 120 155
3.00254 -1.97358 1.08047 101 97 123
2.99947 -1.98167 1.09171 93 93 104
2.99633 -2.00223 1.09516 74 73 82
3.01248 -1.99334 1.10043 82 85 87
3.01762 -2.01200 1.12111 87 81 94
2.99071 -2.01450 1.13577 108 107 99
2.98126 -2.02094 1.14775 118 118 121
2.97815 -2.04131 1.15116 130 131 142
3.15552 -2.13261 1.20967 107 110 117
3.14721 -2.14352 1.20304 120 118 120
0.95437 0.30340 -0.84869 94 116 203
0.94413 0.30276 -0.86149 81 97 154
0.97027 0.30215 -0.85410 81 98 169
0.98507 0.30023 -0.85820 74 92 151
0.99791 0.29718 -0.86007 72 88 138
1.00513 0.29112 -0.85575 60 78 109
1.03419 0.29638 -0.87492 43 53 101
1.03169 0.27999 -0.87217 37 37 79
1.03605 0.28741 -0.86470 33 35 91
1.03354 0.27103 -0.86195 34 38 78
1.03876 0.26901 -0.84326 29 36 70
1.03576 0.25765 -0.82797 40 39 85
1.02572 0.24282 -0.80535 58 68 92
1.02325 0.22661 -0.80263 35 40 71
1.02711 0.23377 -0.79483 58 72 83
1.03230 0.22661 -0.78828 52 60 78
1.02982 0.21041 -0.78557 25 35 63
1.03794 0.21966 -0.78221 41 43 77
1.03547 0.20345 -0.77949 29 32 65
1.04252 0.21219 -0.77501 37 33 72
1.04004 0.19597 -0.77229 31 28 69
1.04760 0.20495 -0.76832 36 31 76
1.04766 0.19531 -0.75650 35 43 95
1.06436 0.18389 -0.74975 106 129 189
1.06534 0.17470 -0.73887 123 148 207
1.07340 0.16880 -0.73514 129 164 224
1.07092 0.15254 -0.73241 129 156 220
1.08034 0.16236 -0.73024 136 173 236
1.07785 0.14608 -0.72752 121 141 213
1.08839 0.15640 -0.72643 127 165 234
1.08590 0.14009 -0.72369 98 125 201
1.09276 0.14875 -0.71893 111 150 236
1.09651 0.14082 -0.71081 106 148 234
1.11157 0.12829 -0.70198 105 142 229
1.25049 0.10922 -0.73921 195 215 246
1.23959 0.10854 -0.75284 131 164 219
1.24374 0.10037 -0.74460 141 160 222
1.28249 0.10239 -0.74478 107 157 250
1.28572 0.08387 -0.72341 110 158 253
1.28795 0.07488 -0.71333 126 166 251
1.29304 0.06701 -0.70587 147 176 236
1.29913 0.05951 -0.69932 120 148 208
1.29651 0.04236 -0.69644 153 160 199
1.29746 0.04906 -0.68572 138 156 213
1.32531 0.04975 -0.69874 205 216 230
1.35250 0.05002 -0.71094 244 248 247
1.61805 0.02069 -0.79086 254 252 244
1.60607 0.01994 -0.80585 254 254 254
1.66780 0.02649 -0.81972 227 214 211
1.66005 0.01336 -0.80019 184 144 190
1.67304 0.00696 -0.79800 187 141 183
1.69421 0.00310 -0.80249 224 202 179
1.64209 -0.03426 -0.73378 234 216 190
1.64365 -0.04415 -0.72229 232 232 217
1.64080 -0.06284 -0.71916 238 230 225
1.64385 -0.05444 -0.70973 227 221 217
1.63726 -0.07700 -0.67910 209 203 186
1.61313 -0.10444 -0.63481 229 222 231
1.61033 -0.12281 -0.63173 199 175 165
1.61301 -0.11458 -0.62229 226 216 219
1.58759 -0.13185 -0.58995 242 245 227
1.61077 -0.13531 -0.59581 233 217 183
1.61342 -0.14458 -0.58558 225 190 166
1.59263 -0.16025 -0.55722 242 244 239
1.66590 -0.27929 -0.44281 253 252 246
1.65427 -0.28002 -0.45735 254 254 254
1.65430 -0.29164 -0.42256 229 215 195
1.67744 -0.29614 -0.42712 130 88 93
1.37967 -0.52503 -0.01556 95 81 57
1.36942 -0.52567 -0.02838 96 83 74
1.37332 -0.53336 -0.02063 93 84 64
1.37722 -0.54105 -0.01288 86 76 51
1.15698 -0.65976 0.24741 89 75 68
1.14771 -0.66034 0.23581 91 77 64
1.16545 -0.66610 0.25152 114 109 92
1.16899 -0.67307 0.25854 118 110 97
1.17847 -0.67934 0.26211 68 52 49
1.18494 -0.68599 0.26746 32 24 14
1.18272 -0.70056 0.26990 28 27 23
1.66043 -0.87501 0.29226 8 9 19
1.64983 -0.87567 0.27901 19 23 11
1.63080 -0.88412 0.31640 75 64 98
1.80285 -0.95335 0.32641 227 244 246
1.83466 -0.96132 0.32231 188 184 212
1.83203 -0.97856 0.32520 36 28 67
1.83099 -0.96964 0.33416 95 95 113
1.84329 -0.98615 0.34909 65 36 68
1.84415 -0.99442 0.35888 98 68 73
1.87207 -1.00277 0.35695 136 123 118
1.88539 -1.01115 0.36144 176 182 178
1.89337 -1.01952 0.36825 193 202 185
1.89072 -1.03692 0.37117 170 181 188
1.89587 -1.02785 0.37741 189 187 148
1.90922 -1.03633 0.38200 175 159 89
1.92003 -1.04480 0.38771 164 140 66
1.92701 -1.05324 0.39503 150 126 102
1.93404 -1.06169 0.40236 130 100 125
1.94423 -1.07023 0.40841 142 104 136
1.94938 -1.07867 0.41654 153 119 150
1.95447 -1.08711 0.42469 122 103 145
1.95761 -1.09549 0.43363 112 111 150
1.96605 -1.10405 0.44047 126 142 189
1.97728 -1.10335 0.45452 246 253 254
1.96438 -1.11226 0.45130 212 234 252
1.97559 -1.11156 0.46533 254 254 254
1.96865 -1.12067 0.45978 250 254 254
1.96171 -1.12979 0.45424 235 249 254
4.00209 -1.53021 0.07533 84 75 84
3.95723 -1.53799 0.10449 142 155 165
3.94761 -1.54920 0.12248 198 209 214
3.08347 -1.90469 0.93713 237 239 238
3.08672 -1.88340 0.93356 236 238 242
3.07829 -1.89447 0.92683 236 238 240
3.09190 -1.89362 0.94386 239 239 238
3.06433 -1.90993 0.95194 229 230 232
3.06109 -1.93110 0.95549 193 193 206
3.04204 -1.91443 0.96721 210 210 222
3.03190 -1.92135 0.98015 196 193 217
3.02869 -1.94232 0.98367 202 212 229
3.02852 -1.92963 0.99181 194 195 211
3.02278 -1.93738 1.00384 201 207 224
3.01917 -1.94554 1.01545 204 217 239
3.01436 -1.95340 1.02723 180 178 216
2.98759 -1.96523 1.05347 115 98 141
2.99048 -1.97466 1.06380 100 96 114
2.99537 -1.98452 1.07380 103 97 104
3.00175 -1.99472 1.08355 96 91 92
3.00939 -2.01396 1.10388 87 86 96
2.98824 -2.01777 1.11781 111 113 119
2.98511 -2.03826 1.12124 123 128 131
2.96819 -2.02175 1.13145 119 124 122
2.96508 -2.04211 1.13487 124 128 135
2.96503 -2.02961 1.14250 123 127 131
3.12697 -2.14717 1.21636 113 107 124
3.11362 -2.14801 1.19966 122 123 127
0.95898 0.30097 -0.86586 77 86 132
0.94870 0.30033 -0.87872 43 51 102
0.98010 0.30245 -0.87703 67 67 108
0.99532 0.30066 -0.88156 48 51 93
0.99284 0.28440 -0.87884 33 41 72
1.00354 0.29509 -0.87834 35 44 86
1.01161 0.28942 -0.87491 26 36 83
1.02562 0.28678 -0.87786 33 36 81
1.03228 0.26051 -0.84843 31 35 69
1.02183 0.25986 -0.86151 47 50 89
1.03360 0.25132 -0.83768 42 36 75
1.03110 0.23500 -0.83494 90 110 132
1.03463 0.24202 -0.82667 46 43 77
1.03410 0.22221 -0.80201 33 36 67
1.03162 0.20596 -0.79929 26 34 53
1.04573 0.18901 -0.76623 24 25 81
1.03535 0.18836 -0.77921 31 26 66
1.05063 0.18167 -0.75934 75 83 138
1.05792 0.17544 -0.75489 118 123 194
1.05945 0.16651 -0.74456 127 145 216
1.06522 0.15955 -0.73853 123 150 218
1.10787 0.14025 -0.73361 87 121 190
1.10536 0.12382 -0.73086 53 67 123
1.12681 0.13894 -0.74038 80 111 179
1.12429 0.12242 -0.73761 47 54 115
1.24767 0.08228 -0.72403 82 127 219
1.26520 0.07941 -0.72826 102 145 235
1.27062 0.07170 -0.72115 140 179 247
1.26977 0.06155 -0.70826 176 201 250
1.27263 0.05286 -0.69880 201 215 240
1.28495 0.04778 -0.69801 183 198 219
1.29543 0.03216 -0.68338 180 194 215
1.33662 0.03764 -0.70838 227 238 244
1.34087 0.02932 -0.70000 250 252 254
1.35197 0.03002 -0.68612 254 253 251
1.34510 0.02099 -0.69160 254 254 254
1.33822 0.01197 -0.69709 251 253 254
1.64889 0.01291 -0.81614 223 205 196
1.66625 -0.00267 -0.80461 208 164 180
1.60824 -0.03148 -0.74341 243 236 219
1.58696 -0.13945 -0.60087 227 242 240
1.57532 -0.14017 -0.61544 173 136 118
1.59815 -0.14631 -0.59737 240 235 220
1.60757 -0.15369 -0.59243 232 198 185
1.61947 -0.16044 -0.58938 227 197 214
1.59692 -0.17647 -0.55964 246 252 254
1.60853 -0.17574 -0.54511 254 254 254
1.60134 -0.18518 -0.55085 252 251 253
1.66042 -0.28836 -0.44980 254 253 251
1.64878 -0.28908 -0.46435 254 254 254
1.65321 -0.29781 -0.45555 254 254 252
1.66489 -0.29707 -0.44103 245 236 222
1.68370 -0.30264 -0.44249 158 129 132
1.69055 -0.31089 -0.43536 120 86 79
1.70225 -0.31016 -0.42072 114 97 90
1.69500 -0.31966 -0.42651 118 101 92
1.68776 -0.32917 -0.43229 120 105 91
1.15709 -0.66657 0.23934 87 74 67
1.14780 -0.66715 0.22771 91 81 71
1.16874 -0.67256 0.24156 111 104 92
1.17225 -0.67956 0.24864 121 113 98
1.17452 -0.68670 0.25644 76 62 57
1.18162 -0.69329 0.26142 36 28 25
1.17939 -0.70787 0.26387 33 27 28
1.67679 -0.88283 0.27590 8 13 16
1.66612 -0.88350 0.26255 17 24 14
1.67425 -0.89952 0.27869 23 39 49
1.78199 -0.96236 0.32738 141 155 176
1.79799 -0.97046 0.33029 58 58 117
1.82549 -0.99509 0.34848 107 103 115
1.83901 -1.00337 0.35270 145 153 155
1.86349 -1.01177 0.35222 153 168 179
1.87551 -1.02016 0.35723 148 162 190
1.88249 -1.02852 0.36446 151 164 190
1.89293 -1.04524 0.38045 182 176 153
1.90975 -1.05382 0.38359 167 131 83
1.91058 -1.06213 0.39346 141 96 63
1.91563 -1.07052 0.40156 116 77 79
1.91971 -1.07888 0.41007 109 71 85
1.92507 -1.08729 0.41806 102 60 92
1.93944 -1.09598 0.42241 96 58 89
1.94039 -1.10426 0.43221 84 64 98
1.94339 -1.11261 0.44117 81 74 134
1.95105 -1.12113 0.44828 153 159 214
1.94838 -1.13862 0.45121 225 243 254
2.85632 -1.20795 0.15456 254 254 254
2.84223 -1.20883 0.13693 254 254 254
2.84760 -1.21940 0.14759 254 254 254
2.85296 -1.22997 0.15825 254 254 254
2.85993 -1.21843 0.16588 254 254 251
2.85656 -1.24044 0.16957 254 254 254
2.87253 -1.22940 0.17382 254 252 236
2.86917 -1.25145 0.17752 254 254 254
2.87056 -1.23956 0.18722 254 246 213
2.87311 -1.24995 0.19891 248 225 205
2.73803 -1.25171 0.26088 190 154 140
3.25179 -1.38276 0.19500 59 20 33
3.29033 -1.39693 0.19541 60 17 34
3.28669 -1.42073 0.19940 93 30 20
3.97461 -1.54259 0.07206 85 77 84
3.94281 -1.55155 0.09719 141 148 166
3.94054 -1.56349 0.11291 194 203 208
3.94706 -1.57634 0.12587 214 217 220
3.96419 -1.57527 0.14730 221 220 225
3.95358 -1.58920 0.13883 218 219 223
3.94297 -1.60312 0.13036 216 216 222
3.09294 -1.91022 0.91565 232 234 238
3.09621 -1.88883 0.91206 235 235 240
3.08773 -1.89996 0.90530 235 235 239
3.06969 -1.91466 0.93141 220 222 228
3.06644 -1.93591 0.93497 190 193 203
3.04387 -1.91844 0.94751 206 206 211
3.02732 -1.93304 0.97284 193 196 225
3.01900 -1.94396 0.96620 203 214 234
3.01626 -1.94861 0.99693 193 208 231
2.97236 -1.94800 1.01561 160 154 191
2.96921 -1.96866 1.01907 96 96 115
2.97278 -1.95691 1.02640 121 104 155
2.97616 -1.96645 1.03667 101 102 130
2.98279 -1.98548 1.05720 111 110 116
2.99060 -1.99601 1.06672 143 146 123
2.99431 -2.00561 1.07692 117 101 105
2.99766 -2.01512 1.08716 87 68 95
2.98791 -2.02157 1.09943 107 111 128
2.98477 -2.04211 1.10287 123 125 133
2.93524 -2.04351 1.14980 127 130 142
2.92231 -2.04432 1.13363 124 129 132
0.98338 0.30911 -0.90513 34 42 90
0.97296 0.30846 -0.91815 35 45 84
0.97693 0.30064 -0.91028 34 40 83
0.98715 0.30119 -0.89704 35 41 82
0.99223 0.29397 -0.89040 33 41 71
1.00514 0.28093 -0.88007 35 33 67
1.00265 0.26462 -0.87734 67 81 124
1.01913 0.27826 -0.88305 44 31 68
1.02560 0.27167 -0.87780 46 36 76
1.02305 0.25062 -0.85064 61 78 117
1.09790 0.27820 -0.91832 82 101 134
1.09534 0.26140 -0.91550 102 121 148
1.03429 0.22677 -0.82621 45 58 90
1.02782 0.21828 -0.83137 51 67 96
1.02792 0.21389 -0.80742 27 36 56
1.02543 0.19763 -0.80470 26 35 55
1.04340 0.18251 -0.77559 19 21 69
1.03300 0.18186 -0.78860 30 29 61
1.03696 0.17406 -0.78073 23 28 61
1.05144 0.17662 -0.77192 53 59 90
1.05416 0.16823 -0.76277 107 113 183
1.05812 0.16042 -0.75489 92 111 172
1.05564 0.14415 -0.75216 68 66 115
1.09985 0.16985 -0.78528 63 69 146
1.10782 0.16371 -0.78126 73 76 150
1.11185 0.15577 -0.77326 89 84 146
1.10529 0.14717 -0.77849 82 91 118
1.13416 0.15597 -0.78351 71 77 122
1.15246 0.15426 -0.78961 57 72 118
1.14990 0.13751 -0.78680 42 42 82
1.19565 0.10404 -0.74692 33 41 88
1.18487 0.10337 -0.76040 42 48 67
1.18898 0.09528 -0.75225 42 46 68
1.19182 0.09269 -0.73118 41 56 107
1.19257 0.08327 -0.71986 56 77 138
1.19403 0.07416 -0.70926 57 61 138
1.18313 0.06011 -0.68701 43 46 125
1.18452 0.05106 -0.67644 38 56 136
1.22535 0.05752 -0.70275 59 82 161
1.23025 0.04973 -0.69532 111 133 190
1.26813 0.05465 -0.71840 170 189 233
1.26560 0.04388 -0.70395 194 211 240
1.27831 0.03894 -0.70354 188 202 223
1.24748 0.01760 -0.66334 150 158 188
1.24637 0.00756 -0.65043 130 140 182
1.32083 0.01551 -0.69366 229 237 249
1.59339 -0.00198 -0.79435 251 246 242
1.63977 0.00255 -0.82075 225 195 196
1.63688 -0.01637 -0.81758 224 186 182
1.62949 -0.01128 -0.79904 212 155 156
1.55357 -0.05591 -0.70983 251 253 248
1.55078 -0.07421 -0.70676 254 254 253
1.56500 -0.06254 -0.70675 253 251 246
1.58377 -0.06698 -0.70969 244 237 232
1.60324 -0.08156 -0.70041 228 219 221
1.59282 -0.10499 -0.66678 207 184 188
1.59001 -0.12337 -0.66369 211 183 177
1.59459 -0.18461 -0.56916 239 234 229
1.59514 -0.19435 -0.55736 251 242 239
1.60676 -0.19363 -0.54283 250 246 249
1.59956 -0.20307 -0.54858 251 246 250
1.59237 -0.21251 -0.55432 253 252 253
1.66357 -0.30523 -0.45102 248 241 226
1.65191 -0.30596 -0.46560 254 254 253
1.70817 -0.30524 -0.47102 186 158 147
1.69652 -0.31756 -0.45057 130 98 88
1.16275 -0.67273 0.22790 85 77 76
1.15341 -0.67332 0.21623 94 84 72
1.16756 -0.67959 0.23422 107 103 85
1.17190 -0.68650 0.24082 126 119 90
1.17554 -0.69350 0.24783 85 72 57
1.17985 -0.70043 0.25446 41 31 30
1.17762 -0.71504 0.25691 34 25 28
1.67462 -0.89137 0.26846 12 20 17
1.66393 -0.89204 0.25508 19 22 13
1.66800 -0.90006 0.26317 21 23 9
1.76011 -0.90536 0.24740 107 134 145
1.75332 -0.91427 0.24198 69 70 95
1.52941 -0.91918 0.36799 158 158 206
1.53956 -0.91855 0.38068 245 249 253
1.60949 -0.92518 0.33947 185 198 233
1.61990 -0.92453 0.35249 249 250 253
1.61345 -0.93299 0.34734 199 222 240
1.78466 -0.94641 0.28711 170 181 227
1.78727 -0.92926 0.28423 240 250 253
1.78048 -0.93818 0.27881 196 223 238
1.77786 -0.95532 0.28168 67 80 134
1.76695 -0.95487 0.30552 162 145 217
1.76435 -0.97190 0.30837 44 52 73
1.75686 -0.96316 0.32029 109 98 156
1.75428 -0.98011 0.32313 37 39 61
1.80801 -0.98754 0.32747 74 74 91
1.81100 -1.00399 0.34646 140 152 167
1.82706 -1.01229 0.34951 127 138 170
1.84706 -1.02069 0.35092 109 117 155
1.86729 -1.02917 0.35232 110 121 155
1.87613 -1.03757 0.35874 134 146 171
1.88240 -1.04594 0.36628 159 169 184
1.87974 -1.06333 0.36919 173 185 188
1.88684 -1.05430 0.37460 180 187 186
1.89051 -1.06263 0.38326 183 170 139
1.90630 -1.07126 0.38684 154 121 81
1.90729 -1.07955 0.39664 119 78 68
1.90463 -1.09698 0.39956 89 26 30
1.92400 -1.08828 0.39994 89 35 51
1.92133 -1.10578 0.40287 81 35 39
1.93064 -1.09675 0.40743 76 30 52
1.92797 -1.11426 0.41036 69 33 44
1.93822 -1.10527 0.41456 72 36 63
1.94320 -1.11371 0.42275 77 36 69
1.95006 -1.12223 0.43020 80 34 73
1.94343 -1.13019 0.44302 121 93 135
1.94076 -1.14768 0.44595 245 254 254
2.87293 -1.26193 0.18878 254 254 250
2.85883 -1.26281 0.17114 254 254 254
2.86420 -1.27339 0.18181 254 254 254
2.86957 -1.28397 0.19248 254 254 253
2.88082 -1.27268 0.19852 254 252 225
2.86558 -1.28187 0.21672 243 232 147
2.85030 -1.30105 0.24729 134 112 115
2.86426 -1.30018 0.26475 189 101 120
2.85561 -1.31153 0.25785 129 121 135
3.29471 -1.41053 0.18320 164 87 52
4.02418 -1.56296 0.04429 91 90 85
4.02001 -1.59027 0.04886 143 153 156
3.97507 -1.57010 0.07514 141 152 158
3.97095 -1.59713 0.07967 191 197 198
3.95583 -1.58025 0.09632 192 201 203
3.95173 -1.60715 0.10083 210 210 218
3.96239 -1.59316 0.10934 212 214 219
3.95828 -1.62007 0.11385 216 216 220
3.10892 -1.90785 0.88123 236 236 238
3.11221 -1.88629 0.87761 235 236 238
3.10367 -1.89750 0.87079 236 237 236
3.11746 -1.89664 0.88805 238 237 240
3.09536 -1.91436 0.89536 229 229 232
3.07569 -1.91954 0.91059 215 217 221
3.02684 -1.93663 0.95363 197 203 217
3.01646 -1.95238 0.97775 189 201 219
2.98686 -1.95487 0.99411 137 140 166
2.96415 -1.95874 1.00908 111 92 130
2.96970 -1.97756 1.02985 104 106 111
2.96950 -1.98628 1.04072 125 117 135
2.97333 -1.99591 1.05090 157 164 161
2.98790 -2.00799 1.05930 177 182 164
2.98875 -2.01693 1.06997 117 101 111
2.99357 -2.02679 1.07999 106 97 107
2.99042 -2.04742 1.08345 118 122 124
2.98223 -2.03283 1.09255 117 124 129
2.97909 -2.05339 1.09599 119 122 131
3.08489 -2.15360 1.19574 121 124 127
3.08806 -2.13282 1.19226 115 118 120
3.07983 -2.14363 1.18569 113 118 117
3.07160 -2.15443 1.17912 115 117 120
3.08172 -2.17437 1.19922 139 143 144
0.97822 0.29142 -0.89944 38 30 74
0.96782 0.29077 -0.91245 41 45 94
0.98578 0.28551 -0.89555 36 32 66
0.99069 0.27818 -0.88870 34 37 78
0.99768 0.27193 -0.88413 47 54 96
1.02056 0.26388 -0.88457 90 107 151
1.02118 0.25430 -0.87298 99 125 173
1.01867 0.23792 -0.87023 91 117 173
1.02689 0.20806 -0.81828 29 34 56
1.01646 0.20741 -0.83132 57 86 125
1.02440 0.19177 -0.81555 28 32 58
1.04129 0.16643 -0.77325 14 27 67
1.03089 0.16578 -0.78626 25 31 57
1.03485 0.15798 -0.77839 25 28 52
1.06147 0.16612 -0.78205 49 66 124
1.07160 0.16109 -0.78042 77 82 118
1.06910 0.14469 -0.77767 75 77 97
1.10147 0.15520 -0.78670 75 84 124
1.09894 0.13866 -0.78393 52 50 86
1.12347 0.14550 -0.78468 60 65 90
1.12093 0.12886 -0.78189 39 45 65
1.13855 0.14235 -0.78764 45 48 72
1.13600 0.12565 -0.78484 39 44 71
1.16073 0.07396 -0.71300 35 40 74
1.15009 0.07330 -0.72631 40 44 67
1.15414 0.06531 -0.71826 41 43 67
1.15819 0.05732 -0.71021 41 43 65
1.16250 0.06505 -0.70275 29 34 77
1.15996 0.04842 -0.69996 44 44 61
1.14912 0.05007 -0.67810 29 32 75
1.14660 0.03355 -0.67534 45 42 61
1.15629 0.04340 -0.67310 35 32 71
1.15377 0.02686 -0.67033 43 41 67
1.16297 0.03651 -0.66760 33 33 78
1.16045 0.01996 -0.66483 41 39 68
1.17202 0.03052 -0.66430 26 32 85
1.17494 0.02213 -0.65523 34 40 107
1.19948 0.02204 -0.66628 94 104 170
1.22042 0.02042 -0.67380 139 161 215
1.21274 0.00793 -0.65482 139 159 208
1.21019 -0.00881 -0.65202 83 121 195
1.21442 -0.00100 -0.64453 120 139 181
1.21723 -0.00950 -0.63527 87 107 166
1.22122 -0.01755 -0.62711 96 124 197
1.27004 -0.00938 -0.65943 177 207 238
1.31417 -0.00321 -0.68715 239 250 253
1.32521 -0.00252 -0.67335 254 254 254
1.31837 -0.01148 -0.67880 253 254 254
1.54443 -0.06601 -0.71403 252 252 254
1.55175 -0.08406 -0.69501 250 252 248
1.56372 -0.11079 -0.66732 150 181 175
1.62756 -0.14318 -0.65622 180 133 96
1.62021 -0.15282 -0.66208 234 214 171
1.62473 -0.16171 -0.65311 206 195 137
1.62162 -0.17505 -0.61404 182 151 150
1.58356 -0.20493 -0.55970 251 248 242
1.58080 -0.22306 -0.55666 254 254 254
1.65513 -0.31497 -0.45591 251 247 236
1.63865 -0.32821 -0.43201 228 203 178
1.68943 -0.32707 -0.45651 160 129 97
1.71161 -0.33219 -0.46025 115 95 60
1.72342 -0.33145 -0.44548 117 105 87
1.71611 -0.34105 -0.45132 108 97 79
1.70879 -0.35066 -0.45716 108 94 72
1.16237 -0.67968 0.22003 91 81 78
1.15302 -0.68026 0.20833 98 85 61
1.16718 -0.68655 0.22636 110 102 90
1.17376 -0.69323 0.23165 130 122 96
1.18181 -0.69976 0.23608 94 81 56
1.18058 -0.70732 0.24600 45 32 24
1.17835 -0.72197 0.24846 35 26 28
1.67040 -0.90812 0.27207 13 19 26
1.65972 -0.90879 0.25870 23 21 15
1.73569 -0.93118 0.27096 99 105 149
1.72998 -0.94767 0.29399 91 101 157
1.72740 -0.96458 0.29682 57 72 78
1.79855 -0.98823 0.31305 70 73 88
1.78757 -0.98892 0.29932 71 72 91
1.77497 -0.99641 0.33391 118 126 139
1.77237 -1.01343 0.33677 150 160 172
1.78329 -1.00460 0.34027 139 144 158
1.79757 -1.01285 0.34400 122 122 136
1.84723 -1.02149 0.33213 97 93 119
1.85329 -1.02983 0.33971 89 87 122
1.85768 -1.03816 0.34802 93 105 138
1.86442 -1.04652 0.35533 118 137 163
1.87374 -1.05495 0.36154 152 168 184
1.88390 -1.07168 0.37764 179 177 165
1.89148 -1.08012 0.38465 150 113 106
1.90703 -1.08881 0.38835 107 41 47
1.90436 -1.10628 0.39127 96 36 41
1.93910 -1.12294 0.41605 67 26 49
1.94073 -1.13125 0.42561 97 51 54
1.95894 -1.14028 0.42852 191 166 140
1.95625 -1.15788 0.43147 254 254 254
2.88248 -1.29509 0.20038 254 253 237
2.86835 -1.29597 0.18270 254 254 254
2.87373 -1.30657 0.19339 254 254 254
2.87906 -1.30504 0.21427 252 235 195
2.96035 -1.32134 0.19749 198 177 178
2.88258 -1.32564 0.23818 151 115 96
2.89665 -1.32476 0.25579 145 121 133
3.29447 -1.43472 0.18605 221 98 79
3.32891 -1.44894 0.18801 188 73 55
3.34428 -1.44798 0.20724 56 40 39
3.33476 -1.46048 0.19964 106 41 21
4.06565 -1.58279 0.01885 92 92 103
4.06144 -1.61037 0.02347 150 149 154
3.11656 -1.91305 0.85961 234 235 236
3.11987 -1.89139 0.85598 235 235 237
3.11129 -1.90266 0.84912 234 234 238
3.10459 -1.91992 0.87356 225 223 227
3.10129 -1.94150 0.87718 195 193 200
3.08926 -1.92602 0.88809 210 210 214
3.06975 -1.93117 0.90334 196 198 204
3.05327 -1.93686 0.91788 195 196 209
3.04025 -1.94319 0.93164 197 208 224
3.02271 -1.94848 0.94617 203 213 236
3.01310 -1.95539 0.95911 185 191 217
2.98878 -1.95903 0.97468 132 127 165
2.95841 -1.96122 0.99120 96 82 108
2.95927 -1.97022 1.00196 99 96 109
2.95961 -1.97909 1.01279 96 105 104
2.96523 -1.98913 1.02268 133 128 139
2.98517 -2.00245 1.03012 177 179 179
3.02944 -2.02145 1.03353 200 210 195
2.98026 -2.01886 1.05268 140 132 152
2.98391 -2.02844 1.06290 99 88 104
2.98049 -2.03636 1.07425 110 116 114
2.97734 -2.05696 1.07771 118 117 124
2.90006 -2.05134 1.12940 129 127 129
2.89515 -2.04168 1.11965 123 124 132
2.88717 -2.05215 1.11328 126 124 134
2.84598 -2.04647 1.14795 106 103 113
0.98740 0.29121 -0.92201 53 64 104
1.00578 0.29089 -0.93009 75 90 125
1.02162 0.24928 -0.88570 96 125 185
1.01911 0.23284 -0.88294 96 132 182
1.02873 0.20360 -0.83224 28 30 60
1.02623 0.18726 -0.82950 28 34 56
1.04146 0.15140 -0.77326 27 35 77
1.03105 0.15074 -0.78629 29 29 58
1.03501 0.14293 -0.77841 33 31 71
1.06351 0.15183 -0.78397 59 68 90
1.15855 0.00973 -0.65125 31 33 76
1.14798 0.00907 -0.66447 42 40 66
1.15200 0.00114 -0.65647 44 42 73
1.16515 0.00279 -0.64567 52 50 100
1.18378 0.00037 -0.65125 79 101 170
1.19475 -0.00503 -0.64961 83 118 197
1.21040 -0.01826 -0.64038 76 120 189
1.21747 -0.02520 -0.63502 52 101 188
1.23168 -0.02958 -0.63612 115 164 224
1.29318 -0.01721 -0.67982 200 233 250
1.33109 -0.02337 -0.68964 232 249 254
1.34219 -0.02268 -0.67576 254 254 254
1.35533 -0.02479 -0.69905 237 251 254
1.36650 -0.02409 -0.68507 254 254 254
1.38417 -0.02477 -0.71236 244 252 254
1.39544 -0.02406 -0.69826 254 254 254
1.41040 -0.02580 -0.72316 250 253 254
1.42176 -0.02509 -0.70895 254 254 254
1.43738 -0.02675 -0.73443 252 254 254
1.44883 -0.02603 -0.72010 254 254 254
1.52797 -0.06822 -0.72465 244 237 227
1.53206 -0.07710 -0.71551 240 247 242
1.53518 -0.08627 -0.70556 241 246 240
1.53239 -0.10452 -0.70250 216 198 185
1.51545 -0.10229 -0.67657 232 228 201
1.51971 -0.11103 -0.66767 213 206 183
1.51117 -0.12352 -0.64823 196 192 185
1.53417 -0.12677 -0.65478 184 195 174
1.50895 -0.16368 -0.59732 253 238 226
1.57613 -0.21442 -0.56525 248 251 251
1.57337 -0.23255 -0.56221 254 254 254
1.63626 -0.31728 -0.46520 249 250 248
1.63904 -0.29911 -0.46824 254 254 254
1.63184 -0.30856 -0.47399 253 254 253
1.62464 -0.31801 -0.47974 251 246 247
1.63839 -0.32650 -0.45473 246 228 234
1.63994 -0.33582 -0.44386 245 234 216
1.69804 -0.33330 -0.47377 196 172 145
1.71077 -0.34046 -0.47074 118 86 71
1.16360 -0.68646 0.21115 95 83 71
1.15422 -0.68705 0.19942 99 87 71
1.15779 -0.69408 0.20651 94 85 78
1.16586 -0.69365 0.21904 111 98 88
1.16363 -0.70830 0.22149 135 128 105
1.17312 -0.70027 0.22392 135 123 97
1.17979 -0.70698 0.22918 98 87 53
1.18153 -0.71423 0.23738 47 35 25
1.17929 -0.72891 0.23984 39 24 18
1.65782 -0.91694 0.26971 18 29 31
1.64716 -0.91761 0.25637 23 19 20
1.73682 -0.92337 0.24129 105 121 109
1.72943 -0.94001 0.26536 122 125 145
1.72684 -0.95699 0.26821 41 46 80
1.72686 -0.94825 0.27678 89 85 127
1.72427 -0.96520 0.27962 44 48 73
1.77129 -0.99711 0.31700 106 118 134
1.76038 -0.99779 0.30335 84 99 124
1.78444 -1.00534 0.32116 135 149 167
1.78966 -1.02172 0.33911 148 151 149
1.81709 -1.03021 0.33701 129 124 126
1.83050 -1.03861 0.34126 104 100 121
1.85071 -1.04717 0.34258 101 104 134
1.85532 -1.05550 0.35081 126 137 162
1.86651 -1.06398 0.35618 159 172 186
1.87182 -1.07235 0.36413 169 174 182
1.87731 -1.08073 0.37201 153 131 144
1.88964 -1.08932 0.37700 121 59 76
1.88698 -1.10676 0.37992 93 20 39
1.90247 -1.09797 0.38183 99 28 38
1.92420 -1.12349 0.40352 79 41 39
1.91993 -1.11508 0.39504 91 41 41
1.93203 -1.13206 0.41055 92 58 68
1.95342 -1.14124 0.41210 151 132 148
1.95223 -1.14945 0.42284 232 250 228
1.94954 -1.16705 0.42579 254 254 254
2.87232 -1.31665 0.20657 254 254 254
2.85822 -1.31754 0.18892 254 254 254
2.86359 -1.32812 0.19959 254 254 254
2.86896 -1.33870 0.21026 254 254 254
2.87139 -1.32674 0.21953 254 251 240
2.82388 -1.33306 0.24926 246 231 185
2.80972 -1.34188 0.26675 174 146 125
3.12614 -1.91869 0.83739 229 230 234
3.12947 -1.89692 0.83374 235 234 238
3.12084 -1.90824 0.82686 234 235 239
3.11706 -1.92618 0.85089 215 216 223
3.11375 -1.94789 0.85453 191 191 202
3.10560 -1.93312 0.86479 203 201 208
3.07247 -1.94465 0.89437 195 197 216
3.06399 -1.95578 0.88759 201 210 233
3.06018 -1.95119 0.90816 205 210 227
3.03893 -1.95572 0.92358 198 210 232
3.01330 -1.95920 0.93971 178 179 211
2.96246 -1.95702 0.96043 131 127 167
2.95639 -1.96453 0.97255 78 64 101
2.95038 -1.97201 0.98462 94 80 94
2.94128 -1.97875 0.99719 105 109 122
2.97284 -1.99470 1.00244 138 148 145
3.00158 -2.01010 1.00833 189 193 198
2.98642 -2.02421 1.03284 177 164 174
2.98554 -2.03277 1.04388 91 75 109
2.98360 -2.04105 1.05506 102 98 117
2.98044 -2.06174 1.05853 117 116 126
2.96327 -2.04490 1.06921 116 115 121
2.96013 -2.06547 1.07266 117 118 128
1.03645 0.31189 -0.98947 98 126 172
1.02574 0.31122 -1.00286 95 125 196
1.02982 0.30319 -0.99476 96 126 197
1.03389 0.29515 -0.98666 97 129 200
1.04369 0.30551 -0.98490 99 129 183
1.04113 0.28875 -0.98209 100 131 207
1.08730 0.23645 -0.91926 59 76 115
1.03081 0.19922 -0.84654 30 32 62
1.02830 0.18282 -0.84379 34 37 63
1.04190 0.13645 -0.77355 46 46 84
1.03147 0.13580 -0.78659 33 31 72
1.03544 0.12798 -0.77870 41 39 83
1.15405 -0.00753 -0.64663 44 41 80
1.14349 -0.00819 -0.65983 49 43 77
1.17614 -0.00867 -0.65552 55 74 142
1.18490 -0.01490 -0.65186 73 119 207
1.19285 -0.02145 -0.64741 84 139 227
1.19772 -0.02916 -0.64008 87 148 224
1.20781 -0.03499 -0.63754 67 124 206
1.21546 -0.04173 -0.63272 75 134 211
1.22693 -0.04715 -0.63132 124 187 235
1.24557 -0.05011 -0.63634 145 185 222
1.31245 -0.04620 -0.67244 158 169 209
1.35925 -0.04002 -0.70198 197 184 221
1.42240 -0.02865 -0.74562 228 207 231
1.44390 -0.03153 -0.75208 239 223 237
1.55746 -0.01469 -0.82606 227 210 240
1.53279 -0.03304 -0.79170 217 196 224
1.53513 -0.04258 -0.78091 221 206 207
1.51338 -0.07998 -0.72418 229 215 179
1.49559 -0.10551 -0.68409 198 187 212
1.49925 -0.12436 -0.66233 224 209 185
1.49497 -0.13553 -0.64641 233 224 221
1.49223 -0.15351 -0.64340 254 254 253
1.48256 -0.14899 -0.62386 249 245 234
1.47983 -0.16686 -0.62087 254 254 254
1.48390 -0.15842 -0.61274 254 253 241
1.48118 -0.17628 -0.60975 254 254 254
1.48867 -0.16688 -0.60444 254 253 247
1.48594 -0.18473 -0.60145 254 254 254
1.50649 -0.18151 -0.59454 254 252 248
1.49939 -0.19083 -0.60020 254 254 254
1.50375 -0.19942 -0.59154 254 254 254
1.50797 -0.19089 -0.58356 254 253 240
1.50524 -0.20878 -0.58056 254 254 254
1.52370 -0.20621 -0.57182 253 251 226
1.55538 -0.22731 -0.56034 247 246 245
1.55262 -0.24535 -0.55731 254 254 254
1.62161 -0.32834 -0.46546 239 220 235
1.61001 -0.32906 -0.47997 251 233 243
1.62408 -0.33746 -0.45526 243 228 239
1.62131 -0.35557 -0.45222 254 254 251
1.62338 -0.34722 -0.44277 251 250 241
1.64357 -0.35264 -0.44545 238 224 188
1.70523 -0.34972 -0.47788 165 137 78
1.16893 -0.70028 0.20903 107 96 89
1.15953 -0.70087 0.19726 99 87 77
1.16669 -0.71499 0.21149 132 125 110
1.18079 -0.71390 0.22045 105 97 70
1.18330 -0.72108 0.22823 54 38 26
1.66223 -0.92538 0.25901 19 31 33
1.65153 -0.92605 0.24562 22 20 18
1.71470 -0.93253 0.24341 91 109 97
1.76939 -1.00600 0.30936 103 120 143
1.77158 -1.01418 0.31853 120 137 167
1.78130 -1.02243 0.32427 144 157 182
1.79713 -1.03079 0.32728 160 168 181
1.81191 -1.03919 0.33083 161 162 169
1.82611 -1.04763 0.33471 153 150 160
1.83133 -1.05594 0.34262 154 153 163
1.85238 -1.06461 0.34360 158 162 171
1.85921 -1.07301 0.35087 150 143 158
1.86198 -1.08131 0.35991 129 91 111
1.88750 -1.09029 0.35918 105 38 59
1.89521 -1.09880 0.36617 93 14 33
1.90278 -1.11556 0.38351 91 25 39
1.90767 -1.12398 0.39171 92 26 42
1.92048 -1.13274 0.39664 107 51 89
1.94214 -1.14195 0.39799 163 137 179
1.93671 -1.14995 0.41049 235 215 236
1.93402 -1.16753 0.41344 254 254 254
1.94625 -1.15865 0.41687 254 254 254
1.94356 -1.17626 0.41982 254 254 254
2.85665 -1.34781 0.22735 254 254 246
2.84260 -1.34869 0.20978 254 254 254
2.84795 -1.35923 0.22041 254 254 254
2.84855 -1.35720 0.24282 252 244 220
2.81325 -1.36413 0.26794 233 223 171
2.81853 -1.37453 0.27843 166 134 67
3.13923 -1.92508 0.81423 227 227 233
3.14257 -1.90317 0.81056 234 234 239
3.13389 -1.91456 0.80363 233 234 238
3.12567 -1.93169 0.82879 211 211 221
3.11245 -1.93830 0.84319 196 196 207
3.09534 -1.95327 0.86983 198 202 215
3.06212 -1.96453 0.89936 193 201 224
3.00793 -1.96181 0.92128 163 165 197
2.95916 -1.96005 0.94186 132 126 160
2.95670 -1.96838 0.95338 81 67 108
2.95838 -1.97761 0.96408 65 58 67
2.93061 -1.98015 0.98021 116 106 123
2.97588 -1.99926 0.98286 158 164 175
2.97270 -2.02009 0.98635 224 224 223
3.00596 -2.01502 0.98845 207 213 207
3.01068 -2.02499 0.99865 221 224 222
3.00773 -2.03315 1.01020 198 197 198
2.99002 -2.03779 1.02424 124 103 130
2.99336 -2.04737 1.03460 93 85 99
2.99019 -2.06816 1.03809 113 118 124
2.78272 -2.06336 1.15287 102 105 98
2.77972 -2.08299 1.15616 116 120 120
1.03580 0.23578 -0.91344 96 114 165
1.03176 0.24374 -0.92147 94 118 167
1.05079 0.23320 -0.91731 104 120 161
1.05489 0.22523 -0.90930 96 117 149
1.05235 0.20856 -0.90651 51 58 85
1.05770 0.21662 -0.89989 58 70 95
1.02886 0.19287 -0.85660 41 40 69
1.02635 0.17644 -0.85384 34 42 66
1.04819 0.12409 -0.77988 70 66 86
1.03773 0.12343 -0.79296 33 31 82
1.04569 0.10774 -0.77714 87 93 105
1.05266 0.11646 -0.77246 75 75 95
1.06312 0.11711 -0.75938 53 46 79
1.05664 0.10861 -0.76455 63 56 84
1.14100 -0.01856 -0.64571 47 40 81
1.16447 -0.01921 -0.65600 96 102 155
1.17241 -0.02573 -0.65162 136 164 226
1.17413 -0.03455 -0.64142 112 166 247
1.18071 -0.04160 -0.63574 94 169 248
1.19297 -0.04662 -0.63526 92 167 237
1.20645 -0.05128 -0.63582 71 141 219
1.21984 -0.05603 -0.63623 83 158 229
1.23391 -0.06062 -0.63716 74 121 193
1.29329 -0.06901 -0.65478 149 106 157
1.29067 -0.08615 -0.65190 188 164 167
1.35828 -0.06677 -0.68831 204 176 190
1.40798 -0.06034 -0.71985 183 145 175
1.43355 -0.06201 -0.72986 164 124 178
1.45393 -0.06549 -0.73516 163 134 179
1.47047 -0.07029 -0.73699 171 161 186
1.48645 -0.07535 -0.73823 185 185 198
1.49359 -0.09330 -0.71920 215 193 150
1.51137 -0.09797 -0.72178 203 160 137
1.48475 -0.11600 -0.68669 201 170 182
1.47836 -0.12784 -0.66888 225 219 217
1.46400 -0.15176 -0.63223 254 253 249
1.51767 -0.21526 -0.57835 254 254 251
1.50619 -0.21597 -0.59271 254 254 254
1.51056 -0.22458 -0.58403 254 252 250
1.52652 -0.22271 -0.57324 247 243 236
1.61108 -0.33848 -0.46872 249 238 243
1.60831 -0.35659 -0.46568 254 254 254
1.61169 -0.34797 -0.45716 251 248 249
1.60893 -0.36606 -0.45413 254 254 254
1.61371 -0.36672 -0.43471 252 248 227
1.63629 -0.37172 -0.43914 227 213 150
1.70798 -0.36713 -0.47879 150 120 76
1.17095 -0.70708 0.19961 103 91 84
1.16151 -0.70767 0.18780 100 87 64
1.17802 -0.72125 0.21395 116 103 81
1.18421 -0.72807 0.21953 63 42 26
1.18785 -0.73515 0.22666 40 26 18
1.19729 -0.73456 0.23847 30 24 16
1.19144 -0.74224 0.23380 31 26 20
1.18559 -0.74991 0.22913 30 28 25
1.63565 -0.93444 0.26361 21 23 26
1.62501 -0.93511 0.25031 22 19 12
1.66416 -0.94204 0.25961 73 82 70
1.67143 -0.95004 0.26615 68 65 73
1.68633 -0.95798 0.26901 44 39 64
1.73836 -0.97391 0.26429 36 31 46
1.74928 -0.97323 0.27794 37 49 65
1.72946 -0.98213 0.27876 17 18 33
1.74033 -0.98145 0.29236 38 45 76
1.76910 -0.99029 0.27020 29 33 63
1.78009 -0.98960 0.28395 56 68 104
1.77834 -1.00679 0.28642 82 94 123
1.78268 -1.01504 0.29467 84 92 122
1.77488 -1.02316 0.30850 102 107 128
1.77460 -1.03133 0.31882 138 143 162
1.78934 -1.03970 0.32230 161 168 187
1.80547 -1.04815 0.32521 162 168 183
1.81794 -1.05658 0.32984 153 157 170
1.81802 -1.06477 0.34003 147 145 156
1.83504 -1.07337 0.34272 137 106 128
1.85561 -1.08214 0.34393 118 53 81
1.87899 -1.09107 0.34402 103 24 43
1.88494 -1.09953 0.35176 96 19 26
1.89150 -1.10801 0.35925 92 21 13
1.89244 -1.11629 0.36914 103 23 36
1.89749 -1.12472 0.37728 119 46 84
1.88642 -1.13247 0.39218 151 109 157
1.89154 -1.14087 0.40025 225 177 216
1.88888 -1.15830 0.40317 254 254 254
1.92916 -1.15083 0.39489 252 251 244
1.92647 -1.16843 0.39784 254 254 254
1.93426 -1.15932 0.40307 254 254 254
1.93157 -1.17693 0.40602 254 254 254
2.83804 -1.36842 0.23656 254 254 253
2.82405 -1.36929 0.21905 254 254 254
2.82937 -1.37979 0.22964 254 254 254
2.83470 -1.39029 0.24023 254 254 254
2.83105 -1.37780 0.25158 253 253 237
2.81456 -1.38624 0.26992 251 236 195
2.82844 -1.38537 0.28729 135 121 119
2.91670 -1.40590 0.24615 199 178 181
3.16883 -1.92537 0.77535 231 231 234
3.17221 -1.90324 0.77164 232 232 233
3.16344 -1.91475 0.76463 232 231 233
3.17761 -1.91386 0.78235 233 233 236
3.15191 -1.93142 0.79090 222 221 227
3.14855 -1.95345 0.79460 192 190 204
3.13720 -1.93784 0.80587 206 204 215
3.12221 -1.94412 0.82080 194 193 207
3.11887 -1.96595 0.82446 200 210 224
3.11032 -1.95096 0.83497 193 194 207
3.10522 -1.95919 0.84765 200 207 222
3.09290 -1.96581 0.86175 201 214 231
3.07221 -1.97055 0.87745 183 190 214
3.01996 -1.96826 0.89930 151 152 178
2.97513 -1.96738 0.91941 124 121 148
2.95274 -1.97131 0.93490 95 89 108
2.95163 -1.97992 0.94618 74 53 73
2.96280 -2.00015 0.96615 179 176 188
2.95962 -2.02098 0.96964 219 222 226
2.98075 -2.01313 0.97386 214 222 221
3.01070 -2.03783 0.99054 210 209 208
3.01438 -2.04757 1.00094 151 140 155
2.99940 -2.05283 1.01459 108 106 110
2.99621 -2.07371 1.01810 120 116 125
2.75505 -2.06029 1.13950 98 92 97
2.75818 -2.06926 1.14921 109 112 110
2.75519 -2.08880 1.15249 119 120 122
1.05469 0.24978 -0.95921 78 85 135
1.05725 0.26656 -0.96202 88 121 178
1.04395 0.24911 -0.97264 51 56 97
1.04804 0.24105 -0.96452 46 53 99
1.05212 0.23299 -0.95639 37 48 92
1.03591 0.23045 -0.92602 94 107 146
1.04509 0.22498 -0.92356 94 99 130
1.03247 0.20889 -0.89739 65 87 117
1.02874 0.10981 -0.77160 78 78 92
1.01834 0.10916 -0.78462 25 25 73
1.02626 0.09354 -0.76888 88 92 105
1.02883 0.09077 -0.74782 77 78 92
1.03278 0.08299 -0.73997 64 56 86
1.11417 -0.02538 -0.64337 51 50 75
1.11667 -0.00902 -0.64611 44 42 72
1.11019 -0.01753 -0.65128 46 44 76
1.12910 -0.02913 -0.64583 62 61 95
1.15753 -0.02797 -0.66090 131 151 196
1.15621 -0.03789 -0.64785 181 213 247
1.15368 -0.05444 -0.64507 119 198 252
1.16404 -0.04445 -0.64339 134 192 252
1.16951 -0.05189 -0.63671 101 185 253
1.17816 -0.05821 -0.63294 102 192 250
1.19839 -0.06048 -0.63980 94 171 241
1.21195 -0.06519 -0.64040 95 164 241
1.22360 -0.07063 -0.63917 92 151 217
1.26294 -0.06666 -0.66299 111 117 152
1.26709 -0.07484 -0.65475 140 117 118
1.39025 -0.06313 -0.72843 186 158 149
1.42210 -0.06273 -0.74419 179 141 129
1.44679 -0.07485 -0.74086 179 154 155
1.46330 -0.07969 -0.74271 187 170 175
1.47518 -0.08606 -0.74043 198 182 190
1.46771 -0.10840 -0.70889 232 215 185
1.46495 -0.12643 -0.70587 235 221 205
1.46056 -0.12051 -0.69031 238 209 176
1.46082 -0.13035 -0.67812 227 204 181
1.45373 -0.14232 -0.65975 222 214 204
1.44615 -0.15434 -0.64107 235 230 226
1.45694 -0.16103 -0.63787 246 250 250
1.45971 -0.17003 -0.62793 250 252 254
1.46405 -0.17859 -0.61931 253 254 254
1.51808 -0.24212 -0.56570 247 238 231
1.51535 -0.26005 -0.56269 254 254 252
1.52407 -0.25032 -0.55830 252 249 245
1.52133 -0.26826 -0.55529 253 254 254
1.59712 -0.34933 -0.46940 254 253 252
1.59437 -0.36739 -0.46638 254 254 254
1.59651 -0.37812 -0.43307 254 254 249
1.58500 -0.37884 -0.44746 254 254 254
1.58938 -0.38748 -0.43876 254 254 254
1.60772 -0.38540 -0.42933 248 244 222
1.65550 -0.38558 -0.45201 204 181 158
1.72754 -0.39120 -0.47950 143 102 52
1.73947 -0.39045 -0.46458 131 115 97
1.72236 -0.40196 -0.46356 127 107 84
1.73426 -0.40121 -0.44868 134 114 100
1.71826 -0.41246 -0.44845 128 112 101
1.73013 -0.41172 -0.43361 131 115 101
1.72278 -0.42136 -0.43947 129 115 101
1.17133 -0.71409 0.19114 100 87 75
1.16187 -0.71468 0.17931 101 88 72
1.17232 -0.72145 0.19988 131 127 109
1.17701 -0.72843 0.20636 126 111 87
1.18812 -0.73480 0.20901 69 45 34
1.19125 -0.74195 0.21646 37 27 25
1.18899 -0.75677 0.21894 31 31 30
1.39177 -0.84860 0.25383 20 13 25
1.39415 -0.83300 0.25122 15 16 13
1.38797 -0.84111 0.24628 15 14 13
1.39795 -0.84049 0.25877 18 14 19
1.40175 -0.84798 0.26632 16 13 25
1.40967 -0.85543 0.25379 36 19 26
1.41970 -0.85480 0.26634 18 16 23
1.41998 -0.86266 0.25790 44 29 24
1.43004 -0.86203 0.27048 17 16 14
1.42744 -0.87005 0.26358 22 18 11
1.43751 -0.86942 0.27617 17 16 13
1.43127 -0.87761 0.27119 18 17 10
1.42504 -0.88579 0.26622 15 15 17
1.61000 -0.94337 0.26785 20 20 24
1.59943 -0.94404 0.25463 22 20 11
1.65057 -0.95084 0.25775 88 94 80
1.66378 -0.95877 0.26134 89 78 80
1.69335 -0.96663 0.25700 55 41 50
1.74057 -0.99097 0.26484 22 16 29
1.77337 -0.99926 0.25949 41 47 67
1.77551 -1.00752 0.26881 68 81 106
1.76083 -1.01564 0.28600 78 88 116
1.76501 -1.02386 0.29429 86 90 118
1.76706 -1.03206 0.30356 108 111 123
1.77343 -1.04031 0.31083 141 149 157
1.78078 -1.04859 0.31768 147 151 174
1.80042 -1.05714 0.31896 134 120 156
1.81320 -1.06561 0.32344 120 91 128
