ply
format ascii 1.0
element face 0
property list uchar int vertex_indices
element vertex 1305
property float x
property float y
property float z
property uchar diffuse_red
property uchar diffuse_green
property uchar diffuse_blue
end_header
0.18120 -0.77148 -0.44598 51 53 53
0.19252 -0.76635 -0.45155 63 65 50
0.19045 -0.77825 -0.45050 52 54 53
0.19691 -0.77264 -0.44886 56 56 62
0.19484 -0.78456 -0.44780 52 52 46
1.49172 -1.69727 -1.10131 18 23 36
1.47979 -1.69674 -1.11782 13 16 18
1.51510 -1.71514 -1.11128 34 43 47
1.51161 -1.73528 -1.10949 45 54 59
1.52431 -1.72746 -1.10698 47 54 59
1.52081 -1.74764 -1.10519 51 54 70
1.52684 -1.73712 -1.09605 52 56 77
1.52725 -1.74591 -1.08304 61 71 86
1.53926 -1.74645 -1.06641 72 80 96
1.53151 -1.75625 -1.07383 70 78 94
1.86724 -2.17906 -0.95830 98 109 131
1.87292 -2.19070 -0.94937 101 115 127
1.87986 -2.20299 -0.94147 85 104 110
1.89810 -2.22106 -0.94282 73 72 61
1.89434 -2.24275 -0.94090 29 36 41
1.93400 -2.24827 -0.95846 33 35 55
1.93021 -2.27018 -0.95652 33 42 45
1.91094 -2.34025 -0.77818 56 62 61
1.89820 -2.33968 -0.79583 45 49 51
1.90272 -2.35065 -0.78606 43 52 53
1.94726 -2.36869 -0.79258 64 78 76
1.96301 -2.38595 -0.79117 75 87 90
1.95529 -2.39025 -0.77203 85 100 101
1.96711 -2.40538 -0.76759 94 106 100
1.96891 -2.41493 -0.75564 96 97 94
1.96517 -2.43654 -0.75373 83 93 97
1.95772 -2.41715 -0.73412 84 75 78
1.95909 -2.42639 -0.72196 70 56 63
1.96386 -2.43755 -0.71230 59 48 51
1.96142 -2.44460 -0.69741 42 39 27
1.96704 -2.45622 -0.68840 37 46 30
1.96490 -2.46339 -0.67380 57 73 57
2.00066 -2.52606 -0.63407 73 73 66
2.00025 -2.54247 -0.60787 55 71 56
1.99766 -2.54922 -0.59320 74 81 69
2.01087 -2.56541 -0.58936 55 58 65
2.06604 -2.62367 -0.58781 76 60 50
2.07770 -2.63913 -0.58260 60 62 62
1.95175 -2.61017 -0.42430 67 79 86
1.94816 -2.63092 -0.42247 70 73 50
1.97941 -2.63543 -0.42968 76 88 89
1.99187 -2.63598 -0.41242 89 99 100
2.00655 -2.66047 -0.43454 86 97 104
2.02015 -2.68507 -0.41824 103 110 102
2.01204 -2.69533 -0.42601 113 122 114
2.01535 -2.68999 -0.40284 99 107 93
2.00659 -2.69233 -0.38506 93 95 93
2.01871 -2.70802 -0.38022 91 87 95
2.01507 -2.72900 -0.37837 106 107 103
2.03275 -2.72499 -0.37651 95 98 93
2.02911 -2.74604 -0.37465 100 102 100
2.04474 -2.74067 -0.37147 89 92 95
2.04108 -2.76177 -0.36960 108 108 110
2.07738 -2.76982 -0.37885 97 100 95
2.09694 -2.79858 -0.36569 78 82 80
2.09759 -2.80700 -0.35365 71 72 70
2.11686 -2.82768 -0.35260 65 64 55
2.11250 -2.83279 -0.33760 60 60 48
2.10944 -2.83872 -0.32344 54 52 50
2.10631 -2.84458 -0.30929 48 45 43
2.07593 -2.83216 -0.27955 41 41 33
2.10721 -2.86097 -0.28524 29 25 17
2.11985 -2.86154 -0.26773 20 24 19
2.11630 -2.87497 -0.27815 22 20 14
2.12896 -2.87554 -0.26062 25 27 23
2.12079 -2.88587 -0.26845 21 21 15
2.12275 -2.91852 -0.22084 23 22 14
2.12641 -2.89738 -0.22271 22 28 27
2.11828 -2.90767 -0.23050 21 25 16
2.11967 -2.92418 -0.20707 33 33 32
2.11775 -2.95371 -0.15803 71 72 55
2.11544 -2.95976 -0.14490 68 68 57
2.17075 -3.00621 -0.16196 73 82 67
2.16707 -3.02746 -0.16008 125 130 112
2.17694 -3.01832 -0.15313 90 100 82
2.31733 -3.26670 0.00650 134 136 137
2.31359 -3.28829 0.00841 153 160 149
2.32165 -3.27760 0.01648 142 150 143
2.31791 -3.29919 0.01839 150 158 148
2.34373 -3.44453 0.24043 146 141 129
2.34740 -3.42335 0.23856 151 149 144
2.33925 -3.43366 0.23075 155 152 145
2.33111 -3.44396 0.22295 148 152 155
2.33558 -3.45483 0.23263 150 148 134
2.32941 -3.44049 0.25727 131 133 128
2.32576 -3.46156 0.25914 153 156 157
2.25590 -3.41057 0.32942 160 158 136
2.24367 -3.41002 0.31247 159 158 164
2.24265 -3.40697 0.34522 134 128 123
0.07798 -0.67811 -0.42353 253 254 253
0.07993 -0.66684 -0.42453 254 254 254
0.07559 -0.67233 -0.42868 254 254 254
0.08231 -0.67263 -0.41938 254 254 254
0.08148 -0.68394 -0.42015 243 249 247
0.07844 -0.68950 -0.40650 225 211 219
0.09696 -0.69601 -0.42653 175 162 171
0.09499 -0.70739 -0.42552 104 93 90
0.11424 -0.70260 -0.44440 132 104 110
0.11869 -0.70862 -0.44225 106 89 97
0.11669 -0.72014 -0.44123 115 105 97
0.14491 -0.73926 -0.43715 108 104 96
0.14245 -0.73329 -0.44247 112 104 94
0.14939 -0.73360 -0.43286 112 105 95
0.15163 -0.74558 -0.43823 101 100 83
0.17388 -0.75912 -0.45337 77 68 60
0.17183 -0.77094 -0.45232 56 52 54
0.18059 -0.76558 -0.45421 60 57 57
0.17854 -0.77744 -0.45316 54 53 52
1.50053 -1.71358 -1.12533 18 21 31
1.48853 -1.71304 -1.14195 14 17 18
1.51450 -1.72781 -1.12588 31 40 46
1.51883 -1.75543 -1.08980 55 58 68
1.50683 -1.75490 -1.10642 49 61 75
1.51109 -1.76523 -1.09722 52 53 68
1.51366 -1.76187 -1.07132 65 78 87
1.52562 -1.76241 -1.05475 74 84 92
1.51790 -1.77217 -1.06215 71 82 91
1.51019 -1.78194 -1.06955 72 83 90
1.85894 -2.18956 -0.96625 99 122 140
1.86487 -2.20133 -0.95754 90 98 101
1.86113 -2.22291 -0.95563 29 34 40
1.87560 -2.21557 -0.95278 41 52 42
1.87185 -2.23719 -0.95087 34 37 34
1.89505 -2.23434 -0.95518 28 29 35
1.89128 -2.25607 -0.95326 37 41 26
1.94140 -2.38055 -0.80241 44 49 49
1.92852 -2.37997 -0.82025 48 54 57
1.93309 -2.39107 -0.81038 49 54 54
1.93765 -2.40216 -0.80050 51 54 53
1.93963 -2.38812 -0.78772 54 51 49
1.93590 -2.40968 -0.78582 49 53 51
1.95296 -2.40409 -0.78449 64 67 61
1.95479 -2.41365 -0.77256 72 83 80
1.95700 -2.42341 -0.76092 79 93 103
1.94159 -2.43158 -0.72304 84 87 82
1.93788 -2.45300 -0.72115 99 111 94
1.93454 -2.43594 -0.70474 79 77 64
1.92426 -2.43838 -0.68418 61 61 45
2.00165 -2.54202 -0.64849 72 80 79
1.99792 -2.56357 -0.64658 34 33 49
2.01640 -2.56752 -0.63270 42 44 56
2.02052 -2.58666 -0.60953 50 59 65
2.04485 -2.63467 -0.57421 99 106 98
2.04111 -2.65626 -0.57230 102 102 103
1.92409 -2.60002 -0.43149 89 89 53
1.94598 -2.62166 -0.43338 73 80 68
1.97823 -2.65788 -0.42939 65 74 79
1.97019 -2.66806 -0.43710 64 70 55
2.00125 -2.68047 -0.43163 92 103 99
1.99824 -2.69442 -0.40493 109 113 102
1.99017 -2.70462 -0.41266 110 113 113
1.99460 -2.71538 -0.40308 113 118 117
1.99388 -2.69952 -0.38988 106 112 104
1.99026 -2.72042 -0.38803 115 119 105
1.99834 -2.71027 -0.38034 104 99 104
2.09114 -2.80256 -0.38750 102 103 106
2.07839 -2.80198 -0.40516 100 101 102
2.08291 -2.81296 -0.39539 101 101 105
2.08743 -2.82395 -0.38561 111 113 109
2.06533 -2.82507 -0.31028 94 95 90
2.08577 -2.84662 -0.30994 94 95 85
2.06808 -2.84256 -0.28745 88 90 74
2.07781 -2.85693 -0.28086 66 60 43
2.09337 -2.87529 -0.27756 49 47 33
2.09985 -2.88751 -0.26904 36 37 30
2.11246 -2.88807 -0.25157 17 23 22
2.10531 -2.89905 -0.25993 24 29 27
2.11793 -2.89961 -0.24245 17 25 20
2.12244 -2.91859 -0.25733 23 31 21
2.11832 -2.92357 -0.24283 31 37 27
2.12115 -2.93331 -0.23224 45 45 39
2.14561 -2.95802 -0.23351 65 70 60
2.21115 -3.01933 -0.24462 102 106 103
2.19103 -3.01317 -0.22144 113 119 102
2.18730 -3.03467 -0.21954 128 133 114
2.17416 -3.00918 -0.20018 114 117 90
2.17747 -3.01930 -0.18977 107 105 93
2.17929 -3.02836 -0.17858 111 113 102
2.17559 -3.04970 -0.17669 134 134 130
2.27593 -3.25235 0.01366 151 155 145
2.34767 -3.40518 0.13539 152 161 157
2.34313 -3.39416 0.12558 150 164 158
2.33488 -3.40461 0.11767 150 157 160
2.35593 -3.39474 0.14331 153 163 150
2.36047 -3.40576 0.15312 148 149 150
2.34395 -3.42665 0.13729 138 138 144
2.25901 -3.42942 0.31777 164 159 154
2.24673 -3.42887 0.30077 161 157 164
2.25109 -3.43944 0.31018 163 161 161
2.25705 -3.43490 0.32950 146 140 143
0.07222 -0.68354 -0.42543 231 235 231
0.08060 -0.68957 -0.42977 192 177 175
0.09713 -0.69603 -0.44685 147 124 138
0.09515 -0.70746 -0.44584 110 99 96
0.10386 -0.70212 -0.44838 117 91 109
0.10187 -0.71359 -0.44736 114 106 95
0.13471 -0.73870 -0.44178 107 102 88
0.13225 -0.73274 -0.44709 111 105 92
0.14236 -0.74508 -0.44437 96 91 77
0.15282 -0.75175 -0.45112 80 75 63
0.15079 -0.76347 -0.45009 54 47 57
0.16179 -0.75835 -0.45554 67 56 62
0.15975 -0.77013 -0.45450 50 49 55
0.16976 -0.76491 -0.45837 56 49 60
0.16771 -0.77674 -0.45733 53 50 51
1.50003 -1.72629 -1.14009 13 19 28
1.48800 -1.72575 -1.15675 18 15 15
1.49226 -1.73611 -1.14752 17 18 17
1.51022 -1.73906 -1.13684 27 35 41
1.51368 -1.74910 -1.12678 41 54 57
1.50238 -1.77014 -1.07520 60 65 86
1.94370 -2.42258 -0.77841 46 51 56
1.93995 -2.44417 -0.77650 64 72 75
1.94158 -2.42986 -0.76352 57 62 75
1.93784 -2.45139 -0.76161 69 75 83
1.93281 -2.43329 -0.74372 74 81 86
1.92910 -2.45474 -0.74182 72 75 86
1.92661 -2.43813 -0.72593 87 96 91
1.88482 -2.43876 -0.65614 75 80 65
1.91774 -2.46623 -0.66726 61 49 45
1.91407 -2.48742 -0.66538 60 55 60
1.95327 -2.50370 -0.66699 78 79 85
1.95779 -2.51467 -0.65722 88 94 86
1.99862 -2.54730 -0.67326 75 80 73
1.99714 -2.55477 -0.65910 58 61 61
2.01729 -2.59192 -0.63400 60 64 80
1.93911 -2.62458 -0.45412 112 114 97
1.92671 -2.62402 -0.47130 112 114 119
1.93110 -2.63470 -0.46179 115 119 116
1.93550 -2.64538 -0.45228 113 118 102
1.93393 -2.62918 -0.43839 105 104 71
1.95852 -2.65271 -0.44198 93 97 58
1.98343 -2.68446 -0.43317 78 87 87
1.97536 -2.69467 -0.44090 77 71 69
1.98167 -2.69123 -0.41965 105 113 126
1.97804 -2.71217 -0.41780 104 113 112
2.00357 -2.73697 -0.38398 117 120 103
1.99551 -2.74717 -0.39171 113 122 109
2.00800 -2.74773 -0.37440 98 101 93
2.07315 -2.84606 -0.32744 114 114 107
2.06948 -2.86724 -0.32556 122 129 115
2.09180 -2.86652 -0.32605 117 120 103
2.08812 -2.88779 -0.32416 125 133 123
2.08769 -2.87160 -0.31132 123 128 109
2.08401 -2.89282 -0.30944 129 130 126
2.07920 -2.87366 -0.29412 116 115 98
2.05396 -2.86420 -0.26741 99 103 89
2.09898 -2.91059 -0.26875 73 75 64
2.11371 -2.92854 -0.26485 73 76 60
2.15056 -2.96187 -0.27324 82 87 72
2.18940 -2.99673 -0.28250 88 94 90
2.19847 -3.01098 -0.27507 105 113 97
2.20330 -3.02229 -0.26529 116 119 103
2.19954 -3.04399 -0.26337 118 121 107
2.19915 -3.02729 -0.25061 116 117 112
2.19540 -3.04893 -0.24869 124 131 116
2.16875 -3.02933 -0.19738 125 127 124
2.16053 -3.03973 -0.20525 128 130 132
2.16504 -3.05069 -0.19549 132 133 130
2.16138 -3.03185 -0.18131 128 128 129
2.15769 -3.05313 -0.17943 136 132 129
2.28337 -3.28218 0.01046 155 153 155
2.28790 -3.29320 0.02027 149 147 148
2.29497 -3.30614 0.02894 146 152 152
2.30323 -3.29569 0.03686 139 143 144
2.29125 -3.32761 0.03084 164 169 159
2.29035 -3.31016 0.04285 162 161 151
2.30312 -3.31073 0.06053 155 154 147
2.29488 -3.32115 0.05263 160 155 149
2.28664 -3.33158 0.04474 164 168 156
0.05294 -0.67146 -0.43239 251 254 252
0.05488 -0.66028 -0.43338 254 254 254
0.05058 -0.66572 -0.43750 254 254 254
0.05725 -0.66602 -0.42827 254 254 254
0.05773 -0.67729 -0.43117 237 244 233
0.06110 -0.68308 -0.42765 210 188 187
0.07340 -0.68925 -0.43837 159 152 159
0.07144 -0.70055 -0.43737 109 96 91
0.08573 -0.69551 -0.44901 127 101 103
0.08376 -0.70691 -0.44800 115 105 90
0.09373 -0.70164 -0.45263 105 90 89
0.09174 -0.71309 -0.45162 114 106 95
0.12184 -0.73217 -0.45126 109 105 89
0.11939 -0.72623 -0.45656 113 104 94
0.12629 -0.72654 -0.44700 112 105 94
0.12663 -0.73830 -0.44958 103 100 83
0.13302 -0.74458 -0.45032 83 81 79
0.14159 -0.75107 -0.45434 73 63 58
0.13957 -0.76276 -0.45330 54 47 48
0.15038 -0.75764 -0.45860 60 50 50
0.14835 -0.76938 -0.45756 52 49 49
1.51012 -1.75205 -1.15209 24 29 29
1.49803 -1.75151 -1.16884 14 17 14
1.50646 -1.75917 -1.13479 34 44 44
1.50295 -1.77939 -1.13300 27 37 53
1.50564 -1.76743 -1.12043 38 48 61
1.50214 -1.78761 -1.11864 41 40 48
1.50348 -1.77509 -1.10479 43 45 66
1.49298 -1.77918 -1.08090 52 54 82
1.48170 -1.78284 -1.05639 68 81 94
1.49357 -1.78337 -1.03995 79 85 97
1.48591 -1.79306 -1.04729 83 86 110
1.47825 -1.80275 -1.05463 71 80 100
1.60113 -1.96278 -0.97151 85 94 121
1.60465 -1.94246 -0.97331 83 91 106
1.59684 -1.95235 -0.98080 83 92 108
1.60895 -1.95289 -0.96402 84 94 113
1.61325 -1.96332 -0.95473 86 96 119
1.59761 -1.98310 -0.96971 99 107 134
1.93661 -2.43378 -0.78729 61 69 64
1.92374 -2.43321 -0.80512 64 75 67
1.92830 -2.44429 -0.79525 68 74 71
1.93286 -2.45537 -0.78538 71 74 79
1.88887 -2.43967 -0.69871 75 76 83
1.87627 -2.43910 -0.71617 77 81 84
1.88074 -2.44995 -0.70651 76 79 80
1.88521 -2.46081 -0.69684 72 77 75
1.87174 -2.43788 -0.67307 86 87 84
1.89674 -2.46896 -0.66568 68 77 69
1.96134 -2.52380 -0.68664 76 83 68
1.98126 -2.54403 -0.68788 73 77 70
1.97751 -2.56562 -0.68597 59 51 60
1.99318 -2.55954 -0.68328 59 50 63
1.99392 -2.56833 -0.67067 49 38 51
1.99018 -2.58994 -0.66875 43 36 55
1.99563 -2.57769 -0.65876 31 33 43
1.91229 -2.63833 -0.42482 114 118 100
1.90000 -2.63778 -0.44184 127 136 133
1.94509 -2.66725 -0.43378 101 100 74
1.95821 -2.69142 -0.41753 87 97 108
1.99789 -2.75658 -0.38086 101 107 98
1.98541 -2.75602 -0.39815 109 118 110
2.00232 -2.76733 -0.37128 102 104 98
2.09487 -2.90809 -0.30342 124 127 123
2.08219 -2.90752 -0.32097 122 127 124
2.08669 -2.91844 -0.31126 123 131 127
2.09118 -2.92935 -0.30154 131 132 127
2.13427 -2.95100 -0.30134 122 122 112
2.13056 -2.97245 -0.29944 128 135 127
2.18202 -3.00001 -0.30350 127 129 115
2.17826 -3.02171 -0.30158 129 130 127
2.17850 -3.00548 -0.28905 123 125 121
2.17475 -3.02713 -0.28713 135 138 128
2.18060 -3.02273 -0.26536 129 129 112
2.17685 -3.04434 -0.26345 120 123 109
2.24664 -3.26340 0.00384 148 145 146
2.24214 -3.25246 -0.00590 155 154 152
2.23845 -3.27376 -0.00401 146 146 139
2.27128 -3.28970 0.00432 138 129 141
2.27853 -3.30278 0.01288 145 140 141
2.27481 -3.32423 0.01477 148 151 140
2.26670 -3.30123 0.03010 152 162 151
2.28166 -3.38704 0.14034 140 137 142
2.27056 -3.47180 0.29225 167 163 163
2.26617 -3.46115 0.28277 163 164 161
2.25819 -3.47125 0.27512 150 159 149
2.26696 -3.49255 0.29409 152 146 151
0.03905 -0.66531 -0.43877 253 254 253
0.04098 -0.65416 -0.43976 254 254 254
0.03669 -0.65959 -0.44386 254 254 254
0.04334 -0.65988 -0.43466 254 254 254
0.04366 -0.67109 -0.43736 243 248 245
0.05005 -0.67695 -0.43881 226 213 220
0.06180 -0.68305 -0.44887 178 163 169
0.05984 -0.69434 -0.44788 107 88 82
0.06764 -0.68899 -0.44929 139 103 103
0.07503 -0.69503 -0.45214 110 90 100
0.07307 -0.70639 -0.45113 117 106 93
0.10894 -0.72568 -0.46055 108 104 85
0.10649 -0.71975 -0.46583 114 105 91
0.11338 -0.72006 -0.45629 111 106 96
0.11442 -0.73183 -0.46002 105 99 84
0.12787 -0.74441 -0.46270 78 71 69
0.12586 -0.75606 -0.46167 53 46 49
0.13487 -0.75078 -0.46436 59 54 64
0.13284 -0.76247 -0.46333 57 48 51
0.13905 -0.75694 -0.46165 58 49 56
0.13702 -0.76864 -0.46061 51 50 46
1.50634 -1.76359 -1.16367 19 19 25
1.49423 -1.76305 -1.18044 12 14 10
1.49852 -1.77348 -1.17116 17 15 15
1.50365 -1.77110 -1.14730 26 28 41
1.49250 -1.79202 -1.09551 45 35 49
1.48053 -1.79148 -1.11209 53 46 51
1.47382 -1.79244 -1.06352 59 75 87
1.56898 -1.95273 -0.96970 86 94 115
1.57247 -1.93255 -0.97148 81 90 101
1.56471 -1.94237 -0.97892 82 88 109
1.56548 -1.97290 -0.96791 94 109 135
1.58244 -1.96748 -0.96897 91 102 125
1.57894 -1.98772 -0.96717 94 106 132
1.82814 -2.43518 -0.64164 66 71 74
1.81579 -2.43462 -0.65875 80 82 83
1.86353 -2.46428 -0.65498 60 64 71
1.95596 -2.54428 -0.68355 59 59 44
1.93569 -2.56478 -0.61713 56 70 67
1.90520 -2.64891 -0.43296 123 126 118
1.89291 -2.64836 -0.44999 137 148 149
1.92668 -2.67061 -0.43468 117 112 85
1.93652 -2.68482 -0.42873 92 87 77
1.94145 -2.69583 -0.41959 78 81 92
1.94085 -2.70322 -0.40690 103 115 112
1.95321 -2.70377 -0.38977 105 111 107
1.95230 -2.71852 -0.40190 102 108 102
1.95670 -2.72920 -0.39240 101 102 92
1.97356 -2.75592 -0.37843 109 115 108
1.96113 -2.75536 -0.39564 121 124 114
1.96554 -2.76606 -0.38611 119 123 115
2.00494 -2.78467 -0.38562 106 109 105
2.01747 -2.78523 -0.36827 100 102 96
2.00130 -2.80569 -0.38376 116 125 122
2.26156 -3.29899 -0.00289 140 135 132
2.24879 -3.29842 -0.02058 146 152 145
2.25784 -3.32041 -0.00100 158 158 147
2.26600 -3.30992 0.00694 151 148 140
2.24981 -3.31237 0.03797 146 151 146
2.24162 -3.32271 0.03013 133 135 137
2.15914 -3.27098 0.12462 147 153 149
2.14686 -3.27042 0.10761 146 145 154
2.15121 -3.28100 0.11703 152 157 161
2.18081 -3.29515 0.12648 152 153 134
2.19316 -3.29570 0.14358 139 142 135
2.18519 -3.30578 0.13595 139 137 125
2.22175 -3.36346 0.16581 145 147 136
2.23417 -3.36402 0.18301 143 143 135
2.22615 -3.37415 0.17533 147 148 146
2.21814 -3.38428 0.16766 149 155 159
0.03017 -0.66496 -0.44427 247 252 250
0.03210 -0.65383 -0.44525 254 254 254
0.02782 -0.65925 -0.44935 253 254 254
0.03463 -0.67073 -0.44265 230 234 227
0.04564 -0.67673 -0.45177 192 181 177
0.04678 -0.68244 -0.44463 154 130 147
0.04484 -0.69365 -0.44364 112 97 99
0.05950 -0.68863 -0.45635 121 91 113
0.05754 -0.69993 -0.45535 116 103 94
0.10108 -0.72530 -0.46854 109 103 82
0.09864 -0.71938 -0.47382 111 106 94
0.10702 -0.73148 -0.46879 98 93 67
0.11711 -0.73801 -0.47551 82 77 67
0.11509 -0.74965 -0.47448 56 50 57
0.12132 -0.74413 -0.47293 67 61 62
0.11930 -0.75578 -0.47190 53 51 51
0.12512 -0.75023 -0.46969 56 48 58
0.12310 -0.76189 -0.46866 52 48 44
1.49817 -1.78193 -1.15712 30 32 34
1.49465 -1.80221 -1.15533 47 50 64
1.49131 -1.78759 -1.13653 40 43 54
1.48781 -1.80778 -1.13474 45 46 56
1.48147 -1.80036 -1.09959 46 44 51
1.47375 -1.81012 -1.10698 39 41 59
1.47658 -1.80667 -1.08129 51 65 76
1.47496 -1.81436 -1.06632 65 77 91
1.48685 -1.81490 -1.04986 72 79 98
1.47918 -1.82460 -1.05721 69 80 101
1.46862 -1.88583 -0.94212 71 81 96
1.47203 -1.86621 -0.94386 46 55 62
1.46448 -1.87575 -0.95109 52 57 62
1.47617 -1.87628 -0.93489 60 74 91
1.48032 -1.88635 -0.92592 75 88 104
1.47277 -1.89590 -0.93315 79 89 109
1.54130 -1.94473 -0.97168 87 94 119
1.54478 -1.92467 -0.97346 79 87 105
1.53706 -1.93444 -0.98085 80 85 107
1.53782 -1.96479 -0.96991 98 109 129
1.55377 -1.95898 -0.97019 93 106 134
1.55029 -1.97910 -0.96841 93 105 127
1.94281 -2.25689 -1.15609 37 41 51
1.93891 -2.27943 -1.15409 38 43 35
1.80622 -2.43692 -0.63888 72 74 70
1.79392 -2.43637 -0.65591 82 85 79
1.79828 -2.44695 -0.64649 75 81 69
1.80264 -2.45754 -0.63706 63 69 60
1.83574 -2.46262 -0.64809 59 59 58
1.89283 -2.50507 -0.67737 41 39 37
1.95500 -2.55088 -0.70994 34 31 29
1.89296 -2.65613 -0.43773 135 139 135
1.88068 -2.65558 -0.45473 126 138 139
1.88503 -2.66616 -0.44532 135 148 147
1.89396 -2.66452 -0.42612 140 140 113
1.92064 -2.68974 -0.43125 103 100 82
1.92860 -2.70274 -0.42410 60 56 69
1.92417 -2.70755 -0.40895 99 113 111
1.93543 -2.72274 -0.40389 112 119 113
1.93415 -2.72962 -0.39082 113 118 108
1.96740 -2.77505 -0.37500 116 118 116
1.95498 -2.77449 -0.39219 124 122 113
2.12542 -3.06228 -0.18658 135 138 133
2.12910 -3.04110 -0.18846 137 140 132
2.12095 -3.05140 -0.19626 136 139 139
2.11279 -3.06171 -0.20407 135 137 142
2.13357 -3.05197 -0.17877 138 136 129
2.11727 -3.07259 -0.19439 134 139 135
2.09690 -3.04905 -0.15928 122 118 122
2.10940 -3.04961 -0.14196 119 120 124
2.10133 -3.05982 -0.14969 118 119 124
2.09326 -3.07003 -0.15742 130 124 123
2.13100 -3.18582 0.00012 137 136 127
2.13460 -3.16505 -0.00171 137 132 130
2.12661 -3.17515 -0.00937 135 129 121
2.12301 -3.19593 -0.00753 144 142 135
2.14339 -3.18637 0.01728 149 160 155
2.12740 -3.20659 0.00196 147 145 141
2.15357 -3.21041 0.00095 145 148 149
2.15798 -3.22113 0.01050 140 140 149
2.14995 -3.23129 0.00280 135 135 139
2.17553 -3.31452 0.12905 146 142 129
2.17991 -3.32514 0.13851 136 132 128
2.19348 -3.35737 0.16671 140 146 141
0.01703 -0.65887 -0.45155 251 253 251
0.01896 -0.64779 -0.45253 254 254 254
0.01469 -0.65318 -0.45662 254 254 254
0.02130 -0.65348 -0.44747 254 254 254
0.02089 -0.66460 -0.44901 237 242 233
0.03243 -0.67055 -0.45925 207 192 189
0.03551 -0.67632 -0.45534 160 149 151
0.03358 -0.68750 -0.45435 107 92 92
0.04557 -0.68235 -0.46292 127 102 104
0.04362 -0.69360 -0.46192 115 103 94
0.05212 -0.68830 -0.46462 107 92 96
0.05016 -0.69959 -0.46362 116 104 95
0.08281 -0.71849 -0.46897 109 105 86
0.08039 -0.71261 -0.47421 114 105 92
0.08722 -0.71292 -0.46474 115 106 91
0.09210 -0.72485 -0.47472 104 100 84
0.09924 -0.73111 -0.47695 86 86 71
0.10984 -0.73768 -0.48461 73 68 57
0.10783 -0.74931 -0.48358 55 50 55
0.11444 -0.74382 -0.48267 61 54 59
0.11242 -0.75548 -0.48164 54 49 51
1.49772 -1.78634 -1.18588 22 19 23
1.49342 -1.77589 -1.19518 20 17 20
1.48558 -1.78580 -1.20269 17 20 17
1.49323 -1.79303 -1.16754 37 46 44
1.48971 -1.81333 -1.16574 48 54 61
1.47533 -1.81924 -1.09513 43 44 70
1.46339 -1.81870 -1.11168 33 40 55
1.46424 -1.82271 -1.07062 57 73 79
1.46593 -1.83182 -1.05901 65 77 94
1.47780 -1.83235 -1.04257 72 81 97
1.47014 -1.84203 -1.04991 65 79 100
1.46248 -1.85172 -1.05724 73 79 92
1.52479 -1.94202 -0.98393 89 101 114
1.52132 -1.96205 -0.98216 95 108 127
1.53127 -1.95338 -0.97690 97 110 122
1.52780 -1.97342 -0.97512 95 104 125
1.91364 -2.24816 -1.16075 44 51 59
1.90975 -2.27058 -1.15877 37 42 47
1.86907 -2.56201 -0.58409 58 73 77
1.86066 -2.56465 -0.56549 88 106 114
1.85723 -2.57036 -0.55051 94 99 115
1.86957 -2.57092 -0.53342 115 122 128
1.85151 -2.57459 -0.53399 105 119 124
1.86380 -2.57514 -0.51695 110 117 113
1.85587 -2.58518 -0.52456 107 122 115
1.84793 -2.59522 -0.53216 107 119 123
1.88343 -2.67280 -0.43198 143 153 144
1.89724 -2.68962 -0.42879 112 112 94
1.90731 -2.70399 -0.42308 63 60 56
1.91225 -2.71498 -0.41401 86 108 105
1.89953 -2.71415 -0.39357 128 142 127
1.90696 -2.72677 -0.38615 133 138 119
1.91680 -2.74103 -0.38025 127 126 116
1.92912 -2.76464 -0.36368 127 131 122
1.92119 -2.77467 -0.37128 134 143 136
1.93307 -2.77494 -0.35399 121 122 123
1.94536 -2.77549 -0.33697 109 113 120
1.93743 -2.78553 -0.34457 111 114 120
2.08622 -3.07230 -0.14175 129 131 134
2.07376 -3.07174 -0.15901 135 132 126
2.09064 -3.08303 -0.13219 138 146 141
2.08260 -3.09320 -0.13990 142 145 140
2.19793 -3.29055 0.01522 152 150 149
2.18535 -3.28999 -0.00220 141 151 145
2.19428 -3.31165 0.01709 136 130 138
2.16800 -3.33206 0.13260 146 148 141
2.15568 -3.33151 0.11553 147 148 155
2.16005 -3.34212 0.12498 147 153 153
2.16237 -3.35586 0.18017 146 157 150
2.17461 -3.35641 0.19713 153 150 154
2.16671 -3.36640 0.18956 151 152 152
2.17055 -3.38354 0.21033 141 141 147
2.17410 -3.36303 0.20852 149 154 145
2.16621 -3.37301 0.20096 143 150 154
2.23223 -3.44794 0.20754 172 179 166
2.22862 -3.46877 0.20938 153 153 154
0.00555 -0.65285 -0.46145 252 254 253
0.00746 -0.64179 -0.46243 254 254 254
0.00321 -0.64717 -0.46651 254 254 254
0.00980 -0.64746 -0.45737 254 254 254
0.00945 -0.65856 -0.45906 245 247 246
0.01762 -0.66438 -0.46383 225 215 221
0.02156 -0.67014 -0.46142 180 169 173
0.01963 -0.68128 -0.46043 103 91 94
0.03168 -0.67611 -0.46932 137 107 111
0.03656 -0.68196 -0.46837 107 85 93
0.03461 -0.69320 -0.46738 115 105 95
0.07427 -0.71808 -0.47565 108 100 85
0.07625 -0.70663 -0.47666 115 103 95
0.07185 -0.71220 -0.48088 111 103 88
0.08193 -0.72431 -0.47890 92 88 77
0.09171 -0.73075 -0.48548 80 76 68
0.08971 -0.74231 -0.48446 54 51 53
0.10491 -0.74330 -0.48817 54 52 59
0.10289 -0.75493 -0.48714 53 49 50
1.48936 -1.79603 -1.19284 16 25 21
1.47722 -1.79548 -1.20965 17 22 17
1.48756 -1.80383 -1.17723 37 49 45
1.48404 -1.82415 -1.17543 48 49 66
1.46697 -1.82870 -1.10186 36 41 57
1.45907 -1.83353 -1.08048 44 59 67
1.45763 -1.84121 -1.06569 58 74 85
1.45020 -1.86260 -1.01861 66 70 88
1.45362 -1.84285 -1.02036 68 82 105
1.44602 -1.85246 -1.02764 72 77 96
1.45780 -1.85299 -1.01133 73 80 94
1.46197 -1.86313 -1.00231 70 76 94
1.44677 -1.88235 -1.01687 44 51 56
1.44606 -1.86887 -1.00141 58 72 81
1.45173 -1.87969 -0.99390 57 58 81
1.50897 -1.93962 -0.99675 82 96 113
1.90097 -2.24792 -1.17990 60 57 58
1.89709 -2.27035 -1.17791 31 35 29
1.90208 -2.25754 -1.16640 40 38 50
1.89819 -2.27994 -1.16442 38 45 51
1.84344 -2.56103 -0.57916 66 75 75
1.84040 -2.56696 -0.56441 78 80 84
1.85191 -2.58212 -0.56001 74 89 100
1.88333 -2.69566 -0.43244 126 123 109
1.88337 -2.70334 -0.42021 102 97 74
1.87981 -2.72389 -0.41839 61 73 46
1.88708 -2.71347 -0.41041 63 76 70
1.88786 -2.72161 -0.39871 118 142 129
1.88524 -2.72744 -0.38485 143 146 139
1.89129 -2.73912 -0.37660 143 145 138
1.90528 -2.75621 -0.37337 137 133 129
1.90172 -2.77676 -0.37155 132 140 135
1.91936 -2.78102 -0.35797 129 136 126
1.91144 -2.79103 -0.36556 137 147 133
1.93592 -2.79999 -0.35618 123 127 122
1.94029 -2.81060 -0.34673 129 132 129
1.93234 -2.82065 -0.35435 138 141 131
1.94104 -2.85629 -0.27485 130 138 137
1.94459 -2.83579 -0.27667 128 133 128
1.93671 -2.84577 -0.28422 127 129 140
1.94892 -2.84632 -0.26730 125 129 127
1.95326 -2.85684 -0.25793 121 131 129
1.94537 -2.86682 -0.26548 127 139 129
2.15946 -3.34874 0.13659 147 149 157
2.15152 -3.35879 0.12898 137 133 146
2.15589 -3.36939 0.13842 141 140 134
2.15676 -3.35363 0.14909 144 144 138
2.15319 -3.37423 0.15091 135 135 129
2.14742 -3.36012 0.17561 139 147 143
2.13953 -3.37009 0.16806 136 135 139
2.14386 -3.38061 0.17742 136 134 131
2.14558 -3.37259 0.19874 134 138 145
2.14204 -3.39301 0.20055 136 139 139
-0.00271 -0.65253 -0.46772 248 252 250
-0.00080 -0.64148 -0.46870 254 254 254
-0.00505 -0.64686 -0.47277 253 254 254
0.00816 -0.66401 -0.46820 196 182 177
0.01685 -0.66989 -0.47391 154 128 144
0.01492 -0.68105 -0.47292 108 98 97
0.02622 -0.67585 -0.48065 117 93 113
0.02427 -0.68707 -0.47966 115 104 100
0.05884 -0.71153 -0.48015 109 102 83
0.05644 -0.70568 -0.48536 112 105 90
0.06323 -0.70598 -0.47595 114 103 93
0.06469 -0.71759 -0.48058 100 96 70
0.07550 -0.72404 -0.48906 86 78 69
0.07350 -0.73553 -0.48805 55 50 56
0.08268 -0.73029 -0.49154 67 61 68
0.08068 -0.74182 -0.49051 54 51 57
1.48311 -1.80662 -1.20199 20 29 22
1.47096 -1.80608 -1.21881 16 19 15
1.48168 -1.81457 -1.18672 34 42 48
1.47090 -1.82682 -1.14822 37 42 50
1.47867 -1.81700 -1.14078 41 47 54
1.46393 -1.83215 -1.12750 27 34 44
1.46045 -1.85225 -1.12572 17 20 28
1.45828 -1.83800 -1.10824 24 27 41
1.44924 -1.84225 -1.08564 25 26 58
1.45031 -1.85105 -1.07337 41 56 80
1.44800 -1.85826 -1.05774 60 72 84
1.44353 -1.86444 -1.04002 62 75 82
1.44010 -1.88422 -1.03827 57 57 78
1.44490 -1.87328 -1.02818 57 63 72
1.45208 -1.89302 -1.00895 52 56 78
1.46659 -1.90808 -1.01002 61 71 84
1.46315 -1.92791 -1.00826 72 82 94
1.48238 -1.92382 -1.01224 68 82 87
1.47893 -1.94374 -1.01048 68 77 101
1.50369 -1.95052 -1.00645 78 93 109
1.49599 -1.96026 -1.01382 72 83 106
1.51047 -1.96204 -0.99974 86 100 118
1.51470 -1.97233 -0.99058 91 103 121
1.77609 -2.48675 -0.61894 83 99 85
1.76387 -2.48620 -0.63586 88 95 93
1.76820 -2.49672 -0.62650 91 96 98
1.77253 -2.50724 -0.61713 89 90 89
1.80872 -2.52279 -0.61788 92 95 85
1.81559 -2.53497 -0.61027 59 61 65
1.82680 -2.54989 -0.60580 59 71 67
1.83093 -2.56037 -0.59615 108 127 95
1.83967 -2.57379 -0.58982 104 102 66
1.83608 -2.59454 -0.58799 102 108 100
1.82647 -2.57321 -0.56774 101 108 81
1.84907 -2.59549 -0.57130 67 74 63
1.86376 -2.69785 -0.43230 148 149 141
1.85587 -2.70782 -0.43985 151 157 156
1.86995 -2.70963 -0.42415 124 129 110
1.87881 -2.73081 -0.40552 98 123 121
1.87084 -2.74049 -0.37606 148 159 155
1.89087 -2.76175 -0.37679 140 145 136
1.88732 -2.78226 -0.37497 134 140 136
1.92885 -2.84830 -0.30381 139 147 137
1.93241 -2.82777 -0.30563 129 134 135
1.92451 -2.83776 -0.31319 129 133 133
1.93675 -2.83831 -0.29624 133 143 132
1.92529 -2.86883 -0.30199 148 158 152
1.93188 -2.85791 -0.29363 145 148 146
1.92833 -2.87843 -0.29182 152 163 154
1.96426 -2.93311 -0.22914 131 140 127
1.97650 -2.93366 -0.21219 126 131 126
1.96449 -2.94066 -0.21739 132 135 126
1.97671 -2.94121 -0.20046 132 139 128
1.96882 -2.95119 -0.20802 132 135 124
2.16648 -3.42706 0.21271 149 145 147
2.16292 -3.44758 0.21452 147 146 138
-0.01732 -0.64651 -0.47196 251 253 251
-0.01542 -0.63552 -0.47293 254 254 254
-0.01965 -0.64087 -0.47698 254 254 254
-0.01309 -0.64116 -0.46790 254 254 254
-0.01226 -0.65219 -0.47169 239 241 233
-0.00816 -0.65788 -0.46971 211 198 195
0.00153 -0.66372 -0.47734 162 155 153
-0.00040 -0.67482 -0.47636 105 88 89
0.00846 -0.66955 -0.48014 128 97 95
0.01495 -0.67540 -0.48211 103 87 86
0.01302 -0.68658 -0.48112 114 105 96
0.05081 -0.71115 -0.48748 102 100 85
0.05278 -0.69977 -0.48849 114 105 94
0.04840 -0.70530 -0.49268 107 106 89
0.05705 -0.71724 -0.48864 91 87 75
0.06583 -0.72353 -0.49392 75 69 56
0.06384 -0.73501 -0.49291 52 48 48
1.47688 -1.81725 -1.21119 20 26 17
1.46473 -1.81670 -1.22803 17 21 13
1.46904 -1.82717 -1.21871 20 23 19
1.47335 -1.83763 -1.20939 23 28 32
1.47845 -1.82650 -1.19901 26 31 38
1.47492 -1.84686 -1.19721 24 31 35
1.47557 -1.83374 -1.18223 30 35 49
1.47205 -1.85405 -1.18044 22 29 22
1.46698 -1.83837 -1.15963 25 31 35
1.46347 -1.85858 -1.15784 15 23 16
1.45263 -1.84031 -1.13124 16 22 27
1.44915 -1.86038 -1.12946 18 25 34
1.43598 -1.84938 -1.08729 13 15 36
1.42833 -1.85905 -1.09461 17 21 37
1.43177 -1.85570 -1.06967 29 29 47
1.43479 -1.86533 -1.05943 45 66 71
1.43479 -1.87353 -1.04617 52 59 73
1.44244 -1.89351 -1.02739 60 72 80
1.45230 -1.90637 -1.02396 72 83 104
1.44886 -1.92619 -1.02221 76 88 108
1.46559 -1.92092 -1.02386 74 85 99
1.46215 -1.94081 -1.02210 80 90 114
1.51202 -1.97635 -1.01604 80 94 110
1.50003 -1.97582 -1.03264 78 94 106
1.51548 -1.98629 -1.00610 80 96 113
1.52746 -1.98682 -0.98951 92 103 121
1.50152 -1.98751 -0.97954 80 97 117
1.51342 -1.98805 -0.96306 92 104 123
1.50039 -1.99508 -0.96534 88 103 121
1.51227 -1.99561 -0.94889 93 105 125
1.50461 -2.00531 -0.95623 96 109 125
1.78633 -2.52373 -0.61478 78 88 79
1.78277 -2.54429 -0.61296 44 47 50
1.81862 -2.55199 -0.62599 50 51 45
1.82401 -2.56327 -0.61724 59 67 59
1.84929 -2.58727 -0.62298 133 152 119
1.79888 -2.57831 -0.54871 107 108 104
1.79533 -2.59878 -0.54690 99 108 99
1.79373 -2.58267 -0.53261 84 86 84
1.79020 -2.60307 -0.53081 97 103 85
1.85305 -2.71349 -0.42573 140 142 123
1.84086 -2.71294 -0.44262 141 148 153
1.84854 -2.71796 -0.41056 96 105 55
1.85285 -2.72843 -0.40124 70 92 97
1.85829 -2.73968 -0.39265 127 153 159
1.85476 -2.76008 -0.39085 144 163 144
1.87050 -2.76310 -0.37631 142 147 138
1.86696 -2.78353 -0.37450 146 150 140
1.91278 -2.82257 -0.35468 139 146 134
1.90051 -2.82202 -0.37168 149 158 155
1.92505 -2.82313 -0.33768 122 130 129
1.91713 -2.83314 -0.34527 132 136 128
1.93122 -2.85058 -0.34189 135 137 132
1.93916 -2.84053 -0.33428 125 130 135
1.92254 -2.85195 -0.32441 138 140 130
1.91897 -2.87251 -0.32259 152 159 155
1.92257 -2.85944 -0.31237 146 152 143
1.91901 -2.87998 -0.31055 149 158 155
1.95247 -2.94027 -0.23445 152 158 147
1.94892 -2.96077 -0.23263 157 160 154
1.99496 -2.99356 -0.22315 138 144 130
2.00730 -2.99411 -0.20606 137 137 130
1.99197 -2.99875 -0.20952 135 137 126
2.00428 -2.99930 -0.19247 130 124 125
1.99634 -3.00935 -0.20008 134 125 121
-0.03166 -0.64055 -0.47639 252 254 252
-0.02977 -0.62961 -0.47736 254 254 254
-0.03398 -0.63493 -0.48139 254 254 254
-0.02745 -0.63523 -0.47235 254 254 254
-0.02686 -0.64619 -0.47578 244 246 242
-0.02353 -0.65183 -0.47254 225 217 214
-0.01503 -0.65758 -0.47832 184 169 168
-0.01694 -0.66861 -0.47734 105 89 95
-0.00804 -0.66335 -0.48138 141 106 112
-0.00996 -0.67443 -0.48040 114 98 92
-0.00239 -0.66913 -0.48205 105 85 94
-0.00432 -0.68024 -0.48107 119 102 92
0.03716 -0.70475 -0.49455 104 101 88
0.03912 -0.69341 -0.49555 114 105 97
0.03476 -0.69893 -0.49973 110 103 93
0.04152 -0.69923 -0.49037 112 105 93
0.04326 -0.71080 -0.49560 94 93 81
0.04957 -0.71689 -0.49693 79 75 80
0.05668 -0.72307 -0.49954 64 59 69
0.05469 -0.73452 -0.49853 51 50 47
0.06033 -0.72904 -0.49634 54 49 56
0.05834 -0.74050 -0.49533 50 49 47
1.42036 -1.86357 -1.07312 20 20 23
1.40856 -1.86304 -1.08946 20 19 36
1.41274 -1.87320 -1.08041 15 16 22
1.41529 -1.86938 -1.05469 29 37 56
1.42421 -1.88176 -1.05047 42 56 62
1.43017 -1.89275 -1.04323 56 68 74
1.43557 -1.90348 -1.03542 63 79 93
1.44657 -1.91693 -1.03315 70 85 110
1.50988 -1.98892 -1.02888 75 90 97
1.53663 -2.01053 -1.04136 54 61 75
1.53468 -2.01782 -1.02609 46 60 79
1.49247 -2.00464 -0.97244 70 94 115
1.49944 -2.01627 -0.96595 90 109 132
1.51132 -2.01681 -0.94948 99 113 130
1.50800 -2.02874 -0.96094 93 111 130
1.51990 -2.02928 -0.94445 102 117 135
1.53541 -2.05096 -0.97362 96 118 134
1.54742 -2.05150 -0.95698 104 118 138
1.53967 -2.06131 -0.96441 97 113 134
1.53192 -2.07111 -0.97183 68 81 95
1.80543 -2.55091 -0.64251 60 67 68
1.82757 -2.58078 -0.63341 54 67 65
1.84659 -2.60088 -0.63460 114 122 128
1.84296 -2.62181 -0.63275 153 153 141
1.85353 -2.61325 -0.62686 142 149 135
1.78679 -2.57783 -0.56569 97 90 88
1.77500 -2.57784 -0.54472 92 96 95
1.77147 -2.59820 -0.54292 89 94 101
1.68426 -2.54824 -0.43148 87 96 106
1.68011 -2.53816 -0.44045 72 68 73
1.67257 -2.54771 -0.44768 104 117 93
1.69596 -2.54876 -0.41528 104 115 124
1.68841 -2.55831 -0.42251 98 110 129
1.86635 -2.73792 -0.44740 151 155 140
1.85407 -2.73737 -0.46441 136 150 152
1.85843 -2.74794 -0.45499 147 157 151
1.83372 -2.72310 -0.41344 134 129 93
1.83776 -2.73337 -0.40397 56 62 65
1.84168 -2.74355 -0.39443 108 140 147
1.85292 -2.76627 -0.37754 148 157 144
1.84509 -2.77618 -0.38504 153 163 152
1.90460 -2.83241 -0.36210 149 154 145
1.89232 -2.83186 -0.37910 151 157 159
1.89668 -2.84242 -0.36969 154 165 163
1.91155 -2.84482 -0.35432 136 140 139
1.90798 -2.86542 -0.35250 158 161 156
1.91974 -2.85812 -0.34730 145 151 144
1.91616 -2.87875 -0.34547 153 156 152
1.91217 -2.86020 -0.33047 151 159 147
1.90861 -2.88075 -0.32865 150 157 155
1.99212 -3.04414 -0.17416 133 140 140
1.99569 -3.02355 -0.17598 134 138 126
1.98776 -3.03357 -0.18357 129 133 129
1.99252 -3.05900 -0.15078 148 158 148
2.00476 -3.05954 -0.13383 138 145 139
-0.04678 -0.63465 -0.47913 253 254 253
-0.04490 -0.62376 -0.48010 254 254 254
-0.04909 -0.62906 -0.48411 254 254 254
-0.04260 -0.62935 -0.47512 254 254 254
-0.04093 -0.64025 -0.48052 247 250 248
-0.03637 -0.64587 -0.47954 230 228 227
-0.03036 -0.65154 -0.48109 198 187 185
-0.02620 -0.65720 -0.47932 158 133 137
-0.02811 -0.66819 -0.47835 109 98 97
-0.01819 -0.66298 -0.48430 121 92 110
-0.02010 -0.67402 -0.48332 116 106 96
0.01835 -0.69814 -0.49257 108 103 89
0.01597 -0.69236 -0.49772 112 104 92
0.02268 -0.69266 -0.48843 114 104 99
0.02595 -0.70420 -0.49634 101 96 78
0.03258 -0.71026 -0.49836 87 83 78
0.04201 -0.71653 -0.50506 74 66 72
0.04003 -0.72793 -0.50405 55 51 58
0.04571 -0.72247 -0.50203 58 51 71
0.04374 -0.73389 -0.50102 48 51 47
0.05136 -0.72857 -0.50223 49 48 57
0.04938 -0.74001 -0.50122 50 49 42
1.40318 -1.87683 -1.05735 15 18 40
1.39145 -1.87630 -1.07360 17 20 22
1.39561 -1.88641 -1.06460 11 19 28
1.39977 -1.89651 -1.05560 16 22 30
1.40812 -1.88730 -1.04913 23 29 45
1.40470 -1.90699 -1.04739 22 22 36
1.41618 -1.89929 -1.04407 31 31 53
1.42364 -1.91101 -1.03836 32 36 58
1.43798 -1.92611 -1.03950 47 58 77
1.45014 -1.94020 -1.03836 68 84 101
1.47231 -1.95928 -1.04706 77 91 113
1.48424 -1.95982 -1.03053 80 90 112
1.48230 -1.97242 -1.04358 77 94 108
1.49222 -1.98556 -1.03998 68 85 90
1.53050 -2.01300 -1.06396 47 54 60
1.52698 -2.03336 -1.06216 27 32 38
1.53581 -2.02396 -1.05563 29 30 43
1.53228 -2.04432 -1.05383 33 36 47
1.53432 -2.03146 -1.04073 32 34 56
1.53115 -2.03807 -1.02428 45 57 77
1.54021 -2.05094 -1.01958 48 60 74
1.56119 -2.07000 -1.02616 51 58 73
1.58644 -2.09139 -1.03661 63 78 92
1.58267 -2.31174 -0.67083 58 71 66
1.58608 -2.29205 -0.67257 72 73 74
1.57850 -2.30163 -0.67983 65 71 72
1.59024 -2.30216 -0.66357 71 77 73
1.59440 -2.31227 -0.65457 72 78 70
1.58204 -2.31896 -0.65794 62 71 69
1.59376 -2.31949 -0.64171 73 76 76
1.58620 -2.32905 -0.64896 71 77 75
1.78868 -2.55538 -0.64357 36 30 42
1.79438 -2.56685 -0.63511 49 55 56
1.83364 -2.60001 -0.65154 83 94 102
1.83815 -2.61081 -0.64203 112 120 118
1.76093 -2.58366 -0.54770 98 95 93
1.71298 -2.58935 -0.45237 70 68 61
1.72481 -2.58988 -0.43598 119 129 119
1.72126 -2.60965 -0.43416 120 131 134
1.73309 -2.61018 -0.41777 133 137 135
1.72857 -2.62194 -0.42724 131 139 142
1.74041 -2.62247 -0.41084 142 145 137
1.73277 -2.63214 -0.41816 140 145 138
1.87285 -2.76547 -0.45231 151 150 134
1.86054 -2.76492 -0.46937 154 161 146
1.83365 -2.74585 -0.41394 83 81 81
1.83151 -2.75181 -0.40038 98 111 112
1.83984 -2.76506 -0.39373 144 158 153
1.83631 -2.78542 -0.39193 156 168 157
1.91225 -2.86100 -0.36737 151 164 164
1.89994 -2.86045 -0.38443 154 167 162
1.90430 -2.87105 -0.37499 157 166 163
1.90867 -2.88166 -0.36554 156 159 158
1.98301 -3.02403 -0.22873 150 145 145
1.97943 -3.04473 -0.22689 144 151 139
1.96890 -3.02806 -0.19684 130 129 143
1.96100 -3.03806 -0.20441 139 145 141
1.98630 -3.05576 -0.18293 133 142 141
1.97232 -3.09540 -0.09326 139 136 135
1.97585 -3.07508 -0.09506 153 156 148
1.96803 -3.08497 -0.10255 154 153 143
1.98444 -3.09594 -0.07648 141 139 140
1.97662 -3.10583 -0.08397 131 136 138
1.96880 -3.11572 -0.09146 127 134 133
2.09347 -3.44916 0.26572 143 143 147
2.10545 -3.44969 0.28231 159 162 156
2.09772 -3.45947 0.27491 162 167 162
-0.05503 -0.63436 -0.48494 250 253 250
-0.05315 -0.62349 -0.48590 254 254 254
-0.05733 -0.62878 -0.48990 254 254 254
-0.05107 -0.63994 -0.48298 237 239 228
-0.04484 -0.64556 -0.48506 209 201 193
-0.03686 -0.65124 -0.49022 167 151 158
-0.03876 -0.66222 -0.48925 107 95 96
-0.02820 -0.66260 -0.48734 104 91 89
-0.03010 -0.67361 -0.48636 114 106 97
0.00805 -0.69765 -0.49566 105 100 81
0.01000 -0.68644 -0.49665 115 103 91
0.00568 -0.69190 -0.50079 112 102 85
0.01549 -0.70369 -0.49926 90 89 72
0.02669 -0.71001 -0.50921 78 73 61
0.02472 -0.72135 -0.50821 59 52 60
0.03712 -0.72204 -0.50841 59 52 64
0.03514 -0.73344 -0.50740 54 50 51
1.42267 -1.92387 -1.05234 24 23 36
1.41087 -1.92334 -1.06868 21 27 28
1.41506 -1.93350 -1.05963 28 29 35
1.41924 -1.94366 -1.05059 33 31 38
1.43834 -1.93969 -1.05484 32 32 44
1.43490 -1.95958 -1.05308 35 34 37
1.46417 -1.96063 -1.06738 44 44 55
1.46069 -1.98067 -1.06560 34 36 37
1.48464 -1.97902 -1.07438 42 45 58
1.48115 -1.99919 -1.07259 33 38 39
1.51287 -2.00140 -1.08889 39 46 58
1.50934 -2.02175 -1.08709 33 39 40
1.52447 -2.02382 -1.07323 30 36 39
1.52093 -2.04419 -1.07142 33 39 46
1.52298 -2.04774 -1.03138 37 39 51
1.51090 -2.04720 -1.04811 36 40 47
1.51518 -2.05760 -1.03885 39 42 44
1.51947 -2.06800 -1.02959 38 44 44
1.53127 -2.06023 -1.02598 32 39 46
1.52775 -2.08052 -1.02418 39 47 47
1.54727 -2.07677 -1.02789 33 42 48
1.54373 -2.09714 -1.02608 43 47 48
1.56534 -2.09447 -1.03167 44 50 60
1.56179 -2.11495 -1.02986 42 46 45
1.59145 -2.11651 -1.04291 48 50 60
1.58787 -2.13715 -1.04108 40 48 43
1.55168 -2.30714 -0.65887 48 45 41
1.54829 -2.32666 -0.65714 44 38 45
1.56518 -2.32287 -0.65760 56 54 51
1.56179 -2.34246 -0.65587 50 49 69
1.77050 -2.55884 -0.64347 38 38 41
1.78562 -2.57641 -0.64214 88 94 88
1.78204 -2.59709 -0.64031 105 113 116
1.81683 -2.60450 -0.65271 102 108 111
1.82767 -2.61942 -0.64795 110 118 119
1.71305 -2.56704 -0.52595 114 103 104
1.70958 -2.58708 -0.52418 124 135 119
1.71412 -2.57522 -0.51449 117 113 110
1.72605 -2.57576 -0.49797 91 93 95
1.71835 -2.58550 -0.50534 100 95 107
1.69041 -2.58894 -0.44910 106 122 83
1.68282 -2.59854 -0.45637 130 132 110
1.69337 -2.59824 -0.43921 80 88 89
1.71384 -2.61945 -0.44162 88 85 95
1.87302 -2.78118 -0.46538 150 155 146
1.83056 -2.75908 -0.42462 127 120 113
1.82840 -2.76501 -0.41100 98 86 95
1.83621 -2.77793 -0.40401 142 160 164
1.83268 -2.79831 -0.40220 158 165 156
1.97157 -3.07503 -0.16306 139 148 136
1.96451 -3.10529 -0.10075 137 135 133
2.07901 -3.25256 -0.06722 134 139 124
2.08262 -3.23173 -0.06906 151 149 132
2.08702 -3.24242 -0.05954 139 139 128
2.07100 -3.26269 -0.07490 131 134 113
2.09142 -3.25312 -0.05002 135 137 128
2.08341 -3.26325 -0.05770 130 135 122
-0.06824 -0.62852 -0.49072 252 254 251
-0.06636 -0.61769 -0.49168 254 254 254
-0.07052 -0.62296 -0.49567 254 254 254
-0.06407 -0.62325 -0.48673 254 254 254
-0.05819 -0.63965 -0.49080 221 215 212
-0.05266 -0.64526 -0.49170 181 168 159
-0.05455 -0.65617 -0.49074 105 90 88
-0.04679 -0.65091 -0.49315 139 109 100
-0.04869 -0.66185 -0.49218 113 101 95
-0.04255 -0.65656 -0.49162 107 90 99
-0.04445 -0.66752 -0.49065 114 106 95
-0.01011 -0.69117 -0.49409 109 100 81
-0.00818 -0.68004 -0.49507 117 104 92
-0.01246 -0.68546 -0.49918 113 104 89
-0.00582 -0.68576 -0.48998 117 102 87
-0.00098 -0.69723 -0.50082 99 93 73
0.02150 -0.71547 -0.51198 59 53 60
0.01954 -0.72681 -0.51098 55 51 56
1.54773 -2.31129 -0.68138 60 64 61
1.53606 -2.31077 -0.69755 74 75 76
1.54446 -2.31682 -0.66631 48 46 38
1.54108 -2.33635 -0.66459 57 63 52
1.76028 -2.56738 -0.64933 78 82 85
1.75671 -2.58797 -0.64751 106 115 107
1.79812 -2.59984 -0.66521 103 117 120
1.79451 -2.62067 -0.66337 101 98 96
1.82510 -2.63320 -0.65974 111 119 114
1.80062 -2.63258 -0.61597 153 164 158
1.67415 -2.58537 -0.46217 113 107 102
1.67074 -2.60508 -0.46043 107 110 108
1.67776 -2.60238 -0.44081 130 124 105
1.69459 -2.62115 -0.44074 117 114 92
1.70571 -2.63606 -0.43657 109 77 71
1.86252 -2.78192 -0.48374 135 148 148
1.85893 -2.80265 -0.48191 121 114 115
1.86585 -2.79182 -0.47355 135 147 142
1.86226 -2.81254 -0.47172 99 93 104
1.84164 -2.78233 -0.44486 117 119 117
1.82057 -2.77491 -0.41850 94 84 90
1.83394 -2.79179 -0.41522 147 165 165
1.83040 -2.81221 -0.41341 154 158 152
1.94899 -3.10914 -0.10407 145 149 137
1.93690 -3.10859 -0.12081 152 160 146
1.94119 -3.11900 -0.11154 147 154 146
1.94547 -3.12941 -0.10227 150 155 143
2.04545 -3.23511 -0.07351 142 142 130
2.04904 -3.21441 -0.07534 150 150 146
2.04108 -3.22448 -0.08297 148 152 147
2.03312 -3.23455 -0.09059 153 155 144
2.05453 -3.25662 -0.05476 129 134 122
2.06687 -3.25717 -0.03767 138 142 132
2.05890 -3.26724 -0.04530 140 145 140
2.05094 -3.27731 -0.05293 146 148 148
1.96186 -3.23681 0.08225 133 136 132
1.96531 -3.21692 0.08049 144 141 132
1.95766 -3.22660 0.07316 137 135 129
1.95421 -3.24649 0.07492 127 125 118
1.97372 -3.23735 0.09868 152 157 162
1.97294 -3.25268 0.08807 143 148 149
1.98482 -3.25322 0.10453 155 156 158
1.96949 -3.27262 0.08983 165 170 161
1.98620 -3.27038 0.09290 159 159 158
2.09236 -3.50105 0.27781 153 160 159
2.09585 -3.48095 0.27603 156 159 163
2.08812 -3.49073 0.26863 148 158 166
2.08888 -3.52115 0.27959 143 142 135
2.09742 -3.51207 0.28668 146 148 140
2.09394 -3.53217 0.28846 151 151 148
-0.07900 -0.62269 -0.50083 252 254 253
-0.07713 -0.61189 -0.50178 254 254 254
-0.08129 -0.61714 -0.50577 254 254 254
-0.07485 -0.61743 -0.49684 254 254 254
-0.07634 -0.62824 -0.49659 247 248 246
-0.07310 -0.63379 -0.49343 230 226 223
-0.06411 -0.63936 -0.50082 197 182 179
-0.06365 -0.64493 -0.49247 153 121 136
-0.06554 -0.65580 -0.49151 110 96 98
-0.05424 -0.65060 -0.50050 117 88 112
-0.05613 -0.66153 -0.49953 114 104 97
-0.01985 -0.69073 -0.49777 102 98 80
0.00198 -0.70309 -0.51770 79 66 66
0.00002 -0.71435 -0.51671 57 53 51
0.00986 -0.70920 -0.52218 64 57 55
0.00790 -0.72051 -0.52118 56 53 51
1.53861 -2.31985 -0.68727 63 64 68
1.52695 -2.31932 -0.70343 79 83 73
1.53522 -2.33942 -0.68554 63 62 57
1.53581 -2.32562 -0.67256 55 56 58
1.53242 -2.34513 -0.67084 73 75 69
1.76174 -2.57581 -0.67690 91 101 87
1.75815 -2.59650 -0.67506 110 115 108
1.81480 -2.64191 -0.66578 106 97 93
1.80674 -2.65209 -0.67350 117 120 98
1.85052 -2.67351 -0.67959 132 137 137
1.84685 -2.69467 -0.67772 156 166 159
1.66588 -2.60899 -0.44498 111 116 125
1.67873 -2.63231 -0.43023 150 159 128
1.67532 -2.65199 -0.42848 138 154 137
1.82791 -2.79562 -0.43621 100 101 102
1.83324 -2.80684 -0.42752 142 159 160
1.82969 -2.82730 -0.42571 153 157 152
2.01952 -3.23072 -0.07180 154 153 125
2.00726 -3.23017 -0.08879 160 162 156
2.03311 -3.24874 -0.06716 145 142 108
2.02953 -3.26937 -0.06533 143 142 127
2.04657 -3.26669 -0.06239 140 140 129
2.04298 -3.28738 -0.06055 144 146 136
1.97038 -3.26662 0.07826 145 146 149
1.99128 -3.29749 0.09062 159 155 155
1.98357 -3.30724 0.08323 151 150 154
1.99552 -3.30778 0.09979 156 158 158
-0.08611 -0.62241 -0.50849 250 252 250
-0.08424 -0.61161 -0.50945 254 254 254
-0.08839 -0.61687 -0.51343 253 254 254
-0.08260 -0.62795 -0.50587 237 236 232
-0.07549 -0.63349 -0.50993 208 199 198
-0.07737 -0.64435 -0.50897 103 85 96
-0.07752 -0.63905 -0.49693 167 142 152
-0.07939 -0.64987 -0.49597 106 94 96
-0.06388 -0.64469 -0.51302 126 93 110
-0.06577 -0.65562 -0.51205 114 102 93
-0.03006 -0.68468 -0.50979 104 99 80
-0.02389 -0.69055 -0.51155 94 91 73
-0.01482 -0.69661 -0.51844 81 75 69
-0.01676 -0.70780 -0.51745 58 54 55
-0.00788 -0.70261 -0.52144 68 60 69
-0.00982 -0.71384 -0.52044 57 54 47
-0.00081 -0.70866 -0.52458 62 53 60
-0.00277 -0.71994 -0.52358 53 51 42
1.52241 -2.32400 -0.68720 68 72 69
1.51078 -2.32348 -0.70331 79 82 77
1.51903 -2.34351 -0.68547 63 69 59
1.64042 -2.45094 -0.69685 62 51 62
1.64391 -2.43080 -0.69863 61 64 73
1.63617 -2.44060 -0.70605 43 33 41
1.62842 -2.45040 -0.71347 77 81 63
1.65243 -2.45148 -0.68022 93 101 105
1.64468 -2.46128 -0.68764 72 73 73
1.66053 -2.58373 -0.51410 114 123 133
1.65710 -2.60354 -0.51235 140 149 148
1.65706 -2.58868 -0.49942 131 135 137
1.65363 -2.60843 -0.49767 135 137 137
1.65806 -2.61115 -0.46402 127 136 130
1.64634 -2.61063 -0.48026 135 138 126
1.65049 -2.62073 -0.47127 133 137 116
1.75168 -2.71278 -0.47012 141 152 140
1.74392 -2.72259 -0.47755 127 127 126
1.74818 -2.73295 -0.46833 121 121 128
1.78858 -2.74612 -0.48365 137 151 143
1.78504 -2.76652 -0.48184 139 143 136
1.81001 -2.76870 -0.48620 143 147 137
1.80646 -2.78921 -0.48438 134 136 121
1.84443 -2.82306 -0.46025 128 135 132
1.83214 -2.82251 -0.47728 112 120 121
1.83650 -2.83309 -0.46786 136 156 163
1.84086 -2.84368 -0.45843 161 166 161
1.82448 -2.81616 -0.43447 148 158 157
1.82093 -2.83662 -0.43266 154 161 159
2.00161 -3.23264 -0.07415 156 153 140
1.99372 -3.24263 -0.08171 140 140 129
1.99805 -3.25316 -0.07234 140 146 134
2.01489 -3.25043 -0.06942 150 148 128
2.01132 -3.27100 -0.06760 146 149 134
1.94668 -3.24955 0.05637 136 143 129
1.93481 -3.24902 0.03992 143 150 147
1.93902 -3.25925 0.04902 149 155 142
1.96286 -3.26973 0.05964 132 134 123
1.95940 -3.28972 0.06141 137 132 130
1.96722 -3.28684 0.07989 156 160 150
1.96376 -3.30680 0.08165 140 141 151
-0.09873 -0.61665 -0.51488 251 254 251
-0.09687 -0.60588 -0.51584 254 254 254
-0.10101 -0.61112 -0.51980 254 254 254
-0.09459 -0.61141 -0.51092 254 254 254
-0.09391 -0.62214 -0.51482 242 243 237
-0.08982 -0.63322 -0.50407 181 160 163
-0.09169 -0.64400 -0.50311 103 87 93
-0.07388 -0.63879 -0.52482 134 101 113
-0.07577 -0.64970 -0.52385 110 98 93
-0.04279 -0.67855 -0.51713 106 102 87
-0.04087 -0.66750 -0.51811 113 104 98
-0.04513 -0.67288 -0.52219 110 103 96
-0.03706 -0.68437 -0.51824 98 96 70
-0.03068 -0.69025 -0.52046 88 83 64
-0.02149 -0.69631 -0.52767 76 69 59
-0.02343 -0.70750 -0.52668 60 53 48
-0.01584 -0.70224 -0.52843 63 56 61
-0.01779 -0.71346 -0.52744 57 53 41
1.49711 -2.32240 -0.67936 66 73 71
1.64342 -2.46764 -0.71300 64 63 58
1.69175 -2.67124 -0.46483 120 137 134
-0.11199 -0.61094 -0.51983 253 254 252
-0.11013 -0.60022 -0.52078 254 254 254
-0.11426 -0.60543 -0.52473 254 254 254
-0.10787 -0.60572 -0.51588 254 254 254
-0.10684 -0.61639 -0.52051 248 248 244
-0.09838 -0.62183 -0.52749 231 229 225
-0.09833 -0.62739 -0.51828 195 184 176
-0.09040 -0.63291 -0.52413 152 121 125
-0.04704 -0.67834 -0.53058 102 97 87
-0.04512 -0.66727 -0.53156 112 103 97
-0.04938 -0.67266 -0.53564 108 101 95
-0.04127 -0.68417 -0.53179 88 87 72
-0.03041 -0.69590 -0.53283 65 57 64
-0.03235 -0.70707 -0.53184 59 51 57
-0.02453 -0.70183 -0.53409 62 54 56
-0.02647 -0.71303 -0.53309 56 51 47
1.49578 -2.32086 -0.71652 85 87 80
1.49916 -2.30138 -0.71824 76 81 80
1.49166 -2.31086 -0.72542 80 88 81
1.50328 -2.31138 -0.70934 78 80 75
1.49704 -2.32907 -0.70517 88 88 84
1.48773 -2.33062 -0.68487 77 81 76
1.48695 -2.33748 -0.67190 63 70 53
1.49847 -2.33799 -0.65593 78 81 84
1.49103 -2.34740 -0.66306 64 69 67
1.57775 -2.42501 -0.69812 90 103 89
1.61972 -2.45958 -0.72011 94 98 72
1.63843 -2.47928 -0.72273 78 67 67
1.64842 -2.59787 -0.54326 111 101 103
1.65261 -2.60806 -0.53418 130 138 137
1.64498 -2.61772 -0.54150 135 140 136
-0.11557 -0.61614 -0.52485 238 238 230
-0.10790 -0.62158 -0.53044 210 201 191
-0.10478 -0.62710 -0.52714 169 142 153
-0.10665 -0.63789 -0.52619 105 93 91
-0.09564 -0.63262 -0.53543 121 93 107
-0.09752 -0.64347 -0.53447 111 102 89
-0.09004 -0.63820 -0.53680 100 87 82
-0.09193 -0.64908 -0.53584 112 103 92
-0.06157 -0.67218 -0.53434 104 100 89
-0.05966 -0.66116 -0.53532 111 102 96
-0.06390 -0.66652 -0.53938 107 102 93
-0.05733 -0.66682 -0.53028 110 102 98
-0.05679 -0.67793 -0.53386 96 92 83
-0.04787 -0.68388 -0.54101 82 76 79
-0.04979 -0.69499 -0.54003 58 50 61
-0.04193 -0.68975 -0.54254 62 58 70
-0.04387 -0.70089 -0.54155 58 53 55
-0.03809 -0.69555 -0.54017 58 54 59
-0.04003 -0.70670 -0.53918 57 52 58
1.52716 -2.32452 -0.80817 58 66 73
1.53061 -2.30464 -0.80993 60 62 61
1.52296 -2.31431 -0.81726 64 68 60
1.53481 -2.31484 -0.80084 61 66 70
1.53902 -2.32505 -0.79175 68 74 78
1.52372 -2.34441 -0.80641 78 85 80
1.49790 -2.33638 -0.73201 91 99 99
