ply
format ascii 1.0
element face 0
property list uchar int vertex_indices
element vertex 1326
property float x
property float y
property float z
property uchar diffuse_red
property uchar diffuse_green
property uchar diffuse_blue
end_header
1.41022 -0.66445 -0.19804 249 237 193
1.46300 -0.68018 -0.20446 115 90 61
-0.42173 0.34306 -0.94820 254 254 250
-0.43178 0.33979 -0.95474 254 254 254
-0.42558 0.33543 -0.95032 254 254 254
-0.41938 0.33107 -0.94590 254 254 253
-0.41407 0.34113 -0.94992 254 250 230
-0.40603 0.33977 -0.95309 252 231 187
-0.39420 0.34446 -0.97169 252 208 162
-0.38812 0.33970 -0.96634 253 227 170
-0.38158 0.33568 -0.96285 254 232 159
-0.36638 0.34510 -0.99379 253 171 54
-0.35408 0.34968 -1.01249 251 117 3
-0.35164 0.33724 -1.01010 252 117 7
-0.32842 0.34543 -1.02284 251 125 26
-0.33245 0.33744 -1.02505 254 140 20
-0.32596 0.33288 -1.02042 254 136 18
-0.32054 0.34287 -1.02339 254 134 45
-0.31807 0.33029 -1.02097 252 136 26
-0.29970 0.34473 -1.04283 244 125 64
-0.25686 0.37612 -1.14007 187 152 150
-0.26111 0.36770 -1.14240 181 143 136
-0.25145 0.36937 -1.13007 181 125 118
-0.24255 0.36731 -1.13244 180 75 83
-0.20136 0.39332 -1.21726 208 209 221
-0.19290 0.39009 -1.21688 207 216 239
-0.18544 0.38555 -1.21300 205 207 233
-0.17928 0.37938 -1.20479 187 182 199
-0.17967 0.36518 -1.17497 111 77 96
-0.17700 0.35158 -1.17236 80 40 48
-0.16614 0.36811 -1.19118 55 18 21
-0.16345 0.35441 -1.18854 47 26 21
-0.11399 0.20574 -0.89270 114 36 64
-0.12459 0.20229 -0.89960 116 30 44
-0.07824 0.20691 -0.92183 205 202 210
-0.07158 0.20223 -0.91708 207 203 213
-0.07571 0.19404 -0.91935 205 201 209
-0.05787 0.19322 -0.90860 212 207 211
-0.06867 0.18971 -0.91562 205 202 209
-0.06201 0.18503 -0.91087 206 203 212
-0.05067 0.18902 -0.90525 206 194 182
-0.03079 0.19587 -0.93433 125 112 100
-0.01215 0.18026 -0.91582 206 206 190
-0.00275 0.17773 -0.91757 206 211 200
0.00726 0.17564 -0.92071 196 194 201
0.01609 0.17254 -0.92086 195 197 215
0.02639 0.17056 -0.92445 192 194 207
0.04348 0.17389 -0.94412 179 176 189
0.05409 0.17195 -0.94803 151 134 125
0.06247 0.16823 -0.94656 116 107 89
0.07084 0.16447 -0.94499 106 99 107
0.07932 0.16077 -0.94363 127 135 131
0.08668 0.15621 -0.93965 147 140 115
0.09880 0.15513 -0.94647 197 199 182
0.11231 0.15497 -0.95623 215 217 215
0.12188 0.15188 -0.95694 173 139 152
0.14149 0.15583 -0.97981 133 54 71
0.14418 0.14209 -0.97717 119 22 44
0.15601 0.15602 -0.99105 118 23 43
0.15872 0.14220 -0.98839 108 21 37
0.22537 0.15298 -1.03653 83 24 37
0.22080 0.14394 -1.03904 68 18 20
0.23869 0.15169 -1.04380 53 22 34
0.24803 0.14776 -1.04261 46 33 45
0.25544 0.14257 -1.03735 60 50 61
0.26345 0.13775 -1.03333 58 56 63
0.26625 0.12344 -1.03058 43 47 54
0.27259 0.13363 -1.03159 48 52 68
0.39206 0.05075 -0.94859 30 53 83
0.38003 0.04684 -0.95641 21 45 73
0.38745 0.04163 -0.95112 23 46 76
0.39899 0.04530 -0.94245 43 67 84
0.40680 0.04028 -0.93785 43 68 86
0.41548 0.03569 -0.93480 40 61 82
0.41830 0.02134 -0.93204 27 46 71
0.42666 0.03229 -0.93607 38 59 80
0.42948 0.01790 -0.93330 31 49 70
0.43507 0.02752 -0.93245 37 58 76
0.43790 0.01313 -0.92968 31 50 73
0.47905 0.00437 -0.91718 29 57 82
0.47621 0.01883 -0.91996 36 63 87
0.47157 0.00962 -0.92252 33 57 84
0.46692 0.00042 -0.92507 42 52 76
0.47440 -0.00484 -0.91973 43 52 73
0.48408 -0.00197 -0.90777 53 72 86
0.51497 0.00298 -0.94112 160 173 140
0.52341 -0.00199 -0.93711 200 212 191
0.54230 -0.00252 -0.95011 194 191 203
0.55035 -0.00773 -0.94531 191 182 215
0.56430 -0.01049 -0.94998 174 162 198
0.55452 -0.02300 -0.91667 155 127 180
0.56211 -0.02834 -0.91126 118 106 158
0.56098 -0.04540 -0.87496 28 33 103
0.57210 -0.04929 -0.87518 67 73 125
0.58761 -0.05153 -0.88210 65 75 110
0.59048 -0.06617 -0.87928 49 43 55
0.58606 -0.06029 -0.86275 44 36 72
0.58891 -0.07483 -0.85995 50 47 59
0.60197 -0.07055 -0.85331 76 66 93
0.61238 -0.07480 -0.85225 52 46 63
0.62456 -0.08642 -0.83719 44 43 56
0.61988 -0.09569 -0.83976 46 46 55
0.63303 -0.09139 -0.83320 46 43 57
0.64861 -0.10180 -0.82319 42 47 52
0.65147 -0.11637 -0.82039 47 45 65
0.68066 -0.13005 -0.78843 48 54 63
0.73332 -0.16698 -0.75103 42 41 54
0.72115 -0.17094 -0.75895 43 29 56
0.73617 -0.18150 -0.74823 86 101 110
0.73891 -0.17279 -0.74311 41 30 44
0.74175 -0.18730 -0.74032 94 114 97
0.74411 -0.17870 -0.73472 47 32 45
0.74696 -0.19319 -0.73194 78 75 70
0.75208 -0.18384 -0.73000 49 39 43
0.76393 -0.20953 -0.68546 48 52 62
0.75190 -0.21345 -0.69328 49 45 50
0.76188 -0.21712 -0.66815 58 64 110
0.77248 -0.22151 -0.66694 53 61 84
0.77032 -0.22903 -0.64971 27 36 37
0.77311 -0.24325 -0.64697 41 25 51
0.78442 -0.23258 -0.65285 45 48 58
0.79771 -0.24330 -0.64051 48 39 60
0.81048 -0.25411 -0.62758 40 42 52
0.81588 -0.25973 -0.61994 48 44 55
0.82929 -0.26359 -0.62193 44 38 41
0.83185 -0.26980 -0.61093 51 49 55
0.84564 -0.27363 -0.61327 37 40 51
0.85062 -0.27932 -0.60517 59 65 64
0.85342 -0.29359 -0.60242 63 65 64
0.86822 -0.28914 -0.59792 61 58 48
0.87102 -0.30343 -0.59518 46 41 41
0.87836 -0.30042 -0.58205 48 45 40
0.88033 -0.30661 -0.57064 60 52 46
0.88397 -0.31247 -0.56120 55 46 35
0.88463 -0.31883 -0.54846 38 36 36
0.89103 -0.32414 -0.54222 49 60 62
0.90525 -0.33448 -0.53135 68 59 53
0.90636 -0.34065 -0.51934 55 47 42
0.91051 -0.34629 -0.51074 66 77 60
0.91254 -0.35224 -0.49988 91 101 86
0.92457 -0.35659 -0.49984 78 74 70
0.93067 -0.36188 -0.49339 44 43 68
0.93916 -0.36680 -0.48951 95 100 147
0.95309 -0.37092 -0.49135 217 236 239
0.96866 -0.38104 -0.48196 254 250 242
0.96659 -0.38747 -0.46705 227 204 160
0.99902 -0.38915 -0.48777 78 36 2
1.00181 -0.40337 -0.48504 32 21 13
1.01255 -0.39965 -0.47608 30 31 43
0.99438 -0.40805 -0.44503 86 87 95
0.99617 -0.41383 -0.43435 190 193 158
1.00568 -0.41865 -0.43146 218 214 155
1.01804 -0.42314 -0.43136 141 122 47
1.03678 -0.42692 -0.43748 63 59 33
1.03955 -0.44105 -0.43476 41 42 42
1.04122 -0.43238 -0.42945 46 41 42
1.04558 -0.43783 -0.42139 40 34 25
1.04983 -0.44328 -0.41324 17 17 24
1.05910 -0.44818 -0.40997 56 52 79
1.05393 -0.45456 -0.39287 184 196 198
1.06650 -0.45912 -0.39276 246 249 248
1.06925 -0.47316 -0.39006 254 254 254
1.31504 -0.62207 -0.23978 251 248 239
1.30319 -0.62593 -0.24749 254 254 254
1.31617 -0.62730 -0.22976 247 235 220
1.31894 -0.64140 -0.22705 245 228 217
1.32705 -0.63759 -0.21650 241 231 211
1.32253 -0.64654 -0.21899 250 249 238
1.33270 -0.64272 -0.21006 230 207 170
1.33401 -0.64787 -0.20034 217 198 181
1.36333 -0.65287 -0.21184 237 247 247
1.37450 -0.65801 -0.20951 252 254 254
1.37393 -0.67338 -0.17714 254 253 241
1.36215 -0.67721 -0.18481 254 254 254
1.36942 -0.68232 -0.17963 254 254 253
1.41441 -0.67869 -0.19633 248 234 185
1.45491 -0.68932 -0.20450 138 96 35
-0.41064 0.33089 -0.95213 254 253 246
-0.42073 0.32760 -0.95870 254 254 254
-0.41450 0.32323 -0.95426 254 254 254
-0.40828 0.31886 -0.94982 254 254 254
-0.40311 0.32863 -0.95310 254 253 236
-0.40074 0.31657 -0.95078 254 254 254
-0.39584 0.32588 -0.95285 254 254 239
-0.38871 0.32288 -0.95198 254 250 228
-0.37702 0.32690 -0.96925 253 213 141
-0.35663 0.34396 -1.02040 251 134 29
-0.34229 0.33704 -1.01675 253 133 10
-0.34631 0.32908 -1.01896 251 157 6
-0.28783 0.34499 -1.07464 191 125 84
-0.28531 0.33210 -1.07216 185 149 131
-0.25997 0.35519 -1.11709 180 131 119
-0.24150 0.35204 -1.12449 167 65 43
-0.20147 0.37604 -1.20503 161 149 213
-0.20586 0.36735 -1.20745 219 226 237
-0.19286 0.37302 -1.20523 163 146 198
-0.18447 0.36966 -1.20455 167 145 192
-0.17621 0.36612 -1.20340 147 110 140
-0.11705 0.19865 -0.89770 110 20 47
-0.12767 0.19519 -0.90461 107 33 42
-0.12112 0.19059 -0.89994 112 28 40
-0.10052 0.20350 -0.92037 124 76 111
-0.08383 0.20825 -0.94296 174 165 187
-0.08042 0.20051 -0.92935 201 200 209
-0.05376 0.18174 -0.91024 210 204 206
-0.06458 0.17822 -0.91727 203 200 210
-0.05791 0.17353 -0.91252 205 202 211
-0.04247 0.18106 -0.91738 186 172 153
-0.02790 0.18309 -0.93266 128 99 83
-0.01790 0.17066 -0.91420 225 226 212
0.00336 0.17792 -0.94549 184 169 166
0.01419 0.17638 -0.95048 139 106 118
0.02172 0.17210 -0.94722 141 108 150
0.02432 0.15883 -0.94467 123 112 136
0.03059 0.16887 -0.94719 127 108 148
0.04173 0.16739 -0.95252 149 144 161
0.04901 0.16284 -0.94850 137 132 155
0.05580 0.15790 -0.94331 127 116 130
0.06203 0.15253 -0.93680 126 105 123
0.08265 0.14788 -0.94267 172 152 117
0.09470 0.14672 -0.94938 193 189 176
0.10120 0.14148 -0.94333 179 158 163
0.12178 0.14626 -0.96891 143 68 78
0.13645 0.14665 -0.98084 128 28 47
0.20529 0.14371 -1.02682 89 19 22
0.20252 0.15783 -1.02954 103 21 38
0.19799 0.14884 -1.03203 97 20 30
0.23254 0.14160 -1.04304 42 19 21
0.24001 0.13648 -1.03798 54 46 49
0.24645 0.13070 -1.03077 78 71 69
0.25566 0.12666 -1.02930 62 57 52
0.25846 0.11239 -1.02655 52 47 57
0.39142 0.03471 -0.93965 25 48 77
0.37943 0.03080 -0.94745 25 42 66
0.38683 0.02560 -0.94218 26 42 66
0.39423 0.02041 -0.93690 28 43 63
0.39850 0.02935 -0.93380 24 48 72
0.40130 0.01505 -0.93105 33 44 66
0.40660 0.02449 -0.92977 25 46 70
0.40941 0.01019 -0.92702 35 45 65
0.47089 -0.01488 -0.89604 45 58 81
0.47951 -0.01959 -0.89273 92 90 112
0.49947 -0.01949 -0.90804 94 92 130
0.49948 -0.02789 -0.89047 53 58 105
0.51145 -0.03126 -0.89249 41 46 97
0.51429 -0.04572 -0.88971 54 54 61
0.52918 -0.03233 -0.90366 43 46 99
0.53594 -0.03793 -0.89706 37 47 99
0.54573 -0.04232 -0.89531 64 55 121
0.55474 -0.05525 -0.87506 36 33 69
0.55759 -0.06976 -0.87227 41 41 44
0.56074 -0.06110 -0.86736 51 57 66
0.56359 -0.07560 -0.86457 48 40 59
0.57141 -0.06518 -0.86690 54 56 66
0.59627 -0.08018 -0.85433 49 42 59
0.58408 -0.08415 -0.86227 50 50 57
0.60281 -0.08582 -0.84748 51 40 60
0.60676 -0.09236 -0.83678 52 42 55
0.61603 -0.10487 -0.81763 48 50 63
0.62608 -0.11701 -0.79982 56 61 77
0.64394 -0.12654 -0.79342 62 55 57
0.65141 -0.13178 -0.78809 69 71 44
0.65646 -0.13779 -0.77934 48 52 42
0.65183 -0.14697 -0.78188 46 48 49
0.66579 -0.14246 -0.77665 38 35 47
0.67040 -0.14857 -0.76734 52 56 58
0.67323 -0.16298 -0.76457 49 40 40
0.71290 -0.18062 -0.73245 49 46 79
0.70083 -0.18455 -0.74031 56 58 72
0.70828 -0.18978 -0.73500 48 40 62
0.75757 -0.21910 -0.68575 29 31 46
0.74555 -0.22301 -0.69357 45 48 48
0.76131 -0.23221 -0.66115 44 33 50
0.76337 -0.23865 -0.64923 40 27 30
0.78046 -0.24842 -0.64172 36 27 57
0.78247 -0.25480 -0.62988 46 42 71
0.79435 -0.26572 -0.61603 60 65 61
0.79713 -0.27987 -0.61331 68 73 79
0.79607 -0.27207 -0.60404 66 75 64
0.79884 -0.28618 -0.60133 68 71 84
0.79543 -0.27889 -0.58929 75 77 76
0.81290 -0.28186 -0.59628 69 70 68
0.82515 -0.28599 -0.59693 57 58 56
0.82792 -0.30015 -0.59421 40 48 40
0.83322 -0.29099 -0.59258 44 47 59
0.85238 -0.30042 -0.58735 61 56 52
0.86103 -0.31187 -0.56993 53 53 45
0.86398 -0.31783 -0.55971 77 85 56
0.87115 -0.32299 -0.55433 68 67 44
0.86600 -0.33033 -0.53507 41 36 32
0.86875 -0.34436 -0.53237 46 38 50
0.87472 -0.33517 -0.53154 44 49 48
0.88864 -0.33915 -0.53375 71 82 74
0.90200 -0.34326 -0.53527 84 87 72
0.89290 -0.35108 -0.51202 69 59 46
0.89565 -0.36510 -0.50932 47 43 33
0.90354 -0.35563 -0.51054 48 37 38
0.90629 -0.36967 -0.50784 39 40 34
0.90908 -0.36101 -0.50349 32 30 45
0.91183 -0.37504 -0.50079 44 43 35
0.91558 -0.36622 -0.49749 33 32 43
0.91833 -0.38025 -0.49479 40 38 43
0.92322 -0.37126 -0.49273 34 33 49
0.93556 -0.37561 -0.49297 55 62 102
0.94650 -0.38020 -0.49167 181 191 210
0.95197 -0.38557 -0.48455 247 252 254
0.95925 -0.39069 -0.47935 254 252 242
0.95874 -0.39686 -0.46606 229 211 161
0.99607 -0.39799 -0.49196 87 47 4
1.00785 -0.40871 -0.47844 32 38 48
0.99054 -0.41690 -0.44819 68 89 124
0.98507 -0.42353 -0.43017 198 228 216
0.98402 -0.42957 -0.41674 250 248 190
0.97967 -0.43594 -0.40012 175 150 128
1.02383 -0.43685 -0.43165 66 47 24
1.02659 -0.45092 -0.42894 41 38 37
1.03877 -0.44704 -0.42165 36 35 29
1.03425 -0.45600 -0.42413 33 35 23
1.04433 -0.45233 -0.41477 24 24 30
1.05890 -0.45672 -0.41664 59 53 85
1.04513 -0.46388 -0.39121 184 182 185
1.05890 -0.46835 -0.39229 245 245 243
1.06164 -0.48236 -0.38960 254 254 254
1.30164 -0.63119 -0.23531 253 253 249
1.28984 -0.63503 -0.24300 254 254 254
1.29712 -0.64015 -0.23780 254 254 252
1.31884 -0.65171 -0.20538 246 237 198
1.32057 -0.65682 -0.19600 226 197 147
1.33127 -0.66190 -0.19348 215 205 193
1.34161 -0.66699 -0.19065 236 248 243
1.34664 -0.67207 -0.18382 251 254 254
1.34939 -0.68607 -0.18112 252 254 254
1.37377 -0.68740 -0.17230 254 253 242
1.36201 -0.69123 -0.17996 254 254 254
1.36927 -0.69633 -0.17478 254 254 253
-0.39240 0.31548 -0.95489 254 254 251
-0.40255 0.31218 -0.96150 254 254 254
-0.39629 0.30778 -0.95703 254 254 254
-0.39003 0.30338 -0.95257 254 254 253
-0.38320 0.31563 -0.96228 254 251 232
-0.37006 0.32166 -0.98508 253 234 186
-0.36765 0.30937 -0.98271 254 253 225
-0.37112 0.30604 -0.95134 252 196 104
-0.33601 0.33015 -1.02911 252 147 14
-0.32757 0.32837 -1.03184 254 138 8
-0.32105 0.32379 -1.02719 249 133 22
-0.30575 0.33151 -1.05522 224 123 64
-0.29008 0.33940 -1.08388 192 133 102
-0.28755 0.32648 -1.08140 179 123 108
-0.26443 0.34651 -1.11856 183 132 117
-0.25676 0.34290 -1.11684 180 91 59
-0.25418 0.32975 -1.11431 135 43 28
-0.24686 0.34217 -1.12290 165 58 36
-0.21766 0.36621 -1.19600 190 124 125
-0.19073 0.37249 -1.22991 235 236 235
-0.18233 0.36905 -1.22911 246 237 234
-0.17653 0.36238 -1.21949 230 215 211
-0.17284 0.35320 -1.20299 176 136 134
-0.16496 0.34913 -1.20046 73 34 23
-0.16226 0.33538 -1.19782 66 26 23
-0.15742 0.34463 -1.19677 43 28 34
-0.14588 0.34839 -1.18926 54 41 40
-0.15030 0.33963 -1.19169 52 40 41
-0.11246 0.18798 -0.90108 105 23 57
-0.12310 0.18451 -0.90800 115 33 41
-0.09130 0.19693 -0.93620 141 107 139
-0.08139 0.19522 -0.94019 184 181 204
-0.07475 0.19047 -0.93529 201 197 207
-0.06805 0.18577 -0.93052 203 198 207
-0.07221 0.17753 -0.93280 205 202 208
-0.04876 0.17098 -0.91416 206 197 194
-0.05960 0.16745 -0.92122 207 204 216
-0.05291 0.16275 -0.91645 209 204 211
-0.04069 0.16745 -0.91292 192 175 162
-0.03025 0.16590 -0.91766 204 199 198
-0.02770 0.15290 -0.91516 227 223 227
-0.01187 0.16050 -0.92039 216 202 193
0.00905 0.16722 -0.95063 143 97 110
0.01630 0.16273 -0.94672 131 89 108
0.03368 0.15597 -0.94581 117 100 103
0.04339 0.15331 -0.94767 129 114 125
0.05032 0.14850 -0.94285 135 107 127
0.06857 0.15219 -0.96463 182 164 168
0.07240 0.14496 -0.95233 221 222 207
0.08302 0.14277 -0.95587 221 206 187
0.09574 0.14202 -0.96407 191 161 161
0.10254 0.13695 -0.95860 152 83 93
0.11840 0.13828 -0.97358 135 33 53
0.12873 0.13560 -0.97587 127 26 48
0.13968 0.13329 -0.97939 113 24 41
0.15235 0.13208 -0.98658 102 21 25
0.16392 0.13585 -0.97904 102 20 36
0.16327 0.12961 -0.98975 102 17 28
0.17956 0.13063 -1.00443 105 30 42
0.19173 0.12881 -1.00993 106 52 46
0.20896 0.13018 -1.02602 91 41 21
0.22293 0.12931 -1.03493 69 32 16
0.23143 0.12487 -1.03210 84 73 62
0.23399 0.11671 -1.01686 96 93 89
0.24651 0.11476 -1.02238 70 60 62
0.45213 -0.01327 -0.91037 57 64 82
0.44931 0.00109 -0.91313 34 53 74
0.44470 -0.00805 -0.91566 45 54 69
0.46118 -0.01779 -0.90781 56 65 85
0.46177 -0.02596 -0.89102 47 49 67
0.47068 -0.03053 -0.88824 53 49 89
0.48443 -0.03307 -0.89344 75 56 119
0.48725 -0.04745 -0.89068 55 51 69
0.49194 -0.03827 -0.88824 56 53 77
0.50582 -0.04087 -0.89342 48 43 45
0.52884 -0.04816 -0.89574 35 44 64
0.52417 -0.05740 -0.89830 54 51 62
0.53169 -0.06268 -0.89294 47 45 56
0.53787 -0.05284 -0.89280 35 33 65
0.54042 -0.06005 -0.87956 37 35 41
0.56439 -0.08333 -0.84890 59 48 58
0.58254 -0.09268 -0.84313 50 62 52
0.59050 -0.09776 -0.83852 67 71 70
0.59215 -0.10505 -0.82443 74 66 71
0.59424 -0.11213 -0.81111 55 46 47
0.59991 -0.11794 -0.80320 46 47 66
0.60568 -0.13136 -0.77935 54 78 87
0.60848 -0.14563 -0.77661 58 65 100
0.61332 -0.13646 -0.77446 37 42 50
0.62659 -0.13978 -0.77767 43 38 47
0.63284 -0.14535 -0.77072 49 52 49
0.63565 -0.15967 -0.76797 45 43 48
0.64561 -0.15638 -0.75727 47 49 40
0.70525 -0.19784 -0.71567 51 57 75
0.71245 -0.20309 -0.71014 50 55 70
0.71526 -0.21739 -0.70739 56 52 59
0.72193 -0.20775 -0.70761 48 51 61
0.72934 -0.21295 -0.70232 46 49 49
0.72474 -0.22206 -0.70485 51 50 55
0.74212 -0.23089 -0.67432 46 39 55
0.74498 -0.23715 -0.66332 53 43 48
0.74777 -0.25136 -0.66058 64 62 66
0.74736 -0.24350 -0.65176 56 54 50
0.75013 -0.25767 -0.64903 61 60 60
0.74894 -0.25000 -0.63929 57 55 47
0.75171 -0.26412 -0.63657 56 60 66
0.75564 -0.25527 -0.63331 58 56 63
0.75763 -0.26160 -0.62150 69 77 74
0.76485 -0.26673 -0.61622 83 79 84
0.77173 -0.27193 -0.61054 72 75 76
0.79902 -0.29276 -0.58759 65 67 73
0.78724 -0.29660 -0.59526 65 64 78
0.79451 -0.30171 -0.59008 65 66 72
0.80654 -0.29782 -0.58270 59 61 51
0.80930 -0.31188 -0.58000 55 52 54
0.82136 -0.30799 -0.57265 68 68 69
0.83335 -0.31220 -0.57297 66 60 68
0.83964 -0.31751 -0.56661 44 43 47
0.84241 -0.33160 -0.56390 48 45 42
0.84749 -0.32253 -0.56206 41 40 36
0.84979 -0.32855 -0.55114 52 64 53
0.85255 -0.34260 -0.54844 52 52 60
0.85661 -0.33374 -0.54544 54 59 56
0.85936 -0.34779 -0.54273 53 52 65
0.85519 -0.34034 -0.53043 49 38 47
0.85794 -0.35433 -0.52774 46 46 61
0.86838 -0.35073 -0.51867 48 46 62
0.87911 -0.35524 -0.51740 58 51 63
0.88300 -0.36086 -0.50853 60 47 45
0.91949 -0.38622 -0.48310 30 35 57
0.93792 -0.38973 -0.48985 106 117 137
0.94389 -0.39502 -0.48328 222 242 243
0.94664 -0.40907 -0.48057 248 252 247
0.95078 -0.40018 -0.47769 254 252 244
0.96038 -0.40498 -0.47494 234 217 178
0.98715 -0.40761 -0.48996 114 61 39
0.99667 -0.41250 -0.48696 48 23 21
1.00334 -0.41775 -0.48101 40 42 49
1.00908 -0.42311 -0.47413 26 57 80
0.97236 -0.43337 -0.42432 113 165 169
0.98780 -0.43749 -0.42748 194 222 207
1.00093 -0.44191 -0.42824 138 110 92
1.01446 -0.44632 -0.42932 57 34 18
1.01721 -0.46036 -0.42662 39 36 39
1.03816 -0.46144 -0.41565 31 29 36
1.05407 -0.46573 -0.41884 67 68 93
1.04049 -0.47279 -0.39353 184 180 184
1.30040 -0.64529 -0.22947 252 250 240
1.28862 -0.64913 -0.23714 254 254 254
1.30299 -0.65043 -0.22064 247 237 217
1.30574 -0.66445 -0.21794 244 229 212
1.30384 -0.65555 -0.21049 247 240 229
1.30311 -0.66064 -0.19920 252 252 241
1.30775 -0.66571 -0.19209 250 240 202
1.31717 -0.67580 -0.17804 214 210 193
1.32643 -0.68087 -0.17447 236 247 246
1.37977 -0.70148 -0.17199 254 253 242
1.36799 -0.70531 -0.17965 254 254 254
1.37526 -0.71042 -0.17447 254 254 253
1.41044 -0.72686 -0.14202 83 62 57
-0.37925 0.30586 -0.96622 254 254 250
-0.38947 0.30253 -0.97287 254 254 254
-0.38317 0.29810 -0.96837 254 254 254
-0.37686 0.29367 -0.96388 254 254 254
-0.36332 0.30190 -0.97022 253 247 192
-0.35087 0.30636 -0.98938 252 236 180
-0.34161 0.30599 -0.99581 253 199 112
-0.32344 0.31813 -1.03572 247 144 24
-0.32096 0.30550 -1.03329 191 94 46
-0.31126 0.32142 -1.05219 217 116 64
-0.29678 0.32767 -1.07672 188 131 107
-0.27312 0.33216 -1.10468 167 78 63
-0.27056 0.31911 -1.10217 142 49 21
-0.24076 0.33347 -1.13266 120 44 76
-0.24502 0.32503 -1.13500 127 46 49
-0.20681 0.36301 -1.22180 143 115 191
-0.19491 0.36403 -1.23321 187 188 251
-0.18570 0.36157 -1.23517 224 227 253
-0.18299 0.34773 -1.23251 196 200 228
-0.18028 0.35442 -1.22422 238 240 247
-0.17357 0.34888 -1.21767 233 225 222
-0.16903 0.34079 -1.20404 160 143 140
-0.14961 0.33677 -1.21061 52 29 36
-0.13800 0.34055 -1.20306 55 43 47
-0.13884 0.33585 -1.21705 58 42 56
-0.12718 0.33965 -1.20947 55 41 50
-0.13165 0.33080 -1.21192 57 44 51
-0.13611 0.32195 -1.21438 55 44 45
-0.11413 0.18215 -0.90998 114 20 42
-0.12480 0.17868 -0.91692 110 36 39
-0.11821 0.17405 -0.91223 120 28 40
-0.07609 0.19563 -0.96820 159 142 169
-0.07615 0.18472 -0.94499 197 193 208
-0.04148 0.16207 -0.92389 213 206 207
-0.05238 0.15852 -0.93098 211 207 214
-0.04566 0.15380 -0.92618 212 207 214
-0.03894 0.14907 -0.92139 215 209 218
-0.03265 0.15911 -0.92448 218 213 216
-0.01671 0.15166 -0.92108 235 228 218
0.00089 0.15565 -0.94324 179 169 151
0.01229 0.15449 -0.94967 136 96 106
0.02016 0.15047 -0.94725 138 115 128
0.02892 0.14712 -0.94697 129 99 112
0.03831 0.14422 -0.94811 178 170 153
0.04092 0.13090 -0.94555 244 248 240
0.04719 0.14088 -0.94793 225 218 194
0.05928 0.13990 -0.95528 241 242 229
0.06720 0.13575 -0.95263 236 236 230
0.07984 0.13502 -0.96092 201 172 172
0.08959 0.13211 -0.96232 162 88 102
0.10049 0.12996 -0.96625 144 46 65
0.11160 0.12790 -0.97052 135 29 47
0.12331 0.12617 -0.97597 123 22 35
0.13380 0.12354 -0.97856 108 21 34
0.14509 0.12139 -0.98277 112 40 46
0.14726 0.11308 -0.96681 144 76 82
0.16497 0.11509 -0.98486 171 123 129
0.17945 0.11483 -0.99559 181 163 145
0.18635 0.10958 -0.98981 180 150 111
0.20700 0.11305 -1.01325 152 116 80
0.21650 0.10933 -1.01276 129 108 78
0.22609 0.10563 -1.01236 94 76 80
0.23315 0.10034 -1.00664 71 48 70
0.24220 0.09626 -1.00501 73 55 65
0.24951 0.09112 -0.99979 66 60 74
0.24497 0.08212 -1.00229 75 59 70
0.31679 0.07320 -1.01412 44 52 73
0.31396 0.08759 -1.01689 53 56 79
0.30934 0.07843 -1.01943 53 58 79
0.30472 0.06927 -1.02198 55 60 76
0.32141 0.08236 -1.01158 45 52 76
0.32886 0.07713 -1.00627 35 46 71
0.32852 0.07030 -1.01711 33 44 65
0.34063 0.07425 -1.00923 28 43 65
0.33135 0.05587 -1.01433 29 35 50
0.43268 -0.02048 -0.90545 54 54 68
0.42988 -0.00620 -0.90820 39 53 61
0.42529 -0.01529 -0.91073 46 55 60
0.42070 -0.02438 -0.91325 46 47 58
0.42809 -0.02958 -0.90798 52 45 55
0.44232 -0.02469 -0.90402 68 68 78
0.45099 -0.02935 -0.90089 58 67 79
0.45380 -0.04367 -0.89813 45 44 50
0.45513 -0.03595 -0.89010 40 46 54
0.46565 -0.03982 -0.89006 41 44 68
0.47489 -0.04427 -0.88781 51 46 83
0.49618 -0.05208 -0.88780 54 45 55
0.51024 -0.05468 -0.89322 70 61 65
0.53344 -0.07825 -0.86126 59 52 60
0.53702 -0.08492 -0.84987 51 51 54
0.54291 -0.09071 -0.84217 59 63 69
0.54393 -0.09825 -0.82697 80 100 94
0.55862 -0.10083 -0.83291 42 50 54
0.56668 -0.10583 -0.82857 33 39 38
0.57381 -0.11116 -0.82281 59 65 57
0.57857 -0.11729 -0.81350 77 77 71
0.58006 -0.12450 -0.79935 53 45 46
0.58286 -0.13879 -0.79660 71 72 34
0.58529 -0.13041 -0.79087 46 40 51
0.59097 -0.13615 -0.78311 52 59 64
0.59567 -0.14220 -0.77394 51 62 71
0.60743 -0.15347 -0.75915 61 63 93
0.61635 -0.15814 -0.75618 50 47 53
0.62978 -0.17620 -0.72831 73 78 76
0.63256 -0.19033 -0.72559 60 54 77
0.68570 -0.20379 -0.71326 42 41 49
0.67833 -0.19861 -0.71852 54 53 61
0.69014 -0.20974 -0.70409 44 41 55
0.69293 -0.22395 -0.70135 52 46 46
0.69903 -0.21451 -0.70088 50 47 57
0.70182 -0.22873 -0.69815 58 51 60
0.72423 -0.23623 -0.67437 45 49 51
0.72145 -0.22204 -0.67710 41 48 44
0.71689 -0.23108 -0.67961 46 48 49
0.71233 -0.24011 -0.68211 43 43 38
0.72772 -0.24232 -0.66416 54 56 62
0.73050 -0.25649 -0.66144 57 56 66
0.73101 -0.24843 -0.65376 69 65 64
0.73378 -0.26256 -0.65105 57 58 67
0.74509 -0.27234 -0.61396 54 59 78
0.75807 -0.27618 -0.61591 73 71 106
0.76158 -0.28210 -0.60608 64 58 80
0.76686 -0.28761 -0.59849 54 60 73
0.78851 -0.30942 -0.56903 60 63 60
0.77681 -0.31323 -0.57665 69 68 72
0.79124 -0.32337 -0.56635 60 59 56
0.80786 -0.31863 -0.56454 63 55 67
0.81061 -0.33262 -0.56185 77 86 74
0.81650 -0.32346 -0.56102 66 63 64
0.82500 -0.32832 -0.55732 57 54 50
0.83418 -0.33944 -0.54086 49 48 51
0.85888 -0.36043 -0.51552 44 48 57
0.85440 -0.36930 -0.51798 46 41 41
0.86161 -0.37437 -0.51284 56 43 47
0.87111 -0.36470 -0.51597 62 67 57
0.87870 -0.36973 -0.51122 70 69 50
0.88942 -0.37428 -0.50989 50 45 44
0.89667 -0.37937 -0.50473 41 41 46
0.90088 -0.38490 -0.49626 47 42 49
0.90608 -0.39027 -0.48890 48 40 48
0.91986 -0.39444 -0.49079 28 28 49
0.90784 -0.40215 -0.46506 44 60 102
0.93943 -0.40396 -0.48582 184 198 217
0.94739 -0.41500 -0.46856 237 221 189
0.97911 -0.41708 -0.48886 135 73 61
0.98588 -0.42230 -0.48304 55 25 20
0.99342 -0.42743 -0.47803 37 46 53
0.99620 -0.44160 -0.47530 47 37 49
0.99988 -0.43268 -0.47190 43 42 59
0.99526 -0.43916 -0.45454 43 71 89
0.99936 -0.44463 -0.44613 72 82 124
1.00773 -0.44962 -0.44203 45 51 70
1.01049 -0.46370 -0.43933 42 35 28
1.01084 -0.45517 -0.43269 43 35 38
1.01359 -0.46921 -0.42999 39 36 39
1.02752 -0.46517 -0.42444 39 35 34
1.03254 -0.47049 -0.41705 51 45 44
1.03529 -0.48453 -0.41435 85 72 88
1.03502 -0.48176 -0.39504 184 179 182
1.04532 -0.48658 -0.39285 243 243 242
1.04806 -0.50056 -0.39016 254 254 254
1.29200 -0.65425 -0.22890 254 253 249
1.28024 -0.65809 -0.23655 254 254 254
1.28750 -0.66318 -0.23138 254 254 253
1.29523 -0.65936 -0.22057 250 244 228
1.29683 -0.66951 -0.20027 250 250 245
1.29753 -0.67454 -0.19014 254 253 244
1.30094 -0.67956 -0.18213 251 243 209
1.30369 -0.68456 -0.17366 225 203 162
1.30628 -0.68954 -0.16510 214 206 187
1.31055 -0.69452 -0.15785 239 248 248
1.31769 -0.69954 -0.15276 252 254 254
-0.36588 0.29615 -0.97784 254 254 254
-0.35797 0.29395 -0.97937 253 254 250
-0.35300 0.28747 -0.96945 253 246 215
-0.33653 0.29731 -1.00349 240 192 118
-0.33409 0.28485 -1.00109 165 52 37
-0.30673 0.31148 -1.05731 161 84 86
-0.29056 0.31981 -1.08788 147 61 55
-0.28149 0.31827 -1.09175 142 47 32
-0.27895 0.30529 -1.08925 136 36 22
-0.22752 0.33367 -1.16728 138 89 114
-0.23879 0.33000 -1.17461 122 41 22
-0.20315 0.35049 -1.22249 184 174 214
-0.19099 0.35172 -1.23470 194 200 239
-0.18828 0.33789 -1.23205 173 156 196
-0.17791 0.34021 -1.22044 200 192 222
-0.17304 0.33252 -1.20782 187 170 187
-0.17783 0.31363 -1.16366 119 71 91
-0.17517 0.30006 -1.16105 77 31 56
-0.15523 0.32661 -1.20926 58 15 22
-0.15252 0.31279 -1.20660 53 29 33
-0.14460 0.32553 -1.21533 54 36 48
-0.14188 0.31165 -1.21266 53 39 39
-0.09514 0.17381 -0.92993 123 79 118
-0.07686 0.17957 -0.95667 174 167 195
-0.07433 0.17110 -0.94056 202 200 209
-0.06346 0.17464 -0.93348 206 204 212
-0.06762 0.16639 -0.93577 208 205 211
-0.02695 0.14867 -0.92999 224 221 228
-0.02439 0.13561 -0.92747 232 232 236
-0.01876 0.14509 -0.92879 234 231 231
-0.00959 0.14225 -0.92996 223 214 208
0.00801 0.14604 -0.95194 156 107 143
0.01543 0.14166 -0.94844 137 94 114
0.02545 0.13928 -0.95126 169 139 167
0.03701 0.13801 -0.95767 220 217 222
0.05381 0.13051 -0.95489 225 224 226
0.06991 0.13235 -0.97155 191 159 168
0.07256 0.11885 -0.96895 154 42 51
0.07448 0.12569 -0.96091 157 83 90
0.08412 0.12270 -0.96212 151 46 56
0.09599 0.12123 -0.96834 145 35 43
0.10580 0.11824 -0.96968 134 32 36
0.11384 0.11398 -0.96693 142 48 56
0.12285 0.11036 -0.96630 158 88 87
0.13548 0.10915 -0.97368 179 146 142
0.15243 0.11069 -0.99036 219 200 198
0.15554 0.10302 -0.97640 248 239 230
0.15824 0.08924 -0.97375 254 254 254
0.16802 0.10147 -0.98294 254 253 235
0.17808 0.09829 -0.98408 254 247 222
0.19018 0.09635 -0.98947 232 222 198
0.19641 0.09068 -0.98227 197 175 128
0.22417 0.08866 -0.99985 100 51 51
0.23291 0.08442 -0.99769 101 62 61
0.31010 0.06291 -1.01262 45 51 69
0.31292 0.04854 -1.00985 40 40 57
0.32182 0.06000 -1.01566 34 41 60
0.32465 0.04559 -1.01289 41 39 50
0.34092 0.04257 -0.99346 31 36 52
0.33810 0.05696 -0.99623 21 38 56
0.33348 0.04780 -0.99877 28 35 49
0.34554 0.05173 -0.99092 21 38 59
0.35298 0.04650 -0.98562 25 36 58
0.34218 0.03417 -0.97649 39 38 50
0.35418 0.03808 -0.96868 29 36 56
0.37115 0.00428 -0.93543 52 56 67
0.36836 0.01851 -0.93817 36 42 62
0.35922 0.00039 -0.94320 59 58 63
0.37573 0.01334 -0.93292 37 42 65
0.36658 -0.00478 -0.93795 56 56 58
0.37852 -0.00090 -0.93018 63 70 71
0.38205 -0.00787 -0.91806 61 58 68
0.38661 0.00117 -0.91556 49 46 66
0.39395 -0.00399 -0.91032 47 48 59
0.38680 -0.01423 -0.90822 49 40 50
0.39868 -0.01036 -0.90049 49 55 58
0.38958 -0.02839 -0.90549 45 43 52
0.43155 -0.03647 -0.89596 57 50 52
0.43434 -0.05072 -0.89322 55 49 35
0.43943 -0.04143 -0.89158 51 51 61
0.45525 -0.05135 -0.88286 51 44 56
0.46722 -0.05465 -0.88525 53 48 60
0.47003 -0.06896 -0.88250 41 49 38
0.47709 -0.05885 -0.88405 52 53 60
0.48213 -0.06501 -0.87486 66 74 73
0.49681 -0.06735 -0.88145 103 110 96
0.50613 -0.07184 -0.87919 62 45 52
0.51106 -0.07804 -0.86983 48 47 41
0.50794 -0.08725 -0.84767 84 87 47
0.51478 -0.09264 -0.84154 85 88 42
0.52878 -0.10329 -0.82981 55 52 64
0.53775 -0.10791 -0.82702 74 91 104
0.54166 -0.11432 -0.81639 51 54 61
0.54445 -0.12857 -0.81365 67 68 69
0.54812 -0.11982 -0.80974 52 46 52
0.55450 -0.12533 -0.80299 41 37 53
0.55729 -0.13956 -0.80026 37 29 37
0.55940 -0.13133 -0.79402 36 38 62
0.57895 -0.14763 -0.77460 49 51 48
0.57439 -0.15666 -0.77710 46 42 45
0.58173 -0.16181 -0.77187 41 43 46
0.58299 -0.15383 -0.76452 40 45 55
0.59079 -0.15883 -0.75999 44 46 61
0.59787 -0.16405 -0.75442 53 41 58
0.60352 -0.16971 -0.74678 57 42 44
0.61126 -0.17472 -0.74217 48 45 48
0.61403 -0.18887 -0.73945 46 42 46
0.61611 -0.18059 -0.73345 44 48 64
0.62354 -0.18569 -0.72841 55 56 78
0.63823 -0.19594 -0.71810 57 45 62
0.64277 -0.18695 -0.71560 56 49 69
0.65008 -0.19208 -0.71039 61 63 70
0.64554 -0.20107 -0.71288 42 35 43
0.65749 -0.20493 -0.71406 39 38 52
0.66204 -0.19592 -0.71155 66 72 70
0.66265 -0.21067 -0.70587 61 67 76
0.67398 -0.21475 -0.70608 62 71 70
0.68081 -0.22003 -0.70018 50 49 52
0.68359 -0.23421 -0.69745 46 42 45
0.71074 -0.24742 -0.66523 38 44 34
0.69890 -0.25127 -0.67293 40 41 46
0.70620 -0.25641 -0.66772 33 43 44
0.71534 -0.25319 -0.65651 47 53 57
0.71810 -0.26729 -0.65380 61 60 65
0.72724 -0.27081 -0.62823 58 57 62
0.71549 -0.27464 -0.63588 60 62 67
0.73104 -0.27667 -0.61869 53 43 56
0.73378 -0.29066 -0.61600 32 31 30
0.73324 -0.28286 -0.60721 40 24 55
0.74446 -0.28707 -0.60705 53 56 65
0.74720 -0.30105 -0.60436 61 66 87
0.74861 -0.29280 -0.59808 55 46 56
0.74842 -0.29940 -0.58381 48 42 37
0.75966 -0.30363 -0.58363 51 56 63
0.79413 -0.32924 -0.55608 62 60 54
0.80806 -0.33945 -0.54525 70 71 56
0.82200 -0.34964 -0.53445 47 48 52
0.83133 -0.35434 -0.53177 46 50 54
0.83598 -0.35982 -0.52371 47 51 53
0.84133 -0.36518 -0.51650 45 45 43
0.87083 -0.37913 -0.50993 60 40 42
0.88314 -0.38346 -0.51039 50 33 34
0.88248 -0.38968 -0.49656 51 42 45
0.88521 -0.40361 -0.49388 121 133 110
0.88905 -0.39484 -0.49073 66 61 50
0.89173 -0.40052 -0.48069 76 74 41
0.89609 -0.40595 -0.47251 64 64 47
0.90921 -0.41022 -0.47375 40 42 71
0.93319 -0.41312 -0.48646 122 117 143
0.93882 -0.41843 -0.47956 228 247 248
0.94215 -0.42401 -0.47026 244 231 205
0.97393 -0.42618 -0.49071 162 92 86
0.98036 -0.43143 -0.48454 62 24 17
0.98744 -0.43661 -0.47906 48 45 49
0.99371 -0.44781 -0.46006 48 35 49
0.98918 -0.45679 -0.46256 48 40 30
0.99648 -0.46192 -0.45735 47 40 35
0.99659 -0.45340 -0.45038 37 33 51
0.99935 -0.46747 -0.44767 39 38 38
1.00048 -0.45886 -0.44177 39 33 51
1.01957 -0.47443 -0.42353 46 39 46
1.02699 -0.47952 -0.41851 67 61 42
1.02975 -0.49356 -0.41582 103 78 78
1.03106 -0.49061 -0.39802 186 181 171
1.04145 -0.49542 -0.39592 245 245 240
1.04419 -0.50941 -0.39323 254 254 254
1.28828 -0.66827 -0.22112 253 250 241
1.27655 -0.67209 -0.22876 254 254 254
1.28379 -0.67718 -0.22359 254 254 250
1.28963 -0.67333 -0.21137 247 237 214
1.28822 -0.67835 -0.19953 244 236 213
1.28731 -0.68333 -0.18815 251 252 242
1.29003 -0.69718 -0.18549 253 253 249
1.28833 -0.68830 -0.17833 254 253 244
1.28613 -0.69320 -0.16612 250 240 201
1.28655 -0.69810 -0.15596 227 202 145
1.28721 -0.70298 -0.14606 222 217 185
1.30432 -0.70814 -0.14851 244 251 254
1.31143 -0.71314 -0.14344 253 254 254
1.30701 -0.72189 -0.14587 249 252 254
-0.37606 0.29296 -0.98497 253 253 253
-0.38241 0.29742 -0.98950 254 254 254
-0.38001 0.28514 -0.98714 250 246 231
-0.36820 0.29072 -0.98644 253 252 243
-0.36079 0.28775 -0.98598 249 243 212
-0.35079 0.28846 -0.99550 248 221 161
-0.33289 0.30015 -1.03502 231 147 86
-0.33042 0.28755 -1.03260 174 46 36
-0.30531 0.31092 -1.08028 153 57 68
-0.29452 0.31184 -1.09090 162 47 33
-0.28582 0.30980 -1.09348 149 28 16
-0.23866 0.31652 -1.14569 136 76 80
-0.24983 0.31288 -1.15296 113 28 18
-0.20837 0.34075 -1.22213 182 177 196
-0.19986 0.33750 -1.22193 186 174 219
-0.18869 0.32386 -1.20150 164 153 182
-0.18086 0.31975 -1.19891 169 154 168
-0.17918 0.30849 -1.17600 155 123 140
-0.17650 0.29487 -1.17338 128 92 97
-0.08138 0.17097 -0.95803 142 115 150
-0.07168 0.16885 -0.96123 193 190 205
-0.06725 0.16208 -0.95020 208 204 211
-0.05632 0.16564 -0.94309 211 207 214
-0.06051 0.15734 -0.94539 211 207 213
-0.02900 0.14211 -0.93778 224 224 229
-0.03998 0.13854 -0.94493 219 216 224
-0.03321 0.13378 -0.94010 223 221 229
-0.02643 0.12902 -0.93527 227 225 232
-0.01227 0.13513 -0.93614 235 230 230
-0.01649 0.12677 -0.93846 231 230 232
0.00095 0.13541 -0.94732 206 192 198
0.00991 0.13225 -0.94768 210 199 181
0.02128 0.13089 -0.95385 234 234 225
0.03323 0.12989 -0.96126 235 234 240
0.03832 0.12367 -0.95194 212 206 217
0.05623 0.12693 -0.97331 175 126 149
0.05965 0.11944 -0.95990 152 59 70
0.07870 0.11333 -0.96199 164 52 52
0.08589 0.10857 -0.95749 173 70 69
0.09631 0.10604 -0.96036 179 105 95
0.10966 0.10544 -0.96977 206 157 162
0.12774 0.09820 -0.96863 252 251 233
0.13042 0.08453 -0.96600 254 254 254
0.13951 0.09632 -0.97400 254 254 249
0.14220 0.08259 -0.97137 254 254 254
0.15111 0.09425 -0.97883 254 254 254
0.15381 0.08047 -0.97618 254 254 254
0.17328 0.08924 -0.98579 254 254 254
0.16882 0.08042 -0.98824 254 254 254
0.17600 0.07537 -0.98312 254 254 254
0.18653 0.08800 -0.99371 254 253 247
0.19395 0.08306 -0.98901 251 245 211
0.19357 0.07337 -0.96784 212 182 133
0.20834 0.07290 -0.97864 166 116 85
0.22300 0.07225 -0.98898 128 81 61
0.23357 0.06910 -0.99065 84 57 46
0.24536 0.07294 -0.98297 63 61 77
0.24135 0.06428 -0.98649 63 56 63
0.25315 0.06812 -0.97881 62 64 81
0.25515 0.06289 -0.99455 63 63 79
0.26701 0.06675 -0.98683 61 64 82
0.26247 0.05775 -0.98933 65 65 80
0.27922 0.05786 -1.00298 61 64 77
0.28379 0.06693 -1.00046 60 63 82
0.29207 0.05570 -1.00860 55 59 69
0.30460 0.05328 -1.01342 47 48 63
0.30742 0.03892 -1.01066 44 41 59
0.33301 0.03173 -0.98972 52 57 67
0.32887 0.02063 -0.96252 65 74 73
0.33661 0.01565 -0.95798 53 60 66
0.33940 0.00142 -0.95524 47 47 57
0.36660 -0.01341 -0.91938 58 59 60
0.36938 -0.02757 -0.91666 54 47 57
0.37341 -0.01880 -0.91322 55 53 64
0.37618 -0.03295 -0.91050 52 47 56
0.38008 -0.02424 -0.90684 49 42 50
0.41034 -0.04438 -0.88767 62 59 64
0.41919 -0.04887 -0.88507 65 58 57
0.43338 -0.05937 -0.87381 54 53 60
0.44565 -0.06249 -0.87692 89 80 97
0.45558 -0.06662 -0.87598 65 76 81
0.47419 -0.07544 -0.87187 56 67 81
0.49219 -0.07650 -0.88399 93 113 128
0.49460 -0.08365 -0.87051 62 59 57
0.49741 -0.09799 -0.86775 56 75 74
0.49858 -0.09016 -0.85967 51 45 49
0.50332 -0.09635 -0.85014 52 54 56
0.50916 -0.10211 -0.84240 54 58 53
0.51187 -0.10898 -0.82977 58 72 66
0.51867 -0.11435 -0.82365 58 86 75
0.52111 -0.12125 -0.81074 48 45 65
0.52389 -0.13541 -0.80801 39 39 54
0.52614 -0.12719 -0.80196 47 41 63
0.53975 -0.13782 -0.78995 42 39 50
0.55284 -0.14860 -0.77721 46 36 41
0.55561 -0.16272 -0.77449 44 41 37
0.56044 -0.15364 -0.77244 50 44 41
0.56321 -0.16776 -0.76972 48 46 49
0.57907 -0.17006 -0.75198 43 41 50
0.56725 -0.17391 -0.75967 42 44 48
0.57454 -0.17903 -0.75447 42 39 46
0.58606 -0.17527 -0.74634 60 63 54
0.58929 -0.18162 -0.73527 91 90 50
0.60085 -0.18546 -0.73624 70 63 46
0.61065 -0.19707 -0.71906 53 52 56
0.60614 -0.20602 -0.72154 60 52 53
0.61452 -0.20314 -0.70909 63 66 69
0.62604 -0.20705 -0.70989 71 78 83
0.63453 -0.21891 -0.69115 83 56 22
0.64282 -0.22372 -0.68740 90 76 51
0.65711 -0.22698 -0.69182 59 57 66
0.65987 -0.24106 -0.68911 45 41 49
0.66524 -0.23188 -0.68778 42 44 49
0.66800 -0.24596 -0.68507 46 39 48
0.69806 -0.26513 -0.64242 49 53 57
0.70080 -0.27912 -0.63973 64 67 66
0.71502 -0.28144 -0.62086 63 67 72
0.71777 -0.28748 -0.61005 55 57 48
0.72050 -0.30140 -0.60737 46 40 46
0.73287 -0.29746 -0.60064 44 46 61
0.74282 -0.30848 -0.58486 51 47 41
0.74724 -0.31407 -0.57635 40 46 56
0.75692 -0.31863 -0.57429 65 73 59
0.76309 -0.33026 -0.55417 54 50 55
0.77339 -0.33471 -0.55282 52 54 53
0.78334 -0.33924 -0.55103 51 47 63
0.79261 -0.34391 -0.54838 58 68 75
0.80115 -0.34873 -0.54484 60 78 66
0.80554 -0.35425 -0.53645 53 47 42
0.81264 -0.35931 -0.53124 47 27 25
0.83406 -0.37446 -0.51575 55 41 24
0.84842 -0.37841 -0.51874 63 58 50
0.86085 -0.38269 -0.51947 79 72 83
0.86561 -0.38812 -0.51156 98 91 98
0.87354 -0.39309 -0.50722 113 115 107
0.88223 -0.39796 -0.50368 119 129 115
0.89675 -0.40810 -0.49346 120 127 98
0.87875 -0.41646 -0.46104 93 88 71
0.90488 -0.41906 -0.47636 39 39 54
0.91202 -0.42413 -0.47116 80 97 113
0.93793 -0.42692 -0.48588 214 243 248
0.94571 -0.43197 -0.48122 248 237 216
0.94048 -0.43852 -0.46294 192 129 109
0.96967 -0.44114 -0.48065 74 20 16
0.97815 -0.44614 -0.47666 51 48 52
0.98092 -0.46028 -0.47394 57 51 55
0.98494 -0.45134 -0.47091 47 44 41
0.98771 -0.46546 -0.46819 55 49 57
0.99783 -0.47918 -0.42125 49 38 50
0.98612 -0.48299 -0.42887 51 47 43
0.99334 -0.48807 -0.42371 60 50 48
1.00862 -0.48394 -0.41963 63 49 58
1.02336 -0.49975 -0.39736 200 198 168
1.03263 -0.50466 -0.39420 246 248 238
1.03536 -0.51862 -0.39152 254 254 254
1.28461 -0.68221 -0.21341 252 249 232
1.27292 -0.68602 -0.22103 254 254 254
1.28013 -0.69109 -0.21588 254 254 250
1.28283 -0.68719 -0.20126 247 237 209
1.28556 -0.70108 -0.19859 251 244 235
1.28164 -0.69213 -0.18966 249 244 230
1.27191 -0.70179 -0.16105 254 253 243
1.26750 -0.71051 -0.16348 252 253 246
1.26727 -0.70655 -0.14710 251 243 194
1.26995 -0.72018 -0.14447 250 243 209
1.26204 -0.71601 -0.12252 230 226 225
-0.38811 0.28696 -0.98450 252 249 237
-0.39051 0.29920 -0.98685 254 254 254
-0.39444 0.29141 -0.98902 254 253 251
-0.37292 0.28175 -0.98553 253 253 250
-0.37687 0.27393 -0.98771 253 230 221
-0.36583 0.27835 -0.98389 254 252 239
-0.35837 0.27544 -0.98364 253 242 213
-0.34116 0.28620 -1.02096 228 171 129
-0.32170 0.28597 -1.03625 214 113 79
-0.31761 0.27808 -1.02245 238 136 87
-0.30295 0.28431 -1.04786 196 94 63
-0.24453 0.30604 -1.14242 121 67 71
-0.23164 0.30865 -1.15855 158 141 161
-0.22255 0.30642 -1.16107 158 144 177
-0.21326 0.30435 -1.16412 150 134 161
-0.20312 0.30322 -1.16991 148 131 149
-0.19383 0.30099 -1.17259 149 134 146
-0.18599 0.29700 -1.17030 152 135 136
-0.09487 0.15442 -0.93486 114 60 81
-0.07002 0.16566 -0.97941 166 156 179
-0.06841 0.15641 -0.96063 200 197 209
-0.06115 0.15208 -0.95713 207 203 210
-0.05018 0.15565 -0.94999 212 208 215
-0.05859 0.13900 -0.95461 206 201 208
-0.00566 0.12514 -0.94371 234 232 230
0.00530 0.12354 -0.94913 232 234 230
0.01771 0.12296 -0.95793 215 218 228
0.02247 0.11652 -0.94783 182 154 200
0.04316 0.12194 -0.97638 150 95 139
0.04560 0.11374 -0.96056 142 46 62
0.05490 0.11058 -0.96126 167 49 49
0.06374 0.10705 -0.96077 187 91 79
0.08069 0.09937 -0.95786 230 193 189
0.09349 0.09847 -0.96628 250 236 219
0.09615 0.08490 -0.96367 254 254 254
0.10016 0.09330 -0.96049 254 252 239
0.10282 0.07975 -0.95789 254 254 254
0.10989 0.09019 -0.96163 254 254 252
0.11256 0.07660 -0.95902 254 254 254
0.18760 0.07304 -0.98747 254 254 248
0.17593 0.06924 -0.99507 254 254 254
0.18313 0.06418 -0.98993 254 254 254
0.19033 0.05912 -0.98480 254 254 254
0.18809 0.05463 -0.94791 229 214 196
0.19969 0.05226 -0.95219 195 169 126
0.20258 0.04477 -0.93828 144 112 56
0.23170 0.05238 -0.97843 87 61 43
0.24470 0.05055 -0.98499 61 48 60
0.25669 0.04806 -0.98933 55 49 67
0.25946 0.03393 -0.98661 43 16 33
0.27034 0.04642 -0.99685 49 45 63
0.28098 0.04306 -0.99819 42 40 50
0.29386 0.04084 -1.00383 43 38 50
0.31339 0.03294 -1.00253 53 49 62
0.31621 0.01859 -0.99977 59 55 70
0.31832 0.02644 -0.99242 57 52 65
0.32921 0.00519 -0.95515 53 57 70
0.36019 -0.02329 -0.91849 58 47 49
0.36296 -0.03743 -0.91577 63 62 69
0.37867 -0.04025 -0.89667 58 53 62
0.36684 -0.04411 -0.90437 61 55 57
0.38143 -0.05436 -0.89396 83 77 69
0.38387 -0.04630 -0.88776 54 51 62
0.40187 -0.05507 -0.88334 82 75 72
0.41077 -0.05953 -0.88089 92 78 74
0.41354 -0.07366 -0.87818 69 76 55
0.41465 -0.06610 -0.86978 69 57 38
0.42278 -0.07088 -0.86600 58 47 55
0.43534 -0.07387 -0.86971 82 82 75
0.44644 -0.07751 -0.87082 60 70 63
0.44922 -0.09170 -0.86809 66 71 45
0.45390 -0.08262 -0.86579 57 61 43
0.46144 -0.08771 -0.86086 48 54 59
0.46422 -0.10191 -0.85813 31 32 38
0.47119 -0.09194 -0.85958 42 51 81
0.47875 -0.09704 -0.85466 45 53 66
0.48516 -0.11044 -0.83079 42 40 55
0.49106 -0.11609 -0.82331 33 35 41
0.49858 -0.12115 -0.81842 47 59 66
0.50100 -0.12802 -0.80550 54 65 72
0.50691 -0.13362 -0.79813 42 43 50
0.51669 -0.14547 -0.78035 47 44 58
0.52344 -0.15074 -0.77440 50 58 43
0.53072 -0.15583 -0.76926 54 58 53
0.53958 -0.16041 -0.76651 46 38 34
0.57222 -0.18704 -0.73522 54 56 61
0.56048 -0.19086 -0.74287 48 41 48
0.56772 -0.19595 -0.73770 49 44 56
0.58008 -0.19195 -0.73094 73 77 76
0.58730 -0.19705 -0.72571 64 66 65
0.59332 -0.20250 -0.71879 62 55 54
0.60173 -0.21437 -0.69986 52 51 59
0.60749 -0.21984 -0.69266 59 67 75
0.61504 -0.22481 -0.68799 88 96 104
0.62519 -0.22910 -0.68692 110 111 114
0.62793 -0.24307 -0.68423 53 42 57
0.62943 -0.23496 -0.67765 89 87 71
0.63216 -0.24890 -0.67497 50 44 47
0.64310 -0.23837 -0.68133 54 51 40
0.64584 -0.25237 -0.67864 46 48 52
0.66615 -0.25331 -0.66762 48 37 49
0.67064 -0.24440 -0.66514 46 41 52
0.67789 -0.24949 -0.65997 43 41 45
0.67234 -0.25866 -0.66104 52 42 43
0.67684 -0.26439 -0.65225 45 45 41
0.68208 -0.26993 -0.64448 37 44 42
0.68291 -0.27646 -0.63099 51 57 59
0.68564 -0.29037 -0.62832 58 60 67
0.69762 -0.28650 -0.62113 55 65 77
0.71010 -0.29702 -0.60844 54 58 65
0.72427 -0.30716 -0.59792 49 47 60
0.71981 -0.31601 -0.60038 39 28 40
0.73237 -0.31203 -0.59394 65 50 75
0.73510 -0.31796 -0.58328 49 40 48
0.74046 -0.32335 -0.57594 29 37 48
0.74699 -0.32851 -0.57005 29 38 55
0.75303 -0.33375 -0.56357 38 34 53
0.74864 -0.34089 -0.54452 34 22 30
0.76561 -0.34412 -0.55127 50 36 34
0.77287 -0.34913 -0.54630 59 32 36
0.78390 -0.35348 -0.54580 52 27 30
0.79009 -0.35868 -0.53954 55 46 43
0.79281 -0.37253 -0.53688 166 191 164
0.80266 -0.36903 -0.52728 93 84 87
0.81883 -0.37880 -0.51920 147 146 126
0.82542 -0.38392 -0.51343 158 171 142
0.83384 -0.38877 -0.50976 152 173 147
0.84603 -0.39308 -0.51030 140 159 140
0.84876 -0.40697 -0.50763 15 22 43
0.86266 -0.39678 -0.51575 128 137 135
0.86540 -0.41074 -0.51307 16 21 50
0.86906 -0.40197 -0.50968 112 108 132
0.85219 -0.41031 -0.47791 90 77 105
0.89891 -0.42214 -0.49015 38 32 36
0.90622 -0.42720 -0.48508 28 22 39
0.91392 -0.43222 -0.48044 83 84 109
0.92936 -0.43634 -0.48404 214 237 233
0.93662 -0.44144 -0.47886 251 244 216
0.94320 -0.44661 -0.47298 216 166 108
0.95983 -0.45070 -0.47761 100 26 16
0.96893 -0.45563 -0.47429 60 42 51
0.99374 -0.49936 -0.39952 45 31 40
1.00788 -0.50386 -0.40125 141 120 115
1.01530 -0.50890 -0.39633 224 227 211
1.01803 -0.52282 -0.39365 254 254 254
1.27534 -0.69599 -0.20136 253 251 239
1.26371 -0.69978 -0.20893 254 254 254
1.27089 -0.70482 -0.20381 254 254 252
1.26176 -0.71520 -0.14864 253 253 242
1.26443 -0.72883 -0.14602 252 249 241
-0.42202 0.28951 -0.98461 254 254 254
-0.42441 0.30166 -0.98695 254 254 254
-0.42831 0.29393 -0.98909 254 254 254
-0.41812 0.29724 -0.98247 254 254 254
-0.41184 0.29283 -0.97798 254 254 254
-0.41435 0.28729 -0.98609 254 254 254
-0.40414 0.29062 -0.97944 254 254 254
-0.40624 0.28568 -0.98923 254 254 252
-0.40385 0.27347 -0.98688 253 178 163
-0.39910 0.28250 -0.98815 254 252 242
-0.39022 0.28192 -0.99418 254 246 233
-0.38270 0.27919 -0.99442 254 245 241
-0.35734 0.28849 -1.03560 251 174 167
-0.36137 0.28051 -1.03782 237 101 39
-0.34610 0.29070 -1.04968 243 121 116
-0.34362 0.27807 -1.04725 210 90 16
-0.34549 0.27779 -1.02196 222 93 58
-0.33821 0.27436 -1.02045 211 101 45
-0.32809 0.27475 -1.02963 230 136 54
-0.31899 0.27365 -1.03471 229 121 62
-0.30704 0.27621 -1.05014 216 97 33
-0.25338 0.29184 -1.12847 138 68 52
-0.24099 0.29388 -1.14313 149 122 124
-0.23180 0.29186 -1.14626 144 126 137
-0.22109 0.29157 -1.15444 143 120 138
-0.20978 0.29186 -1.16437 142 118 138
-0.20112 0.28892 -1.16509 141 118 136
-0.19847 0.27540 -1.16249 137 113 124
-0.19260 0.28577 -1.16520 143 120 130
-0.18588 0.28052 -1.15924 144 117 118
-0.17371 0.28139 -1.17118 95 68 67
-0.16228 0.28511 -1.16375 55 33 42
-0.16666 0.27644 -1.16615 62 24 33
-0.17103 0.26777 -1.16856 77 45 61
-0.09467 0.15005 -0.94908 97 18 55
-0.10553 0.14651 -0.95615 118 28 51
-0.08077 0.15161 -0.96394 126 97 134
-0.07076 0.14967 -0.96793 181 178 189
-0.06502 0.14403 -0.96031 201 196 205
-0.02674 0.12379 -0.94758 222 222 229
-0.03353 0.12857 -0.95243 222 220 226
-0.01825 0.12034 -0.94700 220 219 229
-0.00773 0.11843 -0.95150 210 209 223
0.00486 0.11804 -0.96099 182 175 195
0.01514 0.11578 -0.96450 152 125 174
0.03090 0.11754 -0.98132 145 80 159
0.03884 0.11338 -0.97876 165 98 126
0.04571 0.10842 -0.97358 182 115 95
0.05819 0.10749 -0.98182 211 151 155
0.05944 0.09850 -0.96319 241 221 205
0.06208 0.08505 -0.96060 254 254 254
0.06813 0.09482 -0.96230 253 251 229
0.07078 0.08135 -0.95971 254 254 254
0.07707 0.09128 -0.96192 254 254 248
0.07972 0.07778 -0.95932 254 254 254
0.08512 0.08710 -0.95941 254 254 254
0.08777 0.07359 -0.95681 254 254 254
0.18302 0.04548 -0.94897 254 253 248
0.17149 0.04173 -0.95647 254 254 254
0.17860 0.03673 -0.95140 254 254 254
0.18595 0.03804 -0.93511 254 248 215
0.19424 0.03375 -0.93256 227 204 144
0.20440 0.03050 -0.93381 154 107 73
0.23931 0.04110 -0.98570 79 38 41
0.26171 0.04436 -1.01127 49 21 35
0.28198 0.03700 -1.01186 44 22 25
0.29017 0.03223 -1.00815 48 32 30
0.30111 0.02889 -1.00986 49 41 51
0.30392 0.01455 -1.00710 69 55 71
0.30746 0.02312 -1.00247 59 52 68
0.32510 -0.01235 -0.93944 59 53 63
0.33695 -0.00850 -0.93173 52 55 60
0.33241 -0.01749 -0.93423 53 50 55
0.33510 -0.02480 -0.92045 59 58 63
0.33980 -0.03112 -0.91050 80 72 88
0.38100 -0.06281 -0.87512 57 53 40
0.36924 -0.06664 -0.88278 67 64 81
0.38842 -0.06784 -0.87024 55 49 48
0.39782 -0.07204 -0.86878 59 62 71
0.41710 -0.08033 -0.86653 73 84 51
0.42101 -0.08681 -0.85558 43 45 55
0.42376 -0.10087 -0.85287 30 32 52
0.43200 -0.09045 -0.85667 40 45 54
0.44695 -0.10056 -0.84687 47 49 36
0.46147 -0.11084 -0.83634 37 41 51
0.45694 -0.11982 -0.83883 40 40 47
0.46655 -0.11678 -0.82753 49 46 49
0.47327 -0.12211 -0.82142 43 35 47
0.48071 -0.12717 -0.81647 41 39 40
0.48638 -0.13286 -0.80870 42 47 55
0.49010 -0.13920 -0.79789 55 52 57
0.49538 -0.14498 -0.78960 75 63 46
0.49779 -0.15171 -0.77687 52 42 37
0.50365 -0.15724 -0.76960 39 38 27
0.50638 -0.17120 -0.76692 42 38 38
0.50394 -0.16459 -0.75379 62 78 39
0.51218 -0.16929 -0.75028 67 66 69
0.52539 -0.17243 -0.75429 46 36 29
0.53179 -0.17776 -0.74791 41 41 38
0.53901 -0.18283 -0.74276 42 43 50
0.53453 -0.19171 -0.74522 41 43 47
0.56446 -0.20410 -0.71720 42 42 66
0.55279 -0.20790 -0.72480 53 44 57
0.55999 -0.21296 -0.71966 42 39 56
0.56719 -0.21802 -0.71453 41 37 45
0.57014 -0.20959 -0.70987 41 41 68
0.57701 -0.21474 -0.70427 65 67 73
0.57973 -0.22864 -0.70159 58 56 52
0.58394 -0.21986 -0.69877 68 70 64
0.58733 -0.22595 -0.68824 46 50 53
0.59273 -0.23147 -0.68062 41 43 47
0.60086 -0.23625 -0.67687 46 49 57
0.60763 -0.24139 -0.67120 49 49 71
0.64318 -0.25986 -0.66006 43 48 56
0.64075 -0.26722 -0.64198 57 64 80
0.66181 -0.27572 -0.64073 63 57 60
0.66699 -0.28122 -0.63296 41 36 36
0.67173 -0.28681 -0.62465 50 57 62
0.68862 -0.30289 -0.60340 39 48 67
0.69719 -0.30762 -0.60011 40 42 53
0.70766 -0.31197 -0.59922 35 35 32
0.72463 -0.32152 -0.59230 40 23 34
0.72318 -0.32823 -0.57644 42 18 19
0.73878 -0.33802 -0.56787 48 23 35
0.74190 -0.34377 -0.55786 57 50 56
0.74461 -0.35756 -0.55521 171 195 173
0.74983 -0.34864 -0.55374 81 74 74
0.75868 -0.35335 -0.55072 117 101 84
0.76839 -0.35793 -0.54871 145 135 117
0.77432 -0.36316 -0.54215 155 160 132
0.78187 -0.36812 -0.53753 165 182 147
0.79299 -0.37866 -0.52362 158 177 159
0.80008 -0.38368 -0.51849 143 151 161
0.82856 -0.39162 -0.52456 102 84 129
0.83128 -0.40552 -0.52189 44 15 22
0.84431 -0.39544 -0.52918 63 56 105
0.84427 -0.40154 -0.51581 28 32 72
0.89522 -0.42495 -0.50654 57 20 9
0.89271 -0.43123 -0.49074 61 15 14
0.90086 -0.43619 -0.48661 74 33 63
0.93120 -0.43860 -0.50630 142 139 173
0.93396 -0.45272 -0.50359 253 254 254
0.92322 -0.44545 -0.48477 231 251 246
0.92890 -0.45072 -0.47793 254 250 235
0.94895 -0.45444 -0.48628 242 203 149
0.95136 -0.46007 -0.47596 130 42 6
0.96084 -0.46496 -0.47308 64 33 26
0.96763 -0.47012 -0.46737 55 47 55
0.97674 -0.47506 -0.46407 52 45 55
0.98855 -0.47122 -0.45638 51 48 46
0.98183 -0.48039 -0.45662 48 46 41
0.99363 -0.47654 -0.44895 48 47 45
0.97598 -0.48666 -0.43809 43 46 46
0.97798 -0.49219 -0.42764 45 47 48
0.98174 -0.49754 -0.41904 54 42 43
0.98482 -0.50293 -0.40979 48 29 37
0.98549 -0.50848 -0.39820 107 80 100
1.00329 -0.51272 -0.40358 202 194 192
1.01284 -0.51761 -0.40075 246 246 242
1.01557 -0.53154 -0.39807 254 254 254
-0.44010 0.28796 -0.98854 253 254 254
-0.44248 0.30007 -0.99087 254 254 254
-0.44637 0.29236 -0.99301 254 254 254
