ply
format ascii 1.0
element face 0
property list uchar int vertex_indices
element vertex 1334
property float x
property float y
property float z
property uchar diffuse_red
property uchar diffuse_green
property uchar diffuse_blue
end_header
1.35743 -0.80935 -0.08655 45 35 32
1.35854 -0.80117 -0.07836 59 56 49
1.36640 -0.80138 -0.06502 69 58 48
1.36082 -0.80880 -0.07087 68 58 48
1.24009 -0.82950 0.04091 51 45 49
1.23263 -0.82930 0.02825 59 52 50
1.20863 -0.83038 0.06463 88 85 83
1.21289 -0.84465 0.07867 109 103 86
1.22719 -0.85418 0.07980 73 59 48
1.33161 -0.93063 0.09622 36 38 38
1.33483 -0.91599 0.09462 33 32 33
1.32940 -0.92321 0.08892 33 36 36
1.33704 -0.92341 0.10192 33 32 34
1.33878 -0.93914 0.10127 40 42 46
1.34373 -0.94719 0.10735 47 49 55
1.34782 -0.95505 0.11383 54 59 64
1.34966 -0.96241 0.12133 62 68 73
1.35245 -0.96999 0.12840 69 74 80
1.35609 -0.97777 0.13511 80 82 90
1.34424 -0.98188 0.14857 92 93 104
1.34103 -0.99651 0.15018 122 129 133
1.37421 -1.01676 0.16880 135 143 150
1.37813 -1.02466 0.17544 142 150 152
1.37489 -1.03941 0.17706 154 161 163
1.38079 -1.03224 0.18262 146 152 149
1.42393 -1.05718 0.18145 140 131 113
1.42950 -1.06563 0.18756 141 129 119
1.43733 -1.06584 0.20086 141 129 124
1.43169 -1.07321 0.19507 149 137 131
1.43952 -1.07341 0.20837 150 138 130
1.43374 -1.08075 0.20263 158 145 138
1.44157 -1.08095 0.21592 158 148 132
1.43328 -1.08761 0.21119 166 153 140
1.42999 -1.10258 0.21283 178 164 151
1.43487 -1.09501 0.21892 172 158 143
1.44269 -1.09522 0.23220 169 157 141
1.43714 -1.10260 0.22638 176 162 145
1.43158 -1.10998 0.22056 182 168 150
1.41542 -1.13790 0.28435 195 181 161
1.41866 -1.12313 0.28272 188 172 156
1.41318 -1.13042 0.27698 193 178 162
1.42090 -1.13062 0.29009 193 176 159
1.42369 -1.14715 0.28948 186 172 153
1.42463 -1.15427 0.29733 155 140 129
1.45561 -1.17031 0.29424 116 96 92
1.45233 -1.18526 0.29588 75 62 48
1.46215 -1.17916 0.30015 86 62 58
1.45885 -1.19414 0.30180 76 67 39
1.49516 -1.20999 0.31333 74 66 37
1.49745 -1.21765 0.32087 60 55 28
1.49184 -1.22511 0.31499 31 24 18
2.12699 -1.47195 0.17228 104 116 114
2.12543 -1.47988 0.18290 129 144 144
2.14278 -1.49406 0.18741 113 113 124
2.15380 -1.50620 0.19402 58 44 56
2.16541 -1.51857 0.20049 13 4 12
2.17865 -1.53155 0.20651 14 8 19
2.19265 -1.54483 0.21235 35 19 25
2.21883 -1.56236 0.21451 54 48 50
2.24259 -1.57917 0.21755 97 82 60
2.21028 -1.57650 0.23762 135 119 85
2.20191 -1.58207 0.25033 154 143 110
2.18515 -1.58462 0.26546 124 98 85
2.21272 -1.60289 0.26749 67 55 55
2.20860 -1.62164 0.26955 55 48 47
2.24092 -1.63004 0.27973 70 51 49
2.91737 -2.21137 0.48940 112 119 139
2.90593 -2.21107 0.46996 138 144 142
2.91608 -2.22042 0.50119 121 138 151
2.90733 -2.23570 0.52581 141 135 157
2.90989 -2.24642 0.53681 125 139 167
2.92303 -2.26193 0.54595 153 174 192
2.83458 -2.35160 0.71714 119 124 121
2.82353 -2.35131 0.69837 123 130 130
2.83778 -2.36232 0.72769 93 91 94
2.79849 -2.35223 0.74390 55 49 56
2.79389 -2.37317 0.74620 39 40 40
0.83683 0.27305 -1.00767 68 98 148
0.82959 0.27324 -1.01997 54 82 137
0.83168 0.26621 -1.01306 52 78 135
0.84743 0.26857 -1.01001 56 90 140
0.85133 0.26205 -1.00501 53 81 136
0.86331 0.25787 -1.00871 56 77 133
0.86020 0.24927 -0.99612 53 73 115
0.84306 0.13163 -0.84235 47 52 72
0.83593 0.13182 -0.85446 42 47 62
0.85154 0.12620 -0.84201 115 121 117
0.85509 0.11960 -0.83666 189 219 203
0.86064 0.11344 -0.83330 220 234 238
0.88251 0.11087 -0.84613 224 234 239
0.87929 0.10269 -0.83396 207 210 231
0.88139 0.09569 -0.82708 201 204 234
0.89271 0.09064 -0.82926 186 196 239
0.87634 0.07978 -0.80429 137 139 199
0.90850 0.07145 -0.81770 53 46 106
0.90543 0.05751 -0.81617 26 17 30
0.91381 0.06502 -0.81384 37 34 97
0.91431 0.05763 -0.80533 32 31 91
0.91760 0.05079 -0.79951 24 26 70
0.91737 0.04328 -0.79032 30 11 33
0.92115 0.03653 -0.78496 31 17 36
0.92545 0.02985 -0.78008 34 22 44
0.92238 0.01589 -0.77854 42 43 45
0.93286 -0.01344 -0.73347 32 36 56
0.93075 -0.00638 -0.74041 30 30 38
0.93610 -0.02033 -0.72756 31 41 65
0.93793 -0.02743 -0.72036 32 48 85
0.93487 -0.04136 -0.71883 33 60 106
0.94110 -0.03433 -0.71437 33 59 100
0.93803 -0.04827 -0.71284 34 61 113
1.05866 -0.15433 -0.65582 81 80 98
1.07081 -0.17582 -0.63884 55 73 99
1.07837 -0.17602 -0.62600 52 90 129
1.07774 -0.18279 -0.63552 52 88 129
1.07455 -0.19729 -0.63392 63 94 130
1.08770 -0.19709 -0.62559 62 94 133
1.09264 -0.20427 -0.62056 37 70 120
1.10066 -0.21127 -0.61799 115 114 112
1.12055 -0.21758 -0.62489 201 195 188
1.11417 -0.22553 -0.61070 240 231 222
1.12181 -0.22573 -0.59771 248 239 227
1.11638 -0.23295 -0.60340 248 239 230
1.14815 -0.26167 -0.59203 250 248 240
1.15140 -0.24688 -0.59365 247 240 229
1.14591 -0.25417 -0.59940 251 247 231
1.15363 -0.25438 -0.58628 248 241 231
1.15587 -0.26187 -0.57891 248 243 234
1.15395 -0.26902 -0.58742 235 243 239
1.16169 -0.26922 -0.57428 248 248 236
1.15070 -0.28383 -0.58580 169 133 150
1.16166 -0.27633 -0.58426 222 239 234
1.16941 -0.27653 -0.57109 250 251 239
1.15840 -0.29117 -0.58263 159 146 141
1.16700 -0.29893 -0.56100 211 233 238
1.17026 -0.28410 -0.56263 251 253 247
1.15926 -0.29872 -0.57416 155 150 133
1.17250 -0.29161 -0.55524 251 253 250
1.16150 -0.30624 -0.56677 152 143 142
1.17475 -0.29913 -0.54784 250 253 252
1.16721 -0.30649 -0.55207 219 236 238
1.17495 -0.30669 -0.53892 252 253 251
1.17010 -0.31399 -0.54517 234 241 242
1.17784 -0.31419 -0.53201 253 254 251
1.16746 -0.32911 -0.52508 251 253 253
1.17518 -0.32931 -0.51197 254 254 253
1.16970 -0.33660 -0.51771 254 254 254
1.31633 -0.70858 -0.17766 245 243 214
1.30850 -0.70838 -0.19097 251 250 249
1.31077 -0.71597 -0.18349 252 252 247
1.31304 -0.72357 -0.17602 253 250 231
1.31896 -0.71623 -0.17039 237 227 170
1.29239 -0.72701 -0.13811 222 221 191
1.28914 -0.74182 -0.13648 215 219 178
1.29235 -0.73418 -0.12946 225 233 209
1.29343 -0.74151 -0.12144 239 246 240
1.28658 -0.74764 -0.10909 248 249 230
1.28334 -0.76239 -0.10747 245 247 239
1.27457 -0.75293 -0.09400 242 234 188
1.29403 -0.76306 -0.09600 196 179 118
1.34024 -0.77753 -0.11225 122 95 43
1.35512 -0.78718 -0.11149 87 48 26
1.35488 -0.79441 -0.10263 79 60 44
1.35112 -0.80104 -0.09193 57 35 16
1.33947 -0.81348 -0.06851 54 42 35
1.34728 -0.81369 -0.05525 66 59 49
1.33637 -0.82012 -0.05828 56 50 44
1.34416 -0.82032 -0.04505 65 60 50
1.33862 -0.82767 -0.05085 59 54 45
1.24486 -0.83844 0.03033 50 47 56
1.23738 -0.83825 0.01762 50 48 43
1.21539 -0.83963 0.05320 84 84 76
1.20728 -0.84480 0.06531 134 141 120
1.21520 -0.85308 0.06950 114 112 88
1.23121 -0.86302 0.06978 74 67 48
1.23518 -0.87058 0.07598 46 48 37
1.24260 -0.87078 0.08859 44 46 41
1.23732 -0.87778 0.08307 42 46 40
1.23205 -0.88479 0.07754 45 52 42
1.31314 -0.92806 0.08826 38 42 46
1.31635 -0.91348 0.08666 32 36 38
1.31094 -0.92067 0.08099 35 40 43
1.32345 -0.93724 0.09179 44 47 50
1.33087 -0.94582 0.09670 52 55 58
1.33606 -0.95392 0.10265 59 63 67
1.33996 -0.96175 0.10921 66 70 77
1.34333 -0.96945 0.11601 72 78 86
1.34710 -0.97726 0.12265 85 89 97
1.33974 -0.98243 0.13421 97 103 110
1.33293 -0.98768 0.14547 108 118 125
1.36233 -1.00861 0.14922 128 137 140
1.36512 -1.02312 0.16462 141 149 157
1.36830 -1.03083 0.17155 148 155 161
1.36787 -1.04449 0.18827 162 168 163
1.37527 -1.05329 0.19346 163 167 149
1.40687 -1.06852 0.18875 161 154 129
1.42088 -1.07920 0.19138 161 148 124
1.41892 -1.08564 0.20055 166 153 138
1.41500 -1.09153 0.21047 173 159 147
1.41173 -1.10643 0.21211 183 169 153
1.40195 -1.13603 0.27342 188 180 162
1.39972 -1.12856 0.26607 192 180 163
1.40411 -1.14349 0.28080 175 162 146
1.39989 -1.14905 0.29056 141 122 116
1.41650 -1.16079 0.29256 100 78 81
1.41325 -1.17557 0.29418 76 63 52
1.43773 -1.17398 0.29296 76 57 58
1.47940 -1.20736 0.30272 70 64 32
1.49188 -1.21817 0.30662 55 47 22
1.48856 -1.23331 0.30828 12 5 16
2.09017 -1.46279 0.16497 46 60 62
2.08061 -1.46254 0.14871 11 11 15
2.08338 -1.47182 0.15785 8 13 28
2.12356 -1.48219 0.16396 72 95 105
2.13047 -1.49293 0.17183 84 107 109
2.12379 -1.49913 0.18414 55 50 61
2.13236 -1.51043 0.19149 16 7 15
2.14010 -1.52149 0.19913 11 13 7
2.16029 -1.53683 0.20286 46 33 24
2.20878 -1.56203 0.19784 99 78 62
2.16042 -1.55378 0.22313 135 122 83
2.17425 -1.56706 0.22901 156 142 88
2.18335 -1.57872 0.23639 148 134 98
2.23363 -1.60504 0.23140 107 75 71
2.22091 -1.60906 0.24549 62 49 45
2.20912 -1.61334 0.25921 54 41 42
2.22955 -1.63775 0.27366 59 54 45
2.24303 -1.65120 0.28001 64 61 38
2.24997 -1.66229 0.28828 65 59 36
2.24581 -1.68122 0.29036 29 21 44
2.27149 -1.67883 0.29248 58 52 43
2.28451 -1.69227 0.29914 56 44 43
2.28740 -1.70195 0.30866 65 55 47
2.94937 -2.21082 0.43805 100 91 89
2.92016 -2.20770 0.45556 117 125 124
2.88697 -2.21224 0.48518 109 105 127
2.89220 -2.22416 0.49568 114 126 144
2.89513 -2.23504 0.50661 148 164 171
2.89034 -2.25684 0.50901 146 156 160
2.89438 -2.24425 0.51823 160 160 155
2.90261 -2.25754 0.52819 122 116 107
2.89782 -2.27934 0.53059 121 123 101
2.90382 -2.26763 0.53944 121 139 148
2.91985 -2.28453 0.54806 160 183 194
2.93127 -2.28483 0.56746 181 190 195
2.91723 -2.29287 0.55999 180 194 198
2.92863 -2.29317 0.57936 182 190 193
2.92053 -2.30393 0.57087 185 194 193
2.91243 -2.31470 0.56239 162 188 198
2.82990 -2.36358 0.70848 117 120 122
2.80630 -2.36115 0.72273 82 75 79
2.79978 -2.36702 0.73454 45 39 44
2.79517 -2.38801 0.73684 42 39 37
2.74180 -2.51446 0.95382 151 162 169
2.70613 -2.51245 0.97737 172 184 196
2.70918 -2.52267 0.98742 179 191 201
2.65651 -2.51089 1.01161 188 190 197
2.66087 -2.49104 1.00943 181 181 180
2.65350 -2.50083 1.00171 186 190 198
2.66387 -2.50110 1.01933 180 181 180
2.66688 -2.51116 1.02923 178 180 185
2.62418 -2.50152 1.02388 191 192 200
2.63445 -2.50179 1.04134 178 181 186
2.62716 -2.51149 1.03369 192 195 200
2.61986 -2.52119 1.02605 197 205 212
0.84280 0.26186 -1.01600 53 83 137
0.84368 0.25445 -1.00772 62 93 146
0.84841 0.24815 -1.00363 79 106 148
0.85667 0.24285 -1.00333 71 94 120
0.86553 0.23768 -1.00361 46 63 89
0.86245 0.22366 -1.00207 33 47 69
0.87988 0.23399 -1.00972 36 50 74
0.89201 0.22960 -1.01337 28 38 57
0.82996 0.12303 -0.83949 40 50 67
0.82286 0.12322 -0.85156 45 48 63
0.82491 0.11633 -0.84478 43 47 60
0.83676 0.11723 -0.83752 56 76 90
0.84489 0.11169 -0.83683 96 119 149
0.85190 0.10586 -0.83497 124 128 191
0.85597 0.09936 -0.83014 124 136 198
0.87435 0.09592 -0.83952 92 97 171
0.87900 0.08946 -0.83517 77 74 137
0.88109 0.08245 -0.82827 57 64 129
0.87805 0.06862 -0.82675 33 35 48
0.88801 0.07643 -0.82611 38 38 91
0.89638 0.07067 -0.82533 26 30 59
0.90017 0.06395 -0.82004 28 21 40
0.90503 0.04997 -0.80679 25 19 46
0.90197 0.03605 -0.80526 64 69 76
0.90965 0.04339 -0.80227 29 30 58
0.91551 0.03702 -0.79892 51 57 70
0.91245 0.02306 -0.79738 45 49 64
0.92153 -0.01390 -0.74207 25 36 54
0.91943 -0.00686 -0.74900 23 30 53
0.92528 -0.02069 -0.73666 27 43 74
0.92886 -0.02752 -0.73107 27 49 86
0.93173 -0.03446 -0.72483 30 57 96
1.04420 -0.15476 -0.66278 73 73 98
1.04736 -0.14036 -0.66436 64 70 89
1.04202 -0.14746 -0.66996 54 60 96
1.04103 -0.16915 -0.66120 84 106 123
1.04661 -0.16203 -0.65580 93 100 99
1.05017 -0.16921 -0.64978 88 100 97
1.04700 -0.18361 -0.64820 66 85 114
1.05418 -0.17636 -0.64413 73 84 99
1.05101 -0.19077 -0.64254 59 86 117
1.06106 -0.18330 -0.64084 50 72 104
1.05789 -0.19774 -0.63925 61 91 126
1.06637 -0.19039 -0.63622 54 88 126
1.07911 -0.20448 -0.62862 60 91 134
1.08516 -0.21158 -0.62453 46 82 126
1.08941 -0.21883 -0.61894 128 119 125
1.10596 -0.22536 -0.62324 209 199 167
1.10636 -0.23288 -0.61449 241 231 219
1.11059 -0.24019 -0.60880 248 240 236
1.11824 -0.24039 -0.59581 249 242 230
1.11281 -0.24761 -0.60150 251 246 237
1.12180 -0.25472 -0.59956 243 251 240
1.12725 -0.24748 -0.59386 250 244 230
1.11858 -0.26940 -0.59795 197 106 185
1.12398 -0.26217 -0.59221 236 232 224
1.09780 -0.27073 -0.56265 227 180 192
1.11973 -0.27736 -0.57079 197 135 162
1.14471 -0.31415 -0.54490 170 149 117
1.13924 -0.32174 -0.53174 202 169 145
1.12588 -0.32940 -0.51270 204 217 207
1.15242 -0.33651 -0.52366 229 241 240
1.15802 -0.34394 -0.51884 248 251 250
1.16572 -0.34414 -0.50576 254 254 254
1.15428 -0.35144 -0.50706 248 249 249
1.16196 -0.35164 -0.49401 254 254 254
1.14962 -0.35891 -0.49465 247 249 251
1.15728 -0.35911 -0.48164 254 254 254
1.14850 -0.36634 -0.48489 248 251 252
1.15615 -0.36654 -0.47190 254 254 254
1.14533 -0.37373 -0.47366 249 251 251
1.15296 -0.37393 -0.46069 254 254 254
1.14327 -0.38111 -0.46326 247 248 249
1.15088 -0.38131 -0.45032 254 254 254
1.12849 -0.39563 -0.43492 247 250 252
1.13604 -0.39583 -0.42208 254 254 254
1.12472 -0.40287 -0.42344 251 253 253
1.13226 -0.40307 -0.41063 254 254 254
1.12690 -0.41018 -0.41624 253 254 254
1.28837 -0.72733 -0.15335 242 240 214
1.28062 -0.72713 -0.16652 249 247 248
1.28287 -0.73465 -0.15912 251 252 246
1.28511 -0.74217 -0.15172 253 251 233
1.28274 -0.73371 -0.14154 226 226 176
1.27807 -0.74732 -0.12173 213 215 222
1.27484 -0.76206 -0.12011 219 198 207
1.26565 -0.75254 -0.10632 227 224 236
1.25964 -0.76573 -0.08602 242 233 207
1.29201 -0.77801 -0.09504 202 176 137
1.31143 -0.78834 -0.09691 156 120 80
1.32500 -0.79777 -0.09553 149 108 78
1.31367 -0.80302 -0.08088 125 93 63
1.33789 -0.81436 -0.08505 88 63 42
1.32636 -0.81952 -0.07036 52 25 13
1.32600 -0.82661 -0.06156 41 35 28
1.30630 -0.83016 -0.04280 47 45 34
1.31401 -0.83036 -0.02970 61 53 43
1.30305 -0.84492 -0.04118 52 32 25
1.25404 -0.84830 0.01746 46 45 54
1.24652 -0.84810 0.00467 49 45 36
1.22869 -0.85023 0.03842 78 78 72
1.22235 -0.85577 0.04975 123 131 117
1.23002 -0.86407 0.05411 108 101 78
1.23868 -0.87261 0.05801 70 59 45
1.23555 -0.88688 0.05958 57 56 51
1.23908 -0.87948 0.06599 48 49 35
1.23594 -0.89374 0.06755 52 55 48
1.28789 -0.92398 0.08363 42 46 50
1.29107 -0.90950 0.08204 36 39 40
1.28570 -0.91664 0.07641 40 43 44
1.30405 -0.93443 0.08432 48 52 57
1.31282 -0.94328 0.08853 56 60 65
1.31888 -0.95156 0.09403 64 67 73
1.32496 -0.95986 0.09954 72 75 82
1.33126 -0.96823 0.10498 80 84 91
1.33583 -0.97621 0.11123 90 97 102
1.33888 -0.98385 0.11818 103 114 116
1.33090 -0.98883 0.13004 113 126 127
1.32837 -0.99508 0.13943 121 134 134
1.34351 -1.00567 0.14103 128 137 138
1.35028 -1.01423 0.14636 133 141 142
1.35614 -1.02260 0.15211 142 150 158
1.35517 -1.02924 0.16082 150 158 171
1.34977 -1.03473 0.17140 159 168 175
1.34334 -1.03991 0.18236 168 176 180
1.34745 -1.04781 0.18885 179 187 186
1.34950 -1.05518 0.19620 186 195 189
1.37332 -1.06836 0.19455 186 188 162
1.40325 -1.08331 0.19053 179 171 134
1.40218 -1.08996 0.19930 177 163 137
1.39991 -1.09625 0.20855 179 164 148
1.39665 -1.11109 0.21018 189 174 152
1.39263 -1.13536 0.26097 182 172 159
1.39587 -1.12063 0.25935 191 176 157
1.39041 -1.12790 0.25362 193 179 162
1.37857 -1.13805 0.27454 155 146 133
1.38003 -1.14525 0.28213 119 99 96
1.37681 -1.15988 0.28374 75 60 50
1.39033 -1.15508 0.28639 88 64 66
1.38710 -1.16976 0.28800 77 67 44
1.40759 -1.16705 0.28809 73 57 52
1.43140 -1.18793 0.29571 73 65 42
1.45277 -1.20137 0.29617 62 55 27
1.48687 -1.21887 0.29214 45 37 20
1.48354 -1.23402 0.29381 9 3 11
1.50281 -1.23083 0.29481 25 13 20
1.49947 -1.24605 0.29648 8 5 13
2.14000 -1.49908 0.14900 10 23 37
2.13028 -1.49883 0.13249 13 12 21
2.13310 -1.50826 0.14177 13 10 17
2.13591 -1.51770 0.15105 15 9 15
2.12789 -1.50350 0.16322 12 27 33
2.12536 -1.51108 0.17421 10 4 15
2.11660 -1.51652 0.18719 26 18 13
2.11224 -1.52340 0.19869 55 62 26
2.12963 -1.54618 0.21330 161 141 100
2.15518 -1.56353 0.21539 165 153 107
2.16444 -1.57523 0.22266 141 129 84
2.16034 -1.59385 0.22471 73 51 56
2.19176 -1.59339 0.22442 102 66 47
2.19327 -1.60242 0.23418 67 44 42
2.19088 -1.61004 0.24510 57 45 41
2.18595 -1.61671 0.25675 40 28 44
2.20165 -1.63088 0.26226 31 35 45
2.22049 -1.64628 0.26694 35 39 43
2.22990 -1.65826 0.27443 41 40 34
2.23294 -1.66789 0.28379 38 30 21
2.27780 -1.70182 0.29163 48 37 51
2.27361 -1.72090 0.29372 76 59 49
2.29371 -1.71645 0.29752 68 57 49
2.30371 -1.71671 0.31452 74 60 50
2.29661 -1.72616 0.30708 74 60 50
2.28950 -1.73560 0.29963 76 57 50
2.80790 -1.99036 0.24898 70 62 42
2.81269 -1.96858 0.24659 77 63 51
2.80461 -1.97932 0.23812 73 63 47
2.80668 -1.99959 0.26098 56 48 35
2.80190 -2.02134 0.26337 45 37 32
2.91320 -2.10187 0.30572 42 29 30
2.91808 -2.07966 0.30328 35 30 30
2.90984 -2.09061 0.29465 36 32 26
2.92144 -2.09092 0.31436 40 28 34
2.99512 -2.14602 0.29861 71 66 48
2.93416 -2.21867 0.43085 121 112 110
2.89450 -2.21077 0.45052 130 137 140
2.88716 -2.21711 0.46355 142 148 145
2.86764 -2.21794 0.47890 110 110 120
2.86173 -2.22481 0.49150 111 121 132
2.86121 -2.23407 0.50304 130 142 151
2.87025 -2.25717 0.52418 151 155 133
2.86221 -2.26786 0.51576 149 159 157
2.88348 -2.28223 0.54461 122 145 148
2.90531 -2.30186 0.55218 144 176 191
2.81877 -2.36325 0.68970 129 135 132
2.82342 -2.34208 0.68737 123 130 130
2.81557 -2.35252 0.67914 129 135 137
2.80771 -2.36296 0.67091 131 137 141
2.82748 -2.37669 0.69947 112 108 108
2.79752 -2.37104 0.71469 70 53 60
2.79290 -2.39207 0.71701 45 35 38
2.80256 -2.38262 0.72492 44 32 33
2.79794 -2.40365 0.72724 46 40 38
2.76365 -2.54912 0.95390 98 102 137
2.74374 -2.54697 0.96595 124 137 167
2.68326 -2.52252 0.98101 145 165 199
2.65513 -2.51556 0.99333 166 187 204
2.64808 -2.52010 1.00397 181 196 209
2.64372 -2.53994 1.00615 137 159 201
2.63041 -2.51871 1.01530 192 204 216
0.82552 0.25907 -1.01732 90 102 143
0.82342 0.26609 -1.02423 69 90 136
0.81828 0.25926 -1.02961 128 136 153
0.83002 0.25275 -1.01305 107 122 155
0.81717 0.24137 -0.98978 120 137 162
0.81921 0.23438 -0.98286 136 149 159
0.84098 0.23298 -0.99736 117 128 128
0.85122 0.22821 -0.99922 64 76 87
0.87372 0.21905 -1.00490 25 37 58
0.87063 0.20498 -1.00335 19 23 38
0.82411 0.10879 -0.83509 37 44 63
0.81702 0.10897 -0.84714 46 48 63
0.81907 0.10209 -0.84037 45 47 65
0.83185 0.10318 -0.83408 33 41 80
0.83884 0.09736 -0.83226 36 36 99
0.84608 0.09156 -0.83065 35 38 97
0.84308 0.07788 -0.82915 27 26 46
0.85285 0.08563 -0.82853 24 27 82
0.86413 0.08060 -0.83085 24 25 69
0.87120 0.07465 -0.82893 27 29 60
0.86817 0.06085 -0.82741 39 43 56
0.88855 0.06328 -0.82811 41 40 48
0.88550 0.04939 -0.82659 50 50 68
0.89346 0.05679 -0.82393 50 50 60
0.89693 0.05000 -0.81834 62 64 67
0.90079 0.04328 -0.81310 67 70 73
0.90779 0.02967 -0.80190 58 62 77
0.90473 0.01573 -0.80036 31 35 61
0.91072 -0.01429 -0.75107 21 37 69
0.91377 -0.00041 -0.75259 26 27 36
0.90862 -0.00725 -0.75799 24 34 56
0.90347 -0.01410 -0.76339 26 41 76
0.91377 -0.02117 -0.74504 24 43 76
0.91741 -0.02797 -0.73955 29 46 88
0.92201 -0.03464 -0.73493 34 51 97
0.92479 -0.04159 -0.72861 38 60 105
0.92173 -0.05550 -0.72708 59 76 120
0.93061 -0.04810 -0.72508 46 68 110
0.92755 -0.06204 -0.72355 49 76 117
1.04017 -0.16174 -0.66949 77 94 115
1.03701 -0.17614 -0.66791 69 91 126
1.04560 -0.17625 -0.65603 78 95 111
1.04025 -0.18335 -0.66163 66 87 123
1.06758 -0.20455 -0.63825 60 86 117
1.06817 -0.21200 -0.62970 48 70 100
1.07269 -0.21919 -0.62439 77 78 83
1.05178 -0.22789 -0.59836 147 158 142
1.09533 -0.23287 -0.62472 218 225 219
1.09706 -0.24030 -0.61705 249 248 242
1.09840 -0.24774 -0.60907 254 252 246
1.10214 -0.25507 -0.60302 220 238 230
1.09880 -0.26271 -0.59132 198 143 186
1.10879 -0.27728 -0.58118 200 139 173
1.10834 -0.28478 -0.57181 235 206 198
1.11461 -0.29205 -0.56770 252 242 213
1.11139 -0.30667 -0.56609 254 254 252
1.12119 -0.32172 -0.53682 254 243 205
1.12154 -0.32915 -0.52812 234 222 169
1.12286 -0.33656 -0.52018 162 170 101
1.12243 -0.34397 -0.51092 180 179 147
1.10632 -0.35145 -0.48993 213 217 210
1.10195 -0.35879 -0.47783 195 195 205
1.09878 -0.37321 -0.47625 39 38 104
1.10411 -0.37340 -0.46182 193 215 225
1.11785 -0.38078 -0.46313 193 206 217
1.11049 -0.39530 -0.44016 189 190 212
1.10927 -0.40979 -0.42178 217 234 242
1.25695 -0.74509 -0.12728 237 236 222
1.24929 -0.74489 -0.14029 247 245 246
1.25151 -0.75232 -0.13298 251 251 248
1.25373 -0.75975 -0.12567 251 248 238
1.25666 -0.75213 -0.11857 218 211 218
1.24253 -0.76401 -0.09375 229 214 212
1.24793 -0.77190 -0.08825 242 238 229
1.24266 -0.77804 -0.07693 238 235 217
1.23707 -0.78409 -0.06549 219 203 164
1.28117 -0.79859 -0.08078 207 158 114
1.28773 -0.80680 -0.07575 177 161 125
1.30463 -0.81685 -0.07618 167 147 92
1.31502 -0.82583 -0.07309 108 70 38
1.31557 -0.83305 -0.06478 56 38 14
1.29945 -0.83719 -0.04782 48 34 26
1.27278 -0.84622 -0.01712 51 43 25
1.25751 -0.85713 0.00739 48 45 52
1.24140 -0.86083 0.02382 76 71 68
1.24249 -0.86789 0.03151 108 110 104
1.23438 -0.87306 0.04378 98 84 72
1.24093 -0.88121 0.04874 72 57 56
1.27063 -0.92165 0.07542 48 49 55
1.27380 -0.90722 0.07383 43 43 42
1.26845 -0.91434 0.06823 46 44 48
1.28165 -0.93093 0.07842 53 57 61
1.29274 -0.94027 0.08144 60 65 70
1.29970 -0.94872 0.08646 68 71 79
1.30682 -0.95723 0.09143 77 78 88
1.31648 -0.96636 0.09526 88 91 101
1.32493 -0.97525 0.09969 101 107 115
1.32864 -0.98303 0.10632 111 119 124
1.33021 -0.99031 0.11392 118 128 133
1.33168 -0.99756 0.12157 123 132 138
1.33474 -1.00519 0.12851 129 138 142
1.34257 -1.01403 0.13333 136 142 147
1.34924 -1.02260 0.13871 143 152 154
1.34494 -1.02839 0.14889 158 167 170
1.31973 -1.02877 0.16808 167 178 193
1.32258 -1.03630 0.17504 178 187 193
1.31928 -1.04222 0.18463 187 194 198
1.33106 -1.05211 0.18781 193 200 204
1.33437 -1.05978 0.19460 199 205 210
1.34141 -1.06847 0.19984 202 209 203
1.35615 -1.07929 0.20193 199 202 185
1.37820 -1.09219 0.20110 193 186 160
1.37923 -1.09934 0.20895 189 174 148
1.38197 -1.12748 0.24084 190 179 157
1.38520 -1.11275 0.23922 189 174 154
1.37974 -1.12002 0.23350 193 179 158
1.38743 -1.12022 0.24657 192 178 158
1.38471 -1.13509 0.24798 176 162 147
1.36122 -1.13500 0.26532 142 124 118
1.36742 -1.14358 0.27106 98 82 81
1.36421 -1.15818 0.27266 77 67 53
1.37796 -1.15347 0.27516 74 58 59
1.41086 -1.18381 0.28729 70 65 38
1.42920 -1.19629 0.28871 54 49 27
1.47727 -1.21813 0.27932 33 24 18
1.47394 -1.23327 0.28098 7 4 9
1.48879 -1.22871 0.28351 15 7 16
1.48546 -1.24390 0.28518 8 5 7
2.11183 -1.51793 0.16922 36 21 16
2.07223 -1.51268 0.19232 82 74 43
2.05976 -1.51663 0.20635 136 125 92
2.08475 -1.53361 0.20825 159 141 93
2.12278 -1.55528 0.20612 154 134 102
2.13416 -1.56769 0.21262 124 106 81
2.13009 -1.58620 0.21465 74 56 52
2.19336 -1.59720 0.20422 79 64 52
2.18922 -1.61602 0.20629 78 62 58
2.17456 -1.60741 0.23050 73 58 44
2.16763 -1.61663 0.22323 74 63 48
2.18638 -1.62016 0.23708 63 43 33
2.19406 -1.63143 0.24497 41 21 27
2.19666 -1.64086 0.25439 30 26 41
2.21675 -1.65678 0.25866 32 30 33
2.21721 -1.66544 0.26876 41 34 40
2.25935 -1.69835 0.27712 65 53 39
2.25517 -1.71738 0.27921 78 58 43
2.27091 -1.71131 0.28415 72 58 46
2.26672 -1.73039 0.28625 77 57 44
2.79168 -1.98812 0.23091 71 61 43
2.79646 -1.96637 0.22852 71 62 46
2.78839 -1.97710 0.22007 73 59 46
2.79908 -2.00081 0.24070 61 53 33
2.79430 -2.02258 0.24310 45 25 30
2.80570 -2.01319 0.25072 44 36 32
2.80091 -2.03499 0.25311 48 31 39
2.88103 -2.09298 0.29094 35 38 37
2.88589 -2.07088 0.28851 37 36 24
2.87768 -2.08178 0.27992 37 36 31
2.86948 -2.09268 0.27132 37 33 30
2.91148 -2.11557 0.29554 57 63 44
2.95356 -2.14319 0.29757 105 104 68
2.98110 -2.16482 0.30319 138 125 85
2.93382 -2.21357 0.39709 173 143 106
2.93870 -2.19136 0.39465 172 148 104
2.93046 -2.20231 0.38602 172 147 105
2.92222 -2.21327 0.37738 175 149 101
2.91128 -2.22305 0.42527 126 125 118
2.90643 -2.24510 0.42769 147 158 155
2.86965 -2.21408 0.44540 139 151 146
2.87350 -2.22539 0.45617 143 150 145
2.83035 -2.22488 0.48762 106 117 129
2.83008 -2.23420 0.49905 127 139 145
2.82534 -2.25574 0.50142 138 146 151
2.84210 -2.24914 0.50813 135 146 156
2.83736 -2.27073 0.51051 141 150 150
2.85790 -2.27533 0.52796 154 155 126
2.89495 -2.30204 0.53264 102 100 88
2.91051 -2.31884 0.54133 52 69 103
2.87569 -2.31197 0.55893 75 110 156
2.88701 -2.31227 0.57816 174 190 193
2.87896 -2.32296 0.56974 123 156 184
2.87094 -2.40332 0.67258 130 134 131
2.85972 -2.40302 0.65352 132 139 146
2.85356 -2.40397 0.68629 101 96 96
2.80195 -2.38750 0.70478 58 45 54
2.79732 -2.40859 0.70709 46 40 44
2.72171 -2.53184 0.93842 79 71 83
2.71863 -2.52153 0.92828 91 90 99
2.71109 -2.53156 0.92037 99 92 93
2.71416 -2.54187 0.93052 90 81 79
2.71494 -2.53677 0.94940 70 60 86
2.71048 -2.55706 0.95163 65 53 69
2.70514 -2.53999 0.96056 65 64 99
2.70849 -2.55040 0.97062 61 69 121
2.71059 -2.56012 0.98078 74 89 130
2.60953 -2.51258 0.99856 108 117 156
2.60438 -2.52632 1.01896 166 187 213
2.61463 -2.52659 1.03638 201 206 214
2.60735 -2.53627 1.02875 186 199 223
2.60006 -2.54596 1.02112 140 159 178
0.80016 0.24625 -1.00030 147 151 161
0.79299 0.24644 -1.01248 171 172 172
0.79714 0.23253 -0.99879 169 171 169
0.80320 0.23958 -0.99452 157 160 164
0.80018 0.22585 -0.99301 164 168 166
0.80755 0.23328 -0.99018 161 164 165
0.80453 0.21953 -0.98867 161 167 164
0.81120 0.22676 -0.98505 164 165 163
0.81392 0.21997 -0.97889 149 151 144
0.83937 0.21948 -0.99740 90 90 97
0.85221 0.21537 -1.00207 37 40 65
0.85489 0.20843 -0.99571 24 32 53
0.82713 0.09654 -0.83971 37 43 62
0.83415 0.09071 -0.83794 29 34 57
0.83115 0.07706 -0.83644 26 32 48
0.85694 0.07338 -0.83412 34 33 51
0.86264 0.06715 -0.83087 34 37 51
0.88280 0.05631 -0.83292 51 47 63
0.89183 0.04315 -0.82381 43 45 61
0.88878 0.02924 -0.82228 24 33 55
0.89408 0.03613 -0.81700 35 37 53
0.89102 0.02222 -0.81547 23 36 66
0.89650 0.02914 -0.81038 31 38 66
0.89344 0.01522 -0.80885 27 37 73
0.90163 -0.02175 -0.75276 26 43 81
0.89440 -0.02156 -0.76505 29 47 82
0.90439 -0.02867 -0.74648 29 49 87
0.91172 -0.03490 -0.74445 38 55 94
0.90867 -0.04880 -0.74292 54 70 110
0.91530 -0.04173 -0.73889 46 63 104
0.91224 -0.05563 -0.73736 46 71 114
0.92151 -0.04818 -0.73577 50 73 114
0.91845 -0.06210 -0.73424 48 70 118
1.04459 -0.19049 -0.65627 61 85 129
1.04954 -0.19760 -0.65139 58 79 115
1.05348 -0.20480 -0.64565 63 72 96
1.05782 -0.21198 -0.64024 58 60 73
1.05464 -0.22644 -0.63865 58 59 60
1.05539 -0.21960 -0.62921 45 53 66
1.05833 -0.22687 -0.62264 36 42 62
1.05516 -0.24131 -0.62105 44 46 60
1.05471 -0.23451 -0.61069 26 44 73
1.06135 -0.24158 -0.60714 121 130 160
1.09350 -0.24741 -0.62423 201 222 233
1.08787 -0.25518 -0.61062 221 209 214
1.07113 -0.26338 -0.58815 142 97 139
1.08052 -0.27041 -0.58670 177 121 160
1.09449 -0.27733 -0.58884 235 220 213
1.09129 -0.29190 -0.58724 254 254 246
1.08076 -0.28525 -0.56896 252 252 226
1.07758 -0.29971 -0.56737 254 254 251
1.08377 -0.29255 -0.56240 254 254 242
1.08059 -0.30703 -0.56081 254 254 253
1.08564 -0.29990 -0.55493 254 254 250
1.08246 -0.31437 -0.55334 254 254 254
1.09368 -0.32925 -0.52552 254 254 252
1.08613 -0.32905 -0.53836 254 254 254
1.09769 -0.33656 -0.51970 253 253 236
1.10306 -0.34387 -0.51490 237 236 196
1.10944 -0.35120 -0.51084 168 177 173
1.09009 -0.36590 -0.47855 63 41 105
1.08392 -0.38763 -0.44767 64 63 121
1.08143 -0.39482 -0.43712 68 66 122
1.07722 -0.40194 -0.42535 58 58 117
1.08466 -0.40926 -0.42209 58 56 122
1.08505 -0.42362 -0.40504 204 226 236
1.09115 -0.43095 -0.40076 246 252 253
1.09860 -0.43115 -0.38810 254 254 254
1.09331 -0.43818 -0.39365 254 254 254
1.23586 -0.76396 -0.10717 241 223 206
1.22827 -0.76376 -0.12007 248 248 242
1.23047 -0.77113 -0.11282 251 250 240
1.23267 -0.77850 -0.10557 245 243 221
1.23335 -0.77056 -0.09730 227 198 180
1.22585 -0.77631 -0.08473 222 216 189
1.22730 -0.78352 -0.07712 224 227 200
1.22981 -0.79090 -0.07009 241 247 220
1.22285 -0.79663 -0.05794 236 226 188
1.27593 -0.81294 -0.07808 192 178 147
1.24012 -0.81355 -0.05046 213 201 140
1.28474 -0.82864 -0.06574 199 170 111
1.31119 -0.84059 -0.07116 149 123 67
1.30614 -0.84675 -0.05993 131 93 62
1.28185 -0.84920 -0.03873 105 61 19
1.27179 -0.85426 -0.02507 66 42 11
1.26831 -0.86054 -0.01487 58 40 28
1.25683 -0.86520 -0.00062 56 49 44
1.24897 -0.87051 0.01170 78 72 61
1.24966 -0.87752 0.01964 113 111 96
1.24624 -0.88367 0.02964 110 100 87
1.24663 -0.89058 0.03770 79 69 68
1.25110 -0.89836 0.04374 57 56 56
1.25328 -0.90565 0.05091 52 50 49
1.26092 -0.92097 0.06367 53 48 57
1.26409 -0.90656 0.06209 48 47 45
1.25874 -0.91366 0.05649 51 44 46
1.26853 -0.92949 0.06825 60 60 71
1.27736 -0.93831 0.07228 66 70 77
1.28350 -0.94655 0.07762 73 77 85
1.29034 -0.95498 0.08267 83 85 96
1.29941 -0.96395 0.08670 95 98 106
1.31555 -0.97464 0.08749 108 115 120
1.31913 -0.98239 0.09416 119 126 133
1.32064 -0.98964 0.10179 124 130 135
1.32052 -0.99650 0.11016 130 136 142
1.32161 -1.00364 0.11796 140 143 147
1.32215 -1.01063 0.12601 147 153 157
1.32478 -1.01815 0.13312 155 165 166
1.31927 -1.02359 0.14382 166 179 182
1.30884 -1.02771 0.15664 182 190 186
1.30441 -1.03334 0.16675 187 196 203
1.30208 -1.03948 0.17592 195 201 208
1.31444 -1.05627 0.18693 204 209 215
1.31125 -1.07076 0.18852 218 225 231
1.32167 -1.06498 0.19202 209 215 221
1.32646 -1.07305 0.19817 213 222 225
1.33801 -1.08301 0.20152 213 223 221
1.34501 -1.09174 0.20682 209 214 202
1.35604 -1.10163 0.21048 201 195 171
1.36501 -1.11098 0.21504 197 186 160
1.37269 -1.11118 0.22809 191 176 156
1.36724 -1.11843 0.22237 195 184 158
1.36846 -1.12560 0.23011 186 175 153
1.36549 -1.13152 0.23950 161 151 133
1.35158 -1.13420 0.25318 126 102 98
1.34838 -1.14878 0.25478 79 62 51
1.35708 -1.14257 0.25916 91 66 62
1.35387 -1.15716 0.26076 80 72 50
1.36537 -1.15179 0.26407 75 61 51
1.37562 -1.16839 0.27643 75 69 42
1.38711 -1.17868 0.28022 65 61 28
1.43414 -1.20003 0.27071 46 40 22
1.45583 -1.21369 0.27092 25 15 20
1.45252 -1.22876 0.27258 6 4 7
1.47266 -1.22592 0.27306 11 4 12
1.46933 -1.24107 0.27472 6 5 6
2.10288 -1.50950 0.14244 20 14 21
2.10008 -1.50013 0.13323 17 13 23
2.09889 -1.51655 0.15394 46 35 31
2.01597 -1.49628 0.19172 101 83 71
2.03010 -1.50936 0.19691 146 128 92
2.04641 -1.52326 0.20146 149 134 98
2.06195 -1.53696 0.20634 139 121 92
2.17344 -1.62720 0.23164 72 60 38
2.16367 -1.62694 0.21504 75 61 49
2.16650 -1.63642 0.22437 75 62 44
2.16933 -1.64590 0.23369 74 61 41
2.16547 -1.63268 0.24424 74 59 31
2.16137 -1.65132 0.24629 73 62 43
2.17822 -1.64583 0.25055 76 63 39
2.17411 -1.66453 0.25260 78 61 48
2.19477 -1.66045 0.25579 79 64 38
2.19065 -1.67922 0.25785 78 61 47
2.20040 -1.67102 0.26433 82 63 47
2.19628 -1.68981 0.26639 77 61 45
2.21561 -1.68524 0.27009 78 63 53
2.21147 -1.70410 0.27216 75 59 36
2.78706 -1.99054 0.20982 72 59 49
2.79185 -1.96874 0.20742 74 60 44
2.78376 -1.97949 0.19895 76 57 49
2.78227 -2.01233 0.21221 49 29 17
2.79603 -2.00387 0.21919 63 53 31
2.79124 -2.02570 0.22159 42 16 11
2.80746 -2.01824 0.22796 52 33 23
2.80266 -2.04010 0.23037 42 21 22
2.87723 -2.10574 0.28128 40 40 40
2.86567 -2.10544 0.26164 42 37 29
2.86902 -2.11666 0.27268 51 42 32
2.89480 -2.12298 0.28891 60 55 46
2.91728 -2.14237 0.29546 96 95 55
2.96031 -2.17065 0.29731 131 123 83
2.96096 -2.18088 0.30918 142 128 97
2.97271 -2.18119 0.32915 148 131 95
2.96436 -2.19229 0.32040 153 134 100
2.90225 -2.21416 0.39345 163 132 99
2.89224 -2.21938 0.40728 124 111 110
2.87500 -2.22131 0.42255 130 141 143
2.86157 -2.23441 0.44846 148 150 145
2.83216 -2.23055 0.46588 99 91 109
2.82533 -2.23688 0.47865 99 106 121
2.80700 -2.23787 0.49361 129 139 145
2.80228 -2.25933 0.49597 144 150 154
2.83195 -2.27762 0.52288 147 152 142
2.82070 -2.27732 0.50377 142 151 151
2.82396 -2.28824 0.51451 142 152 150
2.85059 -2.29576 0.53081 126 122 107
2.88293 -2.32044 0.53634 71 55 57
2.86732 -2.32251 0.55056 34 34 60
2.89294 -2.34414 0.55746 33 58 99
2.90432 -2.34444 0.57680 149 172 190
2.88065 -2.34772 0.57101 64 93 134
2.89199 -2.34802 0.59028 157 170 181
2.88393 -2.35873 0.58184 106 131 164
2.87925 -2.42200 0.66178 127 127 130
2.82577 -2.40460 0.68092 92 81 79
2.79997 -2.40083 0.69573 52 43 44
2.71275 -2.54971 0.94105 78 66 75
2.70214 -2.54943 0.92302 109 103 78
2.67745 -2.54733 0.96467 52 42 70
2.65326 -2.54236 0.97684 47 42 72
2.64155 -2.54426 0.98791 45 43 83
2.63718 -2.56415 0.99010 37 26 41
2.64071 -2.55218 0.99812 50 59 104
2.62992 -2.55448 1.00900 66 84 127
2.62557 -2.57428 1.01118 153 173 158
0.80145 0.24135 -1.01274 171 172 170
0.79426 0.24154 -1.02495 177 179 183
0.79634 0.23457 -1.01809 173 175 176
0.80869 0.21315 -0.98410 155 161 159
0.79738 0.20249 -0.96262 122 121 124
0.81973 0.20107 -0.97785 67 67 81
0.83064 0.19643 -0.98051 32 38 56
0.83716 0.19057 -0.97837 21 25 43
0.83926 0.18353 -0.97144 17 22 39
0.82212 0.08983 -0.84503 34 42 55
0.83144 0.08448 -0.84564 29 37 50
0.85296 0.06683 -0.84060 30 22 31
0.85674 0.06019 -0.83544 32 21 35
0.86533 0.05449 -0.83505 37 28 58
0.88119 0.05015 -0.84183 43 48 76
0.88576 0.04357 -0.83732 41 54 72
0.88675 0.03631 -0.82929 28 38 63
0.89158 -0.02935 -0.75350 30 49 89
0.88436 -0.02916 -0.76576 31 51 89
0.88645 -0.03616 -0.75887 30 55 94
0.88854 -0.04317 -0.75198 33 58 101
1.02613 -0.19112 -0.65978 62 85 107
1.02465 -0.19866 -0.64953 56 60 97
1.03613 -0.20528 -0.65022 67 78 92
1.04160 -0.21235 -0.64581 85 101 101
1.04541 -0.21956 -0.63998 75 67 33
1.04298 -0.23455 -0.61999 52 53 65
1.03765 -0.24164 -0.62558 52 61 68
1.03982 -0.24893 -0.61841 53 60 65
1.04124 -0.24942 -0.60067 28 44 85
1.03592 -0.25650 -0.60625 46 54 68
1.05233 -0.25628 -0.60079 84 76 124
1.05298 -0.26364 -0.59238 113 115 172
1.04578 -0.27130 -0.57764 200 176 203
1.06811 -0.27782 -0.58669 247 242 220
1.06309 -0.28539 -0.57372 253 253 241
1.05992 -0.29979 -0.57214 254 254 252
1.07989 -0.33648 -0.52463 248 254 248
1.08601 -0.34375 -0.52047 213 208 220
1.09439 -0.35104 -0.51801 161 133 188
1.07486 -0.35842 -0.49426 108 89 135
1.10112 -0.36572 -0.50536 62 55 91
1.09794 -0.38021 -0.50377 32 28 47
1.06269 -0.37290 -0.46751 42 39 62
1.06269 -0.38010 -0.45879 33 35 51
1.05957 -0.39433 -0.45723 37 40 41
1.06663 -0.38733 -0.45303 27 34 54
1.06350 -0.40158 -0.45146 40 41 40
1.06466 -0.39450 -0.44287 30 38 59
1.06154 -0.40871 -0.44130 42 42 49
1.06685 -0.40170 -0.43581 38 44 66
1.06603 -0.40885 -0.42654 42 46 64
1.06693 -0.41602 -0.41855 27 28 56
1.06832 -0.42319 -0.41092 17 32 80
1.06607 -0.43025 -0.40066 122 152 182
1.07851 -0.43776 -0.40101 220 236 243
1.07893 -0.44490 -0.39268 251 254 254
1.08635 -0.44510 -0.38007 254 254 254
1.08108 -0.45211 -0.38560 254 254 254
1.07581 -0.45912 -0.39112 254 254 254
1.21603 -0.78269 -0.08788 225 224 179
1.20849 -0.78249 -0.10069 249 252 246
1.21068 -0.78981 -0.09349 253 252 233
1.21286 -0.79712 -0.08630 243 236 209
1.21838 -0.79003 -0.08078 214 208 152
1.20928 -0.79538 -0.06741 218 227 209
1.21451 -0.80320 -0.06191 236 235 218
1.22404 -0.81182 -0.05870 246 246 221
1.23624 -0.82097 -0.05689 248 243 208
1.24672 -0.82985 -0.05409 250 233 178
1.25114 -0.83764 -0.04801 247 237 190
1.26886 -0.84798 -0.04894 246 218 164
1.30190 -0.86138 -0.05778 204 178 93
1.28818 -0.86575 -0.04209 148 110 63
1.25338 -0.86582 -0.01560 110 73 41
1.26030 -0.87413 -0.01079 72 46 24
1.25139 -0.87922 0.00212 80 65 48
1.24821 -0.89370 0.00371 129 120 87
1.25503 -0.88686 0.00861 131 134 108
1.25533 -0.89380 0.01678 129 125 104
1.24698 -0.89889 0.02926 80 71 62
1.24770 -0.90588 0.03718 51 45 49
1.25047 -0.91331 0.04407 52 47 51
1.25566 -0.92127 0.04978 59 53 55
1.25998 -0.92906 0.05593 65 63 69
1.26397 -0.93679 0.06225 72 76 83
1.26689 -0.94428 0.06910 80 85 90
1.27123 -0.95210 0.07528 90 96 103
1.28578 -0.96234 0.07662 103 110 119
1.30267 -0.97319 0.07696 117 122 129
1.30942 -0.98169 0.08212 126 130 137
1.30931 -0.98855 0.09050 132 137 145
1.30748 -0.99497 0.09966 142 148 150
1.28954 -0.99737 0.11617 154 161 163
1.27964 -1.00168 0.12890 170 176 170
1.29366 -1.01199 0.13074 179 188 185
1.29633 -1.01946 0.13775 185 194 190
1.29445 -1.02575 0.14679 190 199 200
1.29302 -1.03214 0.15561 197 203 207
1.28780 -1.04422 0.17420 205 212 218
1.28463 -1.05862 0.17578 220 226 228
1.29027 -1.05160 0.18125 210 217 222
1.30188 -1.06146 0.18438 215 223 228
1.32061 -1.08009 0.19272 213 221 230
1.33205 -1.09005 0.19608 206 213 222
1.32885 -1.10463 0.19769 172 161 179
1.33475 -1.09758 0.20315 197 206 215
1.34475 -1.10719 0.20720 192 203 202
1.35151 -1.11591 0.21263 190 193 181
1.35690 -1.12427 0.21865 178 169 150
1.33719 -1.12527 0.23482 145 131 114
1.34411 -1.13405 0.24019 102 85 77
1.34091 -1.14862 0.24179 79 67 51
1.35419 -1.14378 0.24432 81 58 58
1.35097 -1.15840 0.24593 79 71 49
1.36500 -1.16729 0.26457 72 68 43
1.37108 -1.17590 0.27038 58 53 26
1.42339 -1.19892 0.25856 36 28 17
1.42010 -1.21386 0.26020 7 4 8
1.44605 -1.21980 0.26664 8 4 10
1.44275 -1.23484 0.26829 6 5 5
2.01177 -1.50601 0.18390 149 132 100
2.02249 -1.51794 0.19021 152 133 104
2.01610 -1.52385 0.20221 130 110 75
2.01215 -1.54184 0.20419 76 52 53
2.77823 -1.99127 0.18979 71 59 41
2.78302 -1.96946 0.18739 77 57 45
2.77494 -1.98022 0.17892 75 58 51
2.77344 -2.01307 0.19219 44 24 15
2.78077 -2.00201 0.20087 61 51 29
2.77598 -2.02381 0.20326 36 12 11
2.88871 -2.13485 0.27976 65 51 32
2.87711 -2.13455 0.26004 54 44 29
2.88047 -2.14581 0.27112 64 51 24
2.90494 -2.15163 0.28776 76 69 39
2.89776 -2.15838 0.30136 99 93 57
2.92072 -2.17814 0.30787 121 112 90
2.90526 -2.18125 0.32336 138 124 100
2.91687 -2.18155 0.34309 163 141 100
2.89498 -2.18653 0.33755 153 142 106
2.90655 -2.18684 0.35722 168 143 104
2.87599 -2.18792 0.35363 166 151 109
2.88750 -2.18822 0.37319 170 146 105
2.87933 -2.19909 0.36462 173 152 108
2.86884 -2.20411 0.37865 179 153 101
2.87740 -2.21759 0.38847 155 121 83
2.89301 -2.23427 0.39682 105 86 81
2.86093 -2.22942 0.41528 113 130 139
2.84379 -2.23121 0.43045 136 155 163
2.84708 -2.24224 0.44130 141 149 150
2.81836 -2.23856 0.45864 97 92 113
2.80613 -2.24235 0.47250 98 105 122
2.78607 -2.24244 0.48782 134 143 147
2.81226 -2.29208 0.52803 141 144 135
2.86438 -2.32620 0.52979 121 108 85
2.84692 -2.32729 0.54436 69 55 37
2.84850 -2.33744 0.55543 35 33 42
2.84136 -2.34336 0.56802 30 37 57
2.83404 -2.34916 0.58059 32 48 75
2.84526 -2.34945 0.59966 131 151 168
2.83901 -2.36088 0.59101 56 73 99
2.85024 -2.36118 0.61009 139 152 161
2.81116 -2.36579 0.61808 127 139 156
2.82229 -2.36608 0.63700 136 143 152
2.81438 -2.37660 0.62871 138 146 153
2.85421 -2.41484 0.64478 135 140 146
2.85893 -2.39334 0.64242 134 140 149
2.85095 -2.40395 0.63407 138 142 152
2.84298 -2.41455 0.62571 143 148 153
2.90362 -2.44884 0.64845 121 117 116
2.81343 -2.41285 0.67331 88 69 65
2.80416 -2.41732 0.68575 62 48 45
2.79950 -2.43850 0.68808 68 58 53
2.80467 -2.42669 0.69670 59 53 53
2.81573 -2.42698 0.71549 50 43 43
2.80002 -2.44786 0.69903 64 61 52
2.69949 -2.55656 0.93366 98 88 76
2.68889 -2.55628 0.91565 141 137 114
2.68733 -2.55838 0.94508 84 74 73
2.67702 -2.56116 0.95627 76 62 72
2.66646 -2.56375 0.96741 71 62 69
2.63381 -2.55386 0.98021 54 43 56
2.62522 -2.56575 1.00111 43 50 71
2.62087 -2.58556 1.00329 213 215 162
0.79773 0.22739 -1.01046 166 173 175
0.80030 0.22056 -1.00414 157 165 167
0.80403 0.21404 -0.99909 147 157 155
0.79962 0.20527 -0.98508 137 149 148
0.79971 0.19777 -0.97605 122 129 129
0.81876 0.19537 -0.98775 84 92 100
0.81408 0.18657 -0.97349 44 52 73
0.81949 0.18045 -0.97021 27 29 55
0.82812 0.17514 -0.97038 19 21 42
0.83535 0.17495 -0.95809 18 23 38
0.82656 0.16719 -0.95955 16 20 36
0.83378 0.16700 -0.94728 22 26 40
0.82865 0.16018 -0.95265 19 22 42
0.83107 0.07874 -0.85575 17 17 30
0.83218 0.06424 -0.83902 29 28 54
0.84620 0.05971 -0.84428 39 54 85
0.85870 0.05480 -0.84790 68 77 99
0.86262 0.04815 -0.84284 76 80 101
0.86850 0.04186 -0.83972 62 72 97
0.86546 0.02800 -0.83820 32 51 88
0.87469 0.03560 -0.83688 40 59 83
0.87164 0.02172 -0.83535 29 47 90
0.87764 0.02872 -0.83079 30 45 81
0.87459 0.01483 -0.82926 28 47 88
1.00616 -0.18447 -0.67078 60 77 106
1.00930 -0.17018 -0.67235 72 88 113
0.99870 -0.18427 -0.68346 69 69 98
1.00302 -0.19875 -0.66921 52 56 76
1.00922 -0.19164 -0.66443 56 72 97
1.00608 -0.20593 -0.66286 57 64 76
1.01057 -0.19894 -0.65661 56 63 82
1.00678 -0.20659 -0.64442 53 48 71
1.00912 -0.21381 -0.63747 115 143 133
1.01127 -0.22103 -0.63036 140 159 138
1.03921 -0.22672 -0.64488 113 109 83
1.02473 -0.23496 -0.62379 67 70 59
1.02440 -0.26436 -0.58789 30 40 69
1.02127 -0.27861 -0.58632 30 34 30
1.02407 -0.27168 -0.57875 55 47 73
1.04977 -0.27802 -0.59076 148 158 168
1.05214 -0.28531 -0.58374 223 234 241
1.05223 -0.29266 -0.57489 250 253 250
1.06135 -0.33641 -0.52883 254 254 250
1.06450 -0.32206 -0.53040 254 254 254
1.05918 -0.32914 -0.53598 254 254 254
1.05385 -0.33622 -0.54156 254 254 254
1.06861 -0.34364 -0.52563 227 208 210
1.04190 -0.35109 -0.49613 100 74 115
1.03388 -0.35831 -0.48123 35 30 64
1.03577 -0.36547 -0.47399 33 29 56
1.03266 -0.37961 -0.47243 32 21 43
1.03987 -0.37265 -0.46844 29 23 57
1.03676 -0.38679 -0.46688 36 24 42
1.04952 -0.38704 -0.45837 35 35 35
1.05636 -0.41575 -0.42880 41 39 53
1.04896 -0.41556 -0.44138 45 40 47
1.05111 -0.42274 -0.43431 41 33 46
1.05325 -0.42992 -0.42725 34 27 36
1.05765 -0.42291 -0.42111 36 26 44
1.05454 -0.43708 -0.41955 20 19 23
1.06071 -0.43012 -0.41471 18 12 44
1.07224 -0.43760 -0.41448 68 70 119
1.06623 -0.44453 -0.40148 176 190 214
1.07216 -0.45186 -0.39713 242 250 251
1.06904 -0.46606 -0.39557 254 254 254
1.20099 -0.80194 -0.07136 217 206 195
1.19349 -0.80174 -0.08410 252 251 248
1.19566 -0.80902 -0.07694 249 246 229
1.21090 -0.81061 -0.06844 220 210 177
1.20774 -0.82501 -0.06686 214 200 142
1.20486 -0.81640 -0.05679 225 225 207
1.21921 -0.82594 -0.05622 241 249 241
1.23236 -0.83532 -0.05492 248 250 237
1.24422 -0.84452 -0.05286 245 245 235
1.24103 -0.85906 -0.05126 248 251 243
1.25163 -0.85290 -0.04837 248 238 208
1.24843 -0.86747 -0.04677 250 247 244
1.25853 -0.86121 -0.04358 251 247 214
1.26627 -0.86972 -0.03920 253 236 189
1.28616 -0.88072 -0.04110 208 188 132
1.25040 -0.88727 -0.00576 125 91 53
1.25573 -0.90217 0.00823 112 104 80
1.24532 -0.90679 0.02181 72 53 43
1.24703 -0.91400 0.02924 63 39 45
1.25161 -0.92185 0.03525 78 63 55
1.25908 -0.93036 0.03984 87 81 58
1.25599 -0.93649 0.04964 85 80 73
1.25815 -0.94381 0.05686 88 85 95
1.25767 -0.95051 0.06535 103 105 110
1.26601 -0.95927 0.06958 118 124 125
1.27517 -0.96826 0.07347 128 135 140
1.28207 -0.97675 0.07847 137 141 146
1.29407 -0.98650 0.08110 149 150 158
1.23988 -0.98000 0.11474 163 169 178
1.25159 -0.99632 0.12556 191 197 190
1.25827 -1.00472 0.13063 198 204 197
1.27854 -1.01664 0.12954 202 210 208
1.28904 -1.02611 0.13298 204 210 212
1.28412 -1.03159 0.14339 207 213 218
1.28095 -1.04603 0.14498 225 232 233
1.28735 -1.03918 0.15013 211 219 224
1.28417 -1.05363 0.15172 221 227 231
1.28336 -1.04485 0.16006 216 223 226
1.28216 -1.06463 0.18497 214 221 224
1.28743 -1.07278 0.19080 199 208 223
1.30242 -1.08367 0.19252 186 183 206
1.29925 -1.09813 0.19411 197 202 204
1.31033 -1.09262 0.19731 182 166 183
1.33568 -1.11336 0.20303 166 167 176
1.33982 -1.12132 0.20952 153 152 157
1.33271 -1.12599 0.22063 124 103 108
1.32951 -1.14056 0.22223 78 66 50
1.34479 -1.13630 0.22388 88 70 64
1.34158 -1.15093 0.22548 80 74 50
1.34656 -1.14358 0.23135 76 63 49
1.35598 -1.16667 0.25212 68 67 44
1.37161 -1.17823 0.25417 49 47 30
1.39843 -1.19336 0.25196 29 19 16
1.39517 -1.20821 0.25359 7 4 6
1.41972 -1.20688 0.25203 14 4 14
1.41644 -1.22183 0.25367 5 5 5
1.99937 -1.50471 0.16896 147 132 93
2.00062 -1.51330 0.17843 142 126 101
2.00149 -1.52175 0.18800 122 100 84
1.99755 -1.53971 0.18998 74 55 54
2.78031 -1.99641 0.16672 73 56 44
2.78512 -1.97453 0.16431 74 58 50
2.77701 -1.98532 0.15581 72 57 47
2.77220 -2.00720 0.15821 54 40 24
2.89545 -2.16209 0.27939 71 57 31
2.88381 -2.16179 0.25962 63 48 22
2.88718 -2.17308 0.27073 69 53 29
2.89055 -2.18438 0.28184 75 58 37
2.89097 -2.16997 0.29237 78 63 40
2.88608 -2.19221 0.29482 78 59 36
2.87552 -2.17302 0.30791 82 67 51
2.86487 -2.17808 0.32221 83 68 54
2.84456 -2.17881 0.33866 103 92 66
2.85535 -2.19325 0.34790 135 127 103
2.85760 -2.20391 0.35910 159 149 115
2.85670 -2.21315 0.37099 174 157 105
2.85615 -2.24173 0.40607 67 76 91
2.81992 -2.24418 0.43680 96 114 136
2.79495 -2.25147 0.46478 81 99 118
2.76282 -2.24582 0.48256 119 138 144
2.77519 -2.26093 0.49138 137 149 154
2.77702 -2.27109 0.50231 138 149 152
2.78310 -2.28326 0.51241 136 148 149
2.79367 -2.29759 0.52168 136 144 139
2.81696 -2.31805 0.52864 130 132 116
2.81970 -2.32871 0.53946 101 95 78
2.83272 -2.34433 0.54843 68 56 50
2.82905 -2.35189 0.56041 50 44 38
2.82396 -2.35873 0.57260 38 41 37
2.82537 -2.36871 0.58363 26 32 45
2.82828 -2.37943 0.59439 48 60 98
2.79445 -2.37195 0.61125 103 119 146
2.82448 -2.39607 0.61748 139 148 153
2.84101 -2.42282 0.63725 136 138 143
2.86621 -2.44477 0.64455 113 107 104
2.80975 -2.42546 0.66441 89 71 64
2.80225 -2.43079 0.67662 75 58 51
2.79758 -2.45201 0.67896 72 61 47
2.71973 -2.45985 0.77510 92 100 97
2.72427 -2.43920 0.77283 57 49 42
2.71661 -2.44939 0.76480 71 65 56
2.73052 -2.46014 0.79342 110 118 117
2.71520 -2.48051 0.77737 91 90 91
2.68020 -2.56001 0.92684 116 108 91
2.66963 -2.55973 0.90889 154 146 147
2.66987 -2.56277 0.93810 94 88 81
2.64290 -2.56457 0.96095 86 87 85
2.63322 -2.56751 0.97193 81 76 76
2.62897 -2.57348 0.98243 67 61 64
2.59517 -2.56258 0.99511 120 127 115
2.59084 -2.58228 0.99728 243 222 129
0.79203 0.22801 -1.02434 162 169 168
0.78995 0.23499 -1.03121 174 180 184
0.78484 0.22820 -1.03656 139 148 171
0.79193 0.22041 -1.01503 146 155 166
0.78891 0.20665 -1.01352 70 90 140
0.79481 0.21366 -1.00905 126 137 161
0.80425 0.19360 -0.99199 77 93 122
0.80122 0.17981 -0.99047 50 74 125
0.79945 0.18478 -0.97757 62 80 113
0.79902 0.17716 -0.96798 47 67 101
0.79601 0.16344 -0.96647 51 78 121
0.81660 0.17422 -0.97801 40 56 91
0.81357 0.16040 -0.97650 49 76 118
0.80777 0.16443 -0.95928 33 49 78
0.80475 0.15067 -0.95776 47 74 113
0.81406 0.15851 -0.95696 28 43 67
0.81103 0.14474 -0.95545 48 72 110
0.80512 0.07494 -0.84851 30 45 70
0.82820 0.07245 -0.86335 42 57 89
0.84515 0.06855 -0.87174 68 85 113
0.85333 0.06278 -0.87106 77 103 121
0.85471 0.05563 -0.86344 75 98 131
0.85594 0.04844 -0.85566 65 82 124
0.84935 0.03977 -0.84002 52 66 107
0.84632 0.02599 -0.83851 26 46 90
0.92212 -0.11804 -0.70463 67 90 125
0.92518 -0.10411 -0.70616 52 79 125
0.92001 -0.11098 -0.71158 41 77 126
0.93394 -0.12405 -0.70649 99 107 131
0.98731 -0.19254 -0.66459 59 58 90
0.98419 -0.20674 -0.66303 58 60 78
0.99361 -0.21415 -0.64323 56 55 72
1.00806 -0.22057 -0.64661 70 86 96
1.01333 -0.22762 -0.64213 75 81 100
1.00154 -0.23565 -0.62323 69 60 82
0.99978 -0.24306 -0.61287 52 56 65
1.00724 -0.24999 -0.61024 48 55 60
1.00856 -0.25723 -0.60246 51 49 58
1.01131 -0.26441 -0.59586 47 44 58
1.01049 -0.27174 -0.58633 48 39 51
1.00539 -0.28645 -0.56450 27 47 70
1.03146 -0.29288 -0.57688 121 130 160
1.02294 -0.30041 -0.56112 205 225 238
1.03486 -0.30738 -0.56189 244 252 253
1.04232 -0.30758 -0.54921 254 254 254
1.03702 -0.31462 -0.55476 253 254 254
1.03343 -0.34369 -0.51667 254 254 248
1.02601 -0.34349 -0.52928 254 254 254
1.06053 -0.35075 -0.52907 234 216 189
1.02819 -0.35811 -0.49509 98 57 57
1.01955 -0.36527 -0.47970 31 15 25
1.01646 -0.37936 -0.47815 25 18 26
1.02373 -0.37242 -0.47425 27 17 35
1.02063 -0.38651 -0.47270 29 21 35
1.04113 -0.39399 -0.46152 38 22 33
1.04450 -0.40119 -0.45538 44 32 39
1.04649 -0.40837 -0.44820 45 40 39
1.05301 -0.44413 -0.40980 7 24 56
1.05799 -0.45141 -0.40481 125 150 175
1.05964 -0.45857 -0.39740 229 239 244
1.18423 -0.81379 -0.06229 232 230 182
1.17678 -0.81359 -0.07496 249 251 249
1.17894 -0.82083 -0.06784 253 251 234
1.18110 -0.82806 -0.06073 248 240 208
1.20954 -0.83911 -0.05112 235 237 233
1.20638 -0.85349 -0.04954 232 231 221
1.22179 -0.84836 -0.04936 248 251 248
1.21861 -0.86281 -0.04777 244 246 240
1.25620 -0.87599 -0.04244 252 248 229
1.24857 -0.87579 -0.05540 250 250 249
1.25078 -0.88319 -0.04812 250 251 247
1.25299 -0.89059 -0.04083 252 250 249
1.26115 -0.88396 -0.03659 253 250 227
1.26511 -0.89173 -0.03021 254 238 192
1.25327 -0.90996 0.00110 140 108 64
1.24959 -0.91603 0.01132 118 85 52
1.25632 -0.92438 0.01626 130 95 71
1.26459 -0.93310 0.02046 149 122 79
1.25005 -0.93666 0.03603 147 126 77
1.25445 -0.94450 0.04214 126 101 83
1.25281 -0.95093 0.05123 118 99 103
1.24632 -0.95621 0.06266 134 130 130
1.23693 -0.96074 0.07543 153 154 151
1.21747 -0.96277 0.09297 164 165 167
1.22055 -0.97020 0.09961 176 180 184
1.19727 -0.97112 0.11875 193 198 196
1.23233 -0.98647 0.11026 205 210 212
1.23895 -0.99482 0.11528 211 217 215
1.23997 -1.00176 0.12293 215 223 221
1.25565 -1.01248 0.12381 221 226 224
1.27199 -1.02344 0.12447 226 230 229
1.28219 -1.03286 0.12802 227 229 232
1.27874 -1.03870 0.13779 226 231 234
1.25981 -1.05369 0.17065 217 227 232
1.25512 -1.05904 0.18078 215 214 217
1.26065 -1.06721 0.18642 199 189 205
