ply
format ascii 1.0
element face 0
property list uchar int vertex_indices
element vertex 1327
property float x
property float y
property float z
property uchar diffuse_red
property uchar diffuse_green
property uchar diffuse_blue
end_header
1.99883 -1.40906 -1.43500 16 15 25
2.02374 -1.42596 -1.41829 47 40 52
2.02341 -1.43858 -1.40734 51 49 69
2.05237 -2.07894 -0.89766 73 80 92
2.04258 -2.07494 -0.91918 77 83 100
2.04225 -2.08772 -0.90809 79 85 101
2.05413 -2.09215 -0.88831 68 76 85
2.06148 -2.10656 -0.88358 61 68 74
2.06626 -2.12047 -0.87669 47 51 54
2.06409 -2.13290 -0.86404 25 21 20
2.06298 -2.32636 -0.70013 13 18 18
2.05314 -2.32235 -0.72176 10 14 13
2.05280 -2.33519 -0.71061 13 14 16
2.06926 -2.34101 -0.69413 24 30 36
2.07911 -2.34503 -0.67247 38 43 42
2.06892 -2.35387 -0.68296 38 44 47
2.05872 -2.36271 -0.69345 36 44 38
2.01663 -2.48003 -0.52418 54 62 68
2.02703 -2.45861 -0.52485 48 55 55
2.01697 -2.46734 -0.53520 49 54 62
2.00691 -2.47606 -0.54556 52 56 72
2.03541 -2.49883 -0.52726 68 73 74
2.02496 -2.52036 -0.52660 78 81 85
2.05220 -2.64653 -0.41988 90 92 90
2.04237 -2.64252 -0.44149 93 96 84
2.04203 -2.65535 -0.43035 93 99 95
2.05921 -2.66202 -0.41390 77 75 67
2.07112 -2.67935 -0.41130 46 46 45
2.06596 -2.69047 -0.39675 20 28 39
2.09476 -2.77980 -0.35057 21 17 22
2.10142 -2.79554 -0.34402 24 19 31
2.09977 -2.80804 -0.33185 20 13 28
2.10349 -2.82268 -0.32327 13 14 12
2.10546 -2.83664 -0.31351 10 13 10
2.10521 -2.84971 -0.30226 18 20 21
2.14321 -2.93177 -0.27145 18 18 16
2.15399 -2.90954 -0.27213 22 28 25
2.14355 -2.91860 -0.28288 17 18 17
2.15365 -2.92272 -0.26070 17 23 18
2.15052 -2.94823 -0.26496 19 26 24
2.15591 -2.97728 -0.24593 83 96 88
2.15405 -2.98984 -0.23350 115 121 98
2.14323 -3.01214 -0.23281 135 142 125
2.14405 -2.99878 -0.21591 130 138 104
2.13325 -3.02102 -0.21522 136 144 133
2.14113 -3.01081 -0.20285 132 134 114
2.13034 -3.03304 -0.20216 138 146 134
2.13471 -3.02126 -0.18760 138 140 126
2.12394 -3.04345 -0.18692 137 150 134
2.12931 -3.03211 -0.17303 139 150 138
2.11856 -3.05427 -0.17234 135 149 136
1.12669 -3.11562 0.90630 113 124 146
1.11928 -3.11260 0.89001 166 176 176
1.13870 -3.13331 0.90909 43 48 100
1.13074 -3.14970 0.90960 35 37 76
0.96900 -3.12459 1.07254 115 137 170
0.96116 -3.12843 1.08366 128 151 171
0.94748 -3.12812 1.09717 138 160 175
0.93206 -3.12649 1.11132 146 166 176
0.93895 -3.12931 1.12648 155 166 171
0.93182 -3.13549 1.11913 152 168 180
0.92469 -3.14168 1.11179 126 147 174
0.78285 -3.26382 1.37704 93 124 156
0.77634 -3.26116 1.36274 104 130 149
0.77612 -3.26965 1.37011 102 128 148
0.77589 -3.27815 1.37748 101 127 153
0.78346 -3.27299 1.38414 95 126 164
0.77651 -3.28733 1.38458 96 125 156
0.78372 -3.28188 1.39136 100 133 176
0.77860 -3.28639 1.40031 112 145 188
0.74824 -3.27020 1.41724 129 166 209
0.74802 -3.27857 1.42451 143 184 221
0.74495 -3.28460 1.43267 153 195 229
0.73776 -3.28718 1.44208 163 201 240
0.73448 -3.32704 1.47892 173 189 220
0.72766 -3.34110 1.47935 167 209 238
0.72076 -3.32388 1.49007 172 197 227
0.72497 -3.33596 1.49599 172 152 187
0.72531 -3.35323 1.51018 175 156 200
0.73087 -3.36653 1.51579 178 168 208
0.75589 -3.40541 1.52331 181 141 188
0.75571 -3.41386 1.53060 180 105 172
0.74648 -3.43151 1.55474 188 132 161
0.73985 -3.44273 1.57087 197 157 198
0.73965 -3.45112 1.57812 188 126 189
0.76183 -3.52292 1.61622 55 46 62
0.75491 -3.53717 1.61666 54 60 60
0.96793 -3.81604 1.65545 90 87 81
0.96818 -3.80686 1.64747 82 79 75
0.96090 -3.81317 1.63998 77 73 74
0.96640 -3.82399 1.66367 97 94 86
1.96866 -1.42088 -1.39445 23 19 28
1.95912 -1.41699 -1.41544 15 14 21
1.95879 -1.42945 -1.40462 18 12 20
1.98850 -1.43392 -1.40360 35 30 44
1.99974 -1.44682 -1.40415 45 43 62
2.00937 -1.45076 -1.38297 52 53 71
1.99941 -1.45940 -1.39323 53 52 71
1.98944 -1.46804 -1.40349 52 53 71
2.04453 -2.10105 -0.89919 74 83 96
2.03474 -2.09705 -0.92073 83 88 108
2.03440 -2.10984 -0.90962 78 88 105
2.05065 -2.11522 -0.89347 65 68 89
2.05421 -2.12888 -0.88559 59 60 78
2.05930 -2.14290 -0.87895 41 50 53
2.05390 -2.15461 -0.86363 15 11 23
2.06372 -2.15862 -0.84203 6 6 7
2.05356 -2.16744 -0.85249 4 4 6
2.06417 -2.35127 -0.70861 23 30 32
2.05431 -2.34724 -0.73030 13 15 16
1.96665 -2.41275 -0.55800 33 43 37
1.96698 -2.40020 -0.56889 46 53 38
1.95704 -2.40882 -0.57913 56 57 38
1.97659 -2.40412 -0.54776 28 35 35
1.96632 -2.42529 -0.54711 33 38 43
1.95637 -2.43392 -0.55734 34 35 34
2.00269 -2.48752 -0.53165 58 65 73
1.99231 -2.50891 -0.53098 82 82 88
2.01682 -2.50486 -0.53138 75 77 80
2.00639 -2.52634 -0.53071 85 85 91
2.02720 -2.66289 -0.40897 94 101 92
2.01741 -2.65889 -0.43049 98 101 96
2.01708 -2.67168 -0.41939 97 103 101
2.03368 -2.67818 -0.40266 83 88 79
2.04979 -2.69711 -0.40308 58 62 61
2.05524 -2.71215 -0.39596 46 47 50
2.06504 -2.72888 -0.39182 41 36 37
2.06499 -2.74190 -0.38081 38 34 28
2.07243 -2.75783 -0.37496 34 32 30
2.08013 -2.77391 -0.36923 40 39 29
2.08304 -2.78817 -0.36020 42 41 31
2.08461 -2.80191 -0.35022 43 42 44
2.08637 -2.81575 -0.34037 42 38 41
2.08764 -2.82940 -0.33017 41 42 34
2.09027 -2.84362 -0.32088 43 39 37
2.08925 -2.85635 -0.30913 51 49 37
2.09593 -2.87228 -0.30250 33 28 22
2.10592 -2.87636 -0.28054 26 22 21
2.10191 -2.88796 -0.29537 28 27 14
2.11191 -2.89205 -0.27338 23 20 23
2.10613 -2.90295 -0.28704 31 24 9
2.11542 -2.92012 -0.28201 31 27 18
2.11927 -2.93503 -0.27337 52 44 44
2.12801 -2.95209 -0.26789 55 67 70
2.13768 -2.96961 -0.26295 102 118 99
2.13083 -2.97995 -0.24731 119 129 111
2.12004 -3.00217 -0.24662 132 141 126
2.13221 -2.99389 -0.23699 130 139 114
2.12142 -3.01612 -0.23630 133 142 133
1.28270 -3.15634 0.76110 154 154 147
1.27485 -3.15314 0.74386 159 145 130
1.11547 -3.11995 0.90006 109 115 123
1.10807 -3.11693 0.88379 166 174 171
1.13942 -3.14552 0.89728 39 41 75
1.13144 -3.16196 0.89779 32 38 71
0.97166 -3.13776 1.06086 59 83 133
0.95034 -3.13215 1.07777 74 98 142
0.91764 -3.12752 1.10703 110 134 165
0.77153 -3.29193 1.39350 91 123 153
0.76503 -3.28928 1.37922 103 130 152
0.76481 -3.29776 1.38658 101 128 145
0.76459 -3.30624 1.39394 97 127 149
0.76176 -3.29255 1.40393 89 122 159
0.75484 -3.30681 1.40437 96 125 152
0.76346 -3.30259 1.41065 96 128 166
0.75654 -3.31685 1.41109 94 124 152
0.75172 -3.30147 1.42162 109 139 181
0.73842 -3.29898 1.43301 123 155 203
0.71248 -3.33658 1.49094 168 203 225
0.70570 -3.35055 1.49137 162 201 238
0.70581 -3.33929 1.49998 167 181 206
0.69905 -3.35322 1.50041 167 202 231
0.71386 -3.35471 1.50480 169 156 193
0.71717 -3.36607 1.51099 170 138 177
0.74108 -3.39546 1.51148 168 126 172
0.75126 -3.41298 1.51589 168 125 181
0.74217 -3.41359 1.52561 172 154 196
0.71400 -3.39724 1.54043 174 186 214
0.72575 -3.41617 1.54444 174 162 199
0.73192 -3.43020 1.54999 176 144 183
0.72481 -3.43238 1.55903 178 150 188
0.73368 -3.44890 1.56393 177 111 176
0.74629 -3.47746 1.57517 182 184 225
0.73940 -3.49165 1.57561 166 210 242
0.96781 -3.82926 1.64651 85 81 77
0.96788 -3.83878 1.65444 93 88 81
0.96857 -3.84890 1.66225 101 93 89
0.97563 -3.85178 1.67777 114 102 98
0.96833 -3.85812 1.67025 111 100 88
0.96103 -3.86445 1.66273 106 96 83
1.94855 -1.44161 -1.38394 30 19 35
1.97017 -1.45479 -1.39494 44 38 59
1.95993 -1.47589 -1.39429 56 55 80
2.03674 -2.12321 -0.90077 72 80 100
2.02694 -2.11921 -0.92233 81 88 111
2.02660 -2.13201 -0.91122 77 85 109
2.02626 -2.14481 -0.90011 78 85 106
2.03674 -2.13609 -0.88994 69 74 92
2.04378 -2.15054 -0.88499 60 67 75
2.04583 -2.16390 -0.87583 26 27 31
2.03813 -2.17504 -0.85860 10 6 16
2.04794 -2.17904 -0.83703 4 5 7
2.03585 -2.18739 -0.84588 7 5 6
2.04566 -2.19140 -0.82433 5 7 11
2.03551 -2.20020 -0.83477 5 4 7
2.05474 -2.36034 -0.71973 20 26 31
2.04487 -2.35631 -0.74142 16 23 21
2.04453 -2.36919 -0.73024 17 22 30
2.06045 -2.37493 -0.71328 37 39 39
2.07033 -2.37897 -0.69155 40 44 33
2.06010 -2.38784 -0.70208 49 45 43
1.96636 -2.42431 -0.57563 48 55 40
1.95673 -2.42038 -0.59682 61 57 55
1.97944 -2.47923 -0.54280 61 67 66
1.98979 -2.45792 -0.54346 60 61 69
1.97978 -2.46660 -0.55376 55 61 65
1.96977 -2.47528 -0.56407 54 63 67
1.96910 -2.50055 -0.54214 75 78 75
1.98671 -2.49432 -0.53753 71 75 75
1.97634 -2.51568 -0.53687 81 83 84
2.00613 -2.68051 -0.40078 99 103 104
1.99637 -2.67652 -0.42224 100 108 105
2.00930 -2.69457 -0.39219 96 98 97
2.02113 -2.71194 -0.38967 85 86 80
2.03351 -2.72960 -0.38746 75 71 59
2.05620 -2.75134 -0.39236 75 78 52
2.05679 -2.76463 -0.38179 72 80 77
2.07885 -2.79951 -0.37499 77 89 64
2.09994 -2.82110 -0.37838 75 87 83
2.06466 -2.83317 -0.33218 88 91 91
2.06347 -2.84578 -0.32036 97 99 97
2.06102 -2.85787 -0.30769 106 118 87
2.05571 -2.86874 -0.29312 75 86 70
2.06187 -2.88442 -0.28623 67 85 53
2.07265 -2.90211 -0.28237 73 81 41
2.08322 -2.91978 -0.27830 83 87 63
2.09624 -2.93860 -0.27578 114 123 107
2.09639 -2.95189 -0.26474 117 127 116
2.08567 -2.97397 -0.26406 144 156 148
2.09823 -2.96594 -0.25481 138 151 129
2.11145 -2.98504 -0.25226 133 136 131
2.10069 -3.00721 -0.25157 139 144 136
2.02265 -3.21871 0.03500 150 156 152
2.01213 -3.24040 0.03567 170 176 173
2.02748 -3.23426 0.04314 166 175 162
2.03734 -3.23829 0.06481 150 148 165
2.02714 -3.24713 0.05431 164 165 162
2.01694 -3.25597 0.04381 166 167 163
1.26307 -3.15610 0.75838 156 153 146
1.25526 -3.15291 0.74120 158 142 137
1.25472 -3.17331 0.75891 159 170 171
1.11108 -3.12874 0.89065 109 110 107
1.13256 -3.15279 0.88893 37 38 57
1.12458 -3.16923 0.88944 31 39 77
0.97002 -3.14799 1.05096 27 42 90
0.96250 -3.16348 1.05144 32 44 85
0.96320 -3.15254 1.06175 32 49 98
0.94677 -3.15023 1.07659 43 60 115
0.91758 -3.13871 1.09673 56 76 133
0.91588 -3.14666 1.10516 73 91 143
0.92277 -3.14947 1.12030 137 157 182
0.90160 -3.14555 1.11881 89 110 155
0.90845 -3.14835 1.13387 147 160 187
0.89711 -3.18783 1.15895 149 165 173
0.90396 -3.19062 1.17399 152 165 171
0.89688 -3.19676 1.16670 153 168 173
0.73863 -3.31047 1.42402 91 123 156
0.73220 -3.30784 1.40989 99 129 149
0.73198 -3.31624 1.41717 99 127 148
0.73176 -3.32463 1.42446 98 125 146
0.73222 -3.31365 1.43324 93 126 162
0.72537 -3.32777 1.43367 95 122 152
0.73097 -3.32115 1.44082 100 134 170
0.69383 -3.29813 1.45941 115 146 190
0.69788 -3.32688 1.47945 146 190 225
0.70655 -3.34281 1.48400 155 199 235
0.70805 -3.36954 1.50495 167 201 227
0.69957 -3.38748 1.52870 165 207 239
0.69280 -3.40142 1.52913 162 204 244
0.69158 -3.38883 1.53799 166 204 239
0.68484 -3.40272 1.53842 162 204 243
0.68514 -3.39150 1.54682 164 187 222
0.71438 -3.42615 1.54608 166 161 195
0.72154 -3.44966 1.55854 170 127 172
0.96164 -3.82724 1.63081 69 66 70
0.96919 -3.81169 1.63033 71 70 66
0.95458 -3.82436 1.61529 52 51 57
0.96255 -3.83757 1.63857 78 75 72
0.96354 -3.84800 1.64632 87 82 75
0.96495 -3.85883 1.65400 96 89 82
1.91662 -1.43705 -1.38237 21 13 25
1.91695 -1.42470 -1.39309 15 12 22
1.90716 -1.43319 -1.40317 18 11 29
1.92727 -1.44977 -1.38264 35 28 41
1.94061 -1.46266 -1.38552 50 47 68
1.93042 -1.48365 -1.38487 59 58 80
2.02806 -2.15809 -0.89079 78 84 97
2.01825 -2.15409 -0.91235 82 88 117
2.01791 -2.16689 -0.90124 82 88 111
2.02913 -2.17122 -0.88085 51 67 78
2.02686 -2.18358 -0.86812 39 33 42
2.02284 -2.19551 -0.85395 27 24 23
2.01775 -2.20716 -0.83892 12 6 7
2.02753 -2.21116 -0.81740 4 6 6
2.01741 -2.21994 -0.82783 8 5 8
2.04081 -2.38110 -0.71639 33 32 41
2.04242 -2.39454 -0.70675 55 45 48
2.05229 -2.39857 -0.68507 51 47 48
2.04208 -2.40742 -0.69557 53 49 46
2.03188 -2.41627 -0.70608 48 49 35
1.96516 -2.43566 -0.59264 56 61 56
1.95550 -2.43172 -0.61388 60 59 64
1.95516 -2.44433 -0.60294 62 66 67
1.95712 -2.44587 -0.57578 39 42 52
1.95679 -2.45846 -0.56486 40 50 55
1.94681 -2.46711 -0.57513 41 46 54
1.96719 -2.48719 -0.55140 67 73 68
1.95685 -2.50849 -0.55074 77 79 79
1.99717 -2.59964 -0.48772 95 96 95
2.00760 -2.57814 -0.48838 95 96 97
1.99751 -2.58690 -0.49878 97 100 95
2.00727 -2.59088 -0.47732 98 99 100
2.00693 -2.60362 -0.46627 99 105 103
1.98674 -2.62113 -0.48705 81 77 61
1.99515 -2.61178 -0.47543 93 95 92
2.00491 -2.61576 -0.45399 95 105 105
1.98473 -2.63327 -0.47477 79 81 50
1.99354 -2.62406 -0.46345 86 90 89
2.00329 -2.62804 -0.44201 98 103 97
1.99311 -2.63675 -0.45233 92 93 91
2.00286 -2.64073 -0.43089 101 101 91
1.99277 -2.64948 -0.44128 100 101 92
1.99175 -2.68766 -0.40812 102 111 110
1.98133 -2.70914 -0.40746 113 126 122
1.99345 -2.70116 -0.39852 102 109 108
1.99377 -2.71415 -0.38793 101 102 99
1.99231 -2.72645 -0.37608 106 105 93
1.98188 -2.74794 -0.37541 110 112 110
2.01243 -2.74716 -0.37938 113 115 97
2.00194 -2.76877 -0.37871 101 101 111
2.00692 -2.75793 -0.36465 107 115 112
2.01407 -2.77369 -0.35876 109 121 111
2.00357 -2.79531 -0.35809 112 121 135
2.02206 -2.78984 -0.35340 111 115 107
2.01154 -2.81151 -0.35273 120 125 124
2.03084 -2.80637 -0.34854 113 118 110
2.02029 -2.82809 -0.34787 120 122 123
2.03302 -2.82027 -0.33910 115 117 110
2.03761 -2.83518 -0.33129 119 121 125
2.02705 -2.85695 -0.33061 131 138 137
2.04081 -2.84955 -0.32250 125 130 129
2.03023 -2.87134 -0.32182 132 142 135
2.03930 -2.86198 -0.31050 131 143 128
2.02873 -2.88377 -0.30982 129 136 135
2.03940 -2.87508 -0.29958 131 145 130
2.02882 -2.89686 -0.29891 128 142 144
2.04637 -2.89110 -0.29329 130 141 121
2.03578 -2.91293 -0.29261 143 147 149
2.05114 -2.90623 -0.28547 137 141 120
2.04053 -2.92809 -0.28480 142 151 144
2.05733 -2.92201 -0.27857 137 141 128
2.04670 -2.94391 -0.27789 132 145 144
2.06384 -2.93798 -0.27185 133 147 140
2.05319 -2.95992 -0.27117 127 135 152
2.07498 -2.95603 -0.26813 131 148 143
2.06429 -2.97804 -0.26745 140 149 150
2.00014 -3.20813 0.02088 142 152 149
2.01063 -3.18652 0.02021 151 161 156
1.99033 -3.20413 -0.00069 147 153 141
1.99000 -3.21693 0.01043 136 143 143
1.99720 -3.21958 0.03353 160 169 171
1.98672 -3.24117 0.03420 169 170 172
1.26211 -3.16765 0.74654 156 152 149
1.25428 -3.16445 0.72932 157 143 139
1.25401 -3.17468 0.73820 155 151 150
1.16510 -3.16618 0.84516 166 173 171
1.17320 -3.14949 0.84464 164 177 184
1.16536 -3.15629 0.83657 165 178 185
1.15753 -3.16309 0.82850 165 180 187
1.11024 -3.13990 0.87953 108 105 108
1.13823 -3.16841 0.87469 36 36 64
1.13021 -3.18493 0.87520 30 39 78
0.94352 -3.15931 1.06747 33 43 89
0.93654 -3.15646 1.05212 31 44 82
0.93630 -3.16557 1.06003 34 45 81
0.93606 -3.17469 1.06794 37 44 84
0.93086 -3.15952 1.08068 33 42 94
0.92343 -3.17483 1.08115 37 42 87
0.93677 -3.17302 1.08595 37 47 100
0.92932 -3.18836 1.08642 38 39 89
0.91071 -3.17259 1.11242 55 68 128
0.94685 -3.20819 1.10515 67 87 134
0.93688 -3.21018 1.11708 84 106 144
0.92071 -3.20751 1.13148 100 123 162
0.89774 -3.19968 1.14854 117 141 159
0.89918 -3.20989 1.15564 134 154 171
0.90605 -3.21270 1.17074 153 167 173
0.90366 -3.22239 1.16154 140 159 172
0.91054 -3.22520 1.17666 153 166 170
0.90499 -3.23255 1.16872 149 164 173
0.91187 -3.23536 1.18385 152 164 175
0.90475 -3.24154 1.17652 153 166 176
0.70847 -3.32189 1.44612 90 118 161
0.70211 -3.31929 1.43213 99 126 152
0.70189 -3.32760 1.43934 97 124 154
0.70167 -3.33590 1.44655 95 123 154
0.70925 -3.33105 1.45302 88 117 167
0.70244 -3.34508 1.45346 94 123 154
0.70483 -3.34423 1.46866 99 134 174
0.69825 -3.34993 1.46189 91 122 156
0.69803 -3.35823 1.46909 86 121 159
0.69176 -3.34135 1.47969 115 148 193
0.69066 -3.35728 1.49421 138 177 219
0.69366 -3.36836 1.50045 144 189 231
0.69725 -3.37999 1.50653 152 197 245
0.69413 -3.38569 1.51453 158 202 247
0.69302 -3.39316 1.52196 160 203 244
0.67535 -3.40259 1.54808 161 201 234
0.66863 -3.41643 1.54851 158 203 245
0.67207 -3.40802 1.55602 161 197 228
0.66536 -3.42184 1.55645 157 202 248
0.69954 -3.44988 1.56294 161 198 236
0.69275 -3.46387 1.56338 158 202 247
0.95834 -3.83746 1.62244 57 56 61
0.95127 -3.83458 1.60690 49 56 64
0.95102 -3.84380 1.61491 50 54 55
0.95078 -3.85303 1.62292 54 54 55
0.95849 -3.84708 1.63037 66 64 62
0.95958 -3.85761 1.63811 79 73 68
0.95201 -3.87319 1.63859 81 74 72
0.96089 -3.86837 1.64581 90 83 75
0.96086 -3.87783 1.65379 101 91 79
0.96794 -3.88072 1.66935 115 103 87
0.96098 -3.88743 1.66174 109 98 84
0.96806 -3.89032 1.67730 121 106 90
0.96074 -3.89667 1.66976 115 102 87
1.89383 -1.44512 -1.37931 29 20 40
1.90775 -1.45794 -1.38298 42 41 55
1.89763 -1.47878 -1.38233 56 60 73
1.91627 -1.47064 -1.38113 53 57 72
1.90612 -1.49154 -1.38048 61 58 77
2.01944 -2.18014 -0.89169 82 87 102
2.00962 -2.17613 -0.91327 84 91 116
2.00928 -2.18894 -0.90214 84 90 111
2.00895 -2.20175 -0.89102 84 92 114
2.01941 -2.19302 -0.88083 82 87 94
2.01720 -2.20539 -0.86814 63 76 74
2.00547 -2.21542 -0.84755 23 16 18
1.99924 -2.22672 -0.83157 11 6 18
2.00900 -2.23071 -0.81011 7 6 13
1.99890 -2.23947 -0.82051 9 6 16
2.02088 -2.37420 -0.73005 26 29 32
2.02122 -2.36136 -0.74119 26 33 31
2.02560 -2.38850 -0.72292 30 35 37
2.02503 -2.40128 -0.71158 60 57 52
1.95952 -2.45842 -0.59561 56 63 61
1.94984 -2.45447 -0.61688 70 74 74
1.95483 -2.48238 -0.57060 51 61 68
1.95606 -2.49550 -0.56084 69 77 74
1.94572 -2.51680 -0.56018 78 83 84
1.98071 -2.56764 -0.52576 87 90 93
1.99112 -2.54619 -0.52643 86 86 94
1.98104 -2.55493 -0.53680 86 86 92
1.99078 -2.55890 -0.51539 89 92 97
1.99044 -2.57162 -0.50436 96 100 97
1.97029 -2.58909 -0.52510 61 56 62
1.98163 -2.58079 -0.51567 84 93 89
1.98398 -2.59445 -0.50663 80 83 82
1.98071 -2.60614 -0.49341 79 74 74
1.97660 -2.64316 -0.45802 75 84 69
1.97077 -2.65384 -0.44300 78 90 91
1.98049 -2.65781 -0.42163 99 104 97
1.96038 -2.67525 -0.44234 75 67 71
1.97101 -2.66674 -0.43240 87 99 93
1.97648 -2.68161 -0.42557 99 112 106
1.97832 -2.69514 -0.41610 111 125 122
1.96790 -2.71660 -0.41544 116 122 128
1.97717 -2.72039 -0.39369 113 120 118
1.96709 -2.72913 -0.40406 118 121 124
1.96676 -2.74184 -0.39302 118 120 118
1.97819 -2.73363 -0.38361 112 119 115
2.00157 -2.78156 -0.36758 102 108 125
1.99143 -2.79036 -0.37802 106 106 117
2.01534 -2.83906 -0.33352 121 128 136
2.00549 -2.83504 -0.35518 120 126 131
2.00515 -2.84790 -0.34401 119 131 140
1.98055 -3.22495 0.02696 156 166 172
1.97009 -3.24650 0.02763 171 173 170
1.97882 -3.26289 0.06065 161 168 163
1.97916 -3.25012 0.04956 161 167 163
1.98894 -3.25411 0.07107 162 166 160
1.98861 -3.26688 0.08215 157 167 159
1.97873 -3.27579 0.07159 166 175 176
1.97839 -3.28856 0.08268 178 187 182
1.96827 -3.29734 0.07226 164 178 180
1.98686 -3.30615 0.08869 182 186 168
1.99700 -3.29735 0.09913 169 177 165
1.97671 -3.31495 0.07824 170 180 175
1.99666 -3.31016 0.11025 169 176 160
1.99560 -3.32396 0.09459 170 169 155
2.00543 -3.32797 0.11620 166 175 159
1.99526 -3.33679 0.10573 156 162 155
1.15811 -3.17353 0.83668 164 169 172
1.15054 -3.17044 0.82003 167 179 184
1.15027 -3.18033 0.82861 165 168 170
1.15001 -3.19022 0.83720 104 97 103
1.10660 -3.14926 0.86970 106 97 109
1.09865 -3.16564 0.87020 36 32 53
1.12223 -3.16961 0.87060 36 32 65
1.11423 -3.18609 0.87111 33 39 68
0.93225 -3.19977 1.09298 33 40 91
0.92528 -3.19692 1.07765 35 44 82
0.92504 -3.20603 1.08555 36 45 78
0.92479 -3.21513 1.09345 31 43 87
0.94139 -3.21578 1.09695 32 42 100
0.93391 -3.23119 1.09743 36 41 90
0.94254 -3.23526 1.11214 52 66 117
0.93505 -3.25069 1.11262 29 45 97
0.94423 -3.24585 1.11929 60 84 136
0.93673 -3.26128 1.11977 35 49 101
0.92726 -3.24245 1.13403 80 98 147
0.91982 -3.25779 1.13450 46 66 114
0.91971 -3.24603 1.14487 96 116 159
0.90296 -3.24258 1.15935 117 137 170
0.89928 -3.24897 1.16853 131 150 167
0.90617 -3.25178 1.18367 151 164 173
0.89824 -3.25735 1.17665 137 157 171
0.90512 -3.26016 1.19179 147 162 173
0.89347 -3.26286 1.18623 140 159 176
0.90035 -3.26567 1.20134 146 162 172
0.89324 -3.27183 1.19402 145 164 178
0.70593 -3.37365 1.47387 87 122 166
0.69955 -3.37105 1.45984 94 126 153
0.69933 -3.37938 1.46707 93 125 153
0.69911 -3.38770 1.47430 93 124 155
0.69829 -3.37544 1.48329 93 127 173
0.69149 -3.38944 1.48373 92 121 159
0.69835 -3.38399 1.49042 101 137 188
0.68716 -3.38254 1.50080 118 154 210
0.68485 -3.38893 1.50857 133 171 222
0.68483 -3.39736 1.51568 141 183 222
0.67728 -3.39902 1.52491 149 194 232
0.66764 -3.39874 1.53467 154 199 244
0.66801 -3.40747 1.54162 157 201 245
0.94644 -3.85823 1.63179 68 62 65
0.93938 -3.85535 1.61628 54 56 60
0.95013 -3.88080 1.64694 89 82 78
0.94257 -3.89637 1.64742 88 84 68
0.95140 -3.89153 1.65465 97 91 80
0.94384 -3.90712 1.65513 94 89 68
1.86963 -1.44081 -1.38498 27 14 40
1.87966 -1.42014 -1.38562 16 13 23
1.86995 -1.42856 -1.39562 18 12 27
1.87851 -1.45338 -1.38369 41 36 52
1.86845 -1.47411 -1.38305 58 61 73
1.88775 -1.46604 -1.38271 51 57 62
1.87766 -1.48682 -1.38207 59 60 71
1.85045 -1.97904 -0.91260 76 79 103
1.86047 -1.95839 -0.91324 75 79 100
1.85078 -1.96680 -0.92322 74 77 95
1.86015 -1.97063 -0.90262 70 75 104
1.85983 -1.98287 -0.89199 74 78 102
1.84043 -1.99969 -0.91196 86 93 120
1.85558 -1.99231 -0.90680 80 86 110
1.84554 -2.01299 -0.90616 86 94 123
2.00468 -2.21361 -0.87660 85 92 94
1.99488 -2.20961 -0.89815 88 98 126
1.98415 -2.22142 -0.84858 31 32 38
1.98591 -2.23468 -0.83928 16 15 32
1.97818 -2.24553 -0.82208 15 13 23
1.98791 -2.24951 -0.80068 7 6 14
1.97101 -2.25648 -0.80539 14 10 17
1.98072 -2.26045 -0.78402 8 7 16
1.97067 -2.26917 -0.79437 11 7 12
1.98849 -2.36373 -0.73352 38 39 38
1.99894 -2.34221 -0.73419 24 29 33
1.98883 -2.35097 -0.74459 31 28 36
2.00231 -2.38059 -0.73379 45 52 41
2.00740 -2.39498 -0.72701 48 58 47
2.00122 -2.40607 -0.71123 80 94 78
2.00051 -2.41877 -0.69982 59 66 42
2.01032 -2.42277 -0.67826 46 52 45
2.00018 -2.43157 -0.68871 50 56 53
1.95188 -2.46785 -0.60776 68 76 69
1.94220 -2.46390 -0.62904 75 78 78
1.94297 -2.47773 -0.59015 43 36 50
1.94599 -2.49143 -0.58179 53 59 60
1.94672 -2.50440 -0.57165 73 82 76
1.95830 -2.54654 -0.54834 78 82 83
1.96868 -2.52517 -0.54900 85 84 86
1.95864 -2.53387 -0.55933 86 91 92
1.96834 -2.53783 -0.53800 86 87 88
1.94827 -2.55524 -0.55867 51 47 60
1.96318 -2.56099 -0.54128 73 75 81
1.96711 -2.57516 -0.53348 73 68 73
1.96849 -2.60128 -0.51297 65 63 69
1.96889 -2.61426 -0.50249 84 90 68
1.95899 -2.62352 -0.48436 94 106 63
1.96149 -2.63722 -0.47545 89 101 54
1.96102 -2.64986 -0.46434 77 89 68
1.95948 -2.66210 -0.45244 72 75 88
1.95092 -2.68448 -0.42470 90 92 87
1.94090 -2.69317 -0.43502 81 75 87
1.95842 -2.70013 -0.41938 110 122 129
1.96560 -2.75423 -0.38140 121 122 107
1.95586 -2.75026 -0.40281 111 114 105
1.95552 -2.76297 -0.39177 118 123 119
1.97991 -2.77281 -0.38074 110 106 99
1.99216 -2.80361 -0.36766 111 115 123
1.98201 -2.81241 -0.37811 115 116 120
1.99182 -2.81642 -0.35654 116 129 129
2.00172 -2.85945 -0.33072 123 128 133
2.00138 -2.87230 -0.31956 133 146 136
1.96563 -3.21825 0.00855 143 148 147
1.96596 -3.20550 -0.00252 149 151 147
1.95586 -3.21426 -0.01293 153 159 148
1.96090 -3.22868 0.02225 157 166 172
1.95047 -3.25018 0.02292 170 177 166
1.96037 -3.25423 0.04429 152 155 150
1.96229 -3.26820 0.05401 150 149 154
1.96270 -3.28135 0.06464 161 173 177
1.95226 -3.30287 0.06530 161 174 180
1.97780 -3.32855 0.08853 169 176 165
1.96799 -3.32454 0.06696 165 174 178
1.96765 -3.33735 0.07808 165 175 167
1.96731 -3.35016 0.08920 162 170 157
1.97241 -3.33853 0.10256 157 162 150
1.97207 -3.35132 0.11366 152 160 151
1.96193 -3.36011 0.10322 157 168 155
0.91890 -3.26636 1.14267 60 81 129
0.91194 -3.26352 1.12736 28 42 85
0.91245 -3.27069 1.15305 74 93 141
0.88885 -3.26178 1.17022 91 115 154
0.88451 -3.26759 1.17964 110 130 163
0.88344 -3.27591 1.18775 124 147 168
0.89031 -3.27872 1.20284 147 163 170
0.87721 -3.28020 1.19786 134 156 169
0.88406 -3.28300 1.21292 145 162 169
0.87006 -3.28373 1.20829 137 159 176
0.87689 -3.28651 1.22331 144 160 170
0.86983 -3.29264 1.21603 143 161 174
0.67116 -3.38819 1.50391 90 122 172
0.66442 -3.40207 1.50434 89 124 159
0.66311 -3.38936 1.51331 96 133 181
0.66577 -3.40017 1.51961 111 148 198
0.65708 -3.40068 1.52912 125 163 217
0.65803 -3.40993 1.53590 134 177 222
0.65789 -3.41818 1.54298 140 189 232
0.65843 -3.42706 1.54988 148 196 245
0.67253 -3.44847 1.55314 156 201 248
0.67232 -3.45671 1.56030 162 204 248
0.68256 -3.47470 1.56470 159 194 227
0.68912 -3.46901 1.57145 157 200 237
0.68235 -3.48297 1.57189 106 126 152
0.92162 -3.80967 1.59645 56 61 78
0.92911 -3.79424 1.59597 50 52 60
0.92186 -3.80052 1.58851 52 55 61
0.92887 -3.80338 1.60391 50 54 65
0.92376 -3.82116 1.60386 60 63 78
0.92352 -3.83031 1.61181 57 57 60
0.93573 -3.86119 1.62500 66 67 72
0.93816 -3.87304 1.63243 80 80 78
0.93876 -3.88310 1.64025 86 81 78
1.84797 -1.43661 -1.39301 24 15 32
1.85797 -1.41600 -1.39365 18 16 21
1.84829 -1.42440 -1.40361 17 18 22
1.85518 -1.44907 -1.39013 38 32 47
1.84516 -1.46972 -1.38949 58 59 71
1.86359 -1.46163 -1.38843 51 56 64
1.85354 -1.48233 -1.38779 61 59 73
1.83171 -1.97347 -0.92481 81 82 99
1.84171 -1.95288 -0.92545 76 80 92
1.83204 -1.96127 -0.93540 76 77 86
1.82172 -1.99406 -0.92417 92 101 121
1.83705 -1.98675 -0.91927 84 89 115
1.82704 -2.00737 -0.91863 90 99 122
1.99044 -2.22140 -0.88358 86 92 102
1.98065 -2.21740 -0.90511 93 101 122
1.96373 -2.22759 -0.85026 49 41 53
1.96724 -2.24125 -0.84247 28 31 47
1.96175 -2.25263 -0.82713 27 28 40
1.95879 -2.26463 -0.81393 23 24 36
1.95091 -2.27532 -0.79666 21 16 26
1.96060 -2.27927 -0.77535 8 8 9
1.94133 -2.28549 -0.77802 17 13 14
1.95099 -2.28944 -0.75678 10 13 14
1.94099 -2.29811 -0.76707 15 10 14
1.94125 -2.31089 -0.75661 19 14 29
1.95125 -2.30222 -0.74631 13 15 20
1.95092 -2.31484 -0.73535 18 15 31
1.95156 -2.32647 -0.75436 27 24 42
1.96126 -2.33043 -0.73305 24 20 39
1.95679 -2.34070 -0.74792 36 31 44
1.96578 -2.35604 -0.74449 45 35 39
1.96969 -2.36998 -0.73689 61 58 51
1.98381 -2.38694 -0.73750 85 90 92
1.97335 -2.40850 -0.73684 104 113 130
1.98615 -2.40051 -0.72856 98 110 109
1.98667 -2.41355 -0.71815 104 110 113
1.99020 -2.42752 -0.71013 82 97 84
1.96806 -2.43362 -0.68170 58 56 55
1.97781 -2.43760 -0.66027 57 57 64
1.96165 -2.44446 -0.66584 57 60 68
1.96131 -2.45717 -0.65481 66 74 75
1.94313 -2.47694 -0.61906 76 80 77
1.93345 -2.47299 -0.64035 75 79 83
1.93885 -2.48830 -0.60501 60 48 69
1.92851 -2.50961 -0.60435 55 58 62
1.93435 -2.49956 -0.59081 62 64 63
1.93381 -2.51211 -0.57970 71 82 77
1.93141 -2.52403 -0.56716 70 80 79
1.93506 -2.53798 -0.55928 65 76 74
1.93881 -2.56475 -0.54073 55 51 76
1.94661 -2.58023 -0.53593 76 79 87
1.94035 -2.59080 -0.52046 92 100 101
1.92999 -2.61213 -0.51980 109 116 112
1.92765 -2.59903 -0.50018 108 113 113
1.91733 -2.62028 -0.49953 112 114 106
1.92586 -2.61110 -0.48815 120 125 110
1.91554 -2.63235 -0.48750 108 113 108
1.92911 -2.62500 -0.47990 119 125 104
1.91878 -2.64627 -0.47924 108 118 116
1.92651 -2.63677 -0.46727 113 120 100
1.92856 -2.65026 -0.45810 108 114 102
1.93267 -2.66453 -0.45043 106 107 101
1.93208 -2.67705 -0.43929 98 92 86
1.93271 -2.70280 -0.41832 82 90 114
1.93671 -2.71711 -0.41050 102 112 126
1.93638 -2.72975 -0.39953 109 115 115
1.95501 -2.77561 -0.38061 118 123 115
1.94528 -2.77164 -0.40202 120 131 127
1.94494 -2.78435 -0.39098 131 133 130
1.96666 -2.79321 -0.37809 115 119 116
1.97507 -2.82248 -0.36234 121 126 132
1.97473 -2.83527 -0.35124 124 131 134
1.96459 -2.84406 -0.36167 131 143 142
1.97714 -2.84921 -0.34206 125 134 129
1.96700 -2.85801 -0.35250 136 152 140
1.97793 -2.86249 -0.33174 127 127 112
1.96744 -2.88409 -0.33107 139 147 146
1.97911 -2.87594 -0.32168 137 150 139
1.98892 -2.87995 -0.30012 132 136 135
1.97877 -2.88875 -0.31056 141 144 141
1.96862 -2.89755 -0.32101 149 154 140
1.99340 -2.96013 -0.26598 132 138 136
1.99374 -2.94727 -0.27715 130 134 125
2.00359 -2.95129 -0.25548 128 133 146
1.99306 -2.97299 -0.25481 135 143 140
2.03025 -3.02936 -0.24660 139 143 115
2.04090 -3.00743 -0.24728 143 152 144
2.03059 -3.01636 -0.25789 139 154 133
2.04055 -3.02042 -0.23600 135 136 141
2.04021 -3.03342 -0.22471 140 142 145
2.02991 -3.04236 -0.23532 141 145 128
2.03034 -3.05573 -0.22455 140 148 139
2.04065 -3.04679 -0.21394 144 153 145
2.04030 -3.05979 -0.20265 147 154 143
2.02566 -3.06666 -0.21042 152 168 143
2.03560 -3.07072 -0.18855 146 153 147
2.01502 -3.08858 -0.20975 158 178 153
2.01686 -3.07560 -0.19366 152 167 152
2.02679 -3.07965 -0.17184 143 154 153
2.01652 -3.08855 -0.18241 139 144 147
1.95098 -3.22461 0.00090 149 155 149
1.94123 -3.22063 -0.02056 169 170 154
1.94089 -3.23337 -0.00950 156 161 155
1.94055 -3.24611 0.00156 152 162 165
1.95480 -3.27838 0.04205 148 146 158
1.94436 -3.29991 0.04272 154 163 162
1.95632 -3.29216 0.05203 161 179 181
1.94587 -3.31370 0.05270 151 160 164
0.92100 -3.27974 1.13145 29 42 91
0.91401 -3.27689 1.11609 48 43 70
0.91377 -3.28601 1.12401 41 39 77
0.91353 -3.29513 1.13193 30 39 85
0.91534 -3.28468 1.14157 32 46 101
0.90551 -3.28637 1.15332 43 66 111
0.88055 -3.27621 1.17106 57 78 124
0.85751 -3.27645 1.19552 87 112 143
0.86115 -3.28840 1.20173 105 126 167
0.85567 -3.29315 1.21150 121 142 174
0.86248 -3.29593 1.22647 144 162 173
0.85331 -3.30036 1.22003 129 153 176
0.86012 -3.30313 1.23500 143 160 172
0.84656 -3.30403 1.23023 134 156 177
0.85335 -3.30680 1.24515 141 160 173
0.84633 -3.31289 1.23792 138 160 179
0.65733 -3.41246 1.52053 88 123 170
0.65061 -3.42630 1.52095 93 124 155
0.66009 -3.42339 1.52681 91 128 176
0.65336 -3.43725 1.52724 89 123 158
0.66765 -3.43878 1.53178 99 139 188
0.66341 -3.44330 1.54004 116 158 206
0.66351 -3.45182 1.54710 132 179 219
0.66484 -3.46150 1.55383 151 195 230
0.67862 -3.48283 1.55725 152 179 206
0.68643 -3.49867 1.56233 94 105 128
0.69280 -3.50127 1.57633 47 51 68
0.68621 -3.50698 1.56955 41 51 69
0.67962 -3.51270 1.56276 46 52 68
0.90582 -3.79822 1.58309 61 63 70
0.91328 -3.78284 1.58261 51 55 60
0.90606 -3.78911 1.57518 55 61 70
0.89835 -3.81360 1.58356 80 92 90
0.90992 -3.81160 1.59001 67 70 78
0.91706 -3.83739 1.60416 67 61 58
0.91723 -3.84696 1.61202 64 58 56
0.92196 -3.86107 1.61890 73 76 82
0.92372 -3.87225 1.62644 91 105 105
0.92294 -3.88089 1.63452 95 106 101
0.92094 -3.88831 1.64286 90 88 79
0.92131 -3.89811 1.65070 89 89 81
0.92835 -3.90098 1.66616 102 94 87
0.92107 -3.90729 1.65867 93 93 88
0.88658 -3.90022 1.68905 105 102 91
0.87964 -3.89739 1.67379 83 82 79
0.89376 -3.89400 1.69643 118 108 94
0.87940 -3.90645 1.68166 92 93 92
0.89352 -3.90305 1.70430 124 111 98
0.88634 -3.90928 1.69691 114 111 92
1.82384 -1.43236 -1.39827 22 19 20
1.83380 -1.41184 -1.39890 18 19 18
1.82416 -1.42020 -1.40882 17 18 19
1.82706 -1.44463 -1.39137 37 30 38
1.86148 -1.45806 -1.41659 49 49 60
1.85141 -1.47881 -1.41595 59 55 74
1.80349 -1.96616 -0.92828 82 86 101
1.81343 -1.94568 -0.92892 72 82 96
1.80381 -1.95402 -0.93882 71 80 100
1.79355 -1.98663 -0.92765 96 104 125
1.81582 -1.98068 -0.92915 90 97 115
1.80585 -2.00124 -0.92852 93 103 118
1.96355 -2.22600 -0.87975 89 103 119
1.96199 -2.23842 -0.86767 83 88 93
1.95768 -2.25012 -0.85327 45 56 52
1.94728 -2.27156 -0.85260 49 65 52
1.95602 -2.26248 -0.84112 39 42 50
1.94562 -2.28391 -0.84046 66 71 65
1.95181 -2.27416 -0.82684 42 40 55
1.94142 -2.29557 -0.82618 60 74 78
1.96075 -2.28933 -0.82358 43 37 42
1.93523 -2.29522 -0.79157 37 35 28
1.94048 -2.30939 -0.78523 32 23 27
1.93751 -2.32130 -0.77208 32 29 46
1.96738 -2.34246 -0.78598 38 44 57
1.94900 -2.35006 -0.76011 44 42 60
1.94412 -2.36143 -0.74538 64 79 67
1.96649 -2.38074 -0.75288 97 114 113
1.97572 -2.39632 -0.74958 112 118 127
1.97206 -2.42099 -0.72498 103 114 115
1.95774 -2.42947 -0.70267 67 69 54
1.93675 -2.43578 -0.67511 40 26 32
1.94603 -2.45145 -0.67179 48 53 57
1.94055 -2.46250 -0.65670 64 69 78
1.93018 -2.48387 -0.65603 75 78 87
1.92978 -2.48455 -0.62675 82 85 80
1.91977 -2.49323 -0.63705 86 92 89
1.92556 -2.49591 -0.61274 69 69 68
1.91409 -2.51751 -0.58242 55 66 67
1.90413 -2.52616 -0.59268 50 44 58
1.91013 -2.52886 -0.56868 52 44 67
1.90807 -2.54083 -0.55644 46 51 52
1.91355 -2.55540 -0.55002 67 81 75
1.90325 -2.57663 -0.54936 102 108 100
1.91056 -2.56705 -0.53706 92 101 97
1.90027 -2.58826 -0.53640 103 107 95
1.91111 -2.57994 -0.52682 102 108 98
1.90082 -2.60115 -0.52617 108 116 104
1.91267 -2.59318 -0.51734 104 115 107
1.90236 -2.61441 -0.51669 114 121 111
1.89602 -2.65046 -0.45157 113 123 116
1.89884 -2.66418 -0.44304 113 120 113
1.91569 -2.68329 -0.44486 107 109 100
1.91321 -2.69506 -0.43234 85 72 84
1.90290 -2.71630 -0.43168 61 63 93
1.91300 -2.70769 -0.42150 72 57 97
1.92194 -2.72393 -0.41734 99 109 123
1.92330 -2.73723 -0.40762 110 120 122
1.91295 -2.75854 -0.40696 116 126 128
1.94032 -2.79530 -0.37689 130 133 122
1.93059 -2.79133 -0.39827 133 137 139
1.93026 -2.80402 -0.38725 133 141 146
1.92992 -2.81672 -0.37622 128 130 130
1.94691 -2.81087 -0.37080 124 125 116
1.93649 -2.83233 -0.37014 130 144 139
1.95216 -2.86458 -0.33124 138 143 137
1.94240 -2.86060 -0.35270 128 139 151
1.94206 -2.87334 -0.34164 138 145 150
1.94172 -2.88608 -0.33058 140 148 153
1.98306 -2.94288 -0.29825 136 148 146
1.99360 -2.92118 -0.29892 138 149 137
1.98340 -2.93002 -0.30941 131 132 137
1.99326 -2.93404 -0.28775 137 140 130
1.98233 -2.95556 -0.28681 144 155 148
1.97179 -2.97726 -0.28614 160 175 172
1.98043 -2.96771 -0.27459 148 163 144
1.96990 -2.98940 -0.27392 162 176 170
1.98769 -2.98405 -0.26857 149 158 141
1.99756 -2.98808 -0.24688 134 140 138
1.99518 -3.00055 -0.26266 156 157 148
2.00519 -3.01827 -0.25838 154 156 148
2.01388 -3.03545 -0.25316 151 159 146
2.00982 -3.07293 -0.21737 153 175 142
1.99920 -3.09481 -0.21670 158 166 171
1.98381 -3.08653 -0.17837 146 153 150
1.97361 -3.09538 -0.18887 164 170 167
1.99368 -3.09056 -0.15668 143 148 147
1.84081 -3.45672 0.28426 156 166 148
1.84114 -3.44432 0.27349 151 156 160
1.83131 -3.45284 0.26337 161 169 161
1.85064 -3.44820 0.29439 151 142 126
1.83098 -3.46525 0.27414 174 180 160
1.85031 -3.46060 0.30516 156 154 145
1.84340 -3.47094 0.29345 161 165 146
1.85292 -3.47482 0.31436 159 145 130
1.84308 -3.48335 0.30423 161 146 125
0.89689 -3.29148 1.14651 31 37 87
0.89231 -3.29715 1.15613 31 38 87
0.88491 -3.31241 1.15660 31 38 81
0.88809 -3.30306 1.16557 32 47 95
0.88069 -3.31830 1.16605 28 35 86
0.88355 -3.30870 1.17512 40 62 103
0.84836 -3.28998 1.19672 52 74 113
0.86383 -3.31139 1.19830 65 86 136
0.82299 -3.28782 1.22181 79 101 146
0.82278 -3.30563 1.23700 112 139 168
0.82952 -3.30838 1.25182 141 161 171
0.81260 -3.30636 1.24840 125 150 164
0.81932 -3.30910 1.26316 140 158 169
0.80542 -3.32115 1.24886 89 113 156
0.80635 -3.31021 1.25827 130 155 167
0.81305 -3.31295 1.27300 138 154 174
0.79550 -3.31026 1.26982 137 154 169
0.80217 -3.31298 1.28448 136 152 168
0.79527 -3.31897 1.27737 139 154 165
0.67360 -3.47299 1.53579 84 125 167
0.68454 -3.50028 1.54712 108 117 159
0.67772 -3.51434 1.54755 39 46 76
0.66851 -3.49367 1.55857 67 59 97
0.88805 -3.78483 1.57031 56 66 79
0.89548 -3.76951 1.56984 53 64 74
0.88829 -3.77575 1.56243 54 61 70
0.88110 -3.78199 1.55503 49 50 65
0.89639 -3.80232 1.57617 68 83 87
0.90014 -3.82473 1.59101 79 86 82
0.90488 -3.83880 1.59780 81 81 78
0.90871 -3.86140 1.61272 92 101 108
0.90661 -3.86869 1.62108 106 113 113
0.90685 -3.87832 1.62892 108 111 109
0.90450 -3.88534 1.63730 107 106 96
0.90568 -3.89593 1.64495 103 106 91
0.89454 -3.89397 1.65512 92 96 80
0.90152 -3.89682 1.67046 93 89 84
0.89430 -3.90308 1.66303 80 83 75
0.88708 -3.90935 1.65559 77 80 85
1.81112 -1.42846 -1.41519 17 17 28
1.82107 -1.40796 -1.41582 21 18 23
1.81145 -1.41631 -1.42573 17 15 22
1.80182 -1.42466 -1.43564 15 15 28
1.80118 -1.44895 -1.41455 42 42 49
1.81352 -1.44069 -1.40748 28 29 37
1.84113 -1.45383 -1.42593 45 48 53
1.83109 -1.47451 -1.42529 60 56 73
1.84353 -1.46619 -1.41812 53 54 68
1.83349 -1.48689 -1.41748 60 58 77
1.76441 -1.95686 -0.92152 86 90 117
1.77426 -1.93656 -0.92214 78 85 97
1.76473 -1.94483 -0.93196 78 82 99
1.75456 -1.97716 -0.92089 93 104 123
1.77877 -1.97165 -0.92443 93 106 121
1.76887 -1.99204 -0.92380 92 100 119
1.94851 -2.22070 -0.89663 94 106 122
1.95891 -2.19926 -0.89729 92 99 121
1.94884 -2.20800 -0.90766 94 103 123
1.94906 -2.23363 -0.88636 75 100 111
1.92334 -2.23984 -0.85367 60 65 73
1.94796 -2.25894 -0.86393 45 52 52
1.95318 -2.31157 -0.82531 55 73 75
1.94756 -2.32284 -0.80985 55 64 62
1.93715 -2.34429 -0.80919 62 78 71
1.94294 -2.33434 -0.79525 48 53 55
1.93254 -2.35577 -0.79458 75 87 76
1.94964 -2.34904 -0.79006 52 59 70
1.93922 -2.37051 -0.78939 70 87 83
1.93604 -2.35794 -0.76805 53 51 68
1.95496 -2.37624 -0.77290 87 93 73
1.95742 -2.38981 -0.76413 100 114 125
1.96559 -2.40511 -0.76001 101 117 134
1.95710 -2.41543 -0.74228 92 102 120
1.95535 -2.42775 -0.73006 77 76 82
1.93645 -2.43474 -0.70400 59 49 58
1.93470 -2.44698 -0.69185 34 28 48
1.93053 -2.45844 -0.67777 46 53 60
1.92295 -2.46878 -0.66099 65 73 77
1.91125 -2.50314 -0.61962 73 77 71
1.90093 -2.52441 -0.61896 53 34 33
1.90545 -2.51391 -0.60438 51 46 46
1.90265 -2.53834 -0.58087 54 41 71
1.88348 -2.54439 -0.55531 80 79 81
1.88129 -2.55625 -0.54301 98 106 94
1.88350 -2.64545 -0.47047 123 125 123
1.88384 -2.63293 -0.48133 117 120 111
1.87392 -2.64153 -0.49155 115 123 107
1.87359 -2.65405 -0.48068 121 124 119
1.87562 -2.65510 -0.45394 133 139 134
1.86539 -2.67618 -0.45328 131 141 138
1.87779 -2.66855 -0.44497 132 141 132
1.88281 -2.68311 -0.43810 126 132 120
1.89507 -2.70053 -0.43657 96 97 104
1.89706 -2.72671 -0.41671 90 104 110
1.89852 -2.74000 -0.40711 117 132 130
1.97544 -2.93986 -0.32145 133 144 143
1.98598 -2.91814 -0.32212 136 140 133
1.97578 -2.92699 -0.33262 133 149 138
1.96559 -2.93583 -0.34312 127 142 140
1.97004 -2.95044 -0.30679 146 154 154
1.95952 -2.97212 -0.30612 154 161 165
1.96736 -2.96223 -0.29403 155 169 162
1.95684 -2.98390 -0.29336 145 158 177
1.98136 -3.00774 -0.27075 172 183 170
1.97114 -3.01661 -0.28128 169 184 183
1.97079 -3.02950 -0.27008 168 177 174
1.98848 -3.02414 -0.26460 164 171 167
1.97790 -3.04594 -0.26392 166 175 173
1.99602 -3.04079 -0.25867 156 165 170
2.00015 -3.05587 -0.25041 149 154 157
1.99600 -3.06701 -0.23663 151 156 154
1.98539 -3.08887 -0.23595 156 169 170
1.95470 -3.09908 -0.16557 169 173 159
1.94454 -3.10788 -0.17602 174 182 162
1.96451 -3.10308 -0.14399 157 167 163
1.95436 -3.11189 -0.15445 163 167 161
1.94421 -3.12069 -0.16490 171 176 164
1.93731 -3.15508 -0.09995 162 175 172
1.94775 -3.13356 -0.10062 146 158 156
1.92754 -3.15109 -0.12143 151 160 177
1.94742 -3.14632 -0.08955 152 163 146
1.92720 -3.16385 -0.11036 166 177 182
1.94708 -3.15907 -0.07848 149 161 143
1.82474 -3.42365 0.24586 166 167 156
1.82507 -3.41127 0.23511 162 166 156
1.83456 -3.41514 0.25596 155 158 153
1.83423 -3.42752 0.26671 161 165 161
1.82442 -3.43603 0.25661 162 165 164
1.81969 -3.47084 0.29089 170 172 145
1.80957 -3.49171 0.29154 162 144 117
1.80963 -3.47712 0.30692 164 147 119
1.81908 -3.48098 0.32768 160 145 131
1.80931 -3.48945 0.31762 159 146 126
1.79953 -3.49793 0.30756 158 146 122
1.04811 -3.26471 0.94217 41 42 86
1.04024 -3.28094 0.94267 95 113 128
1.01229 -3.26778 0.98302 86 103 113
1.00863 -3.27476 0.99278 95 112 122
1.03108 -3.32060 1.00730 106 117 125
1.03840 -3.32359 1.02341 50 54 74
1.00451 -3.31998 1.03517 108 116 124
1.01177 -3.32295 1.05111 50 47 69
1.00426 -3.32945 1.04339 105 117 127
0.99676 -3.33596 1.03566 85 82 110
0.89991 -3.29641 1.12713 53 54 77
0.90015 -3.28732 1.11923 61 65 82
0.89295 -3.29357 1.11181 105 109 109
0.89042 -3.29826 1.13883 50 44 76
0.88514 -3.30336 1.14875 47 39 73
0.85887 -3.31011 1.18248 28 34 84
0.85154 -3.32521 1.18294 32 35 64
0.85790 -3.31847 1.19054 32 39 88
0.85618 -3.32623 1.19889 39 55 101
0.82658 -3.31141 1.21808 48 65 113
0.78872 -3.29855 1.24773 73 95 143
0.78244 -3.32004 1.27249 122 141 156
0.78909 -3.32275 1.28711 136 154 165
0.77533 -3.33469 1.27294 87 108 147
0.78653 -3.34120 1.28589 130 151 170
0.79319 -3.34392 1.30055 129 150 164
0.78630 -3.34990 1.29345 131 151 167
0.66963 -3.48113 1.52830 87 117 150
0.66327 -3.47853 1.51432 94 126 154
0.66949 -3.48951 1.53548 79 102 146
0.88222 -3.80172 1.57040 54 56 71
0.88582 -3.81461 1.57738 64 73 73
0.88676 -3.82488 1.58500 78 94 89
0.88778 -3.83524 1.59261 102 113 111
0.89622 -3.86243 1.60642 116 121 124
0.89552 -3.87110 1.61446 115 123 123
0.88804 -3.88651 1.61493 103 85 87
0.88668 -3.87153 1.62426 123 133 121
0.89539 -3.89912 1.63812 116 112 89
0.88774 -3.90066 1.64760 94 89 70
0.88028 -3.91603 1.64807 95 83 105
0.85734 -3.95279 1.72386 106 97 88
0.86472 -3.93759 1.72339 118 109 95
0.85044 -3.94998 1.70869 84 82 86
0.86448 -3.94660 1.73121 120 109 96
0.85020 -3.95899 1.71651 88 77 88
0.86424 -3.95561 1.73903 122 109 98
1.84891 -1.46292 -1.45421 55 57 61
1.73488 -1.94935 -0.92305 85 89 110
1.74467 -1.92918 -0.92367 75 84 109
1.73520 -1.93740 -0.93343 74 85 109
1.72572 -1.94562 -0.94319 85 91 110
1.72509 -1.96953 -0.92243 94 108 127
1.75093 -1.96438 -0.92770 92 106 121
1.74109 -1.98466 -0.92708 89 99 120
1.93247 -2.22793 -0.90184 77 93 94
1.92208 -2.24933 -0.90117 15 18 21
1.94900 -2.24493 -0.90535 31 44 40
1.95361 -2.25896 -0.89853 21 16 49
1.94315 -2.28049 -0.89787 38 42 41
1.94233 -2.26884 -0.87810 22 30 45
1.93191 -2.29031 -0.87743 40 41 42
1.93634 -2.28006 -0.86224 34 38 52
1.92594 -2.30149 -0.86157 44 41 45
1.93934 -2.30647 -0.84329 39 42 61
1.92926 -2.31521 -0.85366 34 39 44
1.92893 -2.32793 -0.84262 40 41 39
1.92844 -2.31626 -0.82334 47 51 59
1.93609 -2.33118 -0.81904 55 65 73
1.93530 -2.38217 -0.77537 76 94 94
1.94233 -2.39708 -0.77042 85 105 116
1.94137 -2.40963 -0.75886 89 105 121
1.94223 -2.42273 -0.74878 85 93 113
1.94738 -2.43717 -0.74220 83 90 90
1.93693 -2.45869 -0.74154 101 100 99
1.93132 -2.44500 -0.71834 80 90 73
1.92092 -2.46643 -0.71768 106 113 98
1.91957 -2.45408 -0.69807 73 75 36
1.91067 -2.46399 -0.68017 65 44 36
1.90033 -2.48530 -0.67951 66 62 70
1.90558 -2.47508 -0.66539 67 61 68
1.90206 -2.48665 -0.65188 74 78 93
1.90271 -2.49957 -0.64173 86 89 98
1.89158 -2.50856 -0.62220 67 68 69
1.87555 -2.52843 -0.58826 63 64 56
1.85709 -2.53467 -0.56316 69 78 77
1.86168 -2.54883 -0.55621 86 94 90
1.86022 -2.56090 -0.54451 99 101 101
1.85002 -2.58192 -0.54386 115 118 115
1.85673 -2.57223 -0.53123 104 105 111
1.84653 -2.59323 -0.53058 118 124 118
1.84647 -2.65633 -0.44958 124 131 133
1.83696 -2.65244 -0.47049 119 128 118
1.83663 -2.66486 -0.45971 118 126 123
1.85461 -2.68459 -0.43461 139 143 135
1.84474 -2.69315 -0.44477 130 144 136
1.85531 -2.69745 -0.42457 118 125 112
1.86766 -2.71494 -0.42318 74 82 68
1.85742 -2.73603 -0.42253 75 84 79
1.86733 -2.72744 -0.41233 69 76 76
1.87938 -2.74494 -0.41060 111 125 128
1.88216 -2.75875 -0.40200 128 137 136
1.89178 -2.76268 -0.38086 117 128 132
1.88182 -2.77131 -0.39110 125 132 130
1.97885 -3.07258 -0.24258 165 176 169
1.96826 -3.09440 -0.24191 168 168 170
1.78679 -3.40247 0.24113 177 183 175
1.79684 -3.38175 0.24049 158 165 161
1.78711 -3.39019 0.23047 169 169 157
1.77738 -3.39863 0.22045 169 177 160
1.79540 -3.42021 0.24675 188 194 179
1.81376 -3.44402 0.24698 164 164 155
1.81343 -3.45640 0.25772 154 156 146
1.80442 -3.46337 0.27328 169 173 153
1.79464 -3.47185 0.26320 152 158 142
1.79431 -3.48420 0.27392 149 152 147
1.79783 -3.47179 0.28744 166 165 142
1.78774 -3.49258 0.28809 157 150 123
1.25335 -3.29961 0.72894 157 164 160
1.27852 -3.32750 0.72527 95 88 94
1.06970 -3.27280 0.90412 34 45 85
1.07766 -3.25640 0.90361 33 42 74
1.06996 -3.26308 0.89568 32 42 63
1.06225 -3.26976 0.88774 42 51 77
1.06174 -3.28921 0.90462 62 70 95
1.06049 -3.27603 0.91674 54 66 104
1.01339 -3.25156 0.94690 78 101 136
1.02563 -3.28974 0.96578 79 90 111
1.01779 -3.30589 0.96628 67 81 112
1.00541 -3.30383 0.99937 73 77 101
0.99764 -3.31986 0.99986 70 75 84
1.01799 -3.32301 1.00194 70 82 105
1.01017 -3.33912 1.00243 76 74 83
1.01706 -3.33205 1.01052 76 83 101
0.89908 -3.30767 1.11704 112 121 110
0.89210 -3.30482 1.10168 71 87 107
0.90090 -3.31842 1.12411 105 110 123
0.89772 -3.32521 1.13324 78 93 105
0.88126 -3.32143 1.14778 58 63 68
0.87079 -3.32231 1.15979 49 45 76
0.85544 -3.31920 1.17370 41 40 72
0.84875 -3.33209 1.19173 34 35 79
0.84142 -3.34719 1.19220 37 39 77
0.84332 -3.33681 1.20153 27 35 89
0.83601 -3.35187 1.20200 29 38 79
0.83880 -3.34223 1.21095 25 38 95
0.83150 -3.35727 1.21142 30 38 86
0.84152 -3.35357 1.21754 33 46 105
0.80710 -3.33429 1.23840 48 64 114
0.82129 -3.35504 1.24055 60 79 123
0.79179 -3.33952 1.25927 70 89 132
0.77564 -3.34383 1.28028 104 124 158
0.76914 -3.35609 1.29756 122 143 170
0.77578 -3.35879 1.31215 129 148 163
0.76394 -3.36052 1.30688 124 147 167
0.77056 -3.36322 1.32144 126 147 163
0.76371 -3.36916 1.31439 126 150 168
0.66742 -3.49948 1.52745 81 101 132
0.86538 -3.80768 1.57313 59 77 70
0.87685 -3.82844 1.57822 89 109 99
0.86940 -3.84378 1.57869 136 148 150
0.87375 -3.83466 1.58678 133 145 148
0.87977 -3.85004 1.59322 147 155 149
0.88154 -3.86118 1.60066 126 125 123
0.87408 -3.87655 1.60114 102 100 111
0.88603 -3.87510 1.60751 104 93 97
0.87271 -3.88955 1.63398 107 113 113
0.86788 -3.89391 1.64284 111 112 109
0.85370 -3.90709 1.66917 89 92 103
0.85394 -3.89807 1.66134 95 100 121
0.86085 -3.90089 1.67652 90 97 93
0.84656 -3.91329 1.66181 98 98 101
0.86061 -3.90991 1.68435 86 89 96
0.85346 -3.91611 1.67700 80 81 99
0.84703 -3.91863 1.68604 88 90 90
0.85416 -3.91244 1.69337 91 93 94
0.85392 -3.92144 1.70118 100 95 95
0.84381 -3.92448 1.69442 101 101 101
0.85069 -3.92729 1.70954 105 94 97
0.84778 -3.93791 1.70142 102 102 102
1.84261 -1.47152 -1.46789 57 62 62
1.84652 -1.48404 -1.46163 63 61 74
1.84620 -1.49638 -1.45091 62 62 77
1.83641 -1.50487 -1.46098 49 54 60
1.29160 -1.69887 -0.67955 63 67 76
1.29187 -1.68848 -0.68857 69 69 85
1.28364 -1.69562 -0.69705 72 74 92
1.29983 -1.69173 -0.67108 55 57 62
1.28336 -1.70601 -0.68803 69 74 85
1.29956 -1.70212 -0.66206 51 56 56
1.29289 -1.70946 -0.67206 49 60 69
1.29261 -1.71986 -0.66304 53 58 77
1.28437 -1.72701 -0.67152 58 55 76
1.90269 -2.16814 -0.94830 96 100 118
1.91302 -2.14687 -0.94896 88 97 125
1.90303 -2.15553 -0.95925 89 93 118
1.91268 -2.15948 -0.93802 87 95 122
1.90236 -2.18075 -0.93736 105 115 134
1.91092 -2.20826 -0.92355 90 104 120
1.92127 -2.18693 -0.92421 98 105 131
1.91125 -2.19562 -0.93452 102 109 128
1.89468 -2.21689 -0.89869 72 78 90
1.88438 -2.23813 -0.89804 28 32 25
1.95168 -2.24413 -0.93764 29 41 30
1.94727 -2.26872 -0.91221 33 35 45
1.93714 -2.27750 -0.92263 45 45 41
1.93680 -2.29028 -0.91154 40 44 37
1.92250 -2.33891 -0.82644 40 45 55
1.91278 -2.33494 -0.84782 48 47 41
1.91244 -2.34764 -0.83680 46 48 47
1.91211 -2.36033 -0.82578 50 52 54
1.91827 -2.35048 -0.81213 45 49 64
1.90788 -2.37188 -0.81147 54 55 56
1.90656 -2.37259 -0.78088 50 47 51
1.89654 -2.38128 -0.79120 56 51 55
1.89621 -2.39392 -0.78022 56 50 61
1.92079 -2.38958 -0.78205 56 53 67
1.93181 -2.40571 -0.78046 55 59 67
1.93718 -2.42019 -0.77413 66 61 76
1.92673 -2.44171 -0.77346 74 78 77
1.93764 -2.43319 -0.76371 78 78 85
1.92719 -2.45472 -0.76305 78 84 86
1.92437 -2.44190 -0.74201 88 93 94
1.91396 -2.46334 -0.74135 67 75 92
1.89847 -2.47196 -0.68870 83 99 87
1.88102 -2.49165 -0.65325 66 85 93
1.87460 -2.50217 -0.63746 52 64 80
1.86593 -2.51188 -0.61990 47 51 63
1.85568 -2.53299 -0.61925 41 38 45
1.86008 -2.52250 -0.60464 46 44 49
1.84458 -2.52975 -0.58176 67 85 76
1.83692 -2.53962 -0.56516 70 82 87
1.84238 -2.55407 -0.55895 89 98 90
1.83936 -2.56554 -0.54605 106 110 104
1.82849 -2.67424 -0.44302 119 136 133
1.81900 -2.67037 -0.46389 125 128 109
1.81867 -2.68276 -0.45313 126 130 127
1.82454 -2.69772 -0.41903 134 134 125
1.81473 -2.70623 -0.42913 137 147 139
1.84412 -2.71807 -0.42317 110 108 93
1.85103 -2.74606 -0.40718 94 106 114
1.86469 -2.76429 -0.40669 135 146 129
1.85443 -2.78543 -0.40603 142 150 128
1.86691 -2.77788 -0.39769 134 137 120
1.87652 -2.78180 -0.37658 125 128 130
1.86658 -2.79041 -0.38681 122 127 138
1.85664 -2.79903 -0.39704 125 136 144
1.89586 -2.84103 -0.37607 132 133 128
1.90622 -2.81969 -0.37673 138 143 135
1.89619 -2.82838 -0.38705 136 145 130
1.88584 -2.84972 -0.38639 148 158 149
1.90555 -2.84498 -0.35477 127 127 127
1.88550 -2.86237 -0.37541 147 157 152
1.91206 -2.86084 -0.37701 131 134 134
1.91173 -2.87354 -0.36598 145 158 145
1.90166 -2.88228 -0.37635 136 131 147
1.76865 -3.40576 0.23591 170 182 177
1.77952 -3.42490 0.24019 183 199 188
1.79596 -3.44757 0.24139 164 162 157
1.78585 -3.46841 0.24203 180 198 161
1.79213 -3.45774 0.25408 159 174 142
1.24894 -3.30937 0.71855 155 160 153
1.27412 -3.33740 0.71478 93 82 83
1.22556 -3.31424 0.74799 35 29 46
1.22529 -3.32455 0.75694 33 42 70
1.21712 -3.33163 0.74853 35 41 78
1.07051 -3.28566 0.89214 52 63 88
1.06303 -3.28261 0.87572 57 62 89
1.06278 -3.29237 0.88419 69 77 91
1.05043 -3.29082 0.91824 67 68 97
1.04250 -3.30716 0.91875 77 76 80
1.05139 -3.30140 0.92608 66 71 94
1.04345 -3.31774 0.92659 76 76 91
1.03977 -3.30266 0.93975 62 73 103
1.03187 -3.31894 0.94025 79 82 99
1.02130 -3.32806 0.98109 74 78 96
1.01395 -3.32506 0.96495 78 90 111
