ply
format ascii 1.0
element face 0
property list uchar int vertex_indices
element vertex 1334
property float x
property float y
property float z
property uchar diffuse_red
property uchar diffuse_green
property uchar diffuse_blue
end_header
2.97909 -2.35680 0.99906 132 113 99
2.99713 -2.37077 1.00547 40 45 60
2.98914 -2.37806 1.01889 121 139 142
2.98580 -2.39939 1.02149 191 191 187
2.97717 -2.38426 1.03328 182 192 187
2.97384 -2.40550 1.03588 185 183 182
3.06936 -2.51135 1.13321 196 197 200
3.05607 -2.51146 1.11586 183 185 190
3.07313 -2.52167 1.14347 206 209 214
3.06977 -2.54310 1.14609 217 223 223
3.07679 -2.53195 1.15376 217 220 222
3.09008 -2.53184 1.17109 227 228 230
3.08176 -2.54261 1.16374 228 229 232
3.07343 -2.55337 1.15638 229 229 233
1.45399 -0.60508 -0.25155 254 253 248
1.44326 -0.60517 -0.26556 254 254 254
1.44727 -0.61378 -0.25749 254 254 254
1.45704 -0.61393 -0.24262 249 248 210
1.48656 -0.61625 -0.25709 231 209 141
1.50239 -0.62208 -0.25931 199 165 122
1.49806 -0.64248 -0.23212 178 155 127
1.42498 -0.69703 -0.12341 155 137 115
1.43546 -0.69694 -0.10973 160 134 116
1.42889 -0.70543 -0.11553 164 140 122
1.42233 -0.71393 -0.12134 162 142 127
1.18264 -0.79260 0.13393 159 142 129
1.17318 -0.79268 0.12159 158 138 124
1.17671 -0.80026 0.12869 162 143 123
1.19206 -0.79899 0.13614 135 116 99
1.20421 -0.80490 0.13617 77 60 53
1.20575 -0.81292 0.14497 49 42 37
1.21141 -0.82014 0.15039 35 31 36
1.35688 -0.93840 0.20825 32 20 22
1.35937 -0.92254 0.20631 22 19 32
1.35321 -0.93051 0.20086 27 19 29
1.36304 -0.93043 0.21370 25 19 18
1.36672 -0.93832 0.22108 25 17 14
1.36921 -0.94515 0.20920 34 19 32
1.36672 -0.96107 0.21114 50 49 49
1.37987 -0.95218 0.21145 39 30 37
1.37737 -0.96813 0.21340 55 50 45
1.39046 -0.95925 0.21381 47 41 37
1.38795 -0.97525 0.21577 51 47 44
1.40783 -0.96555 0.21126 50 45 40
1.40531 -0.98163 0.21323 43 42 49
1.50250 -1.01473 0.21534 61 38 40
1.49868 -1.00653 0.20765 48 31 41
1.51008 -1.02258 0.22038 71 56 52
1.51535 -1.03066 0.22707 90 70 64
1.52905 -1.03799 0.22791 108 96 113
1.53850 -1.04575 0.23177 130 121 127
1.54554 -1.05375 0.23733 140 130 132
1.55685 -1.06143 0.23998 146 133 137
1.56752 -1.06920 0.24313 147 136 136
1.57167 -1.07749 0.25074 152 138 139
1.59460 -1.09310 0.25618 163 139 142
1.59702 -1.10156 0.26500 169 144 138
1.59596 -1.11022 0.27609 176 152 134
1.58014 -1.11973 0.29685 183 162 142
1.57483 -1.12853 0.31059 187 165 156
1.57402 -1.13704 0.32135 193 171 162
1.57343 -1.14551 0.33193 196 176 166
1.57847 -1.15368 0.33887 201 180 168
1.58459 -1.16182 0.34513 210 185 168
1.59129 -1.16995 0.35103 216 193 174
1.58868 -1.18653 0.35306 229 214 199
1.59611 -1.17816 0.35814 220 199 187
1.59464 -1.18660 0.36921 224 206 195
1.60434 -1.20302 0.38338 228 216 211
1.61640 -1.21105 0.38603 214 210 199
1.64321 -1.21878 0.37969 187 173 177
1.65340 -1.22699 0.38365 142 111 145
1.65077 -1.24378 0.38571 93 78 71
1.65633 -1.23536 0.39206 98 70 98
1.66899 -1.24358 0.39459 81 63 78
1.66635 -1.26042 0.39665 98 87 82
1.72761 -1.27695 0.40064 99 86 92
1.71701 -1.27704 0.38681 100 84 70
1.73482 -1.28545 0.40670 126 125 141
1.74017 -1.29397 0.41386 186 206 230
1.73749 -1.31108 0.41595 164 168 206
2.06234 -1.34165 0.28302 227 239 251
2.06529 -1.32280 0.28071 247 251 253
2.05797 -1.33228 0.27424 218 224 245
2.05065 -1.34175 0.26776 159 174 219
2.07717 -1.35123 0.28592 218 230 239
2.09087 -1.36084 0.28952 191 189 222
2.11661 -1.38018 0.29784 202 179 217
2.12400 -1.38975 0.30509 187 175 234
2.13444 -1.39944 0.31069 229 228 242
2.14356 -1.40912 0.31706 243 246 243
2.15572 -1.41894 0.32182 228 238 242
2.16773 -1.42879 0.32670 196 162 227
2.20821 -1.43997 0.31653 160 124 212
2.22146 -1.45004 0.32096 149 137 205
2.22958 -1.45991 0.32814 167 162 212
2.24267 -1.47006 0.33275 213 198 226
2.25237 -1.48007 0.33917 243 234 236
2.25478 -1.48968 0.34938 224 236 235
2.27283 -1.50023 0.35158 187 189 212
2.28039 -1.51019 0.35920 144 125 176
2.29798 -1.52083 0.36177 103 86 146
2.33053 -1.53258 0.35693 88 91 127
2.33579 -1.55206 0.37740 74 74 104
2.35484 -1.56306 0.37955 48 45 78
2.40710 -1.57678 0.36557 15 22 47
2.40393 -1.59699 0.36804 7 9 15
2.42657 -1.58806 0.36781 5 9 26
2.47942 -1.63159 0.38951 34 15 15
2.47448 -1.64084 0.40359 66 43 36
2.48480 -1.65155 0.41050 129 104 90
2.51783 -1.66458 0.40692 193 174 128
2.55392 -1.67807 0.40212 222 214 168
2.56473 -1.68904 0.40906 200 190 174
2.56719 -1.69914 0.41983 161 109 156
2.60060 -1.71267 0.41664 83 52 83
2.59731 -1.73362 0.41920 101 84 73
2.61705 -1.72441 0.42121 79 58 78
2.63695 -1.73662 0.42432 102 79 60
2.65211 -1.74834 0.42962 51 49 62
2.65166 -1.75821 0.44182 23 15 58
2.66730 -1.77005 0.44698 65 48 63
2.69949 -1.78405 0.44507 98 86 80
2.69614 -1.80538 0.44768 105 88 64
2.73985 -1.80929 0.45197 103 90 87
2.73648 -1.83078 0.45460 136 111 116
3.10801 -1.93392 0.38724 158 92 124
3.09357 -1.93404 0.36840 144 79 106
3.21958 -1.96162 0.35546 175 121 130
3.23758 -1.97541 0.36160 181 139 136
3.25242 -1.97529 0.38096 193 159 121
3.25852 -1.98973 0.36665 189 155 135
3.27341 -1.98960 0.38608 194 160 119
3.29889 -2.01834 0.37762 169 149 109
3.35621 -2.03885 0.36888 126 105 87
3.39043 -2.05576 0.36930 70 50 51
3.41112 -2.07052 0.37505 40 33 40
3.37821 -2.07617 0.40113 101 96 87
2.97524 -2.08801 0.65122 133 111 150
2.97012 -2.07702 0.64092 190 183 192
2.96153 -2.08813 0.63333 154 127 140
2.97749 -2.09846 0.66253 126 110 142
3.00047 -2.11293 0.66659 187 192 187
2.99699 -2.13512 0.66930 212 211 212
3.00191 -2.12324 0.67820 212 216 215
2.99843 -2.14540 0.68091 210 209 211
2.72785 -2.21595 0.95064 132 91 74
2.72314 -2.20583 0.94116 163 129 104
2.72466 -2.23628 0.95312 146 128 77
2.74127 -2.22813 0.95751 94 72 47
2.73808 -2.24851 0.96000 105 99 72
2.72753 -2.23385 0.97246 97 99 75
2.74334 -2.24662 0.97866 105 112 115
2.75595 -2.24652 0.99512 127 129 131
2.74805 -2.25674 0.98813 126 130 136
2.74015 -2.26697 0.98114 124 127 136
2.89401 -2.32015 0.97940 162 164 166
2.89071 -2.34117 0.98197 173 174 179
2.90379 -2.34107 0.99896 180 180 170
2.99025 -2.37253 0.98641 117 87 85
2.99778 -2.38385 0.99569 49 59 52
2.96655 -2.38504 1.01540 151 179 168
2.96322 -2.40630 1.01800 192 188 186
3.07655 -2.52659 1.12217 195 197 199
3.06321 -2.52670 1.10476 182 185 189
3.08018 -2.53690 1.13251 204 209 216
1.45326 -0.62190 -0.25119 254 254 248
1.44251 -0.62199 -0.26522 254 254 254
1.44653 -0.63061 -0.25715 254 254 254
1.45748 -0.63047 -0.24331 254 248 220
1.45451 -0.64077 -0.22907 233 211 183
1.47446 -0.64559 -0.23503 201 176 151
1.47970 -0.65396 -0.22799 187 161 127
1.47248 -0.66519 -0.21010 165 137 107
1.44749 -0.68037 -0.17691 127 93 78
1.44480 -0.69750 -0.17482 116 97 85
1.45145 -0.68889 -0.16893 117 92 79
1.41798 -0.70562 -0.12884 142 128 114
1.41533 -0.72251 -0.12677 151 134 123
1.19135 -0.80564 0.12655 149 129 106
1.18185 -0.80572 0.11415 161 140 117
1.18540 -0.81334 0.12129 159 140 114
1.20932 -0.81045 0.12174 96 79 61
1.20871 -0.81891 0.13236 53 44 36
1.21455 -0.82613 0.13766 39 35 39
1.35580 -0.92888 0.17859 33 21 37
1.35830 -0.91294 0.17664 25 22 32
1.35211 -0.92095 0.17117 30 23 36
1.36199 -0.92087 0.18407 24 19 31
1.36216 -0.93645 0.18400 38 24 41
1.35966 -0.95240 0.18595 57 52 54
1.36358 -0.94468 0.19314 45 35 45
1.36108 -0.96062 0.19509 53 52 58
1.37065 -0.95217 0.19804 48 44 54
1.36815 -0.96813 0.19999 49 51 50
1.43033 -0.98724 0.20522 42 36 52
1.43408 -0.99530 0.21277 39 32 37
1.47358 -1.00814 0.20496 54 38 48
1.46978 -0.99998 0.19732 47 32 29
1.47995 -0.99990 0.21059 36 35 42
1.48500 -1.01554 0.20717 66 48 55
1.49401 -1.02322 0.21115 80 62 64
1.49917 -1.03130 0.21787 90 76 75
1.50274 -1.03952 0.22573 106 90 84
1.50957 -1.04746 0.23131 122 106 111
1.51979 -1.05513 0.23456 136 129 135
1.52975 -1.06287 0.23804 146 134 139
1.54312 -1.07037 0.23923 154 137 148
1.55643 -1.07795 0.24053 163 141 146
1.56586 -1.08585 0.24453 172 154 139
1.57253 -1.09398 0.25044 179 159 149
1.57011 -1.10272 0.26247 185 160 160
1.57051 -1.11125 0.27256 189 162 162
1.57175 -1.11970 0.28208 192 166 156
1.55709 -1.12904 0.30207 192 171 160
1.55326 -1.13768 0.31481 197 177 167
1.55803 -1.14585 0.32190 204 182 165
1.56056 -1.15413 0.33043 209 189 170
1.56271 -1.16242 0.33921 214 195 183
1.56012 -1.17892 0.34122 228 214 205
1.56779 -1.17058 0.34609 219 201 190
1.57432 -1.17869 0.35205 224 206 194
1.57748 -1.19527 0.37029 226 216 202
1.58430 -1.20339 0.37609 208 206 191
1.62817 -1.21898 0.36901 133 93 122
1.62555 -1.23571 0.37106 97 80 73
1.62824 -1.22738 0.37916 94 60 87
1.62562 -1.24408 0.38120 99 86 72
1.64303 -1.23549 0.38024 86 63 82
1.64040 -1.25227 0.38229 98 86 72
1.72232 -1.28554 0.39397 108 84 78
1.71964 -1.30264 0.39606 153 160 166
1.72238 -1.29403 0.40423 127 118 133
1.71971 -1.31111 0.40632 150 154 181
1.73446 -1.30257 0.40743 165 182 206
1.73177 -1.31969 0.40953 145 147 183
2.07150 -1.35145 0.26718 162 158 228
2.10002 -1.36142 0.26238 146 145 198
2.09650 -1.37070 0.27572 169 164 214
2.11664 -1.38999 0.28718 232 219 241
2.12393 -1.39959 0.29450 247 249 248
2.13773 -1.40944 0.29827 243 248 250
2.13472 -1.42860 0.30061 182 171 218
2.14166 -1.41895 0.30747 216 207 237
2.14744 -1.42854 0.31568 177 159 209
2.16871 -1.43883 0.31556 167 152 210
2.15508 -1.44755 0.33420 201 192 230
2.15208 -1.46672 0.33654 253 254 253
2.19881 -1.45907 0.32228 237 232 239
2.21791 -1.46949 0.32360 250 249 245
2.23408 -1.47983 0.32656 246 245 250
2.24999 -1.49021 0.32973 219 220 232
2.25628 -1.50007 0.33795 148 141 175
2.28536 -1.51139 0.33447 96 82 134
2.29721 -1.52170 0.33995 82 80 123
2.29916 -1.53136 0.35051 74 75 115
2.32722 -1.54289 0.34787 51 51 89
2.34124 -1.56307 0.36403 12 12 40
2.33811 -1.58300 0.36647 12 9 8
2.35898 -1.57403 0.36682 8 7 27
2.38856 -1.58605 0.36388 8 9 20
2.42272 -1.60828 0.37061 14 7 14
2.43818 -1.61935 0.37487 34 14 15
2.45847 -1.63092 0.37689 66 37 36
2.45346 -1.64014 0.39104 129 104 79
2.48775 -1.65320 0.38657 190 172 109
2.49288 -1.66345 0.39595 218 209 158
2.51782 -1.67577 0.39612 201 187 147
2.50704 -1.68438 0.41294 155 106 123
2.52613 -1.69617 0.41593 88 54 82
2.55667 -1.70932 0.41380 79 46 89
2.55341 -1.73010 0.41634 101 84 74
2.59214 -1.72316 0.40958 97 74 72
2.58885 -1.74412 0.41215 99 84 74
2.63380 -1.75774 0.42683 32 21 32
2.63873 -1.76824 0.43664 23 11 19
2.65304 -1.77993 0.44235 76 59 37
2.64972 -1.80108 0.44493 105 88 82
2.68726 -1.79426 0.43946 99 87 73
2.68391 -1.81557 0.44206 106 89 83
3.09623 -1.94521 0.38035 141 93 112
3.12101 -1.95978 0.38336 129 82 106
3.13581 -1.97289 0.39048 117 85 105
3.23787 -1.99998 0.36292 142 128 122
3.28666 -2.01891 0.35698 137 116 106
3.28674 -2.03002 0.37041 80 63 58
3.28295 -2.05417 0.37336 36 32 33
3.37718 -2.05622 0.34862 40 36 36
3.37332 -2.08082 0.35163 35 37 30
3.39364 -2.07028 0.35593 33 30 23
3.40259 -2.08310 0.36617 42 33 31
3.42250 -2.09785 0.37226 105 94 86
3.41862 -2.12260 0.37529 172 154 114
3.38562 -2.10262 0.39988 176 154 121
3.40083 -2.10249 0.41972 163 139 122
3.42170 -2.12027 0.39991 141 117 105
3.43701 -2.12014 0.41989 125 121 146
3.49656 -2.14512 0.38572 64 55 87
3.51209 -2.14499 0.40600 134 148 187
3.50067 -2.15727 0.39801 68 71 111
3.51620 -2.15714 0.41828 177 188 215
3.50647 -2.16972 0.40968 142 154 174
3.49675 -2.18231 0.40107 117 127 129
2.95799 -2.09745 0.64672 112 75 111
2.94431 -2.09756 0.62887 131 115 120
2.94942 -2.10853 0.63914 137 123 139
2.97324 -2.11041 0.65341 163 157 167
2.96977 -2.13252 0.65611 213 213 212
3.01526 -2.12873 0.65074 208 213 209
3.01176 -2.15104 0.65347 209 210 213
2.69767 -2.22087 0.95041 184 180 160
2.68513 -2.22097 0.93404 99 111 156
2.68981 -2.23103 0.94346 104 120 142
2.69450 -2.24109 0.95288 108 104 105
2.72642 -2.25464 0.97433 97 101 111
2.71383 -2.25474 0.95790 100 100 89
2.88340 -2.33009 0.97287 164 167 168
2.88010 -2.35109 0.97544 174 173 181
2.89941 -2.35261 0.99069 181 177 171
2.99507 -2.38672 0.97542 113 73 94
3.00138 -2.39776 0.98507 83 74 79
2.97709 -2.40070 1.00301 170 193 192
2.97374 -2.42206 1.00562 190 188 187
3.08788 -2.54313 1.11008 194 197 198
3.08646 -2.55200 1.12167 203 208 215
3.08347 -2.56037 1.13358 216 221 223
3.08846 -2.57109 1.14362 229 230 234
1.43016 -0.64415 -0.23089 254 254 251
1.41949 -0.64424 -0.24481 254 254 254
1.42348 -0.65279 -0.23680 254 254 254
1.42746 -0.66134 -0.22879 254 254 254
1.42129 -0.65575 -0.21148 254 250 240
1.42279 -0.66484 -0.20134 238 227 213
1.45843 -0.67556 -0.20965 192 160 103
1.42633 -0.69222 -0.17018 145 115 80
1.21172 -0.82495 0.11963 59 49 45
1.21895 -0.83195 0.12381 43 39 46
1.22533 -0.83913 0.12872 36 26 34
1.22290 -0.85461 0.13061 38 28 32
1.35591 -0.91059 0.13738 31 25 32
1.35843 -0.89454 0.13542 27 26 22
1.35220 -0.90261 0.12991 30 27 29
1.36215 -0.90252 0.14289 28 26 21
1.36586 -0.91050 0.15036 27 25 29
1.35824 -0.91877 0.14593 30 26 44
1.36011 -0.93547 0.16510 47 43 53
1.35760 -0.95147 0.16706 55 56 63
1.36561 -0.94319 0.17120 53 50 59
1.36309 -0.95920 0.17316 53 53 52
1.40618 -0.98891 0.20247 39 31 44
1.40245 -0.98089 0.19496 47 37 37
1.42264 -0.99554 0.20067 44 34 47
1.43781 -1.00238 0.19990 54 35 44
1.45397 -1.00920 0.19851 64 39 48
1.47078 -1.01603 0.19675 73 56 60
1.48435 -1.02326 0.19740 85 71 67
1.48382 -1.03186 0.20818 99 86 86
1.48374 -1.04040 0.21861 115 98 92
1.48482 -1.04881 0.22818 126 111 100
1.49195 -1.05670 0.23350 134 117 116
1.50337 -1.06426 0.23585 145 130 136
1.53068 -1.07919 0.23764 169 152 158
1.54049 -1.08701 0.24128 179 158 165
1.54466 -1.09527 0.24881 186 167 164
1.54296 -1.10391 0.26033 193 175 167
1.54302 -1.11241 0.27062 198 178 169
1.54738 -1.12063 0.27800 199 179 175
1.54315 -1.12933 0.29111 200 183 180
1.53913 -1.13798 0.30403 204 185 181
1.53904 -1.14638 0.31429 208 188 181
1.54057 -1.15468 0.32347 212 193 186
1.54556 -1.16281 0.33036 219 200 190
1.55071 -1.17095 0.33716 225 206 195
1.56571 -1.18707 0.34778 224 219 211
1.57225 -1.19520 0.35374 204 196 199
1.57458 -1.20346 0.36239 169 141 176
1.60174 -1.21944 0.36555 87 61 91
1.59913 -1.23608 0.36758 99 87 67
1.61217 -1.22758 0.36919 89 66 81
1.60955 -1.24425 0.37123 99 88 63
1.69541 -1.27716 0.37961 98 90 73
1.69147 -1.26870 0.37168 97 87 75
1.70202 -1.26861 0.38546 97 87 74
1.70383 -1.28563 0.38486 114 104 95
1.70115 -1.30268 0.38695 152 153 172
1.75373 -1.29424 0.36545 138 132 140
1.75101 -1.31156 0.36757 147 148 176
2.05412 -1.35144 0.25509 117 114 168
2.05708 -1.33253 0.25278 144 157 199
2.04974 -1.34203 0.24628 138 142 175
2.06408 -1.36097 0.26071 115 116 173
2.09141 -1.37098 0.25651 137 147 194
2.07990 -1.38001 0.27438 182 183 238
2.11647 -1.39045 0.26518 208 227 236
2.12762 -1.40021 0.27036 230 237 251
2.13190 -1.40976 0.27940 219 225 245
2.13102 -1.41910 0.29128 204 205 233
2.13207 -1.43782 0.31340 192 189 224
2.17286 -1.44907 0.30266 232 231 240
2.16982 -1.46841 0.30502 253 254 254
2.18721 -1.45919 0.30636 251 251 251
2.21805 -1.47971 0.31283 229 242 248
2.22522 -1.48957 0.32052 197 173 228
2.22620 -1.49906 0.33147 134 113 180
2.25727 -1.51048 0.32674 88 90 134
2.27637 -1.52123 0.32837 77 75 99
2.28998 -1.53168 0.33292 52 51 69
2.28144 -1.54057 0.34884 20 22 50
2.27834 -1.56029 0.35125 14 13 16
2.29606 -1.55113 0.35292 13 10 41
2.29296 -1.57091 0.35534 12 9 13
2.30910 -1.56163 0.35787 16 12 32
2.37733 -1.59588 0.35865 16 8 8
2.39919 -1.60742 0.35957 34 15 16
2.40618 -1.61768 0.36787 77 45 47
2.43093 -1.62963 0.36757 136 111 92
2.44264 -1.64043 0.37368 194 175 125
2.45365 -1.65119 0.38016 221 208 166
2.46998 -1.66252 0.38416 203 194 153
2.47335 -1.67257 0.39435 160 123 116
2.47259 -1.68216 0.40647 101 70 77
2.49346 -1.69410 0.40848 88 60 75
2.49024 -1.71463 0.41099 103 84 75
2.52307 -1.70710 0.40655 98 73 67
2.51982 -1.72777 0.40908 99 84 74
2.61033 -1.75657 0.41443 101 77 74
2.59728 -1.75668 0.39740 101 85 76
2.60215 -1.76715 0.40720 101 85 82
2.63500 -1.76952 0.41538 50 19 65
2.63664 -1.77962 0.42668 52 38 43
2.63333 -1.80076 0.42927 109 89 76
2.65309 -1.79164 0.43144 93 83 65
2.64976 -1.81284 0.43403 106 88 81
3.09511 -1.95813 0.36911 100 57 66
3.13950 -1.97589 0.36411 91 52 72
3.17208 -1.99194 0.36411 93 55 76
3.21555 -2.00990 0.35991 90 61 73
3.26501 -2.02903 0.35355 59 43 56
3.26122 -2.05314 0.35650 38 32 34
3.33165 -2.05127 0.34067 36 25 35
3.32781 -2.07571 0.34366 38 37 37
3.39660 -2.09613 0.35631 44 40 31
3.38129 -2.09626 0.33632 33 39 35
3.44181 -2.11543 0.35268 109 101 79
3.45736 -2.14093 0.37437 127 98 84
3.49924 -2.16000 0.37247 53 37 58
3.49810 -2.17119 0.38675 58 54 74
3.49417 -2.19627 0.38982 107 110 117
3.01208 -2.13097 0.62889 196 199 198
2.99821 -2.13109 0.61079 166 168 170
2.73063 -2.26784 0.96376 101 108 109
2.71800 -2.26795 0.94728 95 101 88
2.75766 -2.28355 0.96666 126 127 127
2.84458 -2.31447 0.95221 147 148 156
2.84130 -2.33537 0.95476 159 161 167
2.90413 -2.36655 0.97984 185 181 178
2.89104 -2.36666 0.96276 175 173 180
2.99705 -2.40025 0.96516 105 66 126
3.02101 -2.41601 0.96996 120 102 137
2.98485 -2.41574 0.99129 181 198 203
2.98149 -2.43718 0.99391 190 189 186
3.10033 -2.55080 1.08628 181 180 189
3.10374 -2.52906 1.08363 177 176 188
3.09529 -2.53999 1.07616 176 172 186
3.08685 -2.55091 1.06869 175 170 182
3.09188 -2.56173 1.07882 179 180 187
3.10076 -2.56026 1.09752 192 193 196
3.10348 -2.57038 1.10819 202 205 212
3.08792 -2.57503 1.12316 216 219 224
3.08453 -2.59663 1.12580 228 230 234
3.07876 -2.58151 1.13653 230 232 233
3.09211 -2.58140 1.15396 237 237 241
3.08375 -2.59222 1.14656 239 241 243
3.07538 -2.60305 1.13916 239 240 244
1.31866 -0.60388 -0.23291 252 251 247
1.30829 -0.60397 -0.24644 254 254 254
1.31216 -0.61229 -0.23865 254 254 253
1.39703 -0.68720 -0.17885 247 243 214
1.41879 -0.69163 -0.18664 229 204 137
1.42027 -0.70066 -0.17652 173 143 90
1.42637 -0.70867 -0.17046 131 105 75
1.42367 -0.71858 -0.15675 123 103 85
1.20762 -0.82399 0.10256 135 114 93
1.19802 -0.82407 0.09004 164 147 122
1.20161 -0.83177 0.09725 154 131 112
1.21788 -0.83044 0.10421 78 59 61
1.22236 -0.83800 0.11070 52 42 50
1.22748 -0.84544 0.11667 43 33 38
1.22505 -0.86097 0.11857 43 32 30
1.34274 -0.91114 0.12692 40 29 50
1.34996 -0.91861 0.13165 45 39 53
1.34744 -0.93466 0.13361 59 63 69
1.35614 -0.92625 0.13721 49 52 58
1.35362 -0.94231 0.13918 56 60 68
1.36073 -0.93412 0.14402 53 56 64
1.35821 -0.95019 0.14599 54 54 68
1.38139 -0.98226 0.19018 56 49 61
1.37767 -0.97428 0.18270 50 47 48
1.38762 -0.97419 0.19569 51 46 44
1.39085 -0.98960 0.19339 62 53 60
1.40250 -0.99673 0.19502 72 66 68
1.43310 -1.00190 0.18278 80 73 74
1.44995 -1.00865 0.18081 82 68 68
1.46092 -1.01608 0.18321 87 64 61
1.46718 -1.02402 0.18909 100 83 79
1.46646 -1.03262 0.20001 116 97 93
1.46592 -1.04118 0.21077 126 109 97
1.46784 -1.04949 0.21974 131 116 101
1.47120 -1.05768 0.22767 139 122 114
1.48278 -1.06519 0.22981 142 128 121
1.48891 -1.07317 0.23583 161 143 129
1.50236 -1.08063 0.23676 180 156 152
1.51145 -1.09693 0.25113 193 173 171
1.52301 -1.10463 0.25351 198 178 175
1.52290 -1.11311 0.26391 201 184 175
1.52884 -1.12120 0.27017 204 187 170
1.53097 -1.12953 0.27903 208 189 173
1.52058 -1.13851 0.29627 212 194 181
1.51800 -1.15495 0.29828 224 208 191
1.51952 -1.14693 0.30717 216 195 186
1.52352 -1.15509 0.31469 222 198 190
1.52808 -1.16322 0.32184 226 204 194
1.53635 -1.17120 0.32656 229 212 205
1.54333 -1.17926 0.33214 224 214 204
1.54900 -1.18739 0.33861 201 191 190
1.54893 -1.19571 0.34880 162 131 165
1.54634 -1.21216 0.35081 90 70 72
1.56641 -1.20349 0.34769 109 79 115
1.56381 -1.22002 0.34971 96 80 68
1.57409 -1.21161 0.35293 83 61 88
1.57149 -1.22817 0.35496 100 84 74
1.58678 -1.21964 0.35502 86 69 81
1.58418 -1.23624 0.35706 100 85 75
1.63797 -1.26066 0.37401 94 88 61
1.63408 -1.25231 0.36619 98 88 63
1.64838 -1.26057 0.38761 98 87 74
1.67158 -1.27729 0.37392 82 80 75
1.70677 -1.28572 0.36288 106 111 110
1.72673 -1.29429 0.36122 148 159 167
2.05989 -1.35188 0.22961 93 106 131
2.06288 -1.33288 0.22729 146 151 181
2.05549 -1.34243 0.22076 118 130 145
2.05285 -1.36108 0.24509 96 104 146
2.06805 -1.37078 0.24770 114 128 159
2.08922 -1.38071 0.24698 126 149 191
2.10614 -1.39060 0.24878 133 105 196
2.11608 -1.40033 0.25462 140 133 165
2.10580 -1.40933 0.27182 172 167 234
2.11250 -1.41894 0.27946 172 156 227
2.12459 -1.42878 0.28413 178 174 219
2.14728 -1.43914 0.28302 211 205 233
2.16055 -1.44916 0.28718 242 245 248
2.17326 -1.45919 0.29171 252 254 253
2.19100 -1.47897 0.30506 243 244 245
2.20084 -1.48894 0.31126 171 158 214
2.21570 -1.49926 0.31484 103 90 172
2.23142 -1.50970 0.31802 77 67 129
2.25036 -1.52041 0.31961 52 50 85
2.26037 -1.53057 0.32592 23 28 54
2.25728 -1.55026 0.32833 10 12 27
2.27282 -1.54094 0.33102 12 15 33
2.26973 -1.56067 0.33343 11 10 18
2.27650 -1.55069 0.34067 13 13 22
2.32772 -1.58327 0.34934 15 7 11
2.33675 -1.59356 0.35643 33 13 12
2.38573 -1.60744 0.34367 73 46 39
2.39221 -1.61766 0.35220 133 114 77
2.41091 -1.62904 0.35474 204 182 125
2.42335 -1.63989 0.36042 232 220 171
2.43309 -1.65051 0.36747 212 204 155
2.43209 -1.66006 0.37971 168 128 126
2.44719 -1.67126 0.38422 111 73 90
2.44942 -1.68114 0.39491 82 60 64
2.44622 -1.70153 0.39740 104 89 75
2.46648 -1.69264 0.39858 95 75 73
2.46327 -1.71310 0.40108 103 87 74
2.48489 -1.70435 0.40170 104 86 74
2.48167 -1.72488 0.40421 105 86 76
2.61339 -1.77843 0.41414 103 85 72
2.60032 -1.77854 0.39708 104 87 80
2.60520 -1.78903 0.40690 104 88 72
2.61008 -1.79951 0.41672 104 87 79
2.62417 -1.78969 0.42132 105 88 72
2.62086 -1.81080 0.42391 104 86 78
2.97923 -1.92138 0.36675 138 95 105
3.02202 -1.93849 0.36167 108 65 72
3.07156 -1.95684 0.35402 91 52 58
3.06791 -1.98010 0.35687 84 25 24
3.10466 -1.97280 0.35343 88 44 42
3.10099 -1.99622 0.35629 84 24 32
3.12391 -1.98667 0.35867 87 37 48
3.12023 -2.01016 0.36154 82 26 39
3.15624 -2.00275 0.35868 86 35 55
3.15253 -2.02638 0.36157 74 35 38
3.20889 -2.02233 0.35065 79 38 48
3.20514 -2.04622 0.35357 57 37 34
3.26497 -2.04272 0.34153 53 34 38
3.26118 -2.06688 0.34449 44 34 27
3.39554 -2.11006 0.34451 44 43 31
3.38020 -2.11019 0.32449 31 37 30
3.45098 -2.13135 0.33686 113 109 71
3.41693 -2.13649 0.36375 162 143 95
3.44812 -2.15354 0.36564 106 71 56
3.44421 -2.17847 0.36869 42 29 39
3.52063 -2.17848 0.35211 48 28 46
3.49433 -2.18493 0.37591 58 53 74
3.49039 -2.21004 0.37898 99 102 115
3.02412 -2.14640 0.61376 205 211 212
3.01539 -2.15770 0.60604 205 207 212
3.02060 -2.16888 0.61651 199 196 202
2.72632 -2.27898 0.95569 107 114 108
2.91474 -2.38213 0.96726 187 182 178
2.90159 -2.38224 0.95010 176 176 181
2.99228 -2.41204 0.95674 97 73 148
2.97011 -2.41546 0.97434 138 137 171
2.99246 -2.43083 0.97954 188 203 204
2.98909 -2.45235 0.98217 189 188 185
3.12976 -2.58230 1.08095 191 192 196
3.13801 -2.59415 1.09039 202 204 212
1.17283 -0.19199 -0.66681 78 101 140
1.17550 -0.17494 -0.66890 75 112 158
1.16888 -0.18351 -0.67475 80 113 164
1.16621 -0.20056 -0.67267 73 103 153
1.17015 -0.20903 -0.66473 76 84 131
1.28056 -0.62987 -0.19781 253 252 245
1.27034 -0.62996 -0.21115 254 254 254
1.27416 -0.63815 -0.20347 254 254 254
1.27798 -0.64635 -0.19579 254 253 251
1.36939 -0.70046 -0.16598 254 254 248
1.35896 -0.70055 -0.17959 254 254 254
1.36286 -0.70891 -0.17176 254 254 254
1.39195 -0.71396 -0.16331 222 205 162
1.40569 -0.72953 -0.15270 135 120 82
1.40390 -0.73915 -0.13985 128 118 102
1.41438 -0.73906 -0.12617 158 142 136
1.40781 -0.74756 -0.13198 142 130 121
1.22888 -0.83512 0.08464 104 82 78
1.21919 -0.83520 0.07200 164 145 133
1.22281 -0.84297 0.07927 128 116 103
1.22465 -0.84430 0.09845 66 51 53
1.22826 -0.85205 0.10570 51 39 42
1.30852 -0.89786 0.11250 39 30 43
1.31102 -0.88194 0.11055 30 30 35
1.30484 -0.88994 0.10509 34 31 41
1.31471 -0.88986 0.11797 33 29 34
1.31779 -0.90495 0.11548 47 33 47
1.32633 -0.91217 0.11907 53 45 57
1.32383 -0.92815 0.12103 63 67 67
1.33359 -0.91961 0.12372 58 55 63
1.33108 -0.93562 0.12568 60 63 71
1.33994 -0.92721 0.12910 62 60 69
1.33743 -0.94323 0.13106 54 58 71
1.35974 -0.96690 0.16547 52 55 55
1.35602 -0.95893 0.15801 53 52 61
1.36968 -0.96681 0.17845 53 48 51
1.36395 -0.97481 0.17256 60 57 63
1.36984 -0.98253 0.17839 67 63 61
1.37664 -0.99016 0.18354 74 69 72
1.39666 -0.99636 0.17884 83 80 87
1.41035 -1.00333 0.17898 101 100 107
1.42499 -1.01028 0.17849 119 117 120
1.44298 -1.01695 0.17562 123 117 90
1.45261 -1.02453 0.17899 121 99 49
1.45003 -1.04094 0.18099 140 119 105
1.45236 -1.03307 0.18958 127 109 102
1.45233 -1.04158 0.19999 131 116 108
1.45405 -1.04990 0.20910 137 120 110
1.45519 -1.05826 0.21862 142 125 111
1.46049 -1.06626 0.22515 150 133 116
1.46409 -1.07441 0.23289 160 146 113
1.47227 -1.08221 0.23742 175 158 134
1.46979 -1.09081 0.24944 187 174 164
1.48611 -1.10648 0.25859 200 186 176
1.49534 -1.11429 0.26248 206 190 178
1.49784 -1.12253 0.27102 211 194 181
1.50064 -1.13075 0.27934 214 196 189
1.49807 -1.14716 0.28135 228 213 201
1.50877 -1.13868 0.28405 216 199 191
1.50887 -1.14704 0.29421 220 204 188
1.51391 -1.16348 0.31121 226 214 203
1.52059 -1.17152 0.31693 219 211 199
1.52586 -1.17963 0.32361 193 181 180
1.52246 -1.18805 0.33598 153 120 149
1.51990 -1.20443 0.33798 91 77 76
1.53298 -1.19598 0.33923 103 75 96
1.53040 -1.21240 0.34123 99 83 67
1.54416 -1.20393 0.34209 83 63 81
1.54158 -1.22039 0.34410 100 84 63
1.60928 -1.25256 0.36162 98 86 70
1.60541 -1.24425 0.35383 101 86 70
1.62286 -1.26079 0.36335 87 83 67
1.63995 -1.26905 0.36297 75 71 54
1.67972 -1.27733 0.34871 52 45 47
1.69887 -1.28581 0.34734 38 34 58
1.70098 -1.29433 0.35646 78 83 108
1.69830 -1.31147 0.35856 100 117 148
1.71502 -1.30291 0.35835 129 143 170
1.71233 -1.32011 0.36045 90 90 141
2.01689 -1.34207 0.22124 83 83 119
2.01985 -1.32321 0.21893 144 149 174
2.01252 -1.33269 0.21246 123 133 156
2.02421 -1.33259 0.22771 136 148 167
2.08821 -1.35279 0.19065 54 66 89
2.08519 -1.37203 0.19300 37 42 72
2.09300 -1.36237 0.19941 50 61 103
2.06205 -1.37103 0.22895 76 88 137
2.08497 -1.38103 0.22713 76 69 129
2.09911 -1.39086 0.23048 43 40 122
2.11994 -1.40097 0.23007 69 63 136
2.10153 -1.40972 0.25204 132 154 181
2.10790 -1.41933 0.25988 140 148 191
2.10589 -1.42859 0.27243 180 181 196
2.14375 -1.44903 0.27420 247 252 251
2.15495 -1.45897 0.27949 249 251 254
2.16364 -1.46882 0.28620 247 248 254
2.17147 -1.47864 0.29340 232 243 248
2.18511 -1.48883 0.29749 185 163 216
2.21054 -1.50923 0.30684 61 49 92
2.24698 -1.52110 0.29902 32 24 54
2.24389 -1.54082 0.30143 12 12 19
2.25856 -1.53140 0.30451 16 10 42
2.25546 -1.55115 0.30692 8 9 15
2.25259 -1.54046 0.31923 11 10 34
2.24950 -1.56015 0.32164 9 7 11
2.27964 -1.57092 0.33988 18 9 9
2.29499 -1.58166 0.34359 35 11 10
2.32174 -1.59344 0.34160 67 37 27
2.36650 -1.60695 0.33068 129 103 68
2.37730 -1.61755 0.33701 199 172 124
2.39560 -1.62889 0.33966 232 223 161
2.40034 -1.63898 0.34909 214 208 163
2.41825 -1.65039 0.35206 171 137 140
2.41205 -1.65940 0.36686 116 74 98
2.42679 -1.67056 0.37146 86 55 59
2.42359 -1.69091 0.37395 105 85 72
2.43657 -1.68123 0.37850 96 76 67
2.43338 -1.70161 0.38100 107 84 78
2.44049 -1.69128 0.38838 106 85 67
2.43729 -1.71166 0.39088 103 86 72
2.94167 -1.91795 0.35828 112 72 72
3.00373 -1.93799 0.34474 92 39 59
3.00012 -1.96100 0.34756 81 15 38
3.03111 -1.95289 0.34616 85 31 40
3.05895 -1.96796 0.34753 85 32 35
3.40073 -2.12518 0.33022 45 44 27
3.38534 -2.12531 0.31013 28 36 28
3.46878 -2.14897 0.31759 116 110 76
3.45996 -2.15875 0.33495 148 129 86
3.49151 -2.17608 0.33678 85 52 34
3.49687 -2.19993 0.36265 59 59 74
3.49292 -2.22511 0.36573 90 94 100
3.07292 -2.18995 0.61020 199 197 203
2.70692 -2.27738 0.94126 103 109 93
2.71011 -2.25704 0.93877 56 52 77
2.70221 -2.26726 0.93178 72 70 77
2.69431 -2.27748 0.92479 75 76 79
2.69902 -2.28760 0.93427 101 107 92
2.71032 -2.28716 0.95113 108 111 106
2.70713 -2.30750 0.95362 135 143 134
2.75432 -2.30735 0.94883 131 138 118
2.92497 -2.39772 0.95470 187 180 178
2.91177 -2.39783 0.93747 177 180 182
2.98860 -2.42415 0.94800 89 76 140
2.98521 -2.44574 0.95064 104 120 149
2.98778 -2.43330 0.95969 128 149 160
2.99352 -2.44423 0.96953 186 201 198
2.99014 -2.46580 0.97217 187 187 187
3.16450 -2.59683 1.05122 180 183 186
3.15937 -2.58582 1.04091 174 169 174
3.15077 -2.59695 1.03330 173 171 177
3.15590 -2.60797 1.04361 178 182 184
3.16963 -2.60785 1.06154 190 192 194
3.16538 -2.61603 1.07414 202 205 212
1.08658 -0.16632 -0.66527 104 109 136
1.08919 -0.14965 -0.66731 90 102 131
1.09305 -0.15794 -0.65954 102 106 139
1.08010 -0.17470 -0.67099 115 131 148
1.09692 -0.16623 -0.65177 103 105 137
1.09044 -0.17461 -0.65750 107 108 136
1.14809 -0.19855 -0.66390 78 112 162
1.15075 -0.18160 -0.66597 73 113 168
1.14417 -0.19012 -0.67180 74 111 160
1.14151 -0.20707 -0.66972 72 97 143
1.14246 -0.28166 -0.55860 252 252 252
1.14508 -0.26497 -0.56064 254 254 254
1.13860 -0.27336 -0.56637 254 254 254
1.14894 -0.27327 -0.55287 254 254 254
1.15281 -0.28157 -0.54510 253 254 254
1.13985 -0.29267 -0.54349 243 249 250
1.15016 -0.29258 -0.53002 253 254 254
1.13724 -0.30931 -0.54145 209 180 201
1.14451 -0.31048 -0.52456 233 244 250
1.15481 -0.31039 -0.51111 253 254 254
1.14660 -0.31946 -0.51486 235 245 249
1.15690 -0.31937 -0.50142 253 254 254
1.14956 -0.32807 -0.50614 240 246 249
1.15986 -0.32798 -0.49271 254 254 254
1.15263 -0.33664 -0.49754 249 252 254
1.16292 -0.33655 -0.48411 254 254 254
1.15647 -0.34489 -0.48981 253 254 254
1.33745 -0.73278 -0.12676 254 249 233
1.35937 -0.73721 -0.13492 223 217 182
1.38130 -0.74176 -0.14294 170 160 101
1.38684 -0.74979 -0.13653 136 113 69
1.37833 -0.76067 -0.11793 128 105 92
1.38872 -0.76058 -0.10437 159 143 128
1.38221 -0.76901 -0.11013 138 123 115
1.37570 -0.77743 -0.11588 113 87 77
1.22920 -0.85025 0.08423 82 71 59
1.21950 -0.85033 0.07157 134 121 119
1.23148 -0.85827 0.09263 66 53 45
1.23504 -0.86605 0.09996 53 40 34
1.24474 -0.86597 0.11261 38 33 29
1.23866 -0.87383 0.10724 42 36 31
1.28543 -0.89152 0.09995 46 35 42
1.28791 -0.87567 0.09801 38 35 34
1.28175 -0.88364 0.09256 43 34 38
1.29159 -0.88355 0.10539 35 33 36
1.29437 -0.89860 0.10308 49 43 55
1.29188 -0.91449 0.10502 70 75 76
1.30357 -0.90568 0.10604 56 54 63
1.30107 -0.92160 0.10799 68 75 72
1.30800 -0.91349 0.11287 64 62 65
1.30551 -0.92942 0.11481 64 68 70
1.31706 -0.92064 0.11602 68 67 67
1.31456 -0.93661 0.11797 57 59 67
1.35099 -0.95839 0.14123 55 54 68
1.34727 -0.95040 0.13375 53 54 66
1.35475 -0.96637 0.14868 61 61 73
1.35861 -0.97434 0.15605 68 71 73
1.36608 -0.98189 0.16067 77 74 82
1.37486 -0.98932 0.16433 83 81 89
1.37820 -0.99737 0.17213 95 95 104
1.38711 -1.00483 0.17575 120 116 123
1.38641 -1.01333 0.18659 134 139 150
1.39203 -1.02115 0.19269 154 158 153
1.40020 -1.02874 0.19693 159 158 131
1.44004 -1.03336 0.17790 143 129 89
1.44341 -1.05003 0.19623 142 125 108
1.44130 -1.05866 0.20812 148 132 119
1.43812 -1.06735 0.22072 158 141 130
1.43749 -1.07579 0.23145 168 147 136
1.43561 -1.08430 0.24304 179 159 138
1.44348 -1.09206 0.24768 188 167 160
1.44696 -1.10016 0.25544 199 178 173
1.44992 -1.10829 0.26357 206 187 178
1.45705 -1.11615 0.26878 212 194 182
1.46705 -1.12386 0.27202 215 198 187
1.46450 -1.14015 0.27402 227 211 203
1.47383 -1.13179 0.27754 219 199 191
1.47974 -1.13978 0.28367 223 204 196
1.49097 -1.15584 0.29639 224 216 201
1.49984 -1.16374 0.30057 214 208 187
1.50247 -1.17194 0.30898 185 170 178
1.50065 -1.18029 0.32034 144 106 143
1.49809 -1.19663 0.32234 96 79 68
1.50812 -1.18829 0.32550 100 71 100
1.50556 -1.20464 0.32750 100 84 71
1.52035 -1.19614 0.32755 83 66 88
1.51778 -1.21255 0.32956 99 84 74
1.58400 -1.24450 0.34735 98 87 76
1.58015 -1.23622 0.33959 101 86 73
1.59639 -1.25268 0.34969 84 80 56
1.62492 -1.26077 0.34192 65 59 31
1.64505 -1.26905 0.33959 43 35 29
1.64239 -1.28599 0.34166 27 24 33
1.65513 -1.27746 0.34364 34 26 38
1.65247 -1.29443 0.34572 30 23 38
1.68111 -1.28590 0.33789 34 23 42
1.67843 -1.30300 0.33998 31 23 40
1.71477 -1.29449 0.32756 36 30 46
1.69699 -1.30296 0.34894 64 75 92
1.69430 -1.32011 0.35104 33 37 59
2.09998 -1.34381 0.14926 59 56 101
2.10303 -1.32441 0.14689 136 144 170
2.09549 -1.33416 0.14022 85 97 137
2.08795 -1.34391 0.13356 10 15 49
2.09245 -1.35357 0.14260 22 27 53
2.09840 -1.35334 0.16192 29 27 62
2.09536 -1.37271 0.16428 48 49 69
2.10184 -1.36295 0.17156 40 44 72
2.09880 -1.38231 0.17393 51 50 71
2.12088 -1.38250 0.18371 40 40 79
2.11334 -1.39227 0.17704 53 48 74
2.12301 -1.39209 0.19414 57 47 94
2.12138 -1.40153 0.20671 72 80 102
2.11935 -1.41092 0.21948 86 108 143
2.12173 -1.42046 0.22969 100 119 155
2.10326 -1.42908 0.25169 132 155 186
2.14318 -1.44025 0.24064 191 218 225
2.14380 -1.44971 0.25184 194 230 243
2.15156 -1.45952 0.25905 191 226 243
2.14717 -1.46868 0.27300 187 207 243
2.15709 -1.47861 0.27901 187 182 240
2.17256 -1.48890 0.28203 144 132 216
2.18244 -1.49890 0.28816 71 57 143
2.20688 -1.50988 0.28647 24 17 76
2.20380 -1.52946 0.28887 13 9 33
2.23870 -1.52147 0.28095 18 9 49
2.23561 -1.54121 0.28336 10 9 24
2.24316 -1.53128 0.29020 17 11 29
2.24006 -1.55102 0.29262 7 8 19
2.26186 -1.57058 0.32676 24 8 13
2.28322 -1.58181 0.32728 64 35 32
2.32811 -1.59517 0.31583 128 90 62
2.33531 -1.60538 0.32387 193 158 101
2.35433 -1.61669 0.32594 226 219 147
2.37110 -1.62786 0.32924 214 212 164
2.37657 -1.63800 0.33826 175 144 139
2.38330 -1.64826 0.34667 118 78 100
2.39318 -1.65886 0.35353 77 55 60
2.39001 -1.67913 0.35601 99 85 74
2.41657 -1.68054 0.36559 100 83 61
2.41338 -1.70088 0.36808 102 86 71
2.88663 -1.90145 0.34493 100 69 86
2.89016 -1.87894 0.34218 110 84 93
2.88142 -1.89025 0.33445 104 84 84
2.89537 -1.89014 0.35266 128 103 99
2.91225 -1.91574 0.34657 99 63 72
2.95521 -1.93282 0.34086 89 45 53
2.98167 -1.94749 0.34244 82 23 44
3.04532 -1.97890 0.34148 83 20 40
3.04168 -2.00212 0.34432 84 54 33
3.07025 -1.99367 0.34412 84 33 40
3.07565 -2.00527 0.35499 85 40 51
3.41754 -2.14253 0.31127 45 45 28
3.40206 -2.14266 0.29107 31 32 28
3.47729 -2.16502 0.30180 116 104 76
3.48094 -2.17716 0.31442 125 111 76
3.49837 -2.19194 0.32171 56 42 30
3.50423 -2.20452 0.33350 41 37 47
3.50026 -2.22982 0.33659 63 63 65
3.46317 -2.20789 0.36307 62 64 70
3.45925 -2.23294 0.36613 81 85 92
3.01993 -2.16162 0.58106 192 203 200
3.02347 -2.13905 0.57830 131 131 148
3.01470 -2.15040 0.57055 132 127 160
3.02516 -2.17285 0.59158 201 199 206
3.05187 -2.18861 0.59433 200 199 207
3.04306 -2.20001 0.58653 216 220 223
3.04832 -2.21129 0.59710 233 238 239
3.07184 -2.20303 0.59962 219 223 223
3.06827 -2.22579 0.60240 240 243 243
3.07354 -2.21358 0.61149 233 235 235
3.06997 -2.23632 0.61428 244 244 244
2.71327 -2.30017 0.94084 105 107 103
2.70063 -2.30028 0.92433 98 105 91
2.71007 -2.32057 0.94333 140 145 151
2.92024 -2.40938 0.94637 186 178 176
2.90703 -2.40949 0.92912 178 183 181
3.00875 -2.44279 0.93244 74 55 124
3.00534 -2.46452 0.93510 105 116 152
3.19301 -2.62869 1.04601 189 192 191
3.17917 -2.62881 1.02795 178 181 185
1.06855 -0.17014 -0.66936 102 112 144
1.07115 -0.15352 -0.67139 71 80 121
1.06470 -0.16187 -0.67710 88 93 132
1.07509 -0.18722 -0.65247 103 116 145
1.08539 -0.18714 -0.63903 95 102 135
1.07248 -0.20383 -0.65044 85 91 133
1.08413 -0.19303 -0.65101 87 101 138
1.09446 -0.19294 -0.63753 66 95 139
1.08799 -0.20131 -0.64325 74 89 132
1.10246 -0.20467 -0.64819 71 100 144
1.10896 -0.19626 -0.64245 66 105 156
1.09984 -0.22139 -0.64615 61 57 103
1.12188 -0.20585 -0.65892 72 104 151
1.11924 -0.22268 -0.65686 66 64 117
1.16769 -0.22599 -0.66290 193 166 176
1.16502 -0.24304 -0.66081 243 251 244
1.13277 -0.25148 -0.60969 245 238 239
1.13051 -0.26249 -0.59475 251 253 252
1.14089 -0.26240 -0.58121 254 254 254
1.12789 -0.27922 -0.59271 218 204 154
1.12252 -0.28582 -0.56108 240 242 240
1.11530 -0.30856 -0.52862 224 188 198
1.11973 -0.33606 -0.49762 201 189 170
1.11500 -0.34766 -0.48040 200 174 173
1.12403 -0.35375 -0.47858 210 210 240
1.14732 -0.35429 -0.49252 241 247 252
1.15760 -0.35421 -0.47910 254 254 254
1.14584 -0.36460 -0.47893 250 250 253
1.15610 -0.36451 -0.46554 254 254 254
1.13755 -0.37748 -0.45791 248 247 252
1.14775 -0.37739 -0.44459 254 254 254
1.13335 -0.38870 -0.44149 248 245 252
1.14351 -0.38862 -0.42821 254 254 254
1.12813 -0.40025 -0.42404 252 252 254
1.13826 -0.40016 -0.41082 254 254 254
1.13191 -0.40837 -0.41643 254 254 254
1.31946 -0.75260 -0.11114 254 250 232
1.30923 -0.75268 -0.12449 254 254 254
1.37456 -0.75942 -0.13729 177 136 87
1.36572 -0.77031 -0.11838 144 103 72
1.36309 -0.78703 -0.11633 151 122 82
1.24353 -0.85456 0.06170 98 87 77
1.23866 -0.86386 0.07618 89 78 60
1.23652 -0.87264 0.08830 69 49 41
1.24111 -0.88028 0.09482 49 32 33
1.25083 -0.88020 0.10751 40 36 37
1.25214 -0.88690 0.09603 47 39 55
1.26725 -0.89292 0.09396 56 49 63
1.26477 -0.90872 0.09589 79 82 88
1.28219 -0.89904 0.09212 67 61 68
1.27970 -0.91492 0.09406 76 78 85
1.28989 -0.90633 0.09624 73 70 77
1.34009 -0.95859 0.12897 59 60 76
1.33637 -0.95060 0.12149 52 55 69
1.34478 -0.96645 0.13569 66 69 77
1.34972 -0.97430 0.14222 76 78 86
1.35608 -0.98198 0.14768 85 87 94
1.35576 -0.99044 0.15827 97 102 105
1.35665 -0.99874 0.16791 112 116 117
1.35412 -1.00739 0.18012 132 136 141
1.35795 -1.01534 0.18749 154 153 162
1.37102 -1.02235 0.18791 164 165 181
1.37894 -1.02993 0.19225 170 174 185
1.39095 -1.03714 0.19359 175 172 174
1.40112 -1.04458 0.19635 164 152 140
1.43014 -1.05039 0.18530 154 128 107
1.42517 -1.05926 0.19930 159 138 119
1.41899 -1.06818 0.21413 167 149 136
1.41339 -1.07698 0.22846 175 158 148
1.41415 -1.08525 0.23813 184 164 150
1.41363 -1.09359 0.24871 195 170 159
1.41929 -1.10147 0.25484 201 176 173
1.42245 -1.10953 0.26276 208 183 182
1.42873 -1.11739 0.26848 214 192 184
1.43674 -1.12516 0.27300 219 198 190
1.44256 -1.13308 0.27909 225 206 194
1.46639 -1.14834 0.28290 226 216 200
1.47757 -1.15609 0.28540 210 204 188
1.47397 -1.16453 0.29803 176 150 169
1.47576 -1.17271 0.30696 131 95 111
1.47321 -1.18898 0.30895 96 82 64
1.47887 -1.18083 0.31498 99 72 85
1.47632 -1.19709 0.31697 99 85 58
1.49057 -1.18864 0.31724 93 72 73
1.48801 -1.20495 0.31923 99 86 65
1.55716 -1.23653 0.33434 94 88 72
1.55332 -1.22829 0.32662 100 87 65
1.56359 -1.22820 0.34003 99 85 66
1.57357 -1.24459 0.33395 82 77 70
1.59209 -1.25270 0.33230 61 51 57
1.58946 -1.26943 0.33434 14 11 18
1.62946 -1.26917 0.32911 19 11 18
1.62680 -1.28608 0.33118 20 20 17
1.63775 -1.27756 0.33423 21 17 23
1.63509 -1.29450 0.33630 24 25 25
1.71747 -1.31182 0.32633 37 35 52
1.70674 -1.31191 0.31233 28 24 35
1.71476 -1.32913 0.32845 22 15 21
2.10653 -1.36344 0.14590 39 44 56
2.09446 -1.36354 0.13015 30 32 47
2.10348 -1.38290 0.14828 48 54 67
2.13595 -1.40255 0.17550 59 48 86
2.12103 -1.41154 0.19589 56 56 87
2.11798 -1.43095 0.19827 87 86 109
2.13006 -1.42138 0.20232 77 89 105
2.11997 -1.43042 0.21975 71 75 112
2.13147 -1.44037 0.22476 60 75 131
2.14356 -1.45039 0.22949 103 92 161
2.15339 -1.46033 0.23555 79 81 153
2.16200 -1.47024 0.24232 69 72 135
2.17277 -1.48029 0.24792 59 72 139
2.17577 -1.48992 0.25786 58 68 131
2.17742 -1.49945 0.26853 32 37 78
2.17436 -1.51895 0.27092 13 7 15
2.21936 -1.52109 0.26884 14 9 29
2.21627 -1.54079 0.27125 8 6 19
2.24451 -1.56082 0.30188 17 7 16
2.25231 -1.57090 0.30937 46 30 19
2.29146 -1.58365 0.30049 106 84 53
2.29666 -1.59362 0.30948 181 157 96
2.31580 -1.60485 0.31128 222 217 123
2.33044 -1.61574 0.31548 214 214 139
2.34391 -1.62657 0.32034 175 150 132
2.34679 -1.63641 0.33063 116 81 92
2.34363 -1.65654 0.33309 79 71 54
2.35394 -1.64667 0.33875 72 55 55
2.37050 -1.65792 0.34219 80 69 67
2.38414 -1.66892 0.34715 95 81 67
2.38096 -1.68918 0.34963 98 84 84
2.87952 -1.90259 0.32369 98 78 72
2.88305 -1.88005 0.32094 102 83 82
2.87430 -1.89138 0.31319 101 81 69
2.86554 -1.90271 0.30545 103 83 81
2.89714 -1.91569 0.32874 91 54 70
2.89360 -1.93830 0.33150 75 21 29
2.91598 -1.92905 0.33334 94 57 53
2.93072 -1.94182 0.33980 85 37 42
2.96423 -1.95765 0.33824 73 14 31
2.96064 -1.98054 0.34103 87 63 64
3.02212 -1.98823 0.33951 85 51 44
3.43718 -2.16057 0.29107 48 43 30
3.42160 -2.16070 0.27074 30 29 23
3.48094 -2.18027 0.28783 112 94 67
3.48681 -2.19286 0.29963 109 88 63
3.50332 -2.20753 0.30729 45 33 29
3.49284 -2.21693 0.32541 41 41 51
3.48888 -2.24222 0.32850 67 57 53
3.07441 -2.17590 0.53727 141 143 175
3.07801 -2.15296 0.53446 95 92 136
3.06910 -2.16449 0.52658 78 83 128
3.06019 -2.17602 0.51870 79 86 118
3.02167 -2.17517 0.56942 189 197 204
3.01812 -2.19779 0.57219 207 211 218
2.71159 -2.31205 0.93192 101 105 107
2.69892 -2.31215 0.91539 95 100 99
2.92505 -2.42367 0.93524 190 183 170
2.91180 -2.42379 0.91794 178 185 181
3.02164 -2.45960 0.91884 74 50 109
3.01822 -2.48145 0.92151 135 152 156
3.20902 -2.64747 1.03217 189 192 192
1.04513 -0.17662 -0.66662 97 103 127
1.04772 -0.16010 -0.66864 75 84 116
1.03488 -0.17671 -0.67999 83 103 134
1.03871 -0.18492 -0.67229 89 109 135
1.05069 -0.18400 -0.66105 98 104 141
1.04810 -0.20053 -0.65903 89 97 127
1.06213 -0.18858 -0.66266 99 110 146
1.06390 -0.19781 -0.65241 92 101 146
1.07653 -0.21200 -0.64294 79 85 120
1.07392 -0.22861 -0.64091 75 71 94
1.08783 -0.21682 -0.64417 74 74 110
1.08522 -0.23349 -0.64213 66 65 93
1.10988 -0.24704 -0.62092 240 239 224
1.10601 -0.23873 -0.62870 164 150 173
1.09952 -0.24713 -0.63445 110 107 134
1.10351 -0.25986 -0.60110 252 253 238
1.10090 -0.27650 -0.59907 215 182 115
1.11378 -0.27531 -0.58858 234 234 203
1.11548 -0.29442 -0.56612 217 201 201
1.11287 -0.31103 -0.56409 253 254 250
1.10048 -0.31057 -0.53672 240 215 229
1.10793 -0.31726 -0.53320 252 245 236
1.11414 -0.32449 -0.52822 253 248 236
1.12352 -0.33046 -0.52683 248 248 228
1.11752 -0.34265 -0.50801 213 225 190
1.11318 -0.35410 -0.49115 144 117 127
1.11698 -0.36227 -0.48350 103 80 151
1.12205 -0.36996 -0.47725 159 168 209
1.12311 -0.37920 -0.46653 180 183 234
1.12124 -0.38953 -0.45262 179 169 222
1.12022 -0.39949 -0.43970 182 151 227
1.12304 -0.40799 -0.43103 229 228 248
1.12047 -0.42433 -0.42903 243 248 251
1.11847 -0.41920 -0.41431 251 254 254
1.12857 -0.41912 -0.40113 254 254 254
1.12224 -0.42730 -0.40673 254 254 254
1.11591 -0.43549 -0.41232 253 254 254
1.29780 -0.76404 -0.10326 254 254 251
1.28763 -0.76412 -0.11654 254 254 254
1.29143 -0.77228 -0.10890 254 254 254
1.29872 -0.77278 -0.09308 241 235 221
1.34857 -0.78080 -0.11481 194 155 107
1.31971 -0.80427 -0.06759 124 94 58
1.30091 -0.81662 -0.04046 118 99 81
1.26802 -0.83139 -0.00143 118 107 107
1.25926 -0.84159 0.01669 124 108 107
1.25234 -0.85139 0.03314 120 96 97
1.24792 -0.86068 0.04739 117 100 92
1.24362 -0.86990 0.06147 110 102 84
1.24280 -0.87849 0.07257 88 67 65
1.24390 -0.88673 0.08203 73 52 61
1.24144 -0.90248 0.08395 90 91 94
1.26248 -0.89221 0.07700 73 68 80
1.27033 -0.89944 0.08093 77 79 88
1.31409 -0.95230 0.11830 64 62 75
1.31039 -0.94436 0.11086 57 56 76
1.32030 -0.94427 0.12379 54 54 65
1.32163 -0.95976 0.12270 69 70 79
1.32906 -0.96726 0.12723 77 78 89
1.32938 -0.97564 0.13735 86 89 97
1.33076 -0.98387 0.14662 101 102 109
1.32943 -0.99240 0.15797 117 117 121
1.33477 -1.00015 0.16413 132 135 138
1.33002 -1.00901 0.17805 147 150 156
1.33813 -1.01646 0.18208 159 162 173
1.34938 -1.02362 0.18378 169 171 182
1.35807 -1.03108 0.18745 177 179 192
1.37171 -1.03811 0.18746 185 185 200
1.37667 -1.04599 0.19403 193 191 204
1.37852 -1.05416 0.20292 193 184 176
1.40829 -1.05993 0.19114 176 154 127
1.40450 -1.06863 0.20426 176 153 133
1.39532 -1.08600 0.23149 193 171 146
1.39787 -1.09409 0.23983 198 177 150
1.39609 -1.10247 0.25128 203 182 163
1.39907 -1.11051 0.25929 211 188 173
1.40231 -1.11852 0.26710 217 191 186
1.40963 -1.12628 0.27202 222 199 189
1.41856 -1.13397 0.27583 225 211 193
1.42918 -1.14160 0.27850 225 217 192
1.43708 -1.14941 0.28312 202 199 179
1.45324 -1.15685 0.28204 166 137 165
1.45070 -1.17309 0.28402 94 74 78
1.44654 -1.16540 0.29681 119 83 103
1.44400 -1.18157 0.29879 97 81 70
1.45317 -1.17332 0.30237 95 65 90
1.45063 -1.18951 0.30435 99 86 66
1.46253 -1.18116 0.30608 92 75 78
1.45999 -1.19738 0.30807 98 87 70
1.54549 -1.23664 0.32184 80 76 44
1.56971 -1.24458 0.31626 54 50 29
1.56710 -1.26126 0.31830 10 9 15
1.58617 -1.25273 0.31587 23 22 27
1.58354 -1.26949 0.31792 13 11 18
1.60173 -1.26096 0.31615 14 9 27
1.59909 -1.27779 0.31820 13 11 15
2.11189 -1.37356 0.13144 39 45 56
2.09978 -1.37366 0.11563 29 26 32
2.15395 -1.40370 0.14191 62 58 85
2.14938 -1.39390 0.13273 54 57 76
2.14157 -1.41287 0.16104 76 79 97
2.12914 -1.42193 0.18008 86 90 109
2.11993 -1.44049 0.20878 84 83 110
2.12670 -1.45025 0.21651 111 106 126
2.13676 -1.46020 0.22238 115 108 133
2.14434 -1.47004 0.22970 111 103 133
2.15223 -1.47991 0.23686 106 107 123
2.16595 -1.49015 0.24078 88 86 91
2.16689 -1.49965 0.25187 38 46 40
2.16383 -1.51916 0.25426 11 6 13
2.19511 -1.51091 0.24786 18 13 20
2.19202 -1.53056 0.25026 10 6 15
2.23432 -1.55162 0.27314 13 5 15
2.23808 -1.56139 0.28279 32 15 21
2.25988 -1.57263 0.28283 85 59 48
2.26394 -1.58247 0.29236 159 136 84
2.27905 -1.59327 0.29609 208 201 119
2.29286 -1.60400 0.30056 211 205 132
2.30306 -1.61446 0.30697 178 152 126
2.30986 -1.62461 0.31517 115 85 97
2.30672 -1.64463 0.31762 87 74 52
2.32168 -1.63528 0.32081 68 60 64
2.31854 -1.65533 0.32326 83 71 52
2.33401 -1.64603 0.32624 74 68 62
2.35752 -1.66753 0.33783 76 69 70
2.37284 -1.67873 0.34190 90 81 85
2.36967 -1.69897 0.34438 96 82 77
2.86297 -1.91272 0.31942 96 75 71
2.84903 -1.91284 0.30121 100 84 76
2.88338 -1.92628 0.32318 86 31 41
2.90411 -1.95039 0.33974 79 37 46
2.92957 -1.96495 0.34153 81 54 49
2.98509 -1.99514 0.34353 83 46 34
2.98148 -2.01814 0.34634 69 29 16
3.00945 -2.00983 0.34617 77 32 16
3.01480 -2.02132 0.35693 74 37 28
3.00583 -2.03293 0.34899 72 36 23
3.44392 -2.17634 0.27585 50 48 35
3.42829 -2.17647 0.25545 30 31 29
3.47291 -2.19334 0.27842 102 91 78
3.47946 -2.20607 0.28995 93 72 68
3.49093 -2.21978 0.29956 41 25 25
3.49873 -2.23279 0.31064 39 35 41
3.49475 -2.25816 0.31374 103 80 54
3.04531 -2.19342 0.54957 185 189 196
3.04173 -2.21622 0.55236 209 217 229
2.71711 -2.32586 0.92074 98 105 113
2.70441 -2.32597 0.90415 93 93 103
2.82330 -2.36300 0.89918 143 146 153
2.83022 -2.37401 0.90835 160 163 160
2.82692 -2.39504 0.91092 167 171 176
2.93390 -2.43917 0.92288 186 180 164
2.92059 -2.43928 0.90551 178 182 179
2.93053 -2.46063 0.92551 80 68 92
3.01824 -2.47200 0.90986 78 61 98
3.01481 -2.49388 0.91253 156 183 155
3.20884 -2.65182 1.01051 179 182 190
3.21237 -2.62931 1.00776 173 172 178
3.20363 -2.64062 1.00003 173 170 179
3.19489 -2.65193 0.99230 173 169 179
3.20531 -2.67432 1.01327 190 192 196
1.04110 -0.19383 -0.66283 86 94 141
1.03086 -0.19392 -0.67619 83 86 114
1.05526 -0.20719 -0.65540 98 112 126
1.05266 -0.22375 -0.65338 115 114 161
1.06182 -0.21415 -0.65101 96 104 127
1.05922 -0.23073 -0.64899 82 86 104
1.05754 -0.22616 -0.63344 81 81 103
1.05495 -0.24268 -0.63142 74 79 94
1.09478 -0.25925 -0.61645 205 236 224
1.08831 -0.26761 -0.62217 124 116 152
1.08747 -0.27241 -0.59551 226 227 178
1.10754 -0.28358 -0.59457 218 202 181
1.10492 -0.30024 -0.59253 254 254 253
1.09291 -0.29971 -0.56527 246 229 218
1.08252 -0.31391 -0.54108 254 252 237
1.08352 -0.33297 -0.51817 247 251 251
1.08973 -0.34013 -0.51331 217 236 238
1.08863 -0.35992 -0.48817 94 90 149
1.06428 -0.37915 -0.44880 32 19 95
1.07041 -0.38625 -0.44397 32 25 77
1.06788 -0.40240 -0.44200 56 47 67
1.07382 -0.39441 -0.43608 22 19 82
1.07129 -0.41056 -0.43410 53 51 61
1.07966 -0.40164 -0.43089 17 18 83
1.07713 -0.41780 -0.42892 49 47 61
1.08291 -0.40987 -0.42282 16 21 96
1.08728 -0.41767 -0.41598 17 25 117
1.10244 -0.42148 -0.42099 165 148 186
1.28085 -0.78331 -0.08848 253 249 238
1.27074 -0.78340 -0.10168 254 254 254
1.27451 -0.79151 -0.09408 254 254 250
1.27864 -0.79260 -0.07560 246 219 188
1.30455 -0.79642 -0.08749 236 196 175
1.31179 -0.80393 -0.08286 216 193 159
1.28794 -0.82602 -0.04028 147 121 87
1.27470 -0.83714 -0.01807 117 95 80
1.24868 -0.85894 0.02554 125 103 87
1.24618 -0.87485 0.02749 156 148 117
1.25163 -0.86697 0.03357 140 130 105
1.24943 -0.87586 0.04595 123 117 100
1.24989 -0.88427 0.05605 106 96 94
1.25334 -0.89218 0.06361 96 88 91
1.26626 -0.90709 0.07375 81 85 89
1.26377 -0.92297 0.07569 59 60 72
1.27156 -0.91475 0.07980 71 76 85
1.26907 -0.93064 0.08174 63 60 75
1.27683 -0.92242 0.08589 64 67 81
1.28051 -0.93033 0.09330 59 59 77
1.29413 -0.94530 0.10306 66 64 80
1.29663 -0.92936 0.10111 62 64 69
1.29044 -0.93737 0.09563 63 59 76
1.30032 -0.93729 0.10853 57 58 68
1.29929 -0.95303 0.10930 72 71 89
1.30230 -0.96105 0.11728 83 81 93
1.30720 -0.96883 0.12374 93 93 100
1.30475 -0.97751 0.13604 104 107 108
1.30549 -0.98577 0.14576 117 121 122
1.31574 -0.99292 0.14802 136 134 141
1.31339 -1.00152 0.16015 149 148 152
