ply
format ascii 1.0
element face 0
property list uchar int vertex_indices
element vertex 1349
property float x
property float y
property float z
property uchar diffuse_red
property uchar diffuse_green
property uchar diffuse_blue
end_header
1.94817 -2.28344 -0.72803 14 16 11
1.94084 -2.29405 -0.73575 18 22 16
2.01033 -2.35272 -0.75048 34 28 26
2.04934 -2.38492 -0.75990 40 37 37
2.06539 -2.40294 -0.75610 43 46 48
2.05909 -2.40700 -0.73968 53 63 58
2.07489 -2.42493 -0.73564 52 53 41
2.07238 -2.43133 -0.72138 41 31 40
2.08391 -2.43086 -0.70277 28 32 33
2.07634 -2.44182 -0.71073 34 35 33
2.06877 -2.45277 -0.71870 38 38 36
1.93872 -2.41506 -0.53766 37 42 31
1.92776 -2.41551 -0.55535 52 50 43
1.93529 -2.43543 -0.53511 21 20 24
1.94409 -2.42608 -0.52836 25 28 32
1.94852 -2.43648 -0.51858 43 58 44
1.96596 -2.45548 -0.51539 59 66 66
1.96252 -2.47595 -0.51283 66 65 71
2.09288 -2.62406 -0.44340 58 61 45
2.08159 -2.62452 -0.46164 64 68 61
2.08547 -2.63479 -0.45120 64 68 59
2.09270 -2.63153 -0.43108 54 51 31
2.11149 -2.65208 -0.42752 38 29 27
2.11371 -2.66122 -0.41629 23 14 23
2.10603 -2.67105 -0.38842 23 29 16
2.09863 -2.68175 -0.39621 22 15 21
2.10251 -2.69201 -0.38579 16 11 21
2.10549 -2.67821 -0.37603 27 39 16
2.10548 -2.68573 -0.36392 29 45 10
2.11106 -2.69716 -0.35428 30 48 7
2.11802 -2.70957 -0.34523 30 51 7
2.11549 -2.71529 -0.33207 32 54 9
2.11561 -2.72285 -0.32008 34 56 12
2.12095 -2.73412 -0.31034 37 66 13
2.12531 -2.74469 -0.30017 39 71 12
2.13505 -2.75911 -0.29225 38 63 13
2.14595 -2.77440 -0.28476 36 56 13
2.16433 -2.79510 -0.28031 34 53 18
2.18691 -2.81891 -0.27746 32 46 20
2.24630 -2.86948 -0.28934 28 40 20
2.22732 -2.86331 -0.26947 23 31 24
2.22373 -2.88467 -0.26679 4 3 13
2.36129 -3.16686 0.00870 19 16 19
2.35732 -3.15633 -0.00199 14 12 11
2.37881 -3.21761 0.06288 71 67 77
0.07145 -0.67539 -0.42312 249 246 235
0.07318 -0.66509 -0.42441 250 245 239
0.06955 -0.67036 -0.42824 250 247 240
0.07509 -0.67013 -0.41929 250 244 236
0.07656 -0.68132 -0.42165 242 240 226
0.08225 -0.68743 -0.42081 215 207 189
0.08074 -0.69152 -0.41181 166 137 139
0.07901 -0.70185 -0.41051 73 56 63
0.11384 -0.70551 -0.44169 104 72 91
0.11934 -0.71170 -0.44039 72 51 67
0.11756 -0.72229 -0.43907 83 72 59
0.13277 -0.72487 -0.44041 82 71 57
0.12901 -0.73032 -0.44437 81 71 58
0.13098 -0.73553 -0.43907 78 71 53
0.15049 -0.74413 -0.43741 74 71 50
0.15710 -0.75081 -0.43709 65 66 40
0.16668 -0.75845 -0.43993 54 50 32
0.16486 -0.76929 -0.43857 29 20 22
0.17665 -0.76627 -0.44312 43 29 29
0.17482 -0.77716 -0.44176 27 20 16
0.18251 -0.77282 -0.44182 35 22 23
0.18068 -0.78375 -0.44046 26 21 14
1.46926 -1.62488 -1.10544 10 10 17
1.45903 -1.62529 -1.12197 6 5 4
1.46254 -1.63460 -1.11251 8 5 11
1.47175 -1.64129 -1.08288 24 25 29
1.46856 -1.66029 -1.08050 26 28 31
1.47893 -1.65237 -1.07637 29 30 33
1.47573 -1.67139 -1.07399 27 29 40
1.49088 -1.66580 -1.07362 32 36 44
1.50572 -1.68070 -1.07308 39 44 56
1.51602 -1.68028 -1.05645 47 51 61
1.50926 -1.69007 -1.06357 45 50 59
1.96355 -2.22775 -0.91532 72 76 82
1.96713 -2.20648 -0.91799 70 77 90
1.95962 -2.21735 -0.92589 73 75 89
1.97106 -2.21688 -0.90742 70 76 89
1.97412 -2.24209 -0.90892 64 71 70
1.95857 -2.24089 -0.88619 45 47 56
1.95501 -2.26208 -0.88353 15 19 29
1.94138 -2.23863 -0.86260 30 22 42
1.93785 -2.25968 -0.85997 15 22 26
1.93329 -2.24172 -0.84478 23 22 38
1.92976 -2.26269 -0.84215 15 22 22
1.92577 -2.24510 -0.82740 28 33 41
1.89127 -2.23987 -0.78117 35 48 50
1.89423 -2.24943 -0.77041 30 37 28
1.89076 -2.27004 -0.76783 48 49 41
1.89976 -2.26056 -0.76119 32 27 21
1.90357 -2.27065 -0.75095 30 28 25
1.91295 -2.28418 -0.74397 27 27 22
1.93355 -2.30470 -0.74350 26 25 29
1.95406 -2.32523 -0.74284 38 33 52
2.00996 -2.37588 -0.74965 75 84 79
2.00640 -2.39707 -0.74699 76 82 87
2.02534 -2.39346 -0.74563 80 88 85
2.02176 -2.41472 -0.74297 73 80 82
2.03478 -2.40734 -0.73818 73 76 76
2.04397 -2.42109 -0.73054 67 73 67
2.04972 -2.43267 -0.72095 52 50 46
1.94832 -2.43652 -0.55400 45 50 28
1.93731 -2.43697 -0.57178 58 52 48
1.94488 -2.45700 -0.55144 33 18 36
1.95816 -2.45805 -0.53482 39 52 45
1.97525 -2.47692 -0.53144 58 66 61
1.97179 -2.49749 -0.52887 65 68 70
2.06716 -2.62969 -0.43040 67 68 50
2.05594 -2.63015 -0.44852 65 67 69
2.05980 -2.64035 -0.43815 69 67 64
2.07542 -2.64296 -0.42208 57 54 40
2.09819 -2.66634 -0.42040 43 35 32
2.10024 -2.67534 -0.40912 32 22 23
2.09841 -2.69663 -0.37183 11 8 17
2.10585 -2.70939 -0.36302 7 8 12
2.11624 -2.72425 -0.35548 5 9 13
2.11957 -2.73412 -0.34482 6 8 15
2.11604 -2.75509 -0.34219 13 12 13
2.12496 -2.74546 -0.33505 5 9 13
2.12143 -2.76644 -0.33243 11 12 9
2.13255 -2.75838 -0.32622 6 16 9
2.12901 -2.77938 -0.32359 9 10 6
2.13614 -2.76845 -0.31566 7 20 6
2.13261 -2.78945 -0.31303 7 5 4
2.13885 -2.77787 -0.30473 8 17 6
2.13532 -2.79886 -0.30211 5 3 4
2.14821 -2.79210 -0.29659 7 10 8
2.14468 -2.81313 -0.29396 5 4 5
2.15941 -2.80768 -0.28917 4 6 9
2.15586 -2.82875 -0.28653 5 5 7
2.17541 -2.82679 -0.28367 3 5 13
2.17185 -2.84794 -0.28102 5 6 8
2.19472 -2.84837 -0.27943 4 5 14
2.19115 -2.86961 -0.27677 6 6 7
2.19991 -2.85968 -0.26939 4 4 13
2.19634 -2.88093 -0.26673 7 8 9
0.06256 -0.67470 -0.42820 247 246 236
0.06429 -0.66442 -0.42948 250 247 242
0.06066 -0.66967 -0.43330 251 248 244
0.06808 -0.68073 -0.42726 228 223 211
0.07395 -0.68688 -0.42667 187 168 170
0.08093 -0.69338 -0.42732 131 98 120
0.07919 -0.70375 -0.42602 76 64 64
0.10322 -0.70432 -0.44526 84 57 78
0.10146 -0.71484 -0.44394 82 71 62
0.14138 -0.74334 -0.44307 71 68 46
0.14873 -0.75025 -0.44363 59 60 37
0.16002 -0.75843 -0.44844 45 43 32
0.15820 -0.76926 -0.44708 24 24 23
0.16696 -0.76529 -0.44842 33 26 28
0.16514 -0.77616 -0.44706 25 23 19
1.45944 -1.64069 -1.09768 13 12 21
1.44923 -1.64110 -1.11416 7 6 8
1.50008 -1.69105 -1.08110 31 36 49
1.48978 -1.69147 -1.09774 28 30 35
1.49332 -1.70084 -1.08822 30 32 34
1.51468 -1.70594 -1.08031 39 45 56
1.52503 -1.70552 -1.06360 49 53 58
1.51824 -1.71535 -1.07075 46 51 61
1.90887 -2.17859 -0.94502 68 73 92
1.91241 -2.15753 -0.94766 61 66 80
1.90498 -2.16829 -0.95548 63 66 84
1.91630 -2.16783 -0.93719 62 68 81
1.90144 -2.18935 -0.95284 75 79 93
1.91276 -2.18889 -0.93455 76 81 101
1.94059 -2.22138 -0.92643 70 76 83
1.94415 -2.20019 -0.92908 75 77 91
1.93667 -2.21101 -0.93696 78 82 98
1.95053 -2.23533 -0.91972 58 57 65
1.94696 -2.25656 -0.91706 23 18 25
1.94466 -2.23985 -0.90300 36 32 50
1.94110 -2.26102 -0.90034 20 23 32
1.94157 -2.24600 -0.88809 16 21 40
1.93802 -2.26712 -0.88545 20 22 27
1.89949 -2.25210 -0.81087 14 24 29
1.88833 -2.25255 -0.82889 20 22 15
1.89217 -2.26270 -0.81858 20 23 19
1.89600 -2.27285 -0.80827 21 23 26
1.88606 -2.25167 -0.79009 23 33 43
1.87647 -2.25352 -0.77176 34 43 36
1.87745 -2.26951 -0.74740 44 46 52
1.89742 -2.28961 -0.74678 43 39 38
1.89396 -2.31022 -0.74420 47 54 57
1.91257 -2.30678 -0.74320 42 31 52
1.94837 -2.33695 -0.75157 53 65 64
2.02883 -2.42712 -0.73417 69 78 82
2.02139 -2.43023 -0.71723 49 47 45
2.01782 -2.45144 -0.71457 14 15 16
2.01785 -2.43580 -0.70254 28 31 30
2.02923 -2.43534 -0.68417 38 40 44
2.01582 -2.44231 -0.68875 32 39 41
2.02718 -2.44185 -0.67041 42 47 54
2.01973 -2.45264 -0.67825 42 45 50
1.96886 -2.48049 -0.55174 44 51 45
1.95778 -2.48094 -0.56963 38 26 39
1.98044 -2.49577 -0.54550 58 67 57
2.01768 -2.53593 -0.54000 73 76 75
2.02504 -2.52528 -0.53225 71 69 70
2.02889 -2.53548 -0.52190 74 74 77
2.02153 -2.54612 -0.52964 78 81 81
2.07169 -2.58774 -0.54243 77 78 74
2.07914 -2.57695 -0.53458 74 74 75
2.08305 -2.58728 -0.52408 72 74 70
2.07591 -2.59829 -0.53209 73 77 75
2.08727 -2.59783 -0.51374 75 75 69
2.07235 -2.61942 -0.52944 49 56 58
2.07102 -2.60262 -0.51726 66 71 66
2.08236 -2.60216 -0.49896 72 73 65
2.06748 -2.62370 -0.51462 54 59 54
2.05186 -2.64231 -0.42228 64 63 54
2.04068 -2.64276 -0.44033 68 68 70
2.04452 -2.65293 -0.43000 64 69 67
2.06366 -2.65806 -0.41564 59 61 48
2.07596 -2.67419 -0.40917 51 47 41
2.08464 -2.68781 -0.40099 36 31 36
2.08803 -2.69770 -0.39038 26 19 31
2.08894 -2.70583 -0.37866 18 13 26
2.09504 -2.71765 -0.36927 12 10 19
2.10475 -2.73205 -0.36146 13 12 20
2.11057 -2.74369 -0.35191 14 12 18
0.04885 -0.66819 -0.43486 250 246 239
0.05057 -0.65796 -0.43615 251 245 237
0.04696 -0.66318 -0.43995 251 247 240
0.05246 -0.66296 -0.43106 251 246 241
0.05361 -0.67398 -0.43313 239 235 226
0.06247 -0.68094 -0.43612 208 195 186
0.07337 -0.68852 -0.44140 160 129 141
0.07163 -0.69889 -0.44010 75 59 71
0.08732 -0.69703 -0.45009 97 68 89
0.09392 -0.70349 -0.45023 69 55 65
0.09216 -0.71399 -0.44892 81 75 63
0.12435 -0.73549 -0.44733 75 68 52
0.12238 -0.73028 -0.45263 80 70 58
0.13172 -0.74237 -0.44805 67 63 41
0.14079 -0.74981 -0.45059 55 48 35
0.13898 -0.76056 -0.44925 28 22 27
0.15063 -0.75754 -0.45391 40 29 34
0.14881 -0.76835 -0.45256 26 24 22
0.15618 -0.76396 -0.45244 30 25 27
0.15436 -0.77479 -0.45109 26 22 17
1.46112 -1.65450 -1.11158 10 10 17
1.45088 -1.65492 -1.12811 7 6 7
1.45440 -1.66423 -1.11865 9 10 11
1.46665 -1.66480 -1.10375 17 21 26
1.47017 -1.67412 -1.09429 25 29 32
1.51633 -1.72766 -1.08176 42 48 59
1.52669 -1.72724 -1.06502 50 53 65
1.51989 -1.73708 -1.07218 49 53 66
1.90907 -2.18582 -0.97090 70 73 89
1.91262 -2.16469 -0.97355 62 66 83
1.90516 -2.17549 -0.98140 67 70 81
1.90161 -2.19662 -0.97876 78 83 94
1.90951 -2.20213 -0.94510 75 83 92
1.92079 -2.21684 -0.93940 64 75 74
1.93501 -2.23334 -0.93552 45 46 46
1.93145 -2.25454 -0.93287 21 16 23
1.93309 -2.24020 -0.92126 31 21 31
1.92953 -2.26137 -0.91861 21 21 25
1.86616 -2.26212 -0.77754 24 25 28
1.85512 -2.26257 -0.79536 25 25 29
1.85892 -2.27260 -0.78516 23 28 29
1.86271 -2.28264 -0.77497 21 28 22
1.86694 -2.27028 -0.76552 29 30 34
1.86349 -2.29079 -0.76295 28 30 32
1.87215 -2.28120 -0.75618 39 40 46
1.88691 -2.29811 -0.75251 53 50 44
1.93848 -2.34603 -0.75786 49 60 68
2.00002 -2.40859 -0.75550 73 80 81
2.00133 -2.41729 -0.74348 66 67 63
1.99173 -2.41894 -0.72528 50 44 52
1.99802 -2.43080 -0.71615 35 25 26
1.99530 -2.44459 -0.68933 19 30 33
1.98787 -2.45534 -0.69715 21 24 24
1.99139 -2.44978 -0.67457 36 43 40
2.00267 -2.44932 -0.65634 47 48 50
1.99527 -2.46005 -0.66414 49 51 48
1.97412 -2.48431 -0.59054 51 54 40
1.97029 -2.47417 -0.60084 56 53 52
1.97064 -2.50504 -0.58794 36 31 36
1.97730 -2.50157 -0.56759 42 50 40
1.97382 -2.52228 -0.56500 32 42 44
1.98689 -2.51558 -0.56029 50 60 56
1.98340 -2.53632 -0.55769 44 41 32
1.99873 -2.53115 -0.55411 57 64 65
2.01371 -2.54887 -0.54947 61 65 63
2.03114 -2.56832 -0.54598 59 66 64
2.05073 -2.58931 -0.54349 55 60 60
2.05924 -2.60277 -0.53534 55 61 67
2.02111 -2.60668 -0.46742 52 59 58
2.02460 -2.58594 -0.47002 62 64 61
2.01728 -2.59653 -0.47772 48 54 53
2.02843 -2.59608 -0.45971 67 70 71
2.01379 -2.61727 -0.47513 45 40 33
2.03226 -2.60622 -0.44941 67 70 67
2.01656 -2.61097 -0.45308 57 63 61
2.02039 -2.62109 -0.44280 65 66 69
2.04365 -2.65977 -0.41748 66 69 64
2.03249 -2.66022 -0.43550 68 72 76
2.03632 -2.67037 -0.42519 74 76 75
2.05172 -2.67292 -0.40912 64 66 55
2.05954 -2.68591 -0.40062 54 54 50
2.07210 -2.70230 -0.39426 45 42 49
2.07946 -2.71500 -0.38547 40 34 41
2.08869 -2.72907 -0.37751 34 24 34
2.10042 -2.74496 -0.37061 33 29 35
2.10599 -2.75643 -0.36094 32 29 29
2.11012 -2.76687 -0.35063 28 23 23
2.11680 -2.77917 -0.34143 23 20 21
2.11983 -2.78882 -0.33063 19 16 16
2.12189 -2.79775 -0.31942 16 9 11
2.12967 -2.81087 -0.31065 11 6 7
2.13355 -2.82114 -0.30021 8 5 6
2.12614 -2.83187 -0.30802 23 20 23
2.23382 -3.05146 -0.08759 23 20 18
2.24518 -3.05100 -0.06925 16 14 16
2.21782 -3.04624 -0.07024 24 20 26
2.22911 -3.04578 -0.05200 19 14 16
2.24490 -3.07467 -0.06772 31 22 28
2.25626 -3.07421 -0.04937 19 16 14
2.29916 -3.13191 -0.06227 33 28 26
2.31068 -3.13144 -0.04367 18 19 16
0.03637 -0.66203 -0.44278 251 248 236
0.03809 -0.65184 -0.44406 250 245 238
0.03449 -0.65705 -0.44785 251 245 237
0.03997 -0.65683 -0.43900 252 247 240
0.04074 -0.66769 -0.44066 244 243 229
0.04694 -0.67388 -0.44067 224 218 205
0.05118 -0.67955 -0.43832 182 158 159
0.07308 -0.69024 -0.45657 121 83 101
0.07860 -0.69637 -0.45558 81 52 77
0.07685 -0.70681 -0.45427 82 73 67
0.10745 -0.72772 -0.45143 78 71 55
0.10550 -0.72255 -0.45669 81 73 61
0.11119 -0.72232 -0.44750 83 72 61
0.11511 -0.73465 -0.45262 71 67 47
0.12400 -0.74199 -0.45512 60 53 40
0.13556 -0.75022 -0.46054 48 33 36
0.13375 -0.76097 -0.45919 29 22 22
0.14004 -0.75627 -0.45797 37 22 31
0.13823 -0.76703 -0.45662 25 23 18
1.45450 -1.67184 -1.10640 16 18 19
1.44427 -1.67225 -1.12292 9 8 9
1.46551 -1.68489 -1.10304 24 28 30
1.46904 -1.69422 -1.09357 31 34 38
1.50981 -1.73765 -1.08915 39 42 56
1.49945 -1.73808 -1.10589 29 33 39
1.51122 -1.74597 -1.07787 49 51 64
1.52158 -1.74555 -1.06114 52 55 69
1.51478 -1.75539 -1.06830 51 55 69
1.50798 -1.76523 -1.07546 50 55 68
1.91899 -2.19075 -1.01666 69 76 85
1.92257 -2.16945 -1.01933 63 67 82
1.91505 -2.18033 -1.02725 65 73 83
1.92650 -2.17987 -1.00875 65 67 78
1.91147 -2.20164 -1.02458 76 85 105
1.90975 -2.19340 -0.99729 76 79 90
1.90165 -2.20466 -0.96571 77 85 92
1.91952 -2.23135 -0.95128 43 31 54
1.91596 -2.25253 -0.94863 24 19 35
1.91987 -2.23956 -0.93846 27 17 36
1.91632 -2.26071 -0.93581 24 22 36
1.88583 -2.31254 -0.76387 34 28 34
1.87474 -2.31299 -0.78178 30 30 32
1.87855 -2.32308 -0.77153 31 31 35
1.88237 -2.33317 -0.76128 28 29 39
1.90077 -2.32968 -0.76023 36 36 55
1.92252 -2.35123 -0.76054 39 50 64
1.96603 -2.39456 -0.76073 66 73 73
1.96869 -2.40407 -0.74956 62 67 68
1.95571 -2.40345 -0.72941 59 45 65
1.95219 -2.42438 -0.72678 64 74 61
1.95709 -2.41207 -0.71759 43 35 48
1.96802 -2.42690 -0.71120 42 35 28
1.97875 -2.44163 -0.70465 27 26 22
1.97394 -2.45390 -0.67679 26 38 37
1.96656 -2.46459 -0.68457 22 23 20
1.96964 -2.45874 -0.66188 49 53 57
1.98086 -2.45828 -0.64376 51 52 50
1.97350 -2.46894 -0.65151 53 54 53
1.97889 -2.49543 -0.61709 56 56 56
1.98240 -2.47460 -0.61970 56 57 57
1.97504 -2.48524 -0.62744 60 60 60
1.96769 -2.49589 -0.63518 63 66 63
1.97934 -2.50333 -0.60492 50 53 40
1.98617 -2.52310 -0.58378 32 38 36
1.99691 -2.55308 -0.55236 47 37 42
2.00758 -2.56793 -0.54551 43 43 63
2.03625 -2.59521 -0.54774 41 48 66
2.04635 -2.60977 -0.54043 51 57 70
2.04798 -2.61850 -0.52885 56 60 58
2.04152 -2.62159 -0.51328 55 59 55
2.02791 -2.61964 -0.49426 43 47 45
1.99744 -2.61325 -0.45504 45 44 52
1.99398 -2.63386 -0.45246 51 40 41
1.99838 -2.62131 -0.44342 60 56 60
2.00251 -2.63161 -0.43334 64 66 74
2.02993 -2.67323 -0.41010 72 73 66
2.01880 -2.67368 -0.42808 80 81 82
2.02263 -2.68380 -0.41780 81 81 74
2.04078 -2.68838 -0.40307 66 66 62
2.04844 -2.70126 -0.39452 62 64 61
2.04495 -2.72202 -0.39192 77 75 65
2.05357 -2.71235 -0.38480 68 67 52
2.05008 -2.73312 -0.38220 80 77 64
2.06316 -2.72666 -0.37708 67 59 48
2.05966 -2.74746 -0.37447 77 78 68
2.07515 -2.74273 -0.37039 63 64 55
2.08811 -2.75954 -0.36408 59 59 49
2.10040 -2.77590 -0.35740 52 45 43
2.10705 -2.78819 -0.34821 44 36 40
2.11169 -2.79901 -0.33811 39 32 33
2.11154 -2.80631 -0.32595 36 29 26
2.11810 -2.81854 -0.31668 31 24 24
2.17966 -2.93104 -0.23342 15 13 18
2.18321 -2.90990 -0.23606 13 14 11
2.17575 -2.92070 -0.24392 12 13 14
2.18712 -2.92024 -0.22556 13 14 10
2.17983 -2.93855 -0.22145 22 18 29
2.17393 -2.94142 -0.20715 30 28 39
2.15626 -2.93527 -0.18838 37 35 43
2.14628 -2.93491 -0.17270 37 35 43
2.15071 -2.94554 -0.16256 33 32 39
2.13117 -2.93775 -0.14344 35 34 41
2.14672 -2.95692 -0.13750 43 40 44
2.15756 -2.97249 -0.12975 50 46 42
2.17808 -3.00283 -0.11370 54 49 44
2.19651 -3.02440 -0.10853 52 49 43
2.20615 -3.03916 -0.10014 49 45 40
2.21929 -3.05670 -0.09295 51 45 39
2.20725 -3.05449 -0.07694 54 51 51
2.28836 -3.13295 -0.08111 56 55 54
0.02788 -0.66143 -0.44801 249 245 229
0.02959 -0.65127 -0.44929 249 243 235
0.02600 -0.65646 -0.45306 250 243 233
0.03223 -0.66709 -0.44592 236 232 207
0.03660 -0.67276 -0.44382 204 192 169
0.05583 -0.68264 -0.45927 150 120 127
0.05409 -0.69298 -0.45798 76 62 64
0.06186 -0.68887 -0.45899 91 63 85
0.06823 -0.69522 -0.45906 70 55 69
0.06648 -0.70563 -0.45776 83 74 66
0.07446 -0.70157 -0.45892 76 67 70
0.07270 -0.71200 -0.45761 83 73 62
0.09982 -0.72736 -0.45840 76 72 49
0.09786 -0.72219 -0.46365 80 74 56
0.10640 -0.73396 -0.45843 67 63 41
0.11957 -0.74263 -0.46588 53 45 33
0.11777 -0.75332 -0.46454 32 24 27
0.12579 -0.74920 -0.46537 41 27 32
0.12399 -0.75992 -0.46403 30 24 23
0.13077 -0.75540 -0.46342 33 20 29
0.12897 -0.76614 -0.46207 29 22 15
1.47171 -1.70117 -1.12069 21 25 27
1.50259 -1.74728 -1.09598 32 37 50
1.49222 -1.74771 -1.11272 23 23 25
1.50181 -1.75446 -1.08296 42 47 60
1.93360 -2.19843 -1.06626 69 76 91
1.93722 -2.17692 -1.06896 64 71 87
1.92963 -2.18791 -1.07695 64 72 86
1.94119 -2.18744 -1.05827 63 71 84
1.92999 -2.21993 -1.06357 79 88 104
1.92713 -2.20278 -1.04848 73 81 96
1.90917 -2.20835 -1.00982 79 88 101
1.90894 -2.21626 -0.99647 73 79 81
1.92296 -2.23270 -0.99262 55 56 54
1.91938 -2.25400 -0.98995 22 22 26
1.91273 -2.23458 -0.97270 34 29 32
1.90916 -2.25579 -0.97004 22 23 27
1.91048 -2.24122 -0.95812 25 17 30
1.90692 -2.26239 -0.95547 23 22 32
1.91821 -2.36380 -0.77008 24 30 43
1.90700 -2.36426 -0.78817 32 34 28
1.91085 -2.37445 -0.77782 32 35 26
1.91470 -2.38464 -0.76747 32 36 34
1.93127 -2.37993 -0.76517 32 30 41
1.92776 -2.40082 -0.76255 28 36 36
1.94777 -2.40606 -0.74951 47 50 60
1.94793 -2.41389 -0.73696 66 69 57
1.94046 -2.43204 -0.69494 49 50 49
1.95232 -2.44751 -0.68912 38 37 26
1.95196 -2.46254 -0.66391 35 45 51
1.94461 -2.47317 -0.67164 34 38 46
1.95638 -2.47310 -0.65389 49 55 59
1.96757 -2.47264 -0.63581 59 60 59
1.96022 -2.48327 -0.64355 64 66 65
1.97601 -2.50909 -0.62725 56 64 66
1.98105 -2.52009 -0.61751 49 53 38
1.97754 -2.54096 -0.61490 19 28 14
1.98751 -2.53965 -0.59611 26 23 34
1.98512 -2.54558 -0.58247 34 42 58
1.98481 -2.55291 -0.56996 56 63 63
1.98132 -2.57371 -0.56735 81 88 85
1.99089 -2.56462 -0.56078 71 81 70
1.98739 -2.58543 -0.55817 85 89 86
2.00312 -2.58058 -0.55475 81 86 78
1.99961 -2.60144 -0.55214 92 94 86
2.00935 -2.59243 -0.54560 87 89 84
2.00584 -2.61331 -0.54298 92 92 78
2.02338 -2.60971 -0.54037 92 93 83
2.01986 -2.63065 -0.53775 96 96 97
2.03009 -2.62194 -0.53140 104 104 94
2.02657 -2.64290 -0.52877 96 96 95
2.03371 -2.63201 -0.52086 104 99 88
2.02667 -2.63460 -0.50504 84 86 67
1.99586 -2.62039 -0.47761 70 64 48
1.98464 -2.61987 -0.46000 52 53 49
1.98498 -2.63483 -0.43606 45 45 65
2.00002 -2.65290 -0.43123 62 67 77
2.02369 -2.69194 -0.40623 75 77 73
2.01257 -2.69239 -0.42418 79 80 77
2.01639 -2.70250 -0.41391 81 82 84
2.02021 -2.71261 -0.40364 82 83 77
2.03188 -2.70520 -0.39797 74 73 70
2.02840 -2.72591 -0.39538 86 81 70
2.07921 -2.76912 -0.37117 74 76 64
2.06797 -2.76958 -0.38933 72 73 57
2.07184 -2.77980 -0.37894 74 75 64
2.07570 -2.79002 -0.36855 83 80 70
2.09151 -2.78552 -0.36453 74 71 59
2.09663 -2.79669 -0.35467 70 67 53
2.10015 -2.80668 -0.34410 65 66 47
2.10048 -2.81431 -0.33215 63 65 45
2.10068 -2.82183 -0.32017 59 62 51
2.10255 -2.83057 -0.30892 56 59 55
2.09092 -2.82923 -0.29198 50 44 43
2.10211 -2.82878 -0.27391 14 10 14
2.09477 -2.83941 -0.28164 38 28 22
2.12978 -2.88766 -0.26023 13 11 15
2.13330 -2.86670 -0.26285 10 12 11
2.12590 -2.87741 -0.27064 16 11 13
2.13717 -2.87695 -0.25244 10 14 13
2.14104 -2.88720 -0.24203 11 14 15
2.14642 -2.91491 -0.24298 15 14 25
2.16649 -2.93750 -0.23900 25 21 40
2.15716 -2.93772 -0.22328 43 39 55
2.15120 -2.94047 -0.20898 59 62 59
2.17570 -2.96655 -0.20657 67 72 60
2.18765 -2.98307 -0.19919 69 73 65
2.18981 -2.99205 -0.18802 66 66 63
2.17926 -2.99120 -0.17206 66 65 66
2.20215 -3.01624 -0.16872 75 77 72
2.19911 -3.02117 -0.15563 86 84 73
2.19572 -3.03307 -0.13058 85 80 75
2.19219 -3.05412 -0.12794 95 89 86
2.20142 -3.04478 -0.12077 86 83 74
2.19788 -3.06584 -0.11813 93 92 87
2.18859 -3.04193 -0.10433 84 82 73
2.18507 -3.06289 -0.10171 91 93 86
2.18990 -3.05016 -0.09301 82 82 71
2.18638 -3.07110 -0.09039 92 92 89
2.19224 -3.05919 -0.08207 84 86 76
2.21843 -3.08712 -0.07942 83 86 77
2.23505 -3.10753 -0.07333 84 90 78
2.28961 -3.15822 -0.08008 85 89 81
0.01598 -0.65546 -0.45635 250 244 233
0.01768 -0.64533 -0.45762 247 239 233
0.01411 -0.65050 -0.46139 249 242 234
0.01956 -0.65028 -0.45259 249 240 233
0.01986 -0.66096 -0.45376 242 239 224
0.02588 -0.66707 -0.45371 221 212 194
0.03736 -0.67473 -0.46018 174 149 145
0.03564 -0.68498 -0.45889 74 59 64
0.04644 -0.68178 -0.46368 115 79 82
0.05303 -0.68816 -0.46412 79 53 60
0.05129 -0.69851 -0.46283 84 75 65
0.06503 -0.70068 -0.46348 82 72 66
0.06135 -0.70599 -0.46735 82 74 64
0.06328 -0.71108 -0.46218 79 74 59
0.08335 -0.71975 -0.46257 80 71 55
0.08706 -0.71438 -0.45866 83 75 61
0.08996 -0.72631 -0.46274 73 68 46
0.09955 -0.73383 -0.46631 61 55 37
0.11123 -0.74206 -0.47220 47 36 34
0.10944 -0.75273 -0.47086 27 22 19
0.11625 -0.74824 -0.47037 37 26 29
0.11445 -0.75893 -0.46903 27 24 19
1.48225 -1.71979 -1.14203 17 21 21
1.47188 -1.72021 -1.15877 11 13 12
1.47545 -1.72964 -1.14920 13 16 17
1.47901 -1.73907 -1.13962 13 16 16
1.49085 -1.73181 -1.13657 21 24 25
1.48760 -1.75112 -1.13415 14 18 19
1.49925 -1.75894 -1.10593 24 27 38
1.48888 -1.75936 -1.12269 21 23 26
1.49492 -1.76424 -1.09003 33 41 56
1.49114 -1.76978 -1.07463 48 55 63
1.50146 -1.76936 -1.05797 55 59 74
1.49469 -1.77917 -1.06510 57 58 70
1.48792 -1.78898 -1.07223 50 55 66
1.93122 -2.20431 -1.09129 69 78 91
1.93485 -2.18275 -1.09399 62 71 82
1.92724 -2.19376 -1.10200 66 74 84
1.92361 -2.21533 -1.09930 75 84 100
1.93177 -2.21282 -1.07821 75 83 99
1.92221 -2.22342 -1.04490 73 86 99
1.93475 -2.23905 -1.04005 54 61 61
1.93114 -2.26053 -1.03736 17 20 25
1.91437 -2.24293 -0.99981 23 18 30
1.91079 -2.26423 -0.99715 23 23 26
1.93271 -2.41944 -0.74017 44 41 39
1.92148 -2.41990 -0.75830 45 46 45
1.92534 -2.43011 -0.74793 49 48 43
1.92920 -2.44032 -0.73756 52 48 51
1.92495 -2.42964 -0.71053 60 61 67
1.92619 -2.44568 -0.68623 71 77 70
1.92271 -2.46642 -0.68363 70 70 40
1.92996 -2.45577 -0.67589 45 42 24
1.94055 -2.47803 -0.65691 43 50 49
1.95709 -2.49675 -0.65360 64 65 54
1.96472 -2.50950 -0.64532 58 59 50
1.96122 -2.53036 -0.64271 34 38 45
1.97130 -2.52155 -0.63644 47 51 50
1.97622 -2.53248 -0.62664 42 43 30
1.96348 -2.54637 -0.58264 65 74 70
1.95999 -2.56710 -0.58005 78 81 78
1.96717 -2.55641 -0.57227 77 81 79
1.96368 -2.57714 -0.56968 83 83 84
2.02365 -2.64835 -0.51498 97 95 88
2.01241 -2.64881 -0.53314 97 97 98
2.01627 -2.65903 -0.52275 97 97 98
2.02014 -2.66926 -0.51236 95 100 93
2.02574 -2.65731 -0.50370 94 93 79
1.99336 -2.64175 -0.47550 83 81 63
1.97288 -2.63452 -0.45338 72 66 56
1.96599 -2.63691 -0.43801 47 43 63
1.97415 -2.65006 -0.42995 54 53 71
2.08361 -2.80324 -0.35997 85 79 66
2.07236 -2.80370 -0.37814 83 82 71
2.07623 -2.81394 -0.36775 87 83 73
2.08010 -2.82417 -0.35735 82 82 73
2.08976 -2.81517 -0.35058 80 78 63
2.08624 -2.83611 -0.34795 83 87 76
2.09087 -2.82335 -0.33896 79 81 64
2.08735 -2.84428 -0.33634 86 89 80
2.09234 -2.83180 -0.32753 78 82 68
2.08883 -2.85271 -0.32491 90 91 85
2.09531 -2.84135 -0.31675 85 86 70
2.09179 -2.86226 -0.31413 92 96 92
2.09787 -2.85060 -0.30581 89 86 69
2.09240 -2.85379 -0.29148 77 74 49
2.10360 -2.85333 -0.27338 25 18 12
2.06725 -2.84207 -0.26897 59 54 33
2.12441 -2.89990 -0.26885 45 36 39
2.13247 -2.91334 -0.26014 44 37 39
2.14096 -2.93443 -0.23958 56 55 62
2.16406 -2.95947 -0.23680 73 72 70
2.16052 -2.98058 -0.23416 91 94 83
2.17478 -2.97504 -0.22900 85 86 73
2.17122 -2.99619 -0.22635 88 89 84
2.17671 -2.98385 -0.21772 88 87 76
2.17315 -3.00500 -0.21507 89 91 87
2.19335 -3.00406 -0.21215 93 94 85
2.18979 -3.02528 -0.20949 91 92 90
2.19406 -3.01194 -0.20037 94 95 87
2.19050 -3.03314 -0.19772 95 93 88
2.19540 -3.02760 -0.17685 94 94 86
2.19184 -3.04876 -0.17420 94 99 100
2.19168 -3.03198 -0.16349 93 97 88
2.18813 -3.05309 -0.16084 99 106 98
2.18369 -3.03297 -0.14859 98 94 89
2.18015 -3.05401 -0.14595 100 100 87
2.18777 -3.04341 -0.13820 101 93 86
2.18423 -3.06445 -0.13557 94 92 91
2.20731 -3.09494 -0.08596 94 94 88
2.19600 -3.09540 -0.10424 97 98 96
2.19989 -3.10570 -0.09378 96 95 93
2.20378 -3.11599 -0.08333 103 104 96
2.26868 -3.15847 -0.08346 106 101 90
2.26509 -3.17983 -0.08078 105 103 90
0.00762 -0.65489 -0.46158 246 240 228
0.00932 -0.64478 -0.46284 248 240 233
0.00576 -0.64995 -0.46660 249 242 230
0.01163 -0.66042 -0.45917 233 228 212
0.02527 -0.66864 -0.46847 193 182 166
0.02043 -0.67175 -0.45524 138 110 115
0.01872 -0.68191 -0.45396 80 68 66
0.03930 -0.68155 -0.47070 88 62 77
0.03757 -0.69185 -0.46941 84 74 69
0.07409 -0.71888 -0.46744 75 71 49
0.08100 -0.72553 -0.46805 66 62 39
0.09466 -0.73432 -0.47646 53 46 34
0.09288 -0.74492 -0.47513 31 23 29
0.10189 -0.74116 -0.47729 39 29 33
0.10010 -0.75180 -0.47596 29 22 30
0.10676 -0.74728 -0.47534 29 22 28
0.10496 -0.75795 -0.47401 28 23 31
1.49484 -1.77006 -1.11503 22 27 37
1.48445 -1.77048 -1.13181 23 24 33
1.48802 -1.77993 -1.12221 28 31 46
1.48980 -1.77495 -1.09852 23 37 52
1.48595 -1.78043 -1.08303 37 51 59
1.45889 -1.85388 -0.91651 52 62 66
1.46204 -1.83515 -0.91886 58 61 74
1.45543 -1.84472 -0.92582 59 62 75
1.92744 -2.22578 -1.08848 77 87 94
1.92670 -2.23349 -1.07452 72 75 73
1.90352 -2.43844 -0.69761 34 46 42
1.89241 -2.43889 -0.71556 58 56 46
1.90004 -2.45910 -0.69503 50 51 47
1.90820 -2.44912 -0.68784 50 55 55
1.91723 -2.47027 -0.66808 41 42 46
1.90993 -2.48083 -0.67577 37 34 34
1.92350 -2.48204 -0.65918 39 42 38
1.93844 -2.49972 -0.65508 48 54 29
1.94940 -2.51473 -0.64868 43 43 32
1.96194 -2.53841 -0.63064 46 44 41
1.95459 -2.54906 -0.63839 60 67 45
1.95844 -2.55925 -0.62803 46 44 41
1.96636 -2.54899 -0.62059 34 39 27
1.94804 -2.55133 -0.58603 68 76 69
1.94456 -2.57201 -0.58344 79 81 83
1.98766 -2.65347 -0.48398 94 98 85
1.97654 -2.65392 -0.50195 99 104 103
1.96416 -2.65125 -0.44824 73 72 69
1.95990 -2.65545 -0.43416 57 50 67
1.95646 -2.67590 -0.43160 48 45 43
1.96561 -2.66685 -0.42494 50 55 65
1.97609 -2.68173 -0.41796 64 73 71
1.97988 -2.69175 -0.40778 75 79 78
1.97264 -2.70222 -0.41540 70 79 71
2.08878 -2.86726 -0.30081 93 97 86
2.07756 -2.86772 -0.31893 86 91 94
2.08141 -2.87792 -0.30857 90 92 92
2.08527 -2.88813 -0.29820 91 95 88
2.08741 -2.87350 -0.28824 93 90 76
2.08390 -2.89433 -0.28563 91 95 86
2.11816 -2.91878 -0.26510 86 89 79
2.11464 -2.93972 -0.26248 91 92 88
2.13421 -2.93838 -0.25966 88 90 81
2.13067 -2.95940 -0.25703 93 97 86
2.14777 -2.95612 -0.25314 90 87 79
2.14423 -2.97720 -0.25050 97 101 90
2.16334 -2.97545 -0.24735 92 91 79
2.15978 -2.99660 -0.24470 96 95 94
2.29092 -3.28015 0.04138 121 114 114
2.30235 -3.27969 0.05985 114 112 114
2.29485 -3.29055 0.05195 120 116 115
-0.00607 -0.64845 -0.46741 250 243 231
-0.00438 -0.63839 -0.46867 250 242 230
-0.00793 -0.64353 -0.47241 249 243 231
-0.00252 -0.64331 -0.46367 250 242 228
-0.00113 -0.65421 -0.46624 241 238 223
0.00085 -0.65917 -0.46138 214 207 196
0.00280 -0.66413 -0.45647 164 133 151
0.02134 -0.67377 -0.47187 102 76 93
0.02953 -0.68057 -0.47448 75 62 66
0.02781 -0.69083 -0.47320 85 76 63
0.05904 -0.71172 -0.47283 78 73 57
0.05711 -0.70663 -0.47800 82 74 61
0.06551 -0.71821 -0.47305 70 69 46
0.07400 -0.72535 -0.47560 59 55 37
0.07224 -0.73585 -0.47428 32 21 31
0.08563 -0.73351 -0.48175 46 35 34
0.08385 -0.74408 -0.48043 30 22 30
0.09093 -0.73974 -0.48040 36 25 31
0.08914 -0.75034 -0.47908 29 23 25
1.48754 -1.78721 -1.10934 25 37 53
1.47717 -1.78763 -1.12609 26 27 36
1.48073 -1.79706 -1.11651 26 29 38
1.48266 -1.79212 -1.09297 32 45 53
1.47700 -1.79655 -1.07605 44 54 65
1.48730 -1.79613 -1.05940 53 56 71
1.48054 -1.80592 -1.06652 49 54 72
1.47377 -1.81571 -1.07365 44 52 67
1.45700 -1.86614 -0.92702 46 54 53
1.51979 -1.91652 -0.94985 62 69 86
1.52333 -1.92588 -0.94034 70 80 100
1.51658 -1.93566 -0.94746 71 76 96
1.91641 -2.22659 -1.10760 73 85 99
1.91242 -2.21604 -1.11832 77 83 102
1.92564 -2.24029 -1.10053 57 61 74
1.88711 -2.44286 -0.70002 54 55 44
1.87603 -2.44331 -0.71792 56 59 53
1.87984 -2.45339 -0.70768 60 62 54
1.89020 -2.45995 -0.67696 47 36 43
1.90475 -2.48481 -0.66043 35 32 31
1.91844 -2.50165 -0.65570 28 28 22
1.93040 -2.51735 -0.64995 31 21 44
1.94161 -2.53258 -0.64371 32 43 63
1.93016 -2.55451 -0.58804 67 79 75
1.93251 -2.57096 -0.56477 85 88 90
1.92905 -2.59154 -0.56220 94 104 111
1.93802 -2.58223 -0.55544 92 94 98
1.94909 -2.58178 -0.53756 96 98 98
1.94182 -2.59230 -0.54521 91 95 101
1.93456 -2.60282 -0.55287 97 100 105
1.96781 -2.66231 -0.47329 106 102 96
1.95243 -2.65845 -0.45364 85 79 73
1.95613 -2.66841 -0.44344 72 66 60
1.96095 -2.68641 -0.42179 53 64 59
2.27354 -3.27566 0.02478 102 96 87
2.26997 -3.29689 0.02744 117 110 110
2.27760 -3.28616 0.03528 127 116 115
-0.01472 -0.64780 -0.47207 248 244 227
-0.01303 -0.63776 -0.47333 249 243 232
-0.01657 -0.64289 -0.47705 251 245 232
-0.01061 -0.65332 -0.46991 231 225 206
-0.01071 -0.65769 -0.46247 185 171 165
-0.00184 -0.66457 -0.46620 130 101 119
-0.00353 -0.67466 -0.46493 80 68 60
0.01106 -0.67263 -0.47482 83 55 78
0.01903 -0.67936 -0.47726 75 57 64
0.01731 -0.68958 -0.47598 85 77 61
0.02685 -0.68608 -0.47945 83 72 63
0.02513 -0.69635 -0.47816 83 75 62
0.04597 -0.70519 -0.48036 81 74 57
0.04406 -0.70012 -0.48551 83 75 63
0.04963 -0.69989 -0.47651 84 75 66
0.05246 -0.71165 -0.48070 75 71 46
0.05832 -0.71795 -0.48024 66 63 39
0.06944 -0.72591 -0.48601 53 42 37
0.06767 -0.73642 -0.48469 32 24 24
0.07569 -0.73240 -0.48589 40 24 34
0.07392 -0.74295 -0.48457 30 23 27
1.48114 -1.80479 -1.10437 29 33 39
1.47078 -1.80521 -1.12110 23 25 35
1.47231 -1.80747 -1.08484 39 48 60
1.45754 -1.87261 -0.95139 42 55 66
1.48477 -1.90270 -0.94790 56 60 76
1.48158 -1.92167 -0.94552 72 81 97
1.52128 -1.93107 -0.96312 72 79 100
1.51805 -1.95027 -0.96072 70 75 91
1.89797 -2.22295 -1.12149 71 81 94
1.90159 -2.20143 -1.12418 74 80 103
1.89399 -2.21242 -1.13218 77 82 99
1.90541 -2.23556 -1.11323 57 59 84
1.86836 -2.45307 -0.68860 56 57 48
1.85733 -2.45352 -0.70641 62 60 66
1.86112 -2.46355 -0.69622 62 59 54
1.86491 -2.47358 -0.68604 61 54 56
1.87423 -2.46452 -0.67961 50 43 47
1.87661 -2.47358 -0.66861 42 41 35
1.89047 -2.49054 -0.66413 30 31 21
1.90011 -2.50462 -0.65719 17 20 19
1.90036 -2.51223 -0.64496 32 43 55
1.90775 -2.52479 -0.63672 56 69 58
1.91545 -2.53758 -0.62862 65 58 47
1.92247 -2.54991 -0.62012 36 33 42
1.92545 -2.55943 -0.60940 31 37 49
1.90885 -2.55517 -0.58813 60 73 68
1.90881 -2.56250 -0.57587 77 85 84
1.90964 -2.57043 -0.56412 86 94 93
1.94621 -2.66239 -0.47380 113 118 109
1.93519 -2.66284 -0.49160 107 108 103
1.93898 -2.67286 -0.48142 106 111 106
1.94277 -2.68288 -0.47123 114 117 103
1.94959 -2.67211 -0.46342 102 105 79
1.94381 -2.67513 -0.44854 94 85 68
1.94277 -2.68158 -0.43604 64 55 38
1.93934 -2.70198 -0.43349 46 42 41
1.94617 -2.69128 -0.42573 48 51 42
1.94831 -2.70005 -0.41481 67 74 70
1.95927 -2.69960 -0.39711 72 72 62
1.95105 -2.70926 -0.40420 77 78 76
1.96201 -2.70882 -0.38650 77 77 71
1.95596 -2.72008 -0.39461 80 83 76
1.96692 -2.71963 -0.37690 80 81 76
1.95973 -2.73005 -0.38448 83 85 78
1.95253 -2.74046 -0.39205 85 83 75
2.24643 -3.26300 0.01135 112 103 104
2.24252 -3.25267 0.00085 115 113 107
2.23897 -3.27380 0.00350 116 119 103
2.24288 -3.28414 0.01400 124 113 112
2.25351 -3.27600 0.02085 116 108 104
2.26944 -3.30352 0.03936 104 101 103
2.26196 -3.31435 0.03148 96 89 104
2.26588 -3.32472 0.04201 98 96 96
-0.02925 -0.64116 -0.47646 250 245 235
-0.02758 -0.63118 -0.47771 249 243 233
-0.03110 -0.63628 -0.48142 250 244 238
-0.02573 -0.63606 -0.47276 250 244 234
-0.02434 -0.64687 -0.47541 239 236 220
-0.02131 -0.65208 -0.47194 210 199 183
-0.00913 -0.65985 -0.47997 160 126 134
-0.01083 -0.66994 -0.47871 77 64 71
-0.00678 -0.66492 -0.47556 98 70 84
0.00095 -0.67153 -0.47787 74 58 65
-0.00075 -0.68167 -0.47660 87 77 64
0.01605 -0.68477 -0.48184 85 76 57
0.01244 -0.68999 -0.48564 85 77 65
0.01433 -0.69500 -0.48056 81 77 60
0.03801 -0.70469 -0.48646 81 72 56
0.05570 -0.71911 -0.49293 60 52 36
0.05395 -0.72957 -0.49162 35 23 27
0.06142 -0.72540 -0.49229 47 34 32
0.05966 -0.73590 -0.49097 32 23 26
0.06595 -0.73135 -0.49018 37 25 25
0.06419 -0.74186 -0.48886 31 24 24
1.48554 -1.77536 -1.19633 16 19 15
1.48882 -1.75586 -1.19877 8 9 5
1.48194 -1.76582 -1.20601 8 9 8
1.47506 -1.77578 -1.21325 8 11 10
1.49242 -1.76540 -1.18908 18 17 9
1.48881 -1.78471 -1.18636 26 30 24
1.49929 -1.78428 -1.16943 23 24 22
1.49241 -1.79424 -1.17667 29 32 31
1.48553 -1.80420 -1.18392 30 32 32
1.47953 -1.81746 -1.11575 23 26 34
1.46915 -1.81789 -1.13251 15 18 32
1.46845 -1.81887 -1.09432 30 39 53
1.46443 -1.82408 -1.07869 40 50 61
1.47473 -1.82366 -1.06207 46 53 68
1.46797 -1.83344 -1.06918 46 53 65
1.46121 -1.84323 -1.07630 42 51 64
1.45156 -1.86816 -0.98301 49 53 53
1.45473 -1.84928 -0.98537 43 49 64
1.44807 -1.85893 -0.99239 45 49 58
1.44489 -1.87781 -0.99002 32 39 35
1.44839 -1.88705 -0.98064 35 39 51
1.44972 -1.87435 -0.96952 43 46 46
1.44795 -1.88054 -0.95614 30 39 43
1.49391 -1.92159 -0.96692 65 80 89
1.49070 -1.94067 -0.96453 69 78 91
1.86965 -2.21331 -1.12817 73 83 91
1.87325 -2.19190 -1.13085 76 82 99
1.86570 -2.20284 -1.13881 79 84 98
1.87740 -2.22607 -1.12024 58 73 80
1.90530 -2.25113 -1.12654 38 39 55
1.90167 -2.27273 -1.12384 18 21 27
1.85697 -2.47551 -0.66911 50 50 54
1.86805 -2.49056 -0.66313 33 39 27
1.87452 -2.50244 -0.65448 36 33 30
1.88439 -2.51669 -0.64771 39 37 50
1.88094 -2.53723 -0.64514 40 43 53
1.86869 -2.51311 -0.62662 67 77 55
1.88059 -2.52879 -0.62099 74 85 74
1.87715 -2.54925 -0.61843 35 32 35
1.89352 -2.54523 -0.61587 28 28 33
1.89479 -2.55348 -0.60429 29 32 27
1.89735 -2.56264 -0.59344 46 47 54
1.88492 -2.56115 -0.57451 63 69 63
1.88076 -2.56547 -0.56014 66 72 78
1.88008 -2.57224 -0.54767 81 97 104
1.86591 -2.56931 -0.52811 95 102 104
1.87677 -2.56887 -0.51057 103 102 102
1.86964 -2.57919 -0.51808 106 106 108
1.90114 -2.65942 -0.43861 109 105 92
1.89028 -2.65986 -0.45616 112 110 107
1.92559 -2.68462 -0.43873 76 71 53
1.92993 -2.70215 -0.41699 66 72 73
1.93033 -2.70958 -0.40528 91 92 92
1.93699 -2.72168 -0.39659 93 90 83
-0.03870 -0.64028 -0.47987 246 244 228
-0.03702 -0.63033 -0.48112 249 243 234
-0.04053 -0.63541 -0.48481 250 245 235
-0.03476 -0.64571 -0.47763 227 222 189
-0.03094 -0.65113 -0.47520 184 165 141
-0.02006 -0.65854 -0.48174 124 89 92
-0.01454 -0.66449 -0.48139 83 58 76
-0.01623 -0.67456 -0.48012 86 77 71
0.02979 -0.70412 -0.49219 77 73 50
0.03857 -0.71128 -0.49548 70 63 38
0.04835 -0.71880 -0.49991 57 44 31
0.04660 -0.72925 -0.49861 33 25 23
0.05302 -0.72477 -0.49804 43 28 28
0.05126 -0.73524 -0.49673 31 25 21
1.48062 -1.78636 -1.20523 12 18 17
1.47013 -1.78679 -1.22217 7 11 9
1.47374 -1.79633 -1.21247 9 14 15
1.48379 -1.79567 -1.19516 22 28 26
1.48051 -1.81517 -1.19272 20 23 22
1.47673 -1.82954 -1.12620 14 18 31
1.46634 -1.82996 -1.14299 9 11 18
1.46473 -1.83036 -1.10393 20 30 44
1.45657 -1.83325 -1.08492 33 45 57
1.45078 -1.86667 -1.01891 40 46 61
1.45397 -1.84770 -1.02129 45 49 62
1.44728 -1.85739 -1.02834 41 48 61
1.45748 -1.85698 -1.01186 47 49 61
1.44409 -1.87637 -1.02597 27 35 49
1.44775 -1.87221 -1.00437 38 42 45
1.45440 -1.89775 -0.97320 38 47 54
1.45122 -1.91666 -0.97083 57 63 81
1.47126 -1.91479 -0.97402 53 69 83
1.82405 -2.19311 -1.12204 75 83 94
1.82761 -2.17193 -1.12469 75 82 99
1.82013 -2.18275 -1.13256 77 85 99
1.84579 -2.21431 -1.12437 61 75 75
1.86782 -2.23579 -1.12676 42 43 43
1.86422 -2.25721 -1.12408 19 18 20
1.88443 -2.25403 -1.12513 23 20 24
1.88081 -2.27554 -1.12243 20 21 22
1.84379 -2.47444 -0.68557 66 53 53
1.84002 -2.46446 -0.69572 63 58 53
1.83281 -2.47489 -0.70330 64 66 68
1.84036 -2.49485 -0.68302 42 29 47
1.84470 -2.48244 -0.67378 48 42 45
1.85272 -2.49537 -0.66609 31 35 22
1.84268 -2.50301 -0.63583 55 57 51
1.86144 -2.53082 -0.62193 47 48 51
1.87436 -2.55458 -0.60465 57 59 42
1.85552 -2.54845 -0.58214 74 86 83
1.85456 -2.55499 -0.56951 75 76 80
1.85232 -2.56060 -0.55623 50 40 54
1.83652 -2.55642 -0.53574 61 57 62
1.83768 -2.56440 -0.52441 79 89 98
1.82135 -2.55970 -0.50387 93 101 103
1.83207 -2.55926 -0.48655 97 102 102
1.82504 -2.56944 -0.49396 99 103 98
1.86576 -2.64877 -0.43207 114 105 105
1.85499 -2.64921 -0.44946 110 111 112
1.85869 -2.65900 -0.43951 116 115 114
1.88701 -2.67163 -0.43078 92 88 75
1.91248 -2.69771 -0.43143 65 56 59
1.90907 -2.71799 -0.42889 52 49 47
1.91467 -2.70647 -0.42060 60 59 70
1.90952 -2.70970 -0.40624 89 96 103
1.91483 -2.72077 -0.39695 102 100 97
1.92421 -2.73492 -0.38959 96 91 90
1.93511 -2.73448 -0.37200 84 85 83
1.92796 -2.74483 -0.37953 92 92 90
-0.05216 -0.63395 -0.48525 250 245 231
-0.05049 -0.62406 -0.48648 249 242 230
-0.05398 -0.62912 -0.49016 250 244 232
-0.04866 -0.62890 -0.48157 250 243 231
-0.04788 -0.63946 -0.48352 238 235 221
-0.04495 -0.64460 -0.48001 209 199 181
-0.03466 -0.65180 -0.48599 152 119 119
-0.03634 -0.66179 -0.48474 80 67 68
-0.02927 -0.65769 -0.48558 92 67 71
-0.03095 -0.66770 -0.48433 85 77 68
-0.02398 -0.66356 -0.48499 75 61 66
-0.02567 -0.67361 -0.48373 86 78 67
-0.01797 -0.66967 -0.48529 82 72 71
-0.01966 -0.67975 -0.48403 86 76 64
0.01047 -0.69571 -0.49148 81 77 54
0.00857 -0.69070 -0.49657 85 77 58
0.01979 -0.70299 -0.49563 71 70 46
0.03157 -0.71107 -0.50275 60 51 41
0.02982 -0.72145 -0.50145 38 26 33
0.04061 -0.71836 -0.50637 50 33 38
0.03885 -0.72880 -0.50506 36 27 28
0.04445 -0.72407 -0.50353 40 25 31
0.04269 -0.73452 -0.50222 32 25 23
1.47092 -1.83997 -1.13422 7 10 18
1.46052 -1.84040 -1.15101 8 10 9
1.46410 -1.84985 -1.14141 7 8 10
1.46378 -1.84344 -1.11585 11 20 32
1.44884 -1.84248 -1.09123 25 39 52
1.44853 -1.84966 -1.07862 37 49 64
1.45880 -1.84925 -1.06203 45 50 65
1.45206 -1.85901 -1.06913 43 50 68
1.44433 -1.86923 -1.03837 36 41 49
1.44752 -1.85023 -1.04075 43 47 62
1.44081 -1.85994 -1.04782 44 50 63
1.43762 -1.87894 -1.04544 32 39 49
1.44275 -1.88285 -1.01273 33 40 52
1.44626 -1.89212 -1.00333 35 41 46
1.45121 -1.90223 -0.99504 39 43 66
1.44802 -1.92118 -0.99267 51 57 79
1.45900 -1.91400 -0.98893 44 52 69
1.49783 -1.95864 -0.98215 64 70 90
1.50814 -1.95822 -0.96550 69 76 89
1.50137 -1.96802 -0.97262 67 76 90
1.81481 -2.21080 -1.11527 47 46 57
1.81126 -2.23194 -1.11262 25 21 22
1.83459 -2.23091 -1.11621 30 22 28
1.83101 -2.25216 -1.11354 20 20 20
1.84097 -2.48792 -0.69573 58 61 67
1.82206 -2.48935 -0.66013 51 49 49
1.81865 -2.50962 -0.65759 71 72 67
1.81232 -2.48977 -0.64232 74 71 70
1.80893 -2.50996 -0.63979 66 65 57
1.81894 -2.50892 -0.62179 75 76 69
1.83451 -2.52721 -0.61842 57 50 46
1.84733 -2.54358 -0.61342 31 33 34
1.83915 -2.54498 -0.59671 81 92 81
1.83758 -2.55106 -0.58374 94 91 84
1.83419 -2.57127 -0.58121 99 96 102
1.83539 -2.55668 -0.57046 104 99 94
1.83200 -2.57684 -0.56794 96 102 96
1.83277 -2.56195 -0.55700 104 101 85
1.82943 -2.56668 -0.54320 71 59 55
1.81963 -2.56667 -0.52599 61 54 59
1.79716 -2.55737 -0.50216 71 76 86
1.78451 -2.55513 -0.48370 90 97 95
1.79511 -2.55470 -0.46658 98 102 97
1.78815 -2.56477 -0.47391 93 98 95
1.87097 -2.67522 -0.43382 114 110 96
1.86017 -2.67566 -0.45126 115 114 107
1.86388 -2.68548 -0.44129 114 115 102
1.89177 -2.69789 -0.43228 91 84 67
1.89700 -2.71595 -0.41113 65 77 86
1.89770 -2.72352 -0.39965 99 104 98
1.89431 -2.74368 -0.39712 107 109 109
1.90545 -2.73644 -0.39156 105 104 95
1.90874 -2.74597 -0.38132 99 98 94
1.91959 -2.74553 -0.36380 90 93 82
1.91247 -2.75584 -0.37130 91 92 88
-0.05995 -0.63351 -0.49057 247 244 227
-0.05829 -0.62363 -0.49181 249 243 233
-0.06178 -0.62868 -0.49548 250 246 237
-0.05567 -0.63900 -0.48889 227 227 194
-0.05128 -0.64455 -0.48732 178 152 145
-0.05295 -0.65446 -0.48608 75 62 68
-0.04080 -0.65181 -0.49366 117 75 90
-0.03676 -0.65731 -0.49155 82 54 73
-0.03844 -0.66731 -0.49030 86 78 69
0.00155 -0.69490 -0.49608 77 72 52
0.01259 -0.70270 -0.50250 67 61 45
0.02517 -0.71104 -0.51073 54 43 41
0.02343 -0.72141 -0.50944 37 28 33
0.03076 -0.71727 -0.51016 44 29 38
0.02902 -0.72767 -0.50885 34 26 28
1.45638 -1.85294 -1.12251 9 14 21
1.44602 -1.85336 -1.13923 9 8 9
1.44958 -1.86278 -1.12966 8 10 12
1.44476 -1.85376 -1.10053 19 31 38
1.43822 -1.85740 -1.08282 30 47 49
1.43628 -1.86360 -1.06892 34 48 58
1.43472 -1.87000 -1.05537 33 41 56
1.43755 -1.88616 -1.03315 35 47 54
1.44152 -1.89571 -1.02409 43 55 69
1.44719 -1.90626 -1.01636 47 57 70
1.45109 -1.91577 -1.00722 52 58 81
1.46653 -1.93935 -0.99485 62 65 84
1.47921 -1.95411 -0.99242 51 55 69
1.49787 -1.97252 -0.99448 37 38 64
1.50091 -1.98160 -0.98454 53 70 89
1.51124 -1.98118 -0.96785 71 78 92
1.78883 -2.21014 -1.10961 34 23 32
1.78530 -2.23115 -1.10698 19 21 20
1.82205 -2.49746 -0.68410 40 46 28
1.80876 -2.51704 -0.62754 67 72 60
1.81900 -2.53157 -0.62121 43 43 42
1.82331 -2.54186 -0.61150 25 25 35
1.82670 -2.55149 -0.60127 77 97 95
1.82471 -2.55723 -0.58806 103 110 110
1.80993 -2.56788 -0.54392 91 94 93
1.79918 -2.56832 -0.56129 91 88 79
1.80287 -2.57809 -0.55135 91 92 97
1.80657 -2.58787 -0.54142 99 99 104
1.79632 -2.56499 -0.52466 89 92 85
1.78687 -2.56508 -0.50777 62 63 62
1.76478 -2.55580 -0.48425 73 77 72
1.75259 -2.55371 -0.46615 80 83 85
1.76309 -2.55329 -0.44919 94 99 93
1.73681 -2.54890 -0.44630 88 93 90
1.74725 -2.54848 -0.42944 91 97 92
1.74040 -2.55840 -0.43666 90 99 96
1.85967 -2.68931 -0.42737 106 99 87
1.84890 -2.68975 -0.44477 109 109 104
1.85260 -2.69954 -0.43481 110 111 100
1.85630 -2.70934 -0.42486 107 101 86
1.87400 -2.70717 -0.42266 78 72 62
1.87676 -2.71627 -0.41221 49 65 75
1.87244 -2.71997 -0.39832 85 102 102
1.88869 -2.74636 -0.38264 102 101 100
1.88160 -2.75663 -0.39010 106 109 109
1.89492 -2.75812 -0.37384 92 93 88
1.90574 -2.75768 -0.35638 92 93 88
1.89864 -2.76796 -0.36385 92 95 89
1.89154 -2.77824 -0.37132 101 100 96
-0.07229 -0.62751 -0.49709 250 245 233
-0.07063 -0.61768 -0.49832 249 245 237
-0.07410 -0.62270 -0.50198 250 244 234
-0.06882 -0.62249 -0.49344 250 245 237
-0.06831 -0.63290 -0.49508 238 236 222
-0.06548 -0.63799 -0.49152 204 195 176
-0.05995 -0.64384 -0.49153 146 117 124
-0.04864 -0.65133 -0.49909 87 68 79
-0.05031 -0.66130 -0.49784 87 77 69
-0.01804 -0.68646 -0.49441 80 75 54
-0.01991 -0.68151 -0.49943 84 78 62
0.00393 -0.70197 -0.50746 60 55 43
0.00221 -0.71223 -0.50618 39 30 34
0.01669 -0.71037 -0.51607 49 38 41
0.01495 -0.72071 -0.51478 38 30 32
0.02224 -0.71657 -0.51550 42 30 38
0.02049 -0.72695 -0.51420 35 27 30
1.43699 -1.86297 -1.10681 10 17 19
1.42669 -1.86339 -1.12344 9 8 8
1.43023 -1.87275 -1.11393 6 8 8
1.42690 -1.86451 -1.08616 15 25 24
1.42347 -1.86982 -1.07104 19 26 30
1.42298 -1.87679 -1.05836 18 22 35
1.42698 -1.88636 -1.04934 23 32 48
1.43281 -1.89700 -1.04176 36 52 66
1.43567 -1.90590 -1.03181 47 68 85
1.44009 -1.91572 -1.02310 52 68 84
1.44569 -1.92625 -1.01530 61 71 87
1.45423 -1.93854 -1.00979 51 63 73
1.46527 -1.95235 -1.00618 46 42 58
1.46206 -1.97144 -1.00379 18 13 28
1.50323 -1.98236 -1.02331 30 23 45
1.49998 -2.00169 -1.02089 15 14 21
1.51719 -1.99808 -1.02169 14 15 33
1.49993 -1.99494 -0.99612 34 49 70
1.51281 -2.01003 -0.99363 45 57 81
1.54712 -2.03825 -1.00726 51 48 80
1.80749 -2.50262 -0.68731 49 54 48
1.78884 -2.49661 -0.66412 68 76 58
1.78545 -2.51675 -0.66160 77 75 78
1.79781 -2.51741 -0.64499 81 69 65
1.79867 -2.52521 -0.63333 61 69 55
1.80533 -2.53717 -0.62499 22 27 35
1.80764 -2.54601 -0.61418 38 41 51
1.81731 -2.56018 -0.60751 54 57 85
1.81381 -2.56478 -0.59344 95 114 119
1.81153 -2.57025 -0.58011 102 104 101
1.76938 -2.56743 -0.50947 100 99 92
1.75877 -2.56787 -0.52661 86 83 88
1.76606 -2.58717 -0.50700 97 104 105
1.75412 -2.56306 -0.48955 94 96 90
1.74417 -2.56256 -0.47260 73 60 65
1.72466 -2.55487 -0.45072 72 72 84
1.71351 -2.55332 -0.43339 87 98 110
1.72388 -2.55290 -0.41664 98 103 108
1.71459 -2.56089 -0.42252 102 110 110
1.72495 -2.56047 -0.40579 107 107 114
1.71815 -2.57031 -0.41295 111 110 107
1.85771 -2.71738 -0.41378 59 57 71
1.84694 -2.71781 -0.43116 118 116 107
1.86693 -2.73141 -0.40653 67 79 96
1.86839 -2.73948 -0.39548 99 108 117
1.86502 -2.75952 -0.39297 109 111 110
2.02132 -3.04104 -0.15883 116 111 108
2.02475 -3.02066 -0.16138 103 100 97
2.01756 -3.03107 -0.16895 108 99 106
2.02852 -3.03063 -0.15125 104 102 99
2.01413 -3.05146 -0.16640 120 121 126
2.03229 -3.04060 -0.14112 104 102 101
2.02599 -3.05176 -0.14905 113 104 104
2.03696 -3.05131 -0.13134 105 103 106
2.02543 -3.05814 -0.13725 99 93 100
2.03638 -3.05769 -0.11956 113 108 109
-0.07962 -0.62718 -0.50286 244 243 227
-0.07797 -0.61736 -0.50409 249 241 232
-0.08144 -0.62238 -0.50774 250 245 233
-0.07269 -0.63336 -0.50487 222 216 196
-0.06709 -0.63922 -0.50503 172 136 149
-0.06876 -0.64911 -0.50379 77 64 66
-0.05865 -0.64590 -0.50894 109 71 84
-0.05533 -0.65118 -0.50597 75 53 71
-0.05700 -0.66113 -0.50472 87 78 73
-0.05253 -0.65632 -0.50230 80 68 70
-0.05420 -0.66628 -0.50105 86 78 72
-0.03322 -0.67938 -0.49801 84 78 59
-0.03507 -0.67446 -0.50300 84 78 66
-0.02967 -0.67424 -0.49427 87 78 66
-0.02377 -0.68659 -0.50281 78 73 50
-0.01294 -0.69428 -0.50931 66 61 44
-0.01465 -0.70447 -0.50804 43 32 37
-0.00061 -0.70249 -0.51762 53 41 44
-0.00234 -0.71276 -0.51634 38 31 34
0.00795 -0.70960 -0.52101 44 30 40
0.00621 -0.71992 -0.51972 37 31 29
1.41781 -1.87288 -1.09129 7 10 10
1.40758 -1.87329 -1.10782 9 10 7
1.41109 -1.88260 -1.09836 9 10 6
1.41461 -1.89191 -1.08891 10 11 10
1.41533 -1.87870 -1.07693 10 13 14
1.41214 -1.89768 -1.07455 12 15 14
1.41480 -1.88562 -1.06421 11 15 19
1.41161 -1.90458 -1.06183 13 16 23
1.41803 -1.89473 -1.05456 13 20 35
1.42329 -1.90504 -1.04655 22 31 49
1.43104 -1.91683 -1.04052 33 41 54
1.44203 -1.93057 -1.03703 37 38 51
1.45213 -1.94382 -1.03277 38 40 53
1.46965 -1.96156 -1.03428 33 35 47
1.46642 -1.98075 -1.03188 17 17 16
1.49112 -1.98175 -1.03876 20 19 25
1.48787 -2.00107 -1.03634 19 16 22
1.52397 -2.02361 -1.02698 23 24 41
1.51350 -2.02404 -1.04390 17 19 18
1.51710 -2.03356 -1.03422 21 19 22
1.52070 -2.04308 -1.02455 18 20 22
1.53917 -2.04025 -1.02617 20 24 43
1.53588 -2.05980 -1.02372 22 22 32
1.55030 -2.05444 -1.02218 25 22 48
1.56980 -2.07384 -1.02443 31 34 59
1.64592 -2.13604 -1.05625 33 28 38
1.64252 -2.15623 -1.05372 24 26 21
1.77563 -2.50253 -0.66802 67 69 68
1.76482 -2.50297 -0.68548 62 62 65
1.76853 -2.51281 -0.67549 72 71 71
1.78357 -2.52256 -0.64833 83 81 75
1.78019 -2.54268 -0.64582 18 13 24
1.79068 -2.53485 -0.64030 35 38 46
1.79540 -2.54543 -0.63087 22 17 39
1.80478 -2.55940 -0.62409 67 80 73
1.80139 -2.57957 -0.62156 95 91 77
1.80959 -2.57005 -0.61467 82 81 70
1.80862 -2.57648 -0.60200 79 77 75
1.79762 -2.57551 -0.58378 116 124 118
1.79567 -2.58115 -0.57069 100 94 104
1.78530 -2.58054 -0.55300 93 91 94
1.76330 -2.57818 -0.51728 91 96 99
1.75633 -2.58826 -0.52462 96 93 95
1.72879 -2.56619 -0.47533 102 106 89
1.72192 -2.57613 -0.48256 103 109 106
1.70701 -2.55665 -0.45218 69 76 58
1.70167 -2.55938 -0.43790 66 68 73
1.69806 -2.56339 -0.42459 79 90 86
1.71213 -2.58074 -0.42051 96 103 105
1.72249 -2.58032 -0.40377 108 104 100
1.71569 -2.59017 -0.41093 104 103 103
1.70889 -2.60001 -0.41809 76 92 88
1.84261 -2.72833 -0.40549 57 59 50
1.85059 -2.74141 -0.39768 84 95 96
2.00696 -3.03867 -0.17518 102 100 113
2.01039 -3.01831 -0.17773 111 105 108
2.00320 -3.02871 -0.18529 95 92 95
2.00423 -3.05004 -0.15092 120 107 114
1.99706 -3.06042 -0.15847 113 113 113
2.00467 -3.05721 -0.13955 95 78 91
2.00126 -3.07749 -0.13701 109 101 103
-0.09140 -0.62135 -0.50985 250 244 225
-0.08975 -0.61157 -0.51107 247 238 230
-0.09320 -0.61657 -0.51471 249 241 226
-0.08795 -0.61635 -0.50622 249 241 234
-0.08703 -0.62682 -0.50849 234 233 219
-0.08743 -0.63101 -0.50061 193 183 181
-0.07182 -0.63960 -0.51441 135 103 123
-0.06660 -0.64539 -0.51407 85 57 77
-0.06827 -0.65531 -0.51282 88 78 73
-0.05822 -0.65644 -0.51049 85 75 72
-0.06174 -0.66153 -0.51419 87 79 73
-0.05990 -0.66640 -0.50925 85 78 69
-0.03196 -0.68597 -0.50801 71 70 43
-0.01940 -0.69420 -0.51689 61 52 40
-0.02111 -0.70438 -0.51561 41 33 36
-0.00843 -0.70200 -0.52357 51 37 39
-0.01016 -0.71225 -0.52229 37 34 32
1.41618 -1.91448 -1.05327 15 18 26
1.40598 -1.91490 -1.06974 17 18 14
1.40948 -1.92418 -1.06032 15 19 18
1.41299 -1.93345 -1.05089 16 21 19
1.42538 -1.92716 -1.04842 20 20 22
1.42218 -1.94617 -1.04604 18 22 20
1.43838 -1.94215 -1.04657 21 18 22
1.43518 -1.96123 -1.04419 17 20 27
1.45142 -1.95721 -1.04466 18 21 29
1.44820 -1.97635 -1.04227 18 22 22
1.46501 -1.97266 -1.04310 20 22 30
1.46178 -1.99187 -1.04070 20 21 16
1.57124 -2.08915 -1.03814 24 23 40
1.56061 -2.08958 -1.05531 23 25 24
1.56426 -2.09925 -1.04548 23 23 27
1.56791 -2.10892 -1.03566 23 23 23
1.60104 -2.11519 -1.04807 27 24 35
1.59769 -2.13514 -1.04557 21 26 22
1.77944 -2.52785 -0.66974 75 79 64
1.77605 -2.54800 -0.66721 41 23 46
