ply
format ascii 1.0
element face 0
property list uchar int vertex_indices
element vertex 1340
property float x
property float y
property float z
property uchar diffuse_red
property uchar diffuse_green
property uchar diffuse_blue
end_header
1.18118 -3.00752 1.24295 230 236 238
1.16728 -3.01615 1.24723 238 241 238
1.15200 -3.02371 1.25173 233 238 235
1.13603 -3.03535 1.23998 254 254 253
1.13816 -3.03235 1.25600 244 244 248
1.12220 -3.04398 1.24425 254 254 254
1.12317 -3.04006 1.26044 252 251 247
1.10833 -3.04787 1.26486 246 240 222
1.11572 -3.07340 1.26573 114 119 168
1.10771 -3.08676 1.26907 112 140 194
1.09088 -3.09302 1.27381 111 114 159
1.08028 -3.10433 1.27756 93 85 128
1.07283 -3.11823 1.28082 90 84 126
1.04416 -3.11464 1.28742 125 124 160
1.03026 -3.12316 1.29168 126 133 170
1.03715 -3.14909 1.29271 81 79 135
1.02409 -3.15841 1.29685 69 72 122
1.01135 -3.16798 1.30095 99 105 144
0.99378 -3.17341 1.30578 98 116 159
0.98114 -3.18304 1.30986 91 100 163
0.96840 -3.19257 1.31394 99 111 170
0.92282 -3.17336 1.32302 123 144 202
0.90739 -3.18030 1.32750 155 183 232
0.90359 -3.19753 1.33021 173 211 247
0.89790 -3.21316 1.33323 176 216 249
0.88675 -3.22397 1.33706 169 210 241
0.88167 -3.24029 1.34000 158 193 229
0.87135 -3.25191 1.34372 142 173 211
0.86231 -3.26474 1.34725 124 155 194
0.84632 -3.27639 1.33549 92 118 152
0.84437 -3.26938 1.35209 110 133 179
0.82841 -3.28101 1.34035 94 119 149
0.82957 -3.27686 1.35647 95 116 160
0.81362 -3.28848 1.34474 97 122 150
0.81831 -3.28764 1.36033 86 113 154
0.80237 -3.29926 1.34859 98 124 152
0.69512 -3.59224 1.42200 90 122 149
0.70385 -3.58375 1.40156 90 125 158
0.68628 -3.60661 1.42564 66 88 104
0.69423 -3.63931 1.42712 46 51 54
0.78270 -3.91507 1.43435 41 42 48
0.79202 -3.90601 1.41254 44 46 49
0.76506 -3.92792 1.42137 37 39 32
0.75643 -3.96451 1.44588 38 40 37
0.76580 -3.95542 1.42397 33 36 31
0.73872 -3.97742 1.43285 52 52 56
0.71931 -4.16941 1.47625 55 65 62
0.70176 -4.20508 1.48423 67 72 71
0.69746 -4.20704 1.46621 74 78 71
0.69296 -4.22301 1.48823 54 58 59
0.67306 -4.28591 1.49962 52 55 54
0.68715 -4.27446 1.49501 59 59 62
0.65463 -4.29934 1.48606 44 48 35
0.61834 -4.42641 1.52756 63 60 49
0.62822 -4.41681 1.50443 71 72 62
0.61599 -4.45458 1.53107 49 41 30
0.60606 -4.46422 1.55428 44 36 29
0.60164 -4.46624 1.53577 45 33 26
0.59721 -4.46827 1.51725 44 32 29
0.63183 -4.84461 1.56785 26 29 26
0.65174 -4.83010 1.58250 23 25 27
0.64705 -4.83224 1.56286 27 32 33
0.64235 -4.83439 1.54323 31 37 39
0.62714 -4.84675 1.54821 34 34 39
0.59696 -4.82713 1.57450 25 28 25
0.57718 -4.84155 1.55995 72 90 88
0.56255 -4.80990 1.58107 48 60 57
0.54290 -4.82422 1.56661 67 63 65
0.55874 -5.05913 1.60796 63 71 70
0.54798 -5.06958 1.63312 54 57 64
0.53963 -5.06599 1.61332 70 74 74
0.51087 -5.05688 1.61936 77 81 82
0.48267 -5.04837 1.62532 87 91 88
0.46253 -5.06305 1.61051 100 105 99
0.45758 -5.04470 1.63104 92 97 88
0.44420 -5.06048 1.63594 91 96 83
0.42945 -5.07399 1.64093 74 79 61
0.39617 -5.05584 1.64713 46 49 35
0.37553 -5.05898 1.65247 30 29 26
0.35561 -5.07350 1.63781 19 18 19
0.35876 -5.06868 1.65755 22 26 28
0.32348 -5.04593 1.66376 50 63 58
0.26554 -4.98264 1.67125 103 110 106
-0.57199 -4.30537 1.80424 164 154 128
-0.56373 -4.29734 1.78491 159 149 139
-0.57778 -4.32875 1.80808 142 125 85
-0.58699 -4.34470 1.81198 102 82 41
-0.59900 -4.35446 1.81592 84 72 39
-0.61866 -4.34678 1.81989 43 32 35
-0.63061 -4.35649 1.82381 19 16 19
-0.64626 -4.36789 1.81230 15 15 15
2.72405 -2.42469 0.78841 69 70 75
2.73351 -2.41551 0.76629 72 69 72
2.71984 -2.42662 0.77077 78 71 75
2.71106 -2.43609 0.79275 82 84 89
2.71841 -2.45622 0.79298 114 123 133
2.69891 -2.46488 0.79864 138 146 155
2.66925 -2.48619 0.80808 147 148 170
2.65802 -2.49842 0.81208 143 141 175
2.64513 -2.50993 0.81640 151 151 174
2.63763 -2.52387 0.81966 175 179 188
2.63330 -2.55675 0.82404 187 186 190
2.61525 -2.56990 0.81076 174 175 174
2.63150 -2.57347 0.82618 186 187 188
2.62562 -2.58839 0.82913 189 187 189
2.61661 -2.60190 0.83271 185 184 187
2.59847 -2.61512 0.81937 150 155 167
2.59905 -2.61143 0.83799 176 180 183
2.58274 -2.62153 0.84301 170 175 179
2.56744 -2.63209 0.84784 160 163 173
2.61102 -2.67095 0.84107 138 143 152
2.53372 -2.65167 0.85809 108 111 120
2.53584 -2.67068 0.85950 77 68 80
2.52125 -2.68160 0.86419 52 39 41
2.50442 -2.69141 0.86931 59 40 33
2.48731 -2.70105 0.87448 79 63 41
2.47161 -2.71138 0.87938 89 69 37
2.45450 -2.72098 0.88455 123 90 46
2.43284 -2.72823 0.89060 152 130 87
2.41611 -2.73796 0.89569 161 141 99
2.40046 -2.74822 0.90057 154 123 85
2.38240 -2.76138 0.88729 134 104 79
2.38791 -2.76009 0.90486 143 110 89
2.36985 -2.77326 0.89157 132 106 71
2.37582 -2.77221 0.90905 131 103 79
2.35775 -2.78538 0.89576 133 108 70
2.35614 -2.79889 0.91658 131 104 72
2.35187 -2.80084 0.89873 134 108 65
2.33625 -2.80688 0.92227 107 82 68
2.30637 -2.80942 0.92986 71 51 58
2.27725 -2.83092 0.93919 71 68 62
2.25978 -2.84006 0.94440 107 91 72
2.24556 -2.85097 0.94899 129 110 65
2.23605 -2.86021 0.97124 135 109 65
2.23181 -2.86215 0.95350 133 108 72
2.22757 -2.86408 0.93576 131 109 75
2.11209 -2.88837 0.98554 138 113 85
2.12150 -2.87924 0.96354 134 108 70
2.10790 -2.89029 0.96799 136 110 83
2.10042 -2.90055 0.98964 148 127 119
2.11203 -2.92649 0.98941 182 180 169
2.09790 -2.93734 0.99398 201 193 171
2.08422 -2.94846 0.99846 206 196 174
2.07756 -2.96381 1.00165 188 174 158
2.06386 -2.97494 1.00614 130 110 125
2.05964 -2.97687 0.98846 132 128 126
1.37997 -2.89205 1.16561 153 133 131
1.38850 -2.88377 1.14567 155 138 125
1.37617 -2.89379 1.14971 155 133 124
1.36254 -2.89849 1.17054 169 162 162
1.33238 -2.89591 1.17768 182 192 199
1.31926 -2.90525 1.18184 175 184 193
1.27897 -2.89514 1.19071 100 76 128
1.27403 -2.91021 1.19345 105 75 82
1.25053 -2.91190 1.19939 127 117 126
1.25420 -2.93332 1.20065 155 147 152
1.24349 -2.94431 1.20440 181 193 180
1.22667 -2.95080 1.20918 202 214 210
1.21504 -2.96111 1.21308 205 216 224
1.20165 -2.97011 1.21728 216 227 233
1.19287 -2.98258 1.22069 227 228 233
1.18488 -2.99569 1.22398 225 233 237
1.16891 -3.00733 1.21223 252 254 254
1.17149 -3.00469 1.22818 241 242 250
1.15552 -3.01633 1.21644 252 254 254
1.15578 -3.01191 1.23276 251 252 250
1.13984 -3.02353 1.22103 252 254 254
1.14005 -3.01906 1.23735 254 254 249
1.12412 -3.03067 1.22563 251 254 254
1.09830 -3.04460 1.25018 254 251 242
1.10671 -3.03643 1.23051 250 254 254
1.11459 -3.07724 1.24949 155 161 198
1.09026 -3.07748 1.25548 86 95 163
1.08068 -3.08954 1.25906 88 111 153
1.06328 -3.09525 1.26390 116 133 155
1.03906 -3.09529 1.26985 148 156 175
1.02006 -3.09952 1.27494 170 171 194
1.02148 -3.12070 1.27674 132 122 170
1.03441 -3.15170 1.27670 92 82 149
1.00750 -3.14930 1.28307 99 109 153
0.98958 -3.15438 1.28798 122 137 164
0.95410 -3.14434 1.29567 123 150 183
0.93824 -3.15590 1.28400 187 224 242
0.93943 -3.15199 1.30005 140 172 209
0.92123 -3.15653 1.30497 166 200 227
0.91064 -3.16767 1.30870 180 219 241
0.90596 -3.18405 1.31151 181 218 244
0.89469 -3.19465 1.31535 172 205 238
0.87962 -3.20188 1.31978 152 184 220
0.86660 -3.21091 1.32388 133 166 200
0.87073 -3.23549 1.32536 118 142 183
0.85481 -3.24710 1.31364 96 121 152
0.85637 -3.24338 1.32968 103 123 164
0.85299 -3.26135 1.33233 94 118 153
0.83703 -3.27298 1.32059 104 127 153
0.69499 -3.59807 1.40519 90 124 152
0.70373 -3.58957 1.38473 93 126 158
0.68947 -3.61607 1.40836 75 102 116
0.69416 -3.64531 1.41017 55 60 59
0.68886 -3.66384 1.41335 43 42 43
0.67608 -3.67423 1.41754 40 41 42
0.67214 -3.67603 1.40105 38 40 42
0.77507 -3.91299 1.41740 46 43 43
0.75443 -3.96897 1.42813 41 42 41
0.76380 -3.95987 1.40621 33 37 31
0.72903 -4.18891 1.45663 50 57 54
0.73870 -4.17952 1.43401 48 52 49
0.71960 -4.20601 1.46067 62 65 71
0.70115 -4.24098 1.46874 71 69 66
0.69370 -4.26089 1.47258 64 66 59
0.68569 -4.28020 1.47650 60 61 58
0.67800 -4.30004 1.48040 52 54 47
0.65951 -4.31351 1.46680 47 50 36
0.62095 -4.43811 1.50837 71 73 64
0.61832 -4.46600 1.51184 54 51 47
0.59951 -4.47971 1.49800 38 32 26
0.57240 -4.79898 1.55681 53 65 54
0.58279 -4.78889 1.53251 55 56 47
0.55275 -4.81330 1.54236 55 63 68
0.57885 -5.06372 1.58202 62 66 73
0.58964 -5.05324 1.55678 70 71 73
0.55689 -5.06609 1.58765 72 74 80
0.51146 -5.06787 1.59898 90 97 92
0.49119 -5.08265 1.58407 98 103 98
0.48303 -5.05900 1.60506 97 103 98
0.46285 -5.07371 1.59022 101 104 102
0.44161 -5.06626 1.61596 97 100 90
0.42775 -5.08130 1.62089 79 81 65
0.40035 -5.07320 1.62679 51 52 42
0.37608 -5.07017 1.63244 35 31 29
0.33918 -5.08378 1.64288 18 27 35
0.28754 -5.03175 1.65029 56 71 82
0.24025 -4.98642 1.65731 109 117 114
0.22250 -4.99326 1.66236 137 132 113
0.21225 -5.00322 1.68634 144 132 116
0.20768 -5.00531 1.66722 144 134 116
0.20311 -5.00740 1.64809 142 136 119
-0.57236 -4.31436 1.78875 164 153 131
-0.56408 -4.30632 1.76938 158 148 139
-0.57825 -4.33762 1.79255 140 120 93
-0.58705 -4.35458 1.79642 98 78 49
-0.59908 -4.36435 1.80037 80 69 39
-0.61563 -4.36380 1.80437 41 32 36
-0.62763 -4.37356 1.80831 18 15 22
-0.64333 -4.38500 1.79675 16 13 19
2.71927 -2.46034 0.77422 92 92 98
2.70875 -2.47290 0.77806 118 127 135
2.68796 -2.48100 0.78401 136 141 150
2.68288 -2.49597 0.78674 123 122 138
2.67762 -2.51091 0.78951 100 95 123
2.66798 -2.52396 0.79318 105 97 123
2.63049 -2.52450 0.80253 146 149 162
2.63422 -2.54357 0.80348 178 183 190
2.62838 -2.55838 0.80638 178 178 180
2.62238 -2.59082 0.81105 175 176 180
2.61695 -2.60601 0.81389 168 169 179
2.59181 -2.64773 0.82422 99 88 125
2.57828 -2.65923 0.82870 69 51 77
2.54878 -2.66299 0.83639 45 28 33
2.53284 -2.67326 0.84135 50 26 33
2.51769 -2.68391 0.84615 83 61 56
2.51184 -2.69916 0.84910 132 125 91
2.49173 -2.70735 0.85488 167 165 104
2.46961 -2.71447 0.86107 160 148 84
2.44995 -2.72278 0.86676 164 132 72
2.43749 -2.73473 0.87102 171 148 114
2.41464 -2.74134 0.87733 147 120 93
2.40251 -2.75344 0.88152 134 103 76
2.38443 -2.76662 0.86822 132 107 76
2.34182 -2.81412 0.90253 128 100 59
2.35140 -2.80482 0.88013 134 106 66
2.33756 -2.81607 0.88467 133 107 62
2.31456 -2.81809 0.90968 100 75 60
2.29430 -2.82578 0.91545 78 64 62
2.27559 -2.83428 0.92093 73 68 57
2.26205 -2.84560 0.92539 85 74 60
2.24266 -2.85366 0.93099 117 102 67
2.10086 -2.90519 0.97120 137 112 94
2.11028 -2.89604 0.94917 136 108 79
2.09922 -2.92334 0.97339 158 145 122
2.09797 -2.94182 0.97552 196 193 166
2.08645 -2.95425 0.97959 194 179 159
2.07539 -2.96698 0.98358 177 156 155
2.05746 -2.98005 0.97039 144 131 127
1.36550 -2.90496 1.15345 155 141 138
1.37403 -2.89668 1.13350 156 136 128
1.33735 -2.90381 1.16031 180 190 192
1.32383 -2.91290 1.16456 184 191 197
1.31776 -2.92732 1.16748 159 164 173
1.29591 -2.93042 1.17320 168 181 159
1.26947 -2.93009 1.17972 187 206 200
1.24906 -2.93402 1.18517 184 209 217
1.23007 -2.93892 1.19035 187 216 227
1.21361 -2.94561 1.19509 200 215 226
1.20084 -2.95503 1.19918 210 220 232
1.18494 -2.96661 1.18749 237 251 251
1.18923 -2.96531 1.20307 225 234 246
1.17334 -2.97690 1.19137 241 252 253
1.17670 -2.97489 1.20712 243 247 248
1.16080 -2.98648 1.19542 242 252 253
1.16708 -2.98670 1.21066 251 253 250
1.08607 -3.03957 1.23593 250 254 252
1.06499 -3.04225 1.24142 209 211 221
1.08246 -3.07594 1.24040 78 70 143
1.07085 -3.08634 1.24430 76 88 145
1.05319 -3.09179 1.24921 108 119 178
1.03083 -3.09332 1.25490 128 137 204
1.02158 -3.10560 1.25840 120 133 209
1.00952 -3.11556 1.26237 118 132 186
0.99514 -3.12357 1.26672 134 144 188
0.97233 -3.12441 1.27246 144 168 209
0.95621 -3.13084 1.27709 159 197 219
0.94071 -3.13775 1.28161 178 218 233
0.91589 -3.15683 1.28963 179 215 243
0.90767 -3.17005 1.29297 166 201 233
0.89205 -3.17676 1.29750 150 181 210
0.88681 -3.19268 1.30036 130 154 191
0.87096 -3.20423 1.28871 99 122 155
0.86708 -3.19570 1.30555 111 131 171
0.86841 -3.21762 1.30737 97 118 156
0.86050 -3.23132 1.31068 93 117 155
0.74231 -3.51274 1.36762 99 127 157
0.75872 -3.50077 1.37970 99 126 158
0.75486 -3.50254 1.36351 100 128 160
0.74618 -3.51097 1.38381 98 126 156
0.73363 -3.52117 1.38792 97 125 159
0.73759 -3.53108 1.37059 95 126 159
0.72889 -3.53953 1.39094 96 126 161
0.72501 -3.54130 1.37471 96 127 164
0.69526 -3.60434 1.38828 92 126 154
0.70402 -3.59584 1.36779 96 127 159
0.69135 -3.60613 1.37194 94 126 157
0.69004 -3.62271 1.39138 85 113 130
0.69312 -3.65026 1.39332 60 69 76
0.68811 -3.66916 1.39642 41 44 53
0.74953 -3.86417 1.40035 53 56 57
0.76695 -3.85147 1.41317 40 45 45
0.74542 -3.86604 1.38317 58 64 66
0.76184 -3.90445 1.40125 57 53 46
0.76492 -3.93447 1.40344 42 43 32
0.74727 -3.94734 1.39045 36 42 39
0.75029 -3.97093 1.41065 39 39 39
0.74013 -3.98595 1.41464 48 50 56
0.73075 -3.99506 1.43659 52 52 55
0.72657 -3.99697 1.41909 51 54 60
0.72239 -3.99888 1.40158 49 54 58
0.74179 -4.21229 1.43646 46 51 54
0.75151 -4.20284 1.41372 46 51 56
0.72879 -4.22505 1.44094 63 66 69
0.71741 -4.23988 1.44522 82 86 70
0.69900 -4.25329 1.43167 84 88 84
0.70633 -4.25515 1.44946 82 84 75
0.69765 -4.27358 1.45342 74 77 69
0.68940 -4.29267 1.45734 67 70 59
0.68102 -4.31170 1.46129 55 53 49
0.66419 -4.35001 1.46923 50 54 45
0.66857 -4.34801 1.48757 45 49 42
0.65436 -4.35956 1.49223 50 54 49
0.64997 -4.36157 1.47388 54 56 52
0.64066 -4.41067 1.48102 58 61 52
0.65937 -4.39703 1.49479 56 61 53
0.65496 -4.39905 1.47633 54 57 49
0.65055 -4.40106 1.45787 51 52 45
0.64507 -4.40866 1.49948 63 66 58
0.63237 -4.43055 1.48502 65 66 56
0.61362 -4.44422 1.47123 69 72 54
0.61991 -4.44478 1.48951 68 69 56
0.61645 -4.47159 1.49300 53 52 43
0.58804 -4.83200 1.53545 78 89 77
0.56825 -4.84642 1.52089 38 44 47
0.58321 -5.08068 1.56107 75 78 79
0.44539 -5.08281 1.59544 99 103 98
0.45605 -5.07245 1.57050 97 104 100
0.44064 -5.08498 1.57555 99 107 104
0.42686 -5.09002 1.60074 85 89 74
0.40805 -5.09667 1.60606 59 57 52
0.37764 -5.08315 1.61227 39 30 33
0.35259 -5.07857 1.61803 22 20 18
0.33541 -5.08755 1.62317 13 17 22
0.31380 -5.08862 1.62863 23 34 50
0.27743 -5.06312 1.63514 66 84 88
0.21459 -4.98933 1.64347 124 129 113
-0.56324 -4.34436 1.77291 164 152 135
-0.55490 -4.33626 1.75341 158 148 139
-0.57798 -4.34816 1.77694 137 116 97
-0.59795 -4.37704 1.78472 76 69 41
-0.61306 -4.37985 1.78875 41 32 38
-0.62746 -4.38419 1.79274 19 14 24
-0.64320 -4.39565 1.78116 17 13 20
2.73712 -2.40388 0.74540 72 67 75
2.75498 -2.39086 0.75854 63 62 64
2.75077 -2.39279 0.74092 65 63 73
2.74133 -2.40196 0.76302 67 65 69
2.71925 -2.41691 0.73226 86 85 86
2.71753 -2.46335 0.75597 90 77 70
2.72704 -2.45411 0.73372 98 88 76
2.70944 -2.47698 0.75929 95 91 105
2.69847 -2.48938 0.76322 112 116 136
2.68511 -2.50076 0.76764 101 106 119
2.67918 -2.51543 0.77052 75 69 75
2.66717 -2.52744 0.77468 59 57 60
2.64884 -2.53661 0.78014 86 95 96
2.62879 -2.54497 0.78595 146 157 157
2.62997 -2.56300 0.78737 175 182 181
2.62156 -2.57672 0.79078 179 179 172
2.61776 -2.59261 0.79325 170 168 163
2.66174 -2.63094 0.78589 135 128 138
2.64341 -2.64430 0.77240 61 29 29
2.61100 -2.62500 0.79803 90 74 97
2.59713 -2.63633 0.80258 56 36 66
2.57656 -2.64445 0.80850 43 18 45
2.56153 -2.65518 0.81328 60 30 25
2.54978 -2.66751 0.81740 85 55 26
2.54449 -2.68302 0.82020 113 87 57
2.51458 -2.68644 0.82801 158 143 117
2.50487 -2.69979 0.83171 193 196 169
2.48481 -2.70798 0.83752 208 209 180
2.47426 -2.72093 0.84139 192 180 140
2.45611 -2.73416 0.82803 184 156 119
2.44716 -2.72548 0.84860 183 151 106
2.43940 -2.73985 0.85191 182 154 115
2.41264 -2.74445 0.85905 153 125 91
2.40239 -2.75754 0.86286 132 107 82
2.38429 -2.77073 0.84955 125 104 86
2.32470 -2.82785 0.88901 123 98 61
2.33428 -2.81855 0.86660 134 108 66
2.29635 -2.83117 0.89642 82 69 65
2.27557 -2.83855 0.90232 69 59 49
2.26169 -2.84970 0.90686 61 55 44
2.24657 -2.86015 0.91164 94 75 67
2.23286 -2.87139 0.91614 127 107 70
2.22333 -2.88064 0.93843 135 107 69
2.21908 -2.88259 0.92066 135 108 66
2.21483 -2.88453 0.90288 133 109 63
2.10082 -2.90956 0.95282 139 111 84
2.11025 -2.90040 0.93077 135 106 74
2.09662 -2.91148 0.93523 138 108 81
2.09269 -2.92389 0.95622 142 119 102
2.09837 -2.94651 0.95695 184 174 157
2.08437 -2.95747 0.96150 197 188 178
2.08494 -2.97724 0.96324 171 153 154
2.06695 -2.99035 0.95001 170 152 138
1.36428 -2.90851 1.13707 149 136 127
1.37282 -2.90022 1.11710 157 139 130
1.36048 -2.91025 1.12115 151 135 118
1.34018 -2.91022 1.14326 175 171 174
1.32365 -2.91720 1.14806 181 190 199
1.30813 -2.92486 1.15268 178 193 202
1.28149 -2.92446 1.15931 180 207 215
1.25680 -2.92533 1.16557 181 213 228
1.24154 -2.93298 1.17012 176 208 231
1.22561 -2.94459 1.15840 187 230 251
1.21993 -2.93592 1.17581 179 215 246
1.20404 -2.94750 1.16412 198 237 250
1.18241 -2.94575 1.18613 223 248 247
1.14322 -2.99217 1.20036 240 250 252
1.12830 -2.99987 1.20483 240 251 252
1.11391 -3.00795 1.20920 238 248 251
1.10128 -3.01739 1.21326 235 249 251
1.08555 -3.02436 1.21787 232 248 251
1.07139 -3.03256 1.22219 229 247 251
1.05761 -3.04103 1.22645 216 232 239
1.08058 -3.07919 1.22433 99 110 184
1.06430 -3.08580 1.22903 61 75 147
1.05211 -3.09571 1.23303 65 69 156
1.03819 -3.10419 1.23732 92 102 194
1.01411 -3.10421 1.24335 105 136 214
0.98704 -3.10159 1.24988 141 181 221
0.97567 -3.11203 1.25372 175 215 236
0.96573 -3.12369 1.25731 187 225 246
0.95153 -3.13173 1.26164 188 223 245
0.93714 -3.13958 1.26599 175 209 238
0.92361 -3.14816 1.27019 156 187 219
0.91273 -3.15903 1.27395 141 167 204
0.89886 -3.16729 1.27820 124 143 187
0.88306 -3.17880 1.26658 106 128 152
0.88724 -3.17751 1.28209 105 124 161
0.87567 -3.18779 1.28596 96 119 153
0.85986 -3.19931 1.27433 112 132 156
0.86296 -3.21778 1.29200 104 125 154
0.85922 -3.21949 1.27635 113 132 158
0.84709 -3.22935 1.28033 114 134 159
0.85470 -3.23116 1.29534 106 128 156
0.83881 -3.24273 1.28365 115 135 161
0.77899 -3.44138 1.33431 110 134 161
0.79530 -3.42950 1.34631 105 131 159
0.79145 -3.43125 1.33023 111 136 161
0.78283 -3.43962 1.35039 105 130 161
0.77037 -3.44975 1.35448 105 129 162
0.76838 -3.45336 1.33811 105 127 160
0.75975 -3.46174 1.35829 102 129 160
0.76214 -3.46980 1.34124 96 119 154
0.75350 -3.47819 1.36145 103 129 159
0.75473 -3.48514 1.34455 90 116 148
0.74555 -3.49873 1.34815 89 111 148
0.73980 -3.51592 1.35122 84 104 143
0.75456 -3.55456 1.35121 73 94 141
0.73004 -3.55241 1.35714 84 113 156
0.72131 -3.56089 1.37755 94 126 160
0.72315 -3.56871 1.36042 94 126 160
0.71441 -3.57720 1.38087 93 126 156
0.71051 -3.57898 1.36456 96 127 159
0.70662 -3.58076 1.34825 98 128 161
0.68762 -3.62612 1.37478 92 119 141
0.69640 -3.61759 1.35423 97 127 160
0.68835 -3.65115 1.37698 65 77 93
0.69235 -3.67999 1.37873 42 47 60
0.69556 -3.70822 1.38061 40 42 48
0.68665 -3.71688 1.40147 38 41 38
0.68267 -3.71869 1.38484 39 44 41
0.67870 -3.72051 1.36820 40 46 44
0.75335 -3.90134 1.38454 58 58 55
0.76263 -3.89233 1.36285 48 52 61
0.74922 -3.90323 1.36724 48 48 54
0.73581 -3.91412 1.37164 43 44 44
0.76068 -3.93628 1.38604 44 45 40
0.75133 -3.97898 1.39244 42 44 45
0.73358 -3.99192 1.37938 54 55 61
0.74190 -3.99491 1.39632 50 51 57
0.72412 -4.00786 1.38324 52 54 57
0.74610 -4.22513 1.41720 53 57 64
0.72766 -4.23857 1.40363 61 68 73
0.73227 -4.23691 1.42178 65 70 71
0.72152 -4.25264 1.42597 81 84 75
0.70146 -4.28612 1.43418 80 80 81
0.69709 -4.28811 1.41593 80 85 92
0.68295 -4.29961 1.42057 89 93 99
0.69393 -4.30625 1.43798 81 80 74
0.68527 -4.32501 1.44194 69 67 62
0.67591 -4.34296 1.44599 60 59 48
0.65730 -4.35652 1.43230 67 70 64
0.66561 -4.35975 1.45017 62 65 58
0.65826 -4.38058 1.45399 59 60 58
0.64251 -4.42123 1.46181 51 53 47
0.63809 -4.42325 1.44331 48 51 48
0.63482 -4.44200 1.46571 60 62 52
0.61806 -4.48205 1.47372 57 60 50
0.61579 -4.51084 1.47703 34 37 35
0.60131 -4.52261 1.48177 42 43 31
0.59685 -4.52465 1.46309 41 39 34
0.59423 -4.81538 1.51143 79 90 59
0.58262 -4.83297 1.51602 64 65 72
0.56284 -4.84739 1.50146 47 55 58
0.59448 -5.07089 1.53571 81 87 82
0.61496 -5.05597 1.55077 61 59 69
0.61013 -5.05817 1.53058 73 72 79
0.58286 -5.09011 1.54045 86 92 86
0.56584 -5.10066 1.54571 92 95 91
0.54535 -5.11560 1.53063 94 98 97
0.42402 -5.09543 1.58071 90 97 90
0.43467 -5.08508 1.55579 97 106 108
0.40926 -5.10907 1.58570 69 66 67
0.37540 -5.08960 1.59232 47 32 37
0.34811 -5.08110 1.59834 29 23 16
0.33287 -5.09349 1.60334 26 29 23
0.31073 -5.09363 1.60889 34 35 40
0.28237 -5.08241 1.61492 49 61 65
0.20696 -4.98588 1.62460 103 114 106
0.18638 -4.98736 1.62989 136 135 124
0.17618 -4.99728 1.65377 147 134 121
0.17163 -4.99936 1.63473 146 134 118
0.16708 -5.00143 1.61569 141 134 119
-0.55774 -4.36647 1.75700 164 152 136
-0.54937 -4.35833 1.73740 157 148 137
-0.57514 -4.36450 1.76116 134 113 92
-0.58695 -4.37491 1.76511 94 77 45
-0.59897 -4.38488 1.76907 73 67 38
-0.61307 -4.39005 1.77309 41 29 37
-0.62595 -4.39798 1.77707 20 13 25
-0.64173 -4.40948 1.76546 15 14 16
2.73953 -2.39180 0.72481 73 65 75
2.75737 -2.37879 0.73794 59 61 70
2.75317 -2.38071 0.72035 66 58 65
2.74896 -2.38263 0.70275 80 71 73
2.72169 -2.40480 0.71169 88 85 78
2.73374 -2.40615 0.72760 80 75 81
2.71587 -2.41918 0.71446 85 82 76
2.71490 -2.46598 0.73788 98 86 66
2.71066 -2.46792 0.72014 95 88 76
2.70397 -2.47838 0.74179 82 72 68
2.69318 -2.49087 0.74567 95 89 98
2.68193 -2.50317 0.74965 107 109 106
2.67440 -2.51714 0.75284 82 71 60
2.67966 -2.53688 0.75333 46 32 21
2.66581 -2.54813 0.75787 47 32 30
2.63011 -2.54944 0.76701 111 102 90
2.62118 -2.56287 0.77051 163 163 148
2.61086 -2.57569 0.77430 174 161 148
2.61042 -2.59313 0.77602 147 122 109
2.60948 -2.61043 0.77785 89 55 60
2.59284 -2.63829 0.78463 76 50 32
2.58324 -2.65166 0.78829 99 71 35
2.57525 -2.66584 0.79162 127 96 33
2.56541 -2.67917 0.79533 152 123 54
2.53855 -2.68417 0.80258 172 140 89
2.50470 -2.68562 0.81127 191 170 148
2.49440 -2.69866 0.81508 207 203 195
2.48449 -2.71192 0.81880 202 184 169
2.45889 -2.71727 0.82577 185 158 133
2.43046 -2.73940 0.83499 182 154 107
2.41186 -2.74819 0.84051 150 125 90
2.40305 -2.76205 0.84401 117 96 90
2.32250 -2.83093 0.87072 127 103 64
2.33208 -2.82163 0.84831 135 107 70
2.29861 -2.83669 0.87729 92 78 61
2.27451 -2.84225 0.88389 66 54 53
2.26322 -2.85485 0.88791 64 60 52
2.24977 -2.86626 0.89236 84 68 66
2.23617 -2.87760 0.89684 122 101 58
2.09463 -2.92946 0.93740 137 110 85
2.10408 -2.92028 0.91529 136 107 78
2.09042 -2.93138 0.91976 136 110 78
2.09829 -2.95092 0.93845 156 134 117
2.10354 -2.97348 0.93921 195 187 188
2.09348 -2.98693 0.94299 186 174 173
1.34777 -2.92001 1.12526 163 150 142
1.35630 -2.91172 1.10530 156 139 122
1.32481 -2.92246 1.13129 167 173 177
1.30413 -2.92644 1.13688 171 183 196
1.27803 -2.92641 1.14347 168 204 235
1.26203 -2.93807 1.13170 164 216 253
1.25159 -2.92599 1.15012 164 219 247
1.23565 -2.93760 1.13839 163 214 251
1.23396 -2.93189 1.15512 176 225 248
1.17757 -2.94663 1.17073 201 240 248
1.16316 -2.95471 1.17511 207 238 248
1.15028 -2.96393 1.17922 212 238 248
1.13911 -2.97445 1.18301 213 239 248
1.12329 -2.98598 1.17138 200 229 246
1.12639 -2.98379 1.18709 213 237 248
1.11058 -2.99532 1.17545 199 224 244
1.11090 -2.99097 1.19167 212 237 247
1.09739 -2.99966 1.19588 208 232 246
1.08464 -3.00894 1.19996 204 234 246
1.06886 -3.02044 1.18834 188 226 248
1.06981 -3.01655 1.20441 202 234 246
1.05404 -3.02805 1.19280 189 225 247
1.05761 -3.02623 1.20839 200 232 247
1.04183 -3.03773 1.19678 192 226 248
1.04402 -3.03480 1.21261 202 230 248
1.03550 -3.04746 1.21593 144 181 228
1.04339 -3.07353 1.21634 122 150 185
1.01852 -3.07293 1.22257 144 170 193
0.99457 -3.07295 1.22863 171 207 227
0.98976 -3.08877 1.23130 187 228 242
0.98168 -3.10193 1.23456 192 228 246
0.97194 -3.11373 1.23811 183 216 244
0.96113 -3.12465 1.24185 165 200 231
0.94826 -3.13383 1.24595 151 180 217
0.93310 -3.14102 1.25044 134 149 197
0.91729 -3.15255 1.23881 109 128 155
0.91751 -3.14780 1.25501 113 128 169
0.90611 -3.15820 1.25885 104 123 155
0.89445 -3.16839 1.26273 102 124 156
0.87865 -3.17990 1.25111 117 136 157
0.79669 -3.41955 1.31062 113 137 159
0.81298 -3.40768 1.32260 113 135 161
0.80914 -3.40943 1.30654 118 139 163
0.80053 -3.41779 1.32668 113 136 161
0.78615 -3.43156 1.31439 106 131 154
0.77785 -3.44583 1.31780 98 119 149
0.78946 -3.48021 1.31804 84 99 136
0.79313 -3.50689 1.31958 67 78 123
0.78692 -3.52372 1.32270 58 73 113
0.77523 -3.53499 1.32669 55 68 114
0.76781 -3.55070 1.33002 46 46 105
0.75122 -3.56279 1.31781 17 20 64
0.75681 -3.56277 1.33391 33 31 94
0.75386 -3.58330 1.33655 48 67 126
0.72413 -3.57565 1.34336 86 118 160
0.69103 -3.63589 1.35728 96 124 148
0.69983 -3.62733 1.33668 102 128 160
0.69618 -3.66584 1.35874 76 95 106
0.69912 -3.69364 1.36056 55 58 64
0.70040 -3.71983 1.36266 46 47 54
0.68348 -3.73216 1.35021 39 43 48
0.76826 -3.97868 1.36939 43 46 47
0.77767 -3.96954 1.34738 49 51 50
0.75046 -3.99165 1.35630 54 57 60
0.75875 -3.99457 1.37326 49 51 56
0.74093 -4.00756 1.36015 52 55 57
0.76213 -4.22351 1.39354 49 50 62
0.78060 -4.21005 1.40713 46 49 53
0.77625 -4.21204 1.38891 48 50 53
0.74997 -4.23746 1.39789 53 61 67
0.72459 -4.26411 1.40677 71 71 79
0.72023 -4.26610 1.38852 72 72 74
0.71525 -4.28177 1.41076 76 82 85
0.69154 -4.34103 1.42222 77 85 80
0.68715 -4.34304 1.40383 68 69 78
0.68020 -4.35646 1.42651 68 69 56
0.66153 -4.37006 1.41278 64 74 64
0.66123 -4.39251 1.43463 62 62 62
0.65250 -4.41170 1.43860 51 50 50
0.63972 -4.45686 1.44600 55 59 48
0.63527 -4.45889 1.42741 48 47 43
0.62732 -4.47136 1.45047 66 73 52
0.61782 -4.48995 1.45459 60 66 54
0.61630 -4.51987 1.45773 39 38 40
0.59732 -4.53370 1.44377 35 36 31
0.61366 -4.81878 1.48598 51 48 43
0.59650 -4.82803 1.49117 78 95 80
0.57670 -4.84246 1.47660 47 54 47
0.57686 -4.83343 1.49663 46 50 60
0.55709 -4.84784 1.48209 60 73 62
0.58559 -5.02899 1.51247 85 94 87
0.60114 -5.01636 1.50738 77 82 81
0.57852 -5.05524 1.51668 90 101 92
0.55812 -5.07011 1.50167 100 109 103
0.56172 -5.06594 1.52192 94 102 99
0.54132 -5.08080 1.50691 102 109 103
0.55430 -5.09192 1.52619 96 101 99
0.53385 -5.10682 1.51114 101 104 101
0.42363 -5.10506 1.56042 93 101 100
0.43430 -5.09470 1.53546 98 104 105
0.41887 -5.10724 1.54051 95 103 99
0.40607 -5.11393 1.56568 83 82 80
0.38491 -5.11648 1.57126 67 55 53
0.35458 -5.10281 1.57766 55 45 35
0.32931 -5.09765 1.58357 58 64 55
0.27450 -5.07880 1.59568 70 81 80
0.24878 -5.07188 1.60154 88 97 99
0.18094 -4.98782 1.61093 116 122 123
-0.55574 -4.38093 1.74109 162 153 131
-0.54733 -4.37276 1.72143 157 148 136
-0.57274 -4.37994 1.74530 127 112 84
-0.58629 -4.38653 1.74933 93 79 42
-0.59809 -4.39708 1.75329 73 63 38
-0.60672 -4.41494 1.75711 39 27 35
-0.62260 -4.42651 1.74543 20 13 20
-0.61901 -4.42445 1.76110 18 13 21
-0.63488 -4.43602 1.74942 16 15 16
2.73516 -2.39365 0.70726 84 82 73
2.74459 -2.38448 0.68519 112 108 76
2.71448 -2.43549 0.71627 77 77 73
2.70455 -2.44823 0.71994 86 83 82
2.69326 -2.47751 0.72543 92 80 66
2.68555 -2.49132 0.72863 101 84 81
2.67328 -2.50316 0.73282 120 124 116
2.66044 -2.51476 0.73713 95 98 99
2.67249 -2.53753 0.73609 63 48 34
2.65580 -2.54749 0.74124 89 62 19
2.63769 -2.55677 0.74669 137 109 73
2.61535 -2.56409 0.75304 163 138 118
2.60287 -2.57591 0.75728 172 145 124
2.60221 -2.59325 0.75900 157 127 102
2.61010 -2.61469 0.75890 132 94 60
2.60297 -2.62918 0.76201 138 98 43
2.58243 -2.63733 0.76798 155 124 59
2.56690 -2.64783 0.77288 165 136 79
2.54637 -2.65590 0.77884 174 144 88
2.52857 -2.66526 0.78422 184 155 101
2.51044 -2.67848 0.77087 192 170 131
2.51159 -2.67499 0.78942 190 163 119
2.49922 -2.68698 0.79364 193 171 140
2.49125 -2.70118 0.79694 193 170 149
2.47020 -2.70884 0.80300 186 159 138
2.45554 -2.71969 0.80771 175 154 122
2.43581 -2.72795 0.81348 167 146 107
2.42420 -2.74033 0.81755 160 133 92
2.40609 -2.75352 0.80423 124 102 79
2.40851 -2.75062 0.82247 135 106 79
2.40192 -2.76564 0.82549 99 72 89
2.39030 -2.77807 0.82957 113 89 83
2.38071 -2.78738 0.85199 132 106 77
2.37825 -2.79029 0.83373 129 105 70
2.36866 -2.79960 0.85617 133 105 68
2.36438 -2.80156 0.83828 132 106 68
2.36011 -2.80351 0.82038 130 108 68
2.32479 -2.83645 0.85149 135 106 72
2.33438 -2.82714 0.82905 134 105 66
2.32051 -2.83841 0.83359 135 107 66
2.30664 -2.84968 0.83814 135 105 69
2.31648 -2.85078 0.85489 121 92 63
2.28051 -2.84986 0.86399 84 60 58
2.27762 -2.86718 0.86627 79 72 66
2.26316 -2.87811 0.87093 99 87 66
2.24504 -2.89132 0.85760 103 83 48
2.25102 -2.89033 0.87512 116 96 52
2.23254 -2.89897 0.88061 127 104 65
2.22297 -2.90827 0.90301 132 106 71
2.21870 -2.91022 0.88515 130 107 75
2.09582 -2.95390 0.92040 136 113 93
2.10531 -2.94468 0.89819 135 109 73
2.11984 -2.98781 0.91729 169 157 154
2.10691 -2.99961 0.92165 189 182 186
2.09267 -3.01061 0.92626 194 175 160
2.08310 -3.01991 0.94866 146 139 118
2.08889 -3.02806 0.92878 186 179 151
2.07930 -3.03737 0.95123 138 121 114
2.07502 -3.03933 0.93333 139 128 121
2.07075 -3.04128 0.91543 154 147 136
1.35095 -2.92671 1.10800 154 139 126
1.35950 -2.91841 1.08801 160 144 125
1.34714 -2.92845 1.09206 156 141 124
1.33954 -2.93743 1.11187 152 140 140
1.32177 -2.94359 1.11696 164 172 192
1.26842 -2.92390 1.12881 169 209 247
1.25245 -2.93554 1.11706 160 208 253
1.19680 -2.92776 1.14742 167 215 251
1.20517 -2.91964 1.12786 158 206 253
1.19307 -2.92946 1.13182 159 207 251
1.17938 -2.93361 1.15239 173 219 250
1.16000 -2.93794 1.15772 178 221 247
1.14370 -2.94452 1.16247 183 221 246
1.12846 -2.95186 1.16701 185 219 246
1.11890 -2.96352 1.17049 189 224 245
1.07763 -2.98880 1.18328 184 215 244
1.07393 -2.99050 1.16778 185 205 241
1.06992 -3.00196 1.18642 185 223 247
1.05419 -3.01344 1.17484 187 224 249
1.02009 -3.03967 1.20250 193 224 249
1.02841 -3.03160 1.18305 190 226 249
1.00784 -3.04926 1.20648 195 228 239
0.99808 -3.06089 1.21001 195 229 240
0.98975 -3.07373 1.21328 191 223 242
0.98606 -3.09049 1.21572 179 210 237
0.97467 -3.10087 1.21955 160 192 224
0.96377 -3.11168 1.22330 143 166 209
0.93573 -3.12799 1.23191 105 127 165
0.91994 -3.13949 1.22030 115 135 155
0.92469 -3.13868 1.23568 103 124 160
0.90890 -3.15019 1.22406 119 137 155
0.90160 -3.15921 1.24341 115 132 153
0.89788 -3.16091 1.22783 122 139 157
0.88580 -3.17072 1.23178 123 140 159
0.89027 -3.16968 1.24723 117 134 155
0.87447 -3.18120 1.23561 124 141 161
0.82982 -3.39059 1.28238 123 142 163
0.84611 -3.37872 1.29436 118 139 160
0.84227 -3.38048 1.27830 124 145 162
0.83366 -3.38884 1.29844 120 139 162
0.82122 -3.39895 1.30252 119 139 165
0.81934 -3.40262 1.28613 117 136 161
0.80837 -3.41419 1.28996 109 126 155
0.80035 -3.42871 1.29330 94 112 139
0.82338 -3.47416 1.29148 78 94 122
0.81122 -3.48487 1.29554 57 67 113
0.80498 -3.50155 1.29863 39 47 96
0.78744 -3.53002 1.30564 34 38 77
0.77086 -3.54211 1.29344 32 41 70
0.77871 -3.54438 1.30915 27 39 80
0.76211 -3.55648 1.29694 26 33 64
0.76842 -3.55718 1.31292 16 25 78
0.75180 -3.56929 1.30070 18 25 63
0.74614 -3.58110 1.32074 10 22 82
0.72697 -3.58459 1.32594 73 106 149
0.71962 -3.60059 1.32925 102 130 161
0.71083 -3.60912 1.34981 99 128 161
0.70691 -3.61091 1.33341 104 130 162
0.70299 -3.61270 1.31702 110 134 165
0.69577 -3.64713 1.33949 100 128 151
0.70460 -3.63856 1.31884 108 133 161
0.69475 -3.67041 1.34183 90 108 122
0.70427 -3.70555 1.34253 61 63 73
0.70302 -3.72902 1.34495 42 44 54
0.68607 -3.74137 1.33248 34 41 44
0.77713 -4.22053 1.36993 51 57 57
0.79563 -4.20704 1.38355 42 48 50
0.79127 -4.20903 1.36530 42 50 50
0.76450 -4.23392 1.37435 59 60 72
0.75104 -4.24630 1.37889 62 67 69
0.73761 -4.25872 1.38342 69 73 75
0.71962 -4.29504 1.39126 69 75 76
0.70104 -4.30858 1.37759 69 78 72
0.70991 -4.31242 1.39529 73 82 82
0.70255 -4.33296 1.39900 73 79 85
0.68387 -4.36919 1.40700 70 73 66
0.66378 -4.40391 1.41523 57 62 56
0.65936 -4.40593 1.39672 56 68 59
0.64502 -4.41759 1.40142 61 71 66
0.65543 -4.42370 1.41912 53 55 56
0.64953 -4.44697 1.42271 49 51 55
0.63964 -4.49669 1.42967 50 54 41
0.63517 -4.49873 1.41096 47 47 43
0.62992 -4.51515 1.43380 46 53 43
0.61092 -4.52900 1.41982 31 35 29
0.62519 -4.54077 1.43729 37 36 36
0.60613 -4.55467 1.42327 28 34 27
0.63356 -4.82273 1.46034 33 42 40
0.65343 -4.80825 1.47496 40 45 35
0.64875 -4.81039 1.45536 40 47 40
0.64407 -4.81253 1.43576 42 50 42
0.58495 -4.81968 1.47246 59 69 60
0.58128 -4.99470 1.48903 85 93 91
0.60152 -4.97995 1.50392 66 66 77
0.59675 -4.98213 1.48396 79 84 86
0.59198 -4.98431 1.46400 91 99 93
0.57651 -4.99688 1.46907 91 96 93
0.56786 -5.01055 1.49387 92 102 95
0.55776 -5.03177 1.49834 96 106 99
0.53747 -5.04656 1.48341 106 113 109
0.40174 -5.11683 1.54574 94 96 89
0.39698 -5.11900 1.52585 95 93 92
0.38157 -5.13153 1.53090 97 92 89
0.38713 -5.13077 1.55071 92 84 80
0.36695 -5.14548 1.53587 91 90 87
0.36399 -5.12976 1.55653 92 87 77
0.34386 -5.14443 1.54172 87 88 86
0.34327 -5.13281 1.56209 93 96 84
0.32318 -5.14745 1.54731 80 84 82
0.31232 -5.11747 1.56861 82 87 83
0.29235 -5.13203 1.55392 74 83 77
0.24653 -5.07833 1.58190 80 86 86
0.24188 -5.08045 1.56246 75 81 75
0.21421 -5.05904 1.58842 88 95 107
0.14416 -4.96966 1.59831 122 126 124
0.13403 -4.97951 1.62202 147 135 118
0.12951 -4.98157 1.60312 144 138 119
-0.55353 -4.39590 1.72508 162 152 127
-0.54510 -4.38771 1.70535 157 150 138
-0.57102 -4.39389 1.72936 121 108 82
-0.58123 -4.40818 1.73324 91 79 39
-0.59834 -4.44462 1.74086 40 24 33
2.75107 -2.40394 0.68520 96 88 70
2.76054 -2.39474 0.66305 149 153 130
2.74685 -2.40587 0.66754 125 121 88
2.73953 -2.41596 0.68921 97 88 78
2.72971 -2.42873 0.69284 88 82 63
2.72292 -2.44281 0.69581 61 56 52
2.71305 -2.45562 0.69946 66 60 69
2.70615 -2.46974 0.70245 90 80 81
2.68824 -2.47910 0.70787 108 104 89
2.68176 -2.49346 0.71078 118 121 104
2.67560 -2.50801 0.71362 124 138 122
2.65578 -2.51651 0.71946 93 103 96
2.66948 -2.54004 0.71797 75 57 41
2.64425 -2.54613 0.72499 125 98 46
2.61790 -2.55163 0.73225 175 151 98
2.59988 -2.56477 0.71899 192 169 126
2.60175 -2.56173 0.73728 188 164 121
2.58373 -2.57486 0.72403 191 166 120
2.59117 -2.57440 0.74110 189 164 118
2.57314 -2.58754 0.72784 190 162 120
2.58496 -2.58913 0.74397 186 155 115
2.58474 -2.60673 0.74555 184 149 109
2.58298 -2.62370 0.74746 185 152 106
2.57024 -2.63551 0.75176 187 157 110
2.55209 -2.64874 0.73841 192 169 135
2.55813 -2.64763 0.75593 191 161 116
2.54717 -2.66032 0.75985 194 166 120
2.52418 -2.66716 0.76636 195 169 122
2.48732 -2.68515 0.77741 187 168 134
2.47748 -2.69839 0.78108 180 159 128
2.45123 -2.70340 0.78827 167 143 119
2.42564 -2.70865 0.79532 147 115 103
2.40761 -2.72178 0.78206 114 88 64
2.41826 -2.72311 0.79847 126 92 77
2.41196 -2.73817 0.80139 122 99 78
2.39388 -2.75135 0.78809 125 105 73
2.39774 -2.76764 0.80760 109 82 81
2.38775 -2.78093 0.81132 101 72 73
2.37771 -2.79422 0.81505 120 99 58
2.30732 -2.86901 0.83963 132 102 72
2.31694 -2.85966 0.81712 129 104 73
2.30303 -2.87097 0.82168 127 101 68
2.29109 -2.87903 0.84468 125 102 72
2.27290 -2.89229 0.83129 105 81 64
2.26760 -2.88495 0.85124 110 90 55
2.23678 -2.90577 0.86097 120 93 64
2.22734 -2.91958 0.86460 129 107 65
2.21774 -2.92891 0.88706 132 107 72
2.21346 -2.93086 0.86915 133 106 73
2.20918 -2.93282 0.85123 134 108 70
2.10750 -2.96537 0.89941 135 110 76
2.11702 -2.95612 0.87713 134 107 66
2.10325 -2.96731 0.88164 133 108 69
2.09900 -2.97975 0.90284 146 122 105
2.11377 -3.00832 0.90151 178 172 168
2.10305 -3.02153 0.90541 194 189 156
2.09694 -3.03761 0.90837 186 187 159
2.07874 -3.05087 0.89498 158 138 126
1.32805 -2.93368 1.09742 154 139 123
1.33658 -2.92539 1.07746 158 141 130
1.32425 -2.93541 1.08150 156 140 125
1.31931 -2.94630 1.10076 158 152 166
1.25718 -2.92019 1.11451 167 203 242
1.16436 -2.92688 1.13900 163 206 246
1.13785 -2.92577 1.14573 171 202 241
1.12211 -2.93268 1.15038 180 200 233
1.11221 -2.94399 1.15390 183 204 240
1.10628 -2.95837 1.15667 195 225 246
1.09494 -2.96864 1.16048 223 242 249
1.07922 -2.97549 1.16512 223 232 243
1.05722 -2.99656 1.17260 182 218 247
1.05352 -2.99825 1.15712 187 218 247
1.01430 -3.03968 1.18738 188 224 248
1.00272 -3.04980 1.19123 179 215 243
0.99483 -3.06296 1.19440 168 202 228
0.98205 -3.07212 1.19849 157 180 210
0.97601 -3.08690 1.20132 138 146 192
0.96702 -3.09927 1.20470 112 128 168
0.95502 -3.10912 1.20864 100 123 160
0.94340 -3.11930 1.21251 107 125 157
0.92762 -3.13081 1.20090 121 135 158
0.85090 -3.37214 1.25816 122 144 161
0.86719 -3.36027 1.27014 124 144 162
0.86335 -3.36202 1.25408 128 148 165
0.85474 -3.37038 1.27422 123 144 161
0.84002 -3.38375 1.26196 115 138 158
0.85173 -3.43970 1.26378 87 99 130
0.82927 -3.46287 1.27156 58 63 110
0.82104 -3.47748 1.27494 45 54 89
0.81274 -3.49207 1.27834 26 33 74
0.79621 -3.50412 1.26617 26 29 71
0.80541 -3.50770 1.28158 18 22 71
0.78885 -3.51977 1.26939 25 31 72
0.79488 -3.52016 1.28536 23 30 75
0.77831 -3.53224 1.27317 24 34 72
0.74917 -3.59022 1.30318 7 16 71
0.75028 -3.61528 1.30506 66 91 133
0.72615 -3.61355 1.31113 103 133 165
0.70947 -3.62571 1.29885 116 139 167
0.70305 -3.66119 1.32119 104 131 155
0.71191 -3.65259 1.30046 114 137 163
0.69776 -3.67988 1.32416 98 119 137
0.70786 -3.71575 1.32466 62 66 84
0.70476 -3.73724 1.32731 34 40 51
0.68778 -3.74962 1.31482 36 42 43
0.78658 -4.21062 1.34710 40 49 44
0.80509 -4.19714 1.36071 44 50 48
0.80073 -4.19913 1.34246 48 50 43
0.79637 -4.20112 1.32422 48 48 38
0.78222 -4.21262 1.32885 37 47 32
0.77666 -4.22737 1.35110 52 64 69
0.76801 -4.24579 1.35492 67 83 86
0.75445 -4.25811 1.35947 74 80 79
0.74287 -4.27296 1.36374 79 87 83
0.73360 -4.29083 1.36767 81 76 71
0.72562 -4.31045 1.37142 70 78 69
0.70721 -4.34684 1.37930 70 76 75
0.69595 -4.36247 1.38355 80 84 72
0.68434 -4.37770 1.38785 82 87 61
0.67402 -4.39471 1.39198 66 75 61
0.65525 -4.40838 1.37817 55 63 47
0.65591 -4.46384 1.40261 60 60 61
0.66591 -4.45413 1.37921 55 62 52
0.65145 -4.46588 1.38395 55 59 49
0.65305 -4.49162 1.40574 52 48 46
0.63959 -4.53704 1.41313 41 42 37
0.62347 -4.81675 1.44143 43 47 49
0.63395 -4.80656 1.41689 47 51 47
0.60363 -4.83121 1.42683 88 104 102
0.60466 -4.82355 1.44686 89 109 86
0.58983 -4.83635 1.45178 59 56 59
0.57183 -4.84427 1.45710 48 51 59
0.56672 -4.87210 1.46082 68 77 70
0.55622 -4.88230 1.48539 69 82 78
0.55480 -4.99948 1.47489 96 105 102
0.53941 -5.01211 1.47994 103 112 109
0.51921 -5.02683 1.46508 110 117 111
0.43316 -5.10303 1.51515 95 98 100
0.45337 -5.08830 1.53002 102 107 111
0.42840 -5.10521 1.49522 91 92 93
0.41295 -5.11776 1.50028 87 90 92
0.21068 -5.06313 1.56901 78 85 86
0.22104 -5.05307 1.54478 81 83 78
0.20606 -5.06524 1.54969 83 88 78
0.10515 -4.94667 1.58613 128 132 122
0.09510 -4.95644 1.60965 147 138 122
0.09062 -4.95848 1.59090 145 137 119
-0.55233 -4.40868 1.70903 161 151 126
-0.54387 -4.40047 1.68925 157 150 134
-0.56348 -4.42103 1.71296 118 97 82
-0.57808 -4.42557 1.71712 91 74 42
-0.59066 -4.43466 1.72114 67 60 40
-0.60988 -4.46665 1.72885 20 13 20
-0.62213 -4.47661 1.73287 15 15 16
-0.62590 -4.47833 1.71707 15 15 18
2.74086 -2.42022 0.67029 116 104 91
2.72572 -2.43076 0.67511 107 98 86
2.71164 -2.44174 0.67968 77 74 54
2.69759 -2.45273 0.68425 64 58 57
2.70288 -2.47210 0.68449 85 81 94
2.68426 -2.48115 0.69008 117 127 124
2.67964 -2.49633 0.69255 118 130 123
2.66527 -2.50725 0.69720 92 96 103
2.67881 -2.53064 0.69563 67 49 70
2.66405 -2.54147 0.70037 96 63 64
2.63826 -2.54730 0.70755 156 131 103
2.62020 -2.56046 0.69427 195 169 123
2.60867 -2.55129 0.71558 188 167 130
2.59066 -2.56441 0.70234 194 169 125
2.57654 -2.60683 0.72856 191 161 124
2.58610 -2.59754 0.70619 194 168 121
2.57228 -2.60877 0.71072 192 168 126
2.57306 -2.62297 0.73081 192 164 130
2.56666 -2.63780 0.73371 193 167 131
2.54278 -2.66223 0.74195 188 168 137
2.51563 -2.66702 0.74941 180 160 128
2.49510 -2.67498 0.75541 168 146 119
2.45697 -2.67415 0.76526 154 124 105
2.43656 -2.68200 0.77122 136 104 93
2.41858 -2.69510 0.75799 115 96 73
2.42838 -2.69597 0.77451 119 97 85
2.41038 -2.70909 0.76127 117 98 69
2.42035 -2.71006 0.77777 114 95 77
2.40233 -2.72319 0.76451 115 96 67
2.39626 -2.77105 0.78911 121 97 66
2.40585 -2.76173 0.76669 122 102 81
2.39117 -2.78694 0.79176 104 78 52
2.37300 -2.80018 0.77839 96 71 55
2.37432 -2.81535 0.79851 124 102 67
2.36470 -2.82470 0.82103 132 107 70
2.36040 -2.82667 0.80307 131 104 66
2.26119 -2.90484 0.83538 101 85 61
2.25690 -2.90680 0.81743 101 85 61
2.24320 -2.91382 0.84081 115 97 66
2.23404 -2.92785 0.84435 126 108 61
2.21583 -2.94112 0.83096 132 109 59
2.11782 -2.99564 0.88022 134 110 77
2.12740 -2.98633 0.85779 132 107 62
2.13243 -3.02425 0.87880 164 147 134
2.11073 -3.03082 0.88499 202 200 175
2.09251 -3.04410 0.87159 201 191 173
2.10087 -3.04465 0.88871 189 179 160
1.30259 -2.93871 1.08741 157 144 148
1.31110 -2.93044 1.06750 158 141 126
1.25574 -2.92359 1.09833 167 191 224
1.22063 -2.91672 1.10688 160 204 251
1.20852 -2.92656 1.11085 158 207 253
1.16779 -2.91516 1.12049 168 198 244
1.14638 -2.91790 1.12628 166 188 227
1.13070 -2.92933 1.11475 161 190 230
1.12269 -2.91883 1.13252 169 184 224
1.10374 -2.92323 1.13781 180 168 199
1.09176 -2.93288 1.14173 190 169 219
1.09633 -2.95525 1.14241 201 218 242
1.08432 -2.96497 1.14634 236 250 252
1.07187 -2.97433 1.15036 245 248 247
1.05888 -2.98328 1.15448 199 214 240
1.03736 -3.00468 1.16186 190 224 250
1.02907 -3.01273 1.18125 188 225 249
1.02723 -3.01590 1.16543 185 222 245
1.01700 -3.02707 1.16902 177 213 239
1.00160 -3.03405 1.17360 161 194 223
0.98875 -3.04308 1.17770 140 163 203
0.99710 -3.06959 1.17774 118 135 173
0.98782 -3.08169 1.18116 106 123 160
0.97397 -3.09000 1.18545 102 122 154
0.94985 -3.10960 1.19335 114 121 142
0.93898 -3.12040 1.19708 119 128 153
0.87664 -3.33627 1.23128 129 151 173
0.89288 -3.32443 1.24323 128 148 166
0.88906 -3.32618 1.22721 132 152 172
0.88047 -3.33452 1.24730 129 148 166
0.86805 -3.34462 1.25137 129 149 166
0.86048 -3.36469 1.23784 116 134 160
0.86686 -3.39283 1.23853 95 113 146
0.85808 -3.40661 1.24196 74 87 131
0.85465 -3.42563 1.24444 55 62 112
0.84719 -3.44084 1.24765 43 48 99
0.83746 -3.45389 1.25126 44 44 101
0.82690 -3.46615 1.25503 47 54 99
0.81711 -3.47922 1.25866 44 61 84
0.80060 -3.49125 1.24651 20 31 64
0.81052 -3.49554 1.26174 31 37 72
0.79398 -3.50760 1.24956 22 30 71
0.77115 -3.57176 1.27832 33 34 56
0.78389 -3.56140 1.27415 31 38 70
0.76316 -3.58710 1.28168 24 26 68
0.74647 -3.59927 1.26940 17 20 74
0.75318 -3.60040 1.28538 10 16 73
0.75416 -3.62541 1.28721 51 66 122
0.73500 -3.62904 1.29250 102 133 169
0.71602 -3.68152 1.30180 109 135 159
0.72493 -3.67287 1.28096 122 141 165
0.70695 -3.69618 1.30538 107 131 146
0.70135 -3.71478 1.30839 74 85 96
0.70732 -3.74642 1.30947 41 46 49
0.69031 -3.75882 1.29695 39 39 30
0.80018 -4.06436 1.31183 49 53 50
0.81831 -4.05115 1.32516 57 60 63
0.81404 -4.05310 1.30729 52 57 53
0.80445 -4.06241 1.32970 58 60 63
0.79801 -4.08957 1.31449 46 46 48
0.78839 -4.09891 1.33699 49 51 56
0.78411 -4.10087 1.31905 48 48 58
0.77451 -4.23213 1.33248 49 58 63
0.76624 -4.25107 1.33621 66 75 81
0.75493 -4.26626 1.34041 72 83 88
0.74390 -4.28186 1.34458 80 99 104
0.73466 -4.29983 1.34848 89 103 99
0.72114 -4.31235 1.35304 85 103 92
0.71555 -4.33522 1.35640 72 77 73
0.71060 -4.35910 1.35968 59 61 64
0.69185 -4.37277 1.34588 47 49 48
0.70956 -4.38834 1.36238 51 54 58
0.69527 -4.40018 1.36709 53 63 56
0.67644 -4.41391 1.35323 48 53 52
0.68340 -4.41527 1.37143 55 65 53
0.66455 -4.42901 1.35756 53 58 50
0.66469 -4.51597 1.38468 53 55 46
0.67478 -4.50617 1.36108 57 64 56
0.66019 -4.51802 1.36586 57 63 60
0.65861 -4.53970 1.38824 50 52 51
0.65009 -4.56017 1.39216 43 43 42
0.64478 -4.58533 1.39564 33 34 27
0.63007 -4.59728 1.40046 26 35 23
0.62554 -4.59935 1.38149 28 32 30
0.61014 -4.80587 1.42302 55 60 62
0.57622 -4.82483 1.43342 69 62 67
0.55591 -4.82908 1.43906 70 66 75
0.55699 -4.90244 1.44489 89 93 97
0.55160 -4.93034 1.44862 96 112 96
0.54736 -4.96032 1.45222 97 100 91
0.53660 -4.98013 1.45667 97 103 105
0.52440 -4.99773 1.46130 107 114 117
0.45140 -5.10544 1.48926 100 101 96
0.47166 -5.09067 1.50417 105 115 112
0.46689 -5.09285 1.48418 103 110 101
0.46211 -5.09503 1.46420 103 110 101
0.44662 -5.10762 1.46927 101 108 96
0.06754 -4.92554 1.57406 137 133 120
0.05757 -4.93523 1.59740 147 136 122
0.05312 -4.93726 1.57878 146 136 122
-0.55091 -4.42200 1.69288 160 151 122
-0.54244 -4.41376 1.67304 158 150 130
-0.55655 -4.44691 1.69642 115 97 79
-0.57211 -4.44947 1.70068 92 73 51
-0.58714 -4.45312 1.70489 62 54 44
-0.59335 -4.47713 1.70850 36 25 34
-0.60944 -4.48886 1.69666 20 16 14
2.75684 -2.41373 0.64662 144 146 144
2.77057 -2.40257 0.64212 177 185 181
2.76634 -2.40451 0.62441 180 185 188
2.75362 -2.42930 0.64872 133 126 138
2.73286 -2.43751 0.65483 138 135 128
2.71210 -2.44567 0.66093 141 148 113
2.70219 -2.45846 0.66456 106 117 107
2.68968 -2.47014 0.66878 83 100 109
2.67171 -2.48324 0.65556 51 38 44
2.67203 -2.47959 0.67417 79 90 108
2.67007 -2.49592 0.67600 70 60 80
2.68194 -2.51848 0.67469 63 49 66
2.65177 -2.52240 0.68293 102 83 79
2.64057 -2.53475 0.68686 162 140 98
2.62253 -2.54790 0.67359 198 173 123
2.61496 -2.54058 0.69405 191 168 113
2.59696 -2.55369 0.68081 195 171 124
2.56879 -2.62492 0.71294 188 169 134
2.56238 -2.63975 0.71581 184 167 130
2.54316 -2.64844 0.72155 173 154 122
2.51134 -2.65097 0.73011 157 131 116
2.50480 -2.66575 0.73301 137 109 99
2.48671 -2.67894 0.71970 124 96 62
2.48236 -2.67274 0.73946 122 101 82
2.46430 -2.68590 0.72617 123 95 69
2.44868 -2.67407 0.74840 119 94 77
2.43069 -2.68718 0.73517 116 95 68
2.43263 -2.68409 0.75342 117 93 77
2.41465 -2.69719 0.74019 112 96 64
2.39503 -2.77460 0.77056 128 102 76
2.39075 -2.77655 0.75266 126 99 73
2.39057 -2.79083 0.77303 114 85 59
2.38278 -2.82414 0.77775 113 87 64
2.37348 -2.83800 0.78131 128 102 61
2.36382 -2.84738 0.80391 133 103 61
2.35951 -2.84935 0.78588 132 103 57
2.35520 -2.85132 0.76786 129 102 57
2.28237 -2.90201 0.81036 111 92 66
2.29202 -2.89264 0.78779 127 100 65
2.25023 -2.92225 0.82042 108 90 56
2.24593 -2.92422 0.80244 106 83 35
2.24055 -2.93603 0.82406 118 100 61
2.12485 -3.00445 0.85992 133 107 58
2.13446 -2.99511 0.83744 134 106 66
2.12057 -3.00640 0.84199 132 107 59
2.12031 -3.02144 0.86248 137 115 97
2.11967 -3.04092 0.86421 182 169 154
2.09498 -3.06563 0.87267 181 171 145
2.08531 -3.07502 0.89528 142 107 104
1.30807 -2.94715 1.06964 157 142 137
1.31660 -2.93887 1.04967 159 143 127
1.31061 -2.96802 1.07065 162 170 196
1.21501 -2.91704 1.09163 164 200 248
1.19421 -2.92046 1.09737 163 209 249
1.16247 -2.91565 1.10531 185 173 229
1.12558 -2.90677 1.11428 170 176 215
1.10997 -2.91815 1.10279 176 191 224
1.10045 -2.92520 1.12235 170 183 206
1.08836 -2.93476 1.12629 192 147 209
1.08168 -2.94850 1.12915 189 205 234
1.07428 -2.96173 1.13215 215 243 251
1.06315 -2.97210 1.13591 225 242 249
1.05009 -2.98095 1.14005 201 229 244
1.04063 -2.99265 1.14347 184 218 244
1.03016 -3.00357 1.14709 173 206 231
1.01231 -3.00857 1.15218 156 181 208
1.01294 -3.02847 1.15361 135 144 186
1.01366 -3.04858 1.15504 109 124 166
1.00723 -3.06297 1.15788 101 117 159
0.99532 -3.07289 1.16180 109 117 149
0.98477 -3.08395 1.16546 115 117 143
0.97124 -3.09253 1.16970 116 121 140
0.95884 -3.10204 1.17372 115 99 116
0.94642 -3.11154 1.17774 121 110 133
0.93490 -3.12180 1.18159 123 120 149
0.92286 -3.13162 1.18553 126 133 156
0.91452 -3.13972 1.20505 123 139 158
0.91378 -3.14400 1.18891 129 143 160
0.90543 -3.15211 1.20844 126 143 156
0.90171 -3.15381 1.19287 131 148 160
0.89799 -3.15551 1.17729 137 152 165
0.89461 -3.29356 1.20596 137 151 166
0.91078 -3.28177 1.21786 133 150 167
0.90697 -3.28351 1.20191 138 153 168
0.89842 -3.29182 1.22191 133 150 165
0.88606 -3.30186 1.22596 133 151 167
0.89008 -3.31085 1.20854 132 148 167
0.87459 -3.33969 1.21492 107 127 154
0.88397 -3.37039 1.21493 89 102 136
0.87396 -3.38293 1.21856 65 73 122
0.87031 -3.40159 1.22102 40 51 105
0.85389 -3.41356 1.20894 17 24 72
0.86444 -3.41824 1.22390 25 33 91
0.84798 -3.43023 1.21179 19 28 71
0.85564 -3.43213 1.22732 21 27 86
0.83917 -3.44414 1.21520 22 31 75
0.84740 -3.44661 1.23065 34 37 86
0.83638 -3.45842 1.23449 46 47 87
0.82664 -3.47153 1.23810 38 42 91
0.81012 -3.48357 1.22594 23 26 70
0.81966 -3.48743 1.24121 30 41 78
0.80311 -3.49949 1.22903 24 32 68
0.79095 -3.55104 1.25385 21 30 65
0.80368 -3.54069 1.24968 24 27 65
0.79975 -3.54249 1.23325 27 28 70
0.78176 -3.56506 1.25739 37 42 80
0.77471 -3.58136 1.26055 39 55 81
0.76803 -3.59815 1.26365 31 33 77
0.75129 -3.61035 1.25133 27 26 65
0.75006 -3.62707 1.27069 31 35 100
0.74142 -3.64198 1.27415 95 125 159
0.73341 -3.65764 1.27751 120 143 166
0.71658 -3.66991 1.26513 128 149 166
0.71932 -3.69131 1.28391 117 138 163
0.71308 -3.70917 1.28699 116 136 152
0.72419 -3.74644 1.28707 88 101 106
0.71272 -3.75879 1.29107 53 50 45
