ply
format ascii 1.0
element face 0
property list uchar int vertex_indices
element vertex 1327
property float x
property float y
property float z
property uchar diffuse_red
property uchar diffuse_green
property uchar diffuse_blue
end_header
2.25949 -3.33870 0.60054 209 201 149
1.24109 -2.89465 1.08573 166 156 159
1.22968 -2.89721 1.09566 178 202 219
1.22030 -2.91153 1.09472 172 216 254
1.16452 -2.92417 1.16015 193 233 248
1.15956 -2.91997 1.14463 179 221 250
1.15744 -2.92910 1.15193 183 224 248
1.15532 -2.93822 1.15923 189 228 248
1.16146 -2.93257 1.16768 204 241 248
1.15226 -2.94662 1.16676 197 235 246
1.15854 -2.94108 1.17517 216 246 249
1.16743 -3.07866 1.25547 254 254 252
1.16241 -3.07441 1.23975 254 254 254
1.15200 -3.07693 1.26562 247 237 223
1.10868 -3.05194 1.28144 91 52 153
1.10657 -3.06099 1.28868 80 80 165
1.11869 -3.08195 1.29307 144 162 193
1.10951 -3.09596 1.29215 191 208 217
1.11607 -3.09062 1.30045 154 159 180
1.10450 -3.09170 1.30956 103 105 114
1.11161 -3.10861 1.31504 73 70 93
1.11096 -3.11895 1.32204 78 75 127
1.09924 -3.11979 1.33111 89 100 146
1.09971 -3.13108 1.33789 116 131 170
1.09241 -3.13564 1.34609 144 156 185
1.08730 -3.14207 1.35386 145 161 187
1.07816 -3.14494 1.36234 145 169 187
1.07027 -3.15970 1.37739 163 187 201
1.07298 -3.17297 1.38379 173 194 199
1.06627 -3.17787 1.39177 178 184 175
1.07306 -3.19486 1.39754 116 98 90
1.06109 -3.19498 1.40634 47 29 37
1.05912 -3.21501 1.42040 17 18 73
1.05211 -3.21951 1.42835 62 71 95
1.05798 -3.23583 1.43437 129 142 150
1.04439 -3.23421 1.44325 161 164 164
1.05389 -3.25397 1.44879 170 172 174
1.04969 -3.26102 1.45630 175 181 185
1.07784 -3.30957 1.46640 179 190 192
1.06033 -3.31519 1.48271 179 195 208
1.05117 -3.32918 1.48179 221 231 239
1.06404 -3.32985 1.48925 177 195 212
1.03419 -3.31228 1.49992 175 197 211
1.03134 -3.33159 1.51417 169 195 218
1.03088 -3.34218 1.52119 167 196 223
1.02703 -3.34948 1.52860 166 196 225
1.02926 -3.36273 1.53534 166 195 228
1.02795 -3.37254 1.54248 164 195 228
1.03023 -3.38591 1.54925 165 195 231
1.03038 -3.39720 1.55626 169 200 233
1.02564 -3.40361 1.56375 173 204 229
1.02060 -3.40968 1.57126 179 208 228
1.02123 -3.42148 1.57824 188 211 230
1.02510 -3.44780 1.59202 209 225 240
1.01596 -3.46177 1.59111 227 235 244
0.96145 -3.54890 1.70218 248 246 244
0.95658 -3.54479 1.68696 247 247 247
0.96155 -3.56024 1.70926 229 218 209
0.96482 -3.57509 1.71623 163 129 131
0.96597 -3.58763 1.72331 116 83 91
0.96356 -3.59627 1.73052 121 114 108
1.00165 -0.99536 0.04915 249 254 240
0.99582 -1.00990 0.06258 146 129 131
0.98847 -1.02113 0.06185 80 69 71
1.01456 -1.01768 0.05372 82 70 90
1.00714 -1.02901 0.05298 84 76 69
1.06265 -1.06427 0.04773 80 75 48
1.05856 -1.06081 0.03492 76 74 63
1.05681 -1.06834 0.04095 57 50 46
1.08586 -1.08062 0.04099 33 26 26
1.07818 -1.09235 0.04022 17 14 14
1.09494 -1.08879 0.03946 23 11 21
1.08723 -1.10057 0.03869 15 13 17
1.93329 -1.54602 -0.28832 31 26 34
1.92758 -1.54120 -0.30617 12 9 18
1.92271 -1.56218 -0.28938 12 12 15
1.93123 -1.55658 -0.28017 22 23 22
1.92065 -1.57274 -0.28122 9 10 11
1.96849 -1.74211 -0.19074 53 40 55
1.96266 -1.73718 -0.20900 29 27 41
1.97436 -1.75481 -0.18706 77 71 63
1.97185 -1.76557 -0.17845 86 76 75
2.61655 -2.22145 -0.36488 51 45 40
2.60947 -2.21546 -0.38703 57 49 47
2.61693 -2.23555 -0.35628 35 30 26
2.60379 -2.25563 -0.35760 17 13 37
2.50628 -2.33763 -0.21078 20 18 87
2.51916 -2.31796 -0.20949 12 13 76
2.50925 -2.32486 -0.22100 16 12 75
2.51619 -2.33073 -0.19927 13 14 86
2.51322 -2.34351 -0.18905 14 14 88
2.50331 -2.35041 -0.20056 23 19 87
2.48262 -2.38441 -0.16396 15 14 80
2.47570 -2.37856 -0.18562 22 14 53
2.47274 -2.39129 -0.17543 23 13 54
2.46978 -2.40403 -0.16525 20 13 60
2.47983 -2.39721 -0.15386 18 18 89
2.48128 -2.41159 -0.14587 24 22 90
2.46842 -2.43122 -0.14716 34 22 52
2.48702 -2.42761 -0.14000 38 27 78
2.47413 -2.44729 -0.14129 60 25 34
2.48883 -2.44221 -0.13215 57 39 59
2.49956 -2.46026 -0.12867 69 35 38
2.51452 -2.49411 -0.11834 74 21 41
2.51505 -2.50841 -0.10973 84 51 63
2.51346 -2.52189 -0.10008 169 110 64
2.51086 -2.53497 -0.08993 226 128 59
2.51025 -2.54887 -0.08074 237 134 97
2.50537 -2.56103 -0.06950 231 170 166
2.49560 -2.57117 -0.05594 179 140 184
2.48258 -2.59104 -0.05724 217 187 201
2.49763 -2.58616 -0.04799 229 188 186
2.48329 -2.59433 -0.03233 245 132 99
2.48738 -2.61021 -0.02533 243 186 95
2.47395 -2.61866 -0.01015 226 140 93
2.45679 -2.62544 0.00671 227 105 74
2.43335 -2.62938 0.02641 228 89 60
2.45741 -2.65397 0.02422 242 132 100
2.45567 -2.66736 0.03393 195 160 190
2.43204 -2.67102 0.05358 72 64 176
2.43128 -2.68480 0.06281 54 69 181
2.41838 -2.70450 0.06152 98 95 169
2.42792 -2.69741 0.07322 83 89 160
2.41502 -2.71711 0.07193 132 129 105
2.40570 -2.71550 0.10092 151 123 60
2.39476 -2.72454 0.11464 153 119 64
2.38239 -2.73285 0.12895 103 77 49
2.37740 -2.74456 0.13999 40 24 50
2.36462 -2.76407 0.13872 8 6 61
2.43916 -2.84535 0.15808 16 19 79
2.45220 -2.82544 0.15938 12 16 65
2.44217 -2.83243 0.14774 13 16 70
2.44366 -2.86198 0.16524 23 26 90
2.43060 -2.88192 0.16394 32 41 115
2.45413 -2.88163 0.16992 29 36 105
2.44102 -2.90164 0.16862 32 42 111
2.47200 -2.91969 0.18076 37 41 105
2.45881 -2.93983 0.17944 27 31 79
2.49506 -2.94603 0.18041 31 30 78
2.53135 -2.97934 0.17473 33 26 55
2.54986 -3.00379 0.17652 28 21 28
2.53638 -3.02438 0.17518 28 17 15
2.57221 -3.04548 0.18636 46 33 22
2.58281 -3.06618 0.19161 67 58 22
2.58443 -3.08223 0.20051 83 74 39
2.58463 -3.09755 0.21000 97 85 48
2.57098 -3.11840 0.20864 107 92 56
2.58040 -3.20232 0.27907 130 105 57
2.59412 -3.18137 0.28044 121 98 67
2.57300 -3.19607 0.25593 143 124 75
2.59095 -3.19497 0.29132 123 98 61
2.58779 -3.20858 0.30220 126 101 65
2.57724 -3.21592 0.28995 128 104 62
2.63084 -3.30882 0.30906 121 98 56
2.63960 -3.32965 0.31574 104 81 51
2.63829 -3.34465 0.32614 76 58 46
2.40766 -3.26855 0.44759 41 54 84
2.41104 -3.28559 0.45584 165 191 202
2.45197 -3.32567 0.45101 212 222 224
2.42669 -3.32530 0.46934 212 216 210
2.41283 -3.33184 0.48363 209 209 156
2.34298 -3.30335 0.51698 194 174 29
2.32991 -3.32330 0.51568 183 162 44
2.30631 -3.33942 0.56661 182 160 14
1.22202 -2.88016 1.07371 167 148 129
1.23138 -2.86586 1.07464 170 149 130
1.22418 -2.87088 1.06628 168 148 127
1.21698 -2.87590 1.05792 167 147 128
1.22292 -2.89168 1.08030 170 166 167
1.20271 -2.88767 1.09262 175 209 237
1.19340 -2.90189 1.09169 176 219 253
1.14196 -2.94936 1.17606 214 239 246
1.13701 -2.94518 1.16060 193 229 247
1.13490 -2.95427 1.16787 197 234 246
1.13435 -2.95415 1.18466 222 246 249
1.13928 -2.95832 1.20008 250 254 254
1.13224 -2.96322 1.19191 238 252 253
1.16323 -3.08610 1.24651 254 254 254
1.15820 -3.08185 1.23077 254 254 254
1.13932 -3.07729 1.25852 213 194 220
1.13007 -3.09142 1.25760 109 97 157
1.09867 -3.05434 1.27392 90 86 140
1.11222 -3.07649 1.27791 130 165 199
1.10263 -3.07928 1.28671 174 200 223
1.10395 -3.10212 1.30011 185 183 189
1.10039 -3.10996 1.30766 118 112 123
1.09790 -3.11871 1.31500 69 61 83
1.10026 -3.13165 1.32141 41 57 110
1.09224 -3.13561 1.32980 73 96 148
1.08309 -3.14958 1.32888 82 90 153
1.09332 -3.14746 1.33646 99 120 166
1.07823 -3.14516 1.34609 69 77 126
1.07220 -3.15073 1.35403 55 56 114
1.07378 -3.16300 1.36060 67 71 131
1.07384 -3.18489 1.37432 127 116 156
1.07436 -3.19630 1.38112 137 119 150
1.06338 -3.19734 1.38984 121 105 108
1.05659 -3.20210 1.39783 71 58 50
1.05297 -3.20972 1.40528 45 38 64
1.05152 -3.21932 1.41238 21 22 88
1.07897 -3.25555 1.41503 105 121 143
1.04277 -3.24403 1.43437 227 230 226
1.04272 -3.25494 1.44127 231 232 228
1.03364 -3.26882 1.44036 252 252 252
1.04397 -3.26709 1.44800 234 237 232
1.03488 -3.28098 1.44709 251 251 251
1.04939 -3.28320 1.45416 234 238 234
1.04027 -3.29714 1.45325 250 250 250
1.05715 -3.30159 1.46004 232 238 235
1.04799 -3.31558 1.45913 250 250 251
1.08448 -3.33873 1.46334 229 235 238
1.07521 -3.35288 1.46242 249 250 251
1.07688 -3.34269 1.47142 224 233 238
1.06763 -3.35681 1.47049 246 248 249
1.06612 -3.35475 1.48691 218 230 237
1.06058 -3.36058 1.49465 213 226 234
1.03566 -3.34748 1.50470 207 222 237
1.02643 -3.34955 1.51278 202 219 238
1.02111 -3.35539 1.52037 200 216 237
1.01964 -3.36502 1.52751 196 214 236
1.01402 -3.37053 1.53510 195 214 234
1.01646 -3.39517 1.54882 197 217 237
1.01124 -3.40105 1.55635 199 219 238
1.00872 -3.40963 1.56360 202 221 237
0.99963 -3.42351 1.56270 226 234 242
1.01047 -3.42255 1.57045 206 222 237
1.00137 -3.43645 1.56954 229 236 243
1.01275 -3.43605 1.57727 213 227 241
1.00363 -3.44998 1.57636 235 240 245
0.95384 -3.55301 1.69415 249 248 244
0.94897 -3.54889 1.67893 248 247 247
0.95954 -3.57052 1.70098 232 218 207
0.95900 -3.58120 1.70810 164 121 122
0.95267 -3.58547 1.71544 106 66 78
0.94363 -3.59928 1.71454 99 95 96
0.95983 -3.60475 1.72231 111 104 105
0.95075 -3.61861 1.72141 114 109 100
0.99768 -0.99200 0.03674 248 254 248
1.00504 -0.98076 0.03747 254 254 254
0.99938 -0.98470 0.03090 254 254 254
0.99371 -0.98865 0.02432 247 253 248
0.99202 -0.99594 0.03016 213 215 210
0.99148 -0.99923 0.04586 215 216 213
0.98906 -1.00650 0.05222 149 139 147
0.98172 -1.01771 0.05148 77 75 74
1.00826 -1.01425 0.04289 92 79 88
1.00085 -1.02557 0.04215 87 80 74
1.07094 -1.07661 0.03569 32 24 34
1.06682 -1.07313 0.02280 44 35 47
1.06506 -1.08071 0.02886 27 17 33
1.06330 -1.08829 0.03493 18 15 16
1.07773 -1.08462 0.03570 21 16 18
1.07006 -1.09634 0.03494 15 15 16
1.96381 -1.74876 -0.20258 35 26 49
1.95797 -1.74382 -0.22086 25 27 30
1.97521 -1.76281 -0.20219 72 68 44
1.97610 -1.77441 -0.19555 88 75 66
1.98197 -1.77938 -0.17718 88 75 67
1.97358 -1.78521 -0.18691 87 76 66
1.96520 -1.79105 -0.19664 87 73 61
2.58498 -2.22171 -0.36499 48 44 37
2.57794 -2.21575 -0.38702 55 49 45
2.58405 -2.23533 -0.35575 31 28 31
2.57097 -2.25529 -0.35705 13 12 32
2.51404 -2.32307 -0.24885 11 9 48
2.52696 -2.30334 -0.24756 31 28 59
2.50708 -2.31718 -0.27064 18 11 39
2.52399 -2.31615 -0.23731 30 23 65
2.50410 -2.32999 -0.26039 10 8 49
2.50231 -2.33281 -0.23405 9 10 66
2.50010 -2.34586 -0.22422 32 35 82
2.49310 -2.35720 -0.21191 39 37 83
2.48859 -2.36942 -0.20091 23 17 68
2.47572 -2.38908 -0.20219 36 25 20
2.47935 -2.42147 -0.16137 19 16 61
2.47241 -2.41560 -0.18310 18 12 47
2.46944 -2.42837 -0.17288 8 8 59
2.49232 -2.46825 -0.14158 76 15 28
2.49059 -2.48158 -0.13192 98 34 54
2.50009 -2.49935 -0.12779 91 65 119
2.50197 -2.51417 -0.11987 79 64 144
2.50951 -2.53130 -0.11468 171 150 162
2.49645 -2.55124 -0.11598 232 149 145
2.50462 -2.54349 -0.10341 233 145 120
2.49157 -2.56341 -0.10471 241 139 103
2.50009 -2.55580 -0.09233 244 139 100
2.49530 -2.56800 -0.08112 236 182 160
2.49091 -2.58035 -0.07012 167 149 209
2.47210 -2.60079 -0.04337 216 150 142
2.47581 -2.61652 -0.03623 184 165 163
2.45982 -2.62384 -0.01980 143 124 168
2.45532 -2.63604 -0.00880 195 142 158
2.44235 -2.65584 -0.01010 218 116 111
2.43225 -2.64011 0.01082 227 101 79
2.43541 -2.65560 0.01821 241 124 91
2.44662 -2.67472 0.02193 209 166 181
2.42631 -2.67981 0.04015 78 75 169
2.42757 -2.69452 0.04846 93 110 191
2.39249 -2.72085 0.09094 155 140 72
2.38558 -2.71500 0.06930 130 129 114
2.38262 -2.72772 0.07948 154 140 81
2.38089 -2.72953 0.10498 156 135 63
2.37979 -2.74310 0.11432 87 72 37
2.37727 -2.75601 0.12429 26 18 44
2.36446 -2.77557 0.12301 7 8 58
2.41888 -2.83293 0.14183 15 17 79
2.43188 -2.81309 0.14312 11 14 64
2.42188 -2.82005 0.13152 12 15 68
2.41188 -2.82701 0.11992 16 15 74
2.42922 -2.85238 0.14640 21 24 92
2.43402 -2.86918 0.15340 28 34 105
2.42096 -2.88913 0.15210 32 43 123
2.47111 -2.93145 0.16508 30 36 94
2.46094 -2.93853 0.15328 28 33 82
2.45789 -2.95164 0.16376 27 32 79
2.52054 -2.98628 0.16296 30 29 68
2.51022 -2.99346 0.15098 33 31 81
2.54094 -3.01176 0.16388 27 25 41
2.56268 -3.05324 0.17385 41 25 18
2.55222 -3.06051 0.16172 35 17 20
2.58042 -3.07778 0.17614 59 52 21
2.58322 -3.09450 0.18457 79 72 39
2.58363 -3.10997 0.19399 94 84 51
2.57491 -3.21254 0.26486 142 123 72
2.56751 -3.20628 0.24170 142 123 79
2.56434 -3.21990 0.25260 143 123 84
2.56118 -3.23351 0.26349 146 123 88
2.58137 -3.23163 0.27208 139 118 70
2.58879 -3.23790 0.29530 125 102 67
2.56760 -3.25266 0.27071 147 123 83
2.60429 -3.27581 0.28288 132 108 74
2.61496 -3.26838 0.29526 123 100 67
2.59362 -3.28324 0.27049 147 123 81
2.61090 -3.29525 0.29020 132 105 75
2.62257 -3.31773 0.29569 129 102 65
2.62764 -3.33644 0.30369 106 85 56
2.63061 -3.35397 0.31251 73 59 47
2.59648 -3.34944 0.33491 49 36 28
2.58259 -3.37066 0.33352 27 19 9
2.58224 -3.35659 0.34994 30 15 11
2.57904 -3.37033 0.36093 19 15 16
2.43381 -3.29774 0.42276 39 50 79
2.40874 -3.29754 0.44118 167 194 202
2.44269 -3.33350 0.43866 213 225 228
2.42556 -3.33811 0.45422 213 218 213
2.41939 -3.34944 0.46591 210 211 158
2.35398 -3.32356 0.49804 181 162 30
2.34084 -3.34363 0.49673 199 168 21
2.27605 -3.34805 0.57107 195 179 49
2.26313 -3.36779 0.56978 214 207 174
1.19834 -2.87310 1.06995 167 150 141
1.19333 -2.86886 1.05426 167 145 128
1.18970 -2.87754 1.07913 172 179 191
1.18043 -2.88146 1.08845 176 214 246
1.17109 -2.89601 1.10450 175 216 250
1.17820 -2.89106 1.11275 169 216 252
1.17607 -2.90022 1.12007 169 216 250
1.15762 -2.89661 1.11485 175 209 245
1.16257 -2.90080 1.13036 171 215 252
1.14842 -2.91066 1.11393 185 175 223
1.14567 -2.89829 1.12473 177 203 245
1.15061 -2.90246 1.14018 174 218 251
1.13651 -2.91228 1.12382 186 182 213
1.13790 -2.90306 1.13348 179 211 245
1.13751 -2.91344 1.14029 184 216 246
1.13541 -2.92251 1.14754 188 222 249
1.10841 -2.95483 1.18782 219 245 249
1.11331 -2.95897 1.20314 246 253 254
1.09932 -2.96871 1.18691 202 235 245
1.10379 -2.96183 1.19563 224 247 250
1.10868 -2.96597 1.21094 251 254 254
1.09661 -2.96676 1.20404 239 251 252
1.10149 -2.97089 1.21932 253 254 254
1.09452 -2.97575 1.21123 247 254 254
1.15779 -3.09255 1.23779 254 253 248
1.15276 -3.08829 1.22205 254 254 254
1.10299 -3.05789 1.25656 154 143 207
1.10199 -3.07873 1.27039 143 161 198
1.10149 -3.08917 1.27732 124 129 179
1.10016 -3.09892 1.28443 123 149 207
1.09784 -3.10783 1.29174 144 166 216
1.09250 -3.11414 1.29966 163 177 201
1.09297 -3.12544 1.30641 130 125 141
1.09116 -3.13478 1.31362 81 77 126
1.08568 -3.14093 1.32153 73 83 143
1.07085 -3.14972 1.33802 79 82 129
1.06174 -3.16364 1.33711 64 75 126
1.06845 -3.15848 1.34531 65 71 112
1.06635 -3.16752 1.35253 64 72 115
1.06230 -3.17481 1.36011 94 103 154
1.06382 -3.18708 1.36670 131 142 182
1.06177 -3.19617 1.37392 147 154 180
1.05958 -3.20513 1.38117 176 185 181
1.05674 -3.21349 1.38852 166 161 137
1.04849 -3.21688 1.39676 87 59 94
1.04532 -3.22491 1.40414 24 25 110
1.03796 -3.22904 1.41218 130 155 188
1.03214 -3.23457 1.41996 229 239 241
1.02309 -3.24839 1.41905 254 254 254
1.03186 -3.24522 1.42686 251 252 251
1.02280 -3.25906 1.42596 254 254 254
1.03173 -3.25605 1.43376 252 252 251
1.02267 -3.26990 1.43285 253 254 254
1.05903 -3.35969 1.47867 243 245 248
1.05405 -3.35549 1.46312 250 251 251
1.05193 -3.36464 1.47043 249 250 251
1.04980 -3.37378 1.47775 249 249 250
1.05349 -3.36552 1.48642 240 242 246
1.04428 -3.37958 1.48550 248 249 250
1.03131 -3.35499 1.49622 236 242 247
1.02218 -3.36894 1.49531 247 248 250
1.02367 -3.35860 1.50414 233 239 246
1.01456 -3.37252 1.50323 246 247 249
1.01460 -3.36074 1.51219 230 236 244
1.00551 -3.37462 1.51128 244 246 248
1.01077 -3.36803 1.51960 227 234 242
1.00169 -3.38190 1.51870 243 246 248
1.00471 -3.37307 1.52726 224 234 241
0.99564 -3.38692 1.52635 242 246 248
1.00425 -3.38370 1.53427 223 234 241
0.99517 -3.39756 1.53337 240 244 248
1.00713 -3.39771 1.54094 223 233 242
0.99804 -3.41159 1.54003 240 243 248
1.00247 -3.40412 1.54842 224 234 244
0.99338 -3.41799 1.54751 240 245 248
0.94588 -3.55672 1.68614 249 247 243
0.94102 -3.55261 1.67093 248 247 248
0.94991 -3.57242 1.69302 233 219 205
0.94796 -3.58154 1.70019 164 121 110
0.93474 -3.57807 1.70779 97 60 61
0.92574 -3.59182 1.70690 89 87 90
0.97982 -1.00305 0.04371 142 132 136
0.97249 -1.01425 0.04298 82 76 70
1.00419 -1.01087 0.03045 85 80 85
0.99678 -1.02219 0.02971 89 84 77
1.95998 -1.75563 -0.21495 26 23 46
1.95413 -1.75069 -0.23325 26 28 29
1.95162 -1.76145 -0.22464 27 23 45
1.97495 -1.77058 -0.21674 63 53 50
1.98148 -1.78359 -0.21345 84 68 58
1.97054 -1.80030 -0.21454 84 74 62
2.53061 -2.21460 -0.35248 44 38 38
2.52365 -2.20872 -0.37426 57 47 44
2.53038 -2.22830 -0.34372 27 22 28
2.51745 -2.24804 -0.34501 16 10 26
2.49160 -2.33943 -0.24515 8 13 74
2.48465 -2.33356 -0.26688 12 9 56
2.48964 -2.35258 -0.23545 51 47 109
2.48580 -2.36505 -0.22477 60 46 92
2.47998 -2.37679 -0.21307 34 22 38
2.47808 -2.44558 -0.16853 31 21 48
2.47957 -2.46011 -0.16053 89 45 28
2.47859 -2.47372 -0.15127 125 55 48
2.48817 -2.49149 -0.14727 154 101 109
2.49490 -2.50822 -0.14180 116 108 169
2.49036 -2.52051 -0.13071 60 52 171
2.49787 -2.53766 -0.12556 151 126 186
2.48747 -2.57590 -0.09383 213 159 157
2.47228 -2.58374 -0.07760 127 100 209
2.47840 -2.60048 -0.07167 161 178 229
2.45836 -2.60615 -0.05317 144 121 199
2.44263 -2.61355 -0.03681 83 79 196
2.38808 -2.60406 -0.00211 27 25 171
2.44694 -2.64368 -0.02114 144 135 168
2.43329 -2.66599 0.00303 241 139 114
2.44094 -2.68358 0.00835 217 180 190
2.41859 -2.68772 0.02760 84 79 168
2.41647 -2.70091 0.03745 74 95 191
2.40832 -2.71135 0.05006 83 87 174
2.36802 -2.73498 0.09491 151 130 70
2.38291 -2.75610 0.09706 79 68 40
2.37990 -2.76883 0.10727 19 17 42
2.36705 -2.78846 0.10599 12 10 54
2.40734 -2.83913 0.13090 21 19 91
2.41546 -2.85751 0.13637 26 29 109
2.40244 -2.87741 0.13507 35 43 132
2.42067 -2.87453 0.14316 31 39 121
2.40762 -2.89446 0.14185 31 41 123
2.53123 -3.01934 0.15155 28 26 61
2.52396 -3.01320 0.12879 35 33 92
2.54740 -3.04286 0.15424 27 18 33
2.53384 -3.06356 0.15289 29 17 16
2.56429 -3.08210 0.16625 52 38 24
2.57914 -3.10529 0.16973 74 65 38
2.58116 -3.12167 0.17849 92 79 53
2.57811 -3.13534 0.18933 105 89 58
2.58551 -3.14159 0.21246 117 99 65
2.57495 -3.14894 0.20021 116 97 66
2.58622 -3.29453 0.28309 153 126 82
2.58756 -3.31094 0.29237 144 119 74
2.61065 -3.34025 0.29353 108 93 56
2.63157 -3.36847 0.29563 67 56 38
2.61753 -3.38992 0.29423 34 24 30
2.59601 -3.36301 0.31872 39 28 26
2.58208 -3.38429 0.31733 27 26 18
2.58019 -3.38494 0.34425 23 21 19
2.42940 -3.30849 0.40870 41 51 78
2.40427 -3.30820 0.42724 167 194 200
2.44039 -3.34566 0.42381 214 227 230
2.42480 -3.35121 0.43891 214 220 214
2.42188 -3.36460 0.44948 211 213 156
2.35134 -3.33532 0.48369 191 160 13
2.33818 -3.35543 0.48238 207 178 9
1.18111 -2.87067 1.06450 170 153 152
1.16982 -2.87307 1.07442 178 194 208
1.16529 -2.88044 1.08241 183 220 250
1.16027 -2.88742 1.09053 185 217 246
1.15280 -2.89253 1.09930 193 192 229
1.13406 -2.88905 1.11109 189 173 216
1.11967 -2.91001 1.13495 191 178 212
1.11476 -2.90586 1.11959 162 199 226
1.12535 -2.92508 1.14015 201 205 240
1.13028 -2.92924 1.15556 190 225 248
1.12384 -2.93459 1.14725 197 223 248
1.12173 -2.94365 1.15450 191 227 248
1.08643 -2.96904 1.19672 217 240 247
1.07738 -2.98285 1.19582 208 239 247
1.08535 -2.97882 1.20366 226 248 251
1.09023 -2.98295 1.21893 251 254 254
1.08326 -2.98780 1.21084 236 251 252
1.14428 -3.09227 1.23086 252 248 244
1.08452 -3.05320 1.25091 96 102 198
1.09119 -3.06961 1.25622 76 82 161
1.08967 -3.07916 1.26335 134 148 178
1.07787 -3.07997 1.27265 84 78 125
1.07829 -3.09115 1.27934 50 66 137
1.08035 -3.10376 1.28571 43 65 141
1.08320 -3.11709 1.29194 63 88 141
1.08221 -3.12713 1.29897 61 81 133
1.07786 -3.13424 1.30667 72 87 132
1.06872 -3.14819 1.30576 109 128 180
1.07363 -3.14144 1.31434 88 107 159
1.07002 -3.14916 1.32187 98 112 162
1.06303 -3.15388 1.33004 87 91 145
1.05667 -3.17001 1.34489 84 98 131
1.04757 -3.18391 1.34398 82 95 143
1.04851 -3.17358 1.35321 119 129 165
1.05748 -3.19258 1.35843 150 163 209
1.06128 -3.20698 1.36463 171 186 224
1.06613 -3.22239 1.37068 198 213 226
1.05905 -3.22692 1.37880 203 202 199
1.04718 -3.22700 1.38769 101 76 133
1.04199 -3.23317 1.39542 37 52 134
1.03521 -3.23783 1.40340 146 185 214
1.02408 -3.23839 1.41204 235 249 251
1.01503 -3.25221 1.41114 254 254 254
0.93991 -3.56263 1.67803 248 247 245
0.93505 -3.55852 1.66282 247 246 248
0.93581 -3.56933 1.68529 233 220 207
0.93328 -3.57776 1.69246 163 124 105
0.93512 -3.59109 1.69944 91 58 50
0.92610 -3.60488 1.69854 81 81 89
0.98083 -0.99980 0.02768 142 131 134
0.98252 -0.99251 0.02185 209 213 209
0.97687 -0.99645 0.01529 138 127 129
0.97348 -1.01101 0.02694 87 76 68
0.99791 -1.00745 0.01964 90 78 75
0.99051 -1.01875 0.01890 93 83 75
1.96534 -1.77613 -0.22575 47 32 53
1.95946 -1.77116 -0.24414 28 26 39
1.98160 -1.79154 -0.22832 75 68 54
1.97064 -1.80829 -0.22941 82 75 64
2.49213 -2.21237 -0.34832 45 34 35
2.48522 -2.20652 -0.36995 56 45 40
2.47930 -2.23196 -0.34960 29 18 22
2.49556 -2.22716 -0.34164 29 18 24
2.48272 -2.24678 -0.34292 17 10 23
2.48029 -2.34584 -0.25592 9 13 78
2.47334 -2.33997 -0.27765 6 7 46
2.47037 -2.35274 -0.26743 9 10 64
2.47643 -2.35830 -0.24523 37 35 108
2.47437 -2.37140 -0.23549 53 35 89
2.47046 -2.38383 -0.22478 49 21 32
2.46615 -2.39610 -0.21386 49 24 14
2.47309 -2.40197 -0.19215 31 20 29
2.46660 -2.41015 -0.20541 35 16 35
2.46873 -2.42486 -0.19782 13 7 66
2.46626 -2.43784 -0.18784 6 9 84
2.46681 -2.45200 -0.17940 42 46 109
2.48646 -2.47359 -0.18064 124 120 135
2.48829 -2.48836 -0.17277 156 143 141
2.48069 -2.49944 -0.16013 139 128 162
2.47912 -2.51289 -0.15053 87 84 172
2.47632 -2.52586 -0.14032 70 68 169
2.48740 -2.54447 -0.13700 181 161 166
2.47435 -2.56440 -0.13830 238 140 92
2.48017 -2.55568 -0.12456 240 141 110
2.47982 -2.56970 -0.11552 233 143 128
2.47707 -2.58273 -0.10530 150 135 194
2.46814 -2.59317 -0.09207 74 72 189
2.45668 -2.60249 -0.07764 63 77 213
2.44351 -2.61102 -0.06242 74 76 203
2.43593 -2.62189 -0.04993 83 60 194
2.41168 -2.62546 -0.02949 83 64 170
2.43515 -2.64983 -0.03186 187 162 166
2.41798 -2.65640 -0.01486 229 120 89
2.42491 -2.67363 -0.00928 242 184 133
2.43111 -2.69061 -0.00331 207 192 209
2.39509 -2.68848 0.02240 87 92 194
2.38417 -2.69760 0.03630 43 50 183
2.39019 -2.71447 0.04233 65 68 170
2.37732 -2.73413 0.04105 130 122 108
2.37715 -2.72254 0.05718 126 126 114
2.37181 -2.73416 0.06845 146 129 83
2.36082 -2.74308 0.08228 143 115 76
2.38181 -2.76717 0.08160 76 56 50
2.36892 -2.78685 0.08032 20 9 46
2.37895 -2.78000 0.09177 20 13 41
2.38151 -2.80969 0.10842 16 14 68
2.39144 -2.80277 0.11996 12 13 64
2.39168 -2.82896 0.11284 20 19 85
2.40256 -2.84866 0.11700 26 26 108
2.41002 -2.86678 0.12273 33 36 126
2.39698 -2.88669 0.12143 38 47 137
2.52465 -3.02857 0.13790 34 28 80
2.54029 -3.05188 0.14074 30 21 44
2.52672 -3.07260 0.13939 27 19 20
2.55542 -3.09028 0.15340 43 25 26
2.57707 -3.11721 0.15399 66 55 34
2.57732 -3.13268 0.16349 87 76 43
2.57779 -3.14830 0.17291 102 85 50
2.57754 -3.16354 0.18263 114 94 63
2.58495 -3.16982 0.20584 124 103 75
2.57436 -3.17719 0.19355 124 101 75
2.56377 -3.18456 0.18126 120 100 77
2.57395 -3.28542 0.26157 149 128 94
2.57714 -3.27170 0.25060 142 119 91
2.56330 -3.29283 0.24922 164 146 105
2.58132 -3.30534 0.26850 163 141 97
2.57493 -3.31721 0.28073 146 122 81
2.60690 -3.35189 0.27842 100 80 50
2.61037 -3.36977 0.28700 62 46 33
2.59636 -3.39116 0.28560 38 26 30
2.57082 -3.39319 0.33134 27 26 26
2.56333 -3.38686 0.30789 37 32 21
2.42450 -3.31898 0.39477 43 50 79
2.40198 -3.32025 0.41247 169 192 200
2.38864 -3.34061 0.41114 216 225 227
2.43599 -3.35657 0.40965 215 226 227
2.41438 -3.35832 0.42698 215 219 213
2.40172 -3.36557 0.44102 212 212 156
2.34779 -3.34655 0.46960 208 175 16
2.33460 -3.36669 0.46829 212 180 13
2.33692 -3.38465 0.50160 187 162 25
2.32981 -3.37864 0.47937 217 184 6
2.33156 -3.39621 0.51286 164 129 40
2.31838 -3.41633 0.51155 198 200 166
1.16299 -2.85678 1.05267 167 146 135
1.17221 -2.84269 1.05359 168 147 126
1.16512 -2.84763 1.04536 167 148 128
1.15802 -2.85257 1.03712 165 147 128
1.16241 -2.86706 1.05954 176 165 165
1.15086 -2.86919 1.06955 192 218 227
1.14356 -2.87442 1.07830 202 230 247
1.14229 -2.88415 1.08534 196 202 223
1.12514 -2.88186 1.09678 207 153 189
1.12469 -2.89217 1.10357 190 178 215
1.11968 -2.89900 1.11160 170 198 230
1.11057 -2.91292 1.11069 160 186 224
1.10959 -2.91252 1.12763 170 185 203
1.10049 -2.92641 1.12673 201 151 190
1.10069 -2.91624 1.13665 208 159 183
1.11224 -2.93591 1.14028 205 198 232
1.11005 -2.94489 1.14754 193 224 247
1.10184 -2.94910 1.15634 209 238 251
1.09730 -2.95618 1.16418 214 238 250
1.09520 -2.96519 1.17139 210 236 247
1.08277 -2.96590 1.18116 201 229 247
1.07547 -2.97065 1.18962 202 236 248
1.06643 -2.98445 1.18872 202 234 247
1.13245 -3.08234 1.21672 250 254 254
1.14174 -3.06816 1.21765 253 254 254
1.13459 -3.07313 1.20935 244 253 253
1.11435 -3.07818 1.22770 231 219 228
1.07430 -3.05536 1.24350 90 80 147
1.07542 -3.06711 1.25000 58 58 145
1.08712 -3.08787 1.25421 136 151 185
1.08408 -3.09615 1.26167 140 132 158
1.07032 -3.09520 1.27141 90 69 110
1.07912 -3.11366 1.27634 57 42 96
1.06853 -3.11535 1.28536 59 39 94
1.06852 -3.12622 1.29216 54 52 119
1.06874 -3.13730 1.29893 92 105 166
1.05746 -3.14915 1.31481 108 127 176
1.05213 -3.15529 1.32266 86 97 153
1.04691 -3.16151 1.33047 78 85 137
1.04168 -3.16770 1.33826 91 100 138
1.03258 -3.18122 1.35355 86 100 162
1.03420 -3.19358 1.36007 85 95 171
1.05260 -3.22136 1.36364 126 143 201
1.04565 -3.22596 1.37173 160 171 205
1.03446 -3.22659 1.38053 83 63 149
1.03611 -3.23909 1.38711 72 76 164
1.01876 -3.23386 1.39685 172 200 229
1.01260 -3.23899 1.40470 242 253 254
1.00356 -3.25278 1.40380 254 254 254
0.92653 -3.56030 1.67033 248 246 246
0.92168 -3.55620 1.65516 246 247 248
0.91848 -3.57377 1.68480 169 134 111
0.90949 -3.58749 1.68390 85 56 43
0.93758 -3.60652 1.69095 87 56 45
0.92852 -3.62037 1.69004 78 77 85
1.96270 -1.78337 -0.23897 31 26 48
1.95681 -1.77840 -0.25739 27 27 35
1.98181 -1.79956 -0.24331 65 59 56
2.45274 -2.20969 -0.34341 44 33 31
2.44588 -2.20389 -0.36487 53 43 38
2.44001 -2.22913 -0.34468 30 18 24
2.46892 -2.36607 -0.25801 19 12 55
2.46197 -2.36019 -0.27975 19 16 74
2.46557 -2.37871 -0.24759 55 39 31
2.46436 -2.39214 -0.23829 91 72 21
2.45146 -2.41183 -0.23957 124 93 34
2.46497 -2.40626 -0.22993 104 81 29
2.46815 -2.42137 -0.22290 74 56 57
2.46220 -2.43306 -0.21110 23 25 92
2.44928 -2.45278 -0.21239 18 30 124
2.46492 -2.44805 -0.20380 11 24 111
2.45199 -2.46781 -0.20509 16 30 139
2.45858 -2.45958 -0.19181 31 40 140
2.45430 -2.47188 -0.18090 59 64 164
2.44138 -2.49162 -0.18218 31 34 153
2.45315 -2.48541 -0.17158 36 51 155
2.45631 -2.50068 -0.16444 19 32 156
2.45917 -2.51586 -0.15712 26 41 161
2.46984 -2.53425 -0.15370 102 102 162
2.47939 -2.55229 -0.14967 216 165 132
2.47359 -2.57827 -0.12906 198 148 173
2.46223 -2.58770 -0.11458 75 71 186
2.46127 -2.60148 -0.10525 53 40 169
2.44440 -2.60848 -0.08813 67 47 187
2.43794 -2.61986 -0.07613 94 80 205
2.44014 -2.63498 -0.06836 156 120 203
2.43181 -2.64553 -0.05548 214 171 160
2.42273 -2.65570 -0.04226 230 123 109
2.41669 -2.66718 -0.03052 239 143 110
2.42690 -2.68595 -0.02653 222 201 197
2.39043 -2.68364 -0.00038 129 118 225
2.36878 -2.68787 0.01863 71 78 202
2.37252 -2.70366 0.02566 49 60 185
2.35968 -2.72326 0.02438 109 111 150
2.37401 -2.71845 0.03377 78 90 168
2.36098 -2.74058 0.05743 152 129 80
2.35133 -2.75011 0.07068 141 111 69
2.36657 -2.77152 0.07253 71 43 44
2.35370 -2.79117 0.07125 21 10 53
2.37534 -2.80419 0.08629 13 12 63
2.37708 -2.81931 0.09442 18 17 81
2.38642 -2.83822 0.09916 24 25 104
2.39772 -2.85820 0.10309 32 36 126
2.38469 -2.87809 0.10179 45 57 151
2.39805 -2.87279 0.11194 39 46 140
2.50033 -3.01347 0.12242 42 38 106
2.51378 -2.99293 0.12376 32 35 91
2.50343 -3.00014 0.11175 36 39 104
2.49308 -3.00734 0.09975 39 42 118
2.48998 -3.02067 0.11041 46 47 122
2.50840 -3.03270 0.12833 39 35 93
2.53159 -3.06008 0.12788 32 26 54
2.54704 -3.09873 0.14033 33 19 19
2.53654 -3.10604 0.12813 22 17 12
2.55208 -3.11672 0.14774 54 45 29
2.57679 -3.14555 0.14706 79 73 31
2.57767 -3.16144 0.15631 96 86 50
2.57774 -3.17692 0.16592 109 91 67
2.56721 -3.27953 0.23795 152 129 95
2.58105 -3.25840 0.23934 142 119 89
2.57040 -3.26581 0.22697 146 118 85
2.55656 -3.28695 0.22559 162 147 86
2.56936 -3.31202 0.25661 164 143 101
2.56492 -3.32503 0.26809 130 108 72
2.60750 -3.36618 0.26158 82 66 48
2.60340 -3.37957 0.27304 52 37 42
2.58938 -3.40098 0.27164 38 31 22
2.55181 -3.39553 0.32203 36 30 31
2.44951 -3.34801 0.36972 48 57 85
2.42303 -3.34688 0.38904 174 198 207
2.40958 -3.36742 0.38770 215 223 226
2.40614 -3.36681 0.41425 214 218 214
2.37560 -3.36269 0.43478 213 210 162
2.33508 -3.35198 0.45874 211 179 36
2.33221 -3.39525 0.48793 191 156 11
2.33152 -3.40988 0.49758 164 132 44
2.31830 -3.43006 0.49626 200 200 165
1.14812 -2.85596 1.04672 167 151 144
1.14545 -2.86466 1.05417 194 191 188
1.13422 -2.86695 1.06410 222 239 248
1.12506 -2.88094 1.06318 249 253 253
1.13056 -2.87486 1.07181 231 244 249
1.13146 -2.88621 1.07821 217 212 220
1.11812 -2.88675 1.08864 208 149 182
1.11562 -2.89549 1.09599 196 191 222
1.10962 -2.90153 1.10429 178 202 225
1.10051 -2.91544 1.10339 194 175 207
1.09940 -2.91491 1.12037 175 197 220
1.09241 -2.91978 1.11226 200 169 203
1.09283 -2.93105 1.13542 204 173 203
1.09111 -2.94034 1.14252 201 229 246
1.08203 -2.95421 1.14162 247 254 254
1.08180 -2.94360 1.15160 240 253 254
1.07274 -2.95743 1.15070 254 254 254
1.07753 -2.95084 1.15934 254 254 253
1.07122 -2.95640 1.16759 241 239 246
1.05384 -2.95299 1.17861 197 194 230
1.06027 -2.96879 1.18361 194 218 238
1.05127 -2.98254 1.18271 198 235 250
1.11035 -3.06385 1.20508 223 245 249
1.11958 -3.04977 1.20600 236 249 251
1.11248 -3.05471 1.19776 214 241 247
1.10538 -3.05965 1.18952 203 237 246
1.10325 -3.06880 1.19684 207 239 248
1.11509 -3.07875 1.21080 236 252 248
1.09242 -3.07062 1.22287 176 171 209
1.06011 -3.05414 1.23701 91 72 138
1.05104 -3.06798 1.23611 80 93 153
1.05886 -3.06384 1.24401 64 70 146
1.07305 -3.08676 1.24759 107 134 186
1.02551 -3.05674 1.26480 173 195 218
1.02076 -3.06329 1.27249 191 192 198
1.01181 -3.07696 1.27160 192 209 229
1.04912 -3.09861 1.27308 169 167 172
1.04803 -3.10846 1.28006 160 156 159
1.03834 -3.11078 1.28884 158 172 171
1.04985 -3.13174 1.29321 157 172 181
1.05229 -3.14476 1.29950 101 105 153
1.04149 -3.14604 1.30847 73 80 140
1.03839 -3.15413 1.31586 59 68 135
1.02608 -3.15393 1.32505 106 123 165
1.01850 -3.15791 1.33327 144 155 179
1.01433 -3.16494 1.34081 124 126 156
1.01657 -3.17781 1.34715 114 120 163
1.00755 -3.19158 1.34625 77 70 130
1.01800 -3.18997 1.35366 83 82 151
1.02023 -3.20290 1.36005 93 106 164
1.03151 -3.22425 1.36485 108 124 167
1.02198 -3.22635 1.37337 54 47 139
1.03180 -3.24649 1.37851 95 103 192
1.00353 -3.23092 1.39018 198 218 244
1.00183 -3.24022 1.39727 247 254 254
0.99281 -3.25400 1.39637 254 254 254
0.90986 -3.55424 1.66287 248 248 245
0.90503 -3.55016 1.64776 247 248 248
0.91232 -3.56820 1.66972 236 226 208
0.90838 -3.57499 1.67694 171 141 110
0.89941 -3.58869 1.67605 84 57 41
1.96481 -1.79182 -0.25512 31 26 42
1.95891 -1.78682 -0.27360 27 25 34
1.95638 -1.79769 -0.26491 29 24 39
1.97026 -1.80467 -0.25126 50 43 58
1.97939 -1.81852 -0.24959 77 70 61
1.98533 -1.82354 -0.23100 85 76 68
1.97685 -1.82945 -0.24085 85 72 63
1.96837 -1.83535 -0.25069 84 70 62
2.45441 -2.37130 -0.26707 36 17 57
2.44747 -2.36543 -0.28878 23 20 82
2.44450 -2.37819 -0.27857 47 27 60
2.45198 -2.38426 -0.25714 72 49 25
2.44967 -2.39727 -0.24728 106 84 14
2.43679 -2.41694 -0.24856 120 88 35
2.45078 -2.42548 -0.23055 91 69 71
2.44085 -2.43239 -0.24207 99 76 65
2.44829 -2.43846 -0.22056 33 34 104
2.44080 -2.47740 -0.19059 19 29 152
2.44183 -2.50580 -0.17369 40 33 153
2.44522 -2.52120 -0.16668 75 62 157
2.45825 -2.54058 -0.16452 179 145 145
2.45447 -2.55315 -0.15381 230 122 88
2.45297 -2.56667 -0.14425 223 141 90
2.45559 -2.58193 -0.13674 156 101 170
2.45357 -2.59526 -0.12689 118 69 181
2.44413 -2.60543 -0.11336 153 117 182
2.43112 -2.62530 -0.11466 238 131 75
2.44647 -2.62063 -0.10568 200 166 173
2.43892 -2.63157 -0.09311 233 165 161
2.42361 -2.63908 -0.07677 241 137 106
2.41375 -2.64891 -0.06313 240 134 74
2.39654 -2.65542 -0.04597 222 121 80
2.41615 -2.67834 -0.04662 215 191 172
2.38720 -2.67946 -0.02387 140 123 209
2.35203 -2.67754 0.00173 63 57 196
2.35118 -2.69118 0.01087 75 75 194
2.33840 -2.71070 0.00959 131 125 188
2.35619 -2.70754 0.01725 85 99 194
2.35095 -2.73326 0.03726 145 132 108
2.35291 -2.74830 0.04514 167 145 93
2.34217 -2.75730 0.05893 129 109 64
2.36489 -2.78238 0.05725 57 36 35
2.36566 -2.81124 0.07464 19 15 83
2.37437 -2.82981 0.07958 23 25 103
2.37909 -2.84649 0.08638 30 37 124
2.36611 -2.86632 0.08508 48 56 154
2.38544 -2.86405 0.09248 40 47 143
2.37242 -2.88392 0.09118 49 56 151
2.38915 -2.89480 0.10881 39 51 135
2.38614 -2.90773 0.11916 30 38 113
2.37610 -2.91472 0.10750 31 37 109
2.49206 -3.03676 0.11885 42 41 99
2.48481 -3.03062 0.09614 42 47 133
2.51586 -3.06452 0.11802 35 30 56
2.53590 -3.09047 0.11891 28 21 29
2.54052 -3.12348 0.13596 41 31 26
2.56250 -3.15089 0.13630 67 60 36
2.57171 -3.17141 0.14206 85 78 48
2.57257 -3.18735 0.15135 100 87 58
2.56762 -3.20006 0.16303 114 97 69
2.57507 -3.20636 0.18633 129 109 77
2.56444 -3.21376 0.17399 124 108 73
2.55391 -3.25428 0.20726 145 120 83
2.56772 -3.23319 0.20863 140 119 73
2.55710 -3.24059 0.19630 138 118 74
2.56454 -3.24688 0.21959 143 119 76
2.54010 -3.27537 0.20588 155 145 107
2.55562 -3.27082 0.21626 152 132 90
2.55701 -3.30282 0.23514 161 143 88
2.55466 -3.31706 0.24580 145 124 89
2.56715 -3.34017 0.25069 111 93 65
2.59541 -3.37291 0.24956 68 55 45
2.58789 -3.38422 0.26233 40 34 39
2.55421 -3.39528 0.29487 45 37 19
2.52186 -3.39106 0.31689 54 52 39
2.49939 -3.39275 0.33507 72 89 101
2.43230 -3.36637 0.36973 182 204 214
2.41879 -3.38701 0.36839 214 221 224
2.40841 -3.38197 0.39766 212 218 218
2.39806 -3.38918 0.38564 211 217 220
2.38991 -3.38549 0.41394 210 210 181
2.32091 -3.35646 0.44842 209 185 75
2.31887 -3.37015 0.45851 209 185 25
2.31341 -3.38164 0.46983 212 183 20
2.32245 -3.40258 0.47599 199 165 16
1.13702 -2.84721 1.03307 167 145 125
1.14619 -2.83321 1.03398 166 148 125
1.13913 -2.83812 1.02579 168 147 121
1.13207 -2.84304 1.01760 170 146 125
1.12996 -2.85213 1.02488 169 146 132
1.13452 -2.85602 1.04046 172 162 168
1.13016 -2.86343 1.04839 204 221 232
1.12652 -2.87136 1.05611 241 250 254
1.11427 -2.88341 1.07294 237 244 242
1.10736 -2.88878 1.08155 217 201 210
1.10331 -2.89631 1.08933 209 150 181
1.09935 -2.90389 1.09707 207 171 193
1.08549 -2.92499 1.12077 208 152 203
1.08083 -2.93194 1.12866 193 193 234
1.06911 -2.93327 1.13841 216 239 249
1.05900 -2.95698 1.16089 238 233 240
1.05106 -2.96115 1.16953 186 178 210
1.05097 -2.97168 1.17617 188 219 244
1.04197 -2.98542 1.17527 197 234 249
1.08996 -3.06853 1.20680 218 244 245
1.08501 -3.06435 1.19132 202 236 249
1.05217 -3.04742 1.22244 128 126 205
1.05077 -3.05699 1.22946 85 82 154
1.03985 -3.06914 1.24536 67 93 167
1.04034 -3.08031 1.25195 110 143 201
1.01388 -3.08946 1.27781 201 210 213
1.03354 -3.12834 1.28705 103 114 148
1.03022 -3.13622 1.29449 75 84 131
1.02876 -3.14575 1.30154 65 74 119
1.02911 -3.15692 1.30823 44 61 119
1.00384 -3.14493 1.32001 85 106 165
1.00322 -3.15515 1.32685 137 162 194
0.99395 -3.15747 1.33536 146 151 167
1.00494 -3.17833 1.33999 108 98 137
1.01077 -3.20543 1.35243 92 107 140
1.01417 -3.21950 1.35860 81 96 131
1.00357 -3.22052 1.36731 35 42 134
1.01645 -3.24354 1.37184 111 127 202
0.99274 -3.23212 1.38279 215 229 248
0.98373 -3.24586 1.38189 253 254 254
0.99121 -3.24156 1.38984 250 254 254
0.98221 -3.25531 1.38894 254 254 254
0.89871 -3.55426 1.65513 248 248 244
0.89389 -3.55018 1.64005 248 248 249
0.89623 -3.56265 1.66225 235 227 206
0.88554 -3.56175 1.66983 169 141 107
0.87663 -3.57536 1.66894 83 52 39
0.99222 -1.04193 0.00510 81 76 69
0.99967 -1.03055 0.00585 93 85 77
0.99393 -1.03454 -0.00081 91 86 74
0.99795 -1.03794 0.01176 89 84 74
0.98648 -1.04592 -0.00155 69 58 60
0.98476 -1.05331 0.00436 57 43 52
1.96864 -1.81228 -0.26524 31 28 56
1.96271 -1.80727 -0.28381 27 24 37
1.97702 -1.82598 -0.26315 71 62 55
2.43927 -2.39012 -0.26714 79 55 28
2.43233 -2.38425 -0.28884 45 21 38
2.43762 -2.40337 -0.25764 103 79 21
2.42475 -2.42303 -0.25892 118 89 31
2.43413 -2.44374 -0.22986 51 44 105
2.42718 -2.43787 -0.25159 107 85 53
2.43435 -2.45776 -0.22131 33 32 130
2.42788 -2.46918 -0.20925 33 39 142
2.41500 -2.48886 -0.21053 50 53 151
2.42593 -2.48236 -0.19955 41 43 151
2.42738 -2.49691 -0.19162 42 43 154
2.42754 -2.51097 -0.18300 60 53 160
2.41462 -2.53070 -0.18429 202 156 136
2.42453 -2.52377 -0.17273 148 115 162
2.43969 -2.54403 -0.17176 221 142 123
2.43235 -2.55510 -0.15926 234 124 96
2.44678 -2.57524 -0.15780 225 170 184
2.43376 -2.59513 -0.15910 236 115 76
2.43775 -2.58561 -0.14443 211 165 181
2.42475 -2.60546 -0.14573 228 118 89
2.43789 -2.59983 -0.13569 232 159 141
2.43347 -2.61212 -0.12466 240 127 74
2.41703 -2.63335 -0.09884 229 130 86
2.40631 -2.64281 -0.08474 216 134 110
2.39934 -2.65387 -0.07251 191 154 158
2.37103 -2.66942 -0.04112 136 104 190
2.32641 -2.66318 -0.01076 54 42 199
2.33234 -2.67986 -0.00494 64 80 193
2.33997 -2.69739 0.00011 102 108 184
2.33642 -2.72384 0.01927 155 131 124
2.33785 -2.73859 0.02735 165 143 103
2.33804 -2.75279 0.03603 156 134 95
2.33446 -2.76519 0.04649 77 74 48
2.35387 -2.78875 0.04625 27 21 45
2.35482 -2.80345 0.05465 27 15 78
2.35995 -2.82024 0.06116 32 24 109
2.36698 -2.83804 0.06683 33 37 130
2.37106 -2.85443 0.07389 39 50 144
2.35807 -2.87427 0.07259 46 60 161
2.47500 -3.04038 0.10974 39 38 90
2.46465 -3.04758 0.09774 36 36 79
2.46156 -3.06091 0.10840 37 37 84
2.49823 -3.06790 0.10902 35 31 72
2.51788 -3.09368 0.10997 31 28 51
2.52881 -3.11487 0.11475 21 22 28
2.53874 -3.13562 0.12003 33 27 32
2.54607 -3.15502 0.12648 51 38 43
2.55105 -3.17320 0.13395 76 57 46
2.55770 -3.19238 0.14077 91 75 48
2.56141 -3.20996 0.14886 103 91 57
2.55740 -3.22320 0.16017 110 104 74
2.56485 -3.22950 0.18349 133 115 73
2.55421 -3.23691 0.17114 119 112 77
2.54503 -3.24715 0.18456 129 115 74
2.54569 -3.26307 0.19395 142 131 89
2.53187 -3.28418 0.19257 135 110 100
2.54570 -3.29424 0.21331 153 138 95
2.54430 -3.30902 0.22358 146 124 82
2.54292 -3.32383 0.23385 134 111 81
2.56109 -3.35042 0.23644 97 79 62
2.58116 -3.37833 0.23838 51 42 43
2.57897 -3.39285 0.24910 33 31 42
2.55352 -3.39311 0.26879 46 39 43
2.49221 -3.37105 0.30212 68 65 64
2.50641 -3.39546 0.30640 96 98 97
2.48892 -3.40018 0.32275 124 133 147
2.43070 -3.37914 0.35436 194 208 223
2.41715 -3.39983 0.35301 212 218 224
2.38158 -3.39393 0.40125 209 216 211
2.37435 -3.38782 0.37864 210 215 222
2.37126 -3.40112 0.38927 210 214 220
2.36817 -3.41441 0.39991 211 216 222
2.34445 -3.38525 0.42434 210 214 185
2.32241 -3.38609 0.44178 209 210 167
2.31285 -3.39494 0.45462 209 204 154
1.12378 -2.85818 1.03338 161 146 159
1.12000 -2.86600 1.04114 156 172 213
1.11607 -2.87369 1.04894 212 241 253
1.11248 -2.88163 1.05663 238 253 254
1.10732 -2.88835 1.06477 245 253 253
1.10912 -2.90040 1.07088 245 249 245
1.10225 -2.90579 1.07950 228 235 231
1.08037 -2.91005 1.09894 214 199 221
1.07131 -2.92388 1.09804 222 246 248
1.07556 -2.91689 1.10689 208 200 224
1.06652 -2.93071 1.10598 218 246 252
1.06625 -2.92014 1.11606 205 216 236
1.05722 -2.93393 1.11516 209 242 251
1.06051 -2.92618 1.12422 197 225 246
1.05150 -2.93994 1.12332 208 236 248
1.05699 -2.93396 1.13175 225 243 247
1.04798 -2.94771 1.13086 209 234 247
1.05234 -2.94083 1.13958 240 252 254
1.04335 -2.95456 1.13869 222 238 246
1.04778 -2.94773 1.14738 246 254 254
1.04058 -2.95248 1.15586 228 231 239
1.04415 -2.96597 1.16151 183 184 208
1.03411 -2.96834 1.17069 189 222 247
1.02515 -2.98202 1.16979 196 232 247
1.05333 -3.04841 1.20572 204 231 246
1.04844 -3.04428 1.19041 200 233 248
1.04635 -3.05327 1.19761 201 231 249
1.04520 -3.05227 1.21436 125 137 208
1.03598 -3.05514 1.22322 94 88 150
1.03702 -3.06678 1.22965 88 79 151
1.03494 -3.07574 1.23682 76 77 153
1.00535 -3.07146 1.25687 85 117 180
1.02241 -3.09711 1.25972 124 160 219
1.01340 -3.11088 1.25882 88 104 168
1.01412 -3.10057 1.26824 150 177 218
1.02140 -3.12858 1.28007 82 93 120
1.02259 -3.14047 1.28654 78 78 117
1.02051 -3.14944 1.29372 73 70 111
1.01257 -3.15311 1.30210 70 74 113
1.00354 -3.16690 1.30120 123 137 165
0.97742 -3.13200 1.31595 107 119 149
0.98655 -3.15104 1.32078 136 149 168
0.98379 -3.15927 1.32801 138 141 159
0.98389 -3.17013 1.33468 111 117 144
0.98836 -3.18506 1.34053 87 98 139
0.97939 -3.19877 1.33964 63 67 142
0.99140 -3.19871 1.34669 75 85 137
0.98241 -3.21245 1.34579 59 58 133
0.99153 -3.20969 1.35342 65 69 127
0.98849 -3.21770 1.36073 31 37 137
0.99608 -3.23576 1.36613 125 142 208
0.98628 -3.23738 1.37467 228 237 249
0.97727 -3.25113 1.37377 254 254 254
0.89325 -3.56065 1.64705 248 248 245
0.88842 -3.55658 1.63196 246 248 250
0.88636 -3.56545 1.63906 247 248 247
0.87232 -3.54815 1.65534 235 226 209
0.87172 -3.55860 1.66229 166 134 107
0.86284 -3.57217 1.66141 81 47 37
1.96303 -1.81891 -0.27683 26 23 49
1.95709 -1.81388 -0.29541 23 24 36
1.95455 -1.82481 -0.28667 26 23 45
1.96910 -1.83205 -0.27337 54 49 52
1.97373 -1.84487 -0.26899 77 71 55
1.97969 -1.84992 -0.25032 86 73 66
1.97117 -1.85585 -0.26021 85 72 66
1.96266 -1.86177 -0.27009 85 72 65
2.47413 -2.31609 -0.36344 11 13 53
2.48707 -2.29632 -0.36215 10 10 43
2.46715 -2.31019 -0.38527 5 5 18
2.48409 -2.30915 -0.35187 12 11 56
2.48111 -2.32199 -0.34160 11 10 59
2.47114 -2.32892 -0.35317 14 18 72
2.43742 -2.40002 -0.28299 75 53 14
2.43047 -2.39415 -0.30473 57 43 46
2.43016 -2.41119 -0.27045 102 81 23
2.41728 -2.43086 -0.27173 112 88 33
2.41866 -2.44849 -0.23841 73 63 100
2.41172 -2.44262 -0.26012 114 92 57
2.40876 -2.45538 -0.24991 86 76 105
2.40579 -2.46814 -0.23970 57 59 141
2.41610 -2.46141 -0.22842 53 50 134
2.40323 -2.48107 -0.22971 52 61 151
2.41156 -2.47355 -0.21738 50 56 145
2.41152 -2.50143 -0.20004 51 56 151
2.40380 -2.51228 -0.18735 102 108 155
2.41862 -2.54640 -0.17764 227 115 62
2.41411 -2.55859 -0.16659 232 110 72
2.41176 -2.57168 -0.15665 235 114 101
2.41323 -2.61467 -0.13111 218 128 100
2.40623 -2.60875 -0.15299 182 154 163
2.41229 -2.62842 -0.12185 208 150 151
2.41030 -2.64173 -0.11205 183 153 161
2.38865 -2.64633 -0.09247 150 132 159
2.37188 -2.65296 -0.07539 81 93 180
2.36164 -2.66245 -0.06159 56 86 203
2.36223 -2.67680 -0.05314 103 124 196
2.32244 -2.67266 -0.02495 74 81 194
2.31616 -2.68374 -0.01322 64 84 186
2.30761 -2.69373 -0.00041 61 68 166
2.31678 -2.71202 0.00384 113 105 145
2.32538 -2.73012 0.00843 160 141 116
2.32746 -2.74520 0.01617 168 156 112
2.30722 -2.74957 0.03453 102 89 92
2.33812 -2.77861 0.02867 38 22 46
2.34105 -2.79424 0.03610 34 23 57
2.33281 -2.80442 0.04878 47 58 106
2.34388 -2.82413 0.05245 48 61 136
2.35485 -2.84390 0.05624 44 53 151
2.34189 -2.86369 0.05495 48 63 176
2.35914 -2.86042 0.06317 44 57 161
2.34616 -2.88025 0.06188 46 62 165
2.52610 -3.12648 0.09919 35 35 48
2.53918 -3.14905 0.10308 45 40 36
2.55022 -3.17060 0.10792 65 69 47
2.55273 -3.18747 0.11644 96 100 85
2.55119 -3.20210 0.12671 103 105 83
2.54968 -3.21675 0.13697 106 111 73
2.54831 -3.23150 0.14718 98 99 85
2.54303 -3.24400 0.15902 105 101 78
2.53657 -3.25581 0.17133 115 95 55
2.53328 -3.26944 0.18233 130 103 74
2.53676 -3.30267 0.20026 129 113 98
2.53798 -3.31903 0.20947 122 110 85
2.54479 -3.33879 0.21647 109 98 74
2.56750 -3.36825 0.21719 81 62 45
2.56949 -3.38529 0.22623 55 34 30
2.55971 -3.39516 0.23991 63 59 60
2.52660 -3.39058 0.26266 105 107 98
2.49663 -3.38772 0.28405 138 141 119
2.48285 -3.40877 0.28267 145 147 141
2.48728 -3.39752 0.29736 142 145 125
2.47549 -3.40574 0.31158 145 152 154
2.42658 -3.39039 0.33986 198 210 218
2.41301 -3.41112 0.33851 211 218 222
2.30156 -3.38620 0.43390 212 216 225
2.29446 -3.38019 0.41167 211 214 220
2.29142 -3.39326 0.42213 213 214 222
2.28838 -3.40633 0.43258 211 214 216
1.11724 -2.85280 1.01843 167 144 129
1.11934 -2.84373 1.01118 168 147 127
1.11230 -2.84863 1.00300 167 146 124
1.11019 -2.85770 1.01026 167 144 124
1.11502 -2.86179 1.02573 143 119 123
1.11074 -2.86922 1.03364 83 84 133
1.10958 -2.87900 1.04061 134 171 203
1.09964 -2.88208 1.05020 172 191 235
1.09065 -2.88582 1.05947 188 211 250
1.10055 -2.90412 1.06317 202 223 252
1.09521 -2.91065 1.07136 209 235 253
1.07338 -2.91488 1.09086 222 245 246
1.02526 -2.95041 1.15009 217 229 243
1.01633 -2.96406 1.14920 204 237 250
1.02130 -2.95771 1.15768 199 215 233
1.01237 -2.97135 1.15679 201 237 251
1.01802 -2.96555 1.16508 197 231 248
1.00910 -2.97918 1.16419 200 233 249
1.01595 -3.03805 1.21166 191 212 236
1.01112 -3.03396 1.19653 199 231 247
1.00909 -3.04282 1.21993 176 187 203
1.03300 -3.07415 1.22089 145 153 183
1.01674 -3.07081 1.23138 133 140 179
1.01467 -3.07973 1.23852 128 137 178
0.99779 -3.07565 1.24903 103 111 172
0.99788 -3.08642 1.25564 74 94 164
1.01165 -3.12011 1.26590 106 112 158
0.99576 -3.12743 1.28273 118 124 142
0.98635 -3.12968 1.29140 121 128 153
0.97067 -3.12618 1.30134 124 134 156
0.96883 -3.14588 1.31500 120 129 171
0.96787 -3.15572 1.32184 107 120 164
0.96936 -3.16783 1.32820 93 95 148
0.97860 -3.18721 1.33308 77 76 147
0.97769 -3.21887 1.35342 32 41 139
0.98913 -3.24060 1.35806 130 157 208
0.97580 -3.23882 1.36727 231 243 250
0.96681 -3.25255 1.36637 252 254 254
0.86185 -3.54877 1.64765 233 223 210
0.85707 -3.54473 1.63271 247 247 246
0.85539 -3.55251 1.65496 163 127 107
0.84655 -3.56601 1.65408 78 47 33
1.96290 -1.83856 -0.28465 35 33 49
1.95695 -1.83353 -0.30329 25 24 43
1.96813 -1.85157 -0.28067 72 66 46
2.47742 -2.32769 -0.38244 5 8 42
2.47042 -2.32177 -0.40434 3 3 9
2.47177 -2.33962 -0.37064 11 16 71
2.47876 -2.34554 -0.34875 13 16 79
2.46877 -2.35249 -0.36034 15 22 87
2.43307 -2.40903 -0.29754 80 61 21
2.42611 -2.40314 -0.31931 57 43 43
2.42001 -2.41800 -0.28182 98 79 23
2.40714 -2.43766 -0.28311 110 92 32
2.38998 -2.48969 -0.21405 54 56 158
2.38096 -2.49996 -0.20067 100 95 166
2.39385 -2.51916 -0.19882 187 154 145
2.38098 -2.53881 -0.20010 190 153 137
2.38654 -2.53012 -0.18634 221 129 77
2.37368 -2.54975 -0.18762 176 147 138
2.39208 -2.54641 -0.18057 222 111 53
2.39975 -2.56367 -0.17586 215 107 72
2.40837 -2.58140 -0.17159 206 131 124
2.40486 -2.59402 -0.16104 193 161 142
2.40264 -2.62135 -0.14239 145 135 194
2.39416 -2.63180 -0.12932 120 97 189
2.34992 -2.62637 -0.09824 46 40 184
2.36809 -2.64850 -0.09868 74 106 187
2.34333 -2.65146 -0.07757 99 89 169
2.35402 -2.67036 -0.07419 99 114 200
2.34116 -2.68999 -0.07547 45 59 176
2.31724 -2.66762 -0.04725 61 70 182
2.30450 -2.68708 -0.04852 48 55 162
2.30664 -2.67671 -0.03337 44 59 182
2.29947 -2.68734 -0.02120 57 67 167
2.29955 -2.70135 -0.01259 103 93 138
2.30243 -2.71670 -0.00533 141 119 117
2.30549 -2.73218 0.00187 166 149 111
2.31330 -2.74998 0.00681 131 105 93
2.30743 -2.76125 0.01835 56 28 69
2.31300 -2.77807 0.02443 31 33 64
2.31210 -2.79178 0.03362 57 77 105
2.32905 -2.81435 0.03440 79 74 131
2.33541 -2.83178 0.04024 67 58 155
2.34595 -2.85139 0.04417 51 59 175
2.51148 -3.13155 0.08875 40 45 64
2.52632 -3.15514 0.09179 45 47 48
2.53361 -3.17463 0.09818 86 87 81
2.53302 -3.18974 0.10800 111 114 95
2.53312 -3.20527 0.11754 132 132 103
2.54314 -3.22650 0.12289 149 148 126
2.53532 -3.23755 0.13582 153 150 133
2.51895 -3.24360 0.15231 152 152 131
2.53073 -3.26601 0.15700 140 135 104
2.53118 -3.28186 0.16647 137 138 106
2.52389 -3.29315 0.17914 138 138 114
2.52608 -3.31007 0.18791 120 115 88
2.54993 -3.34004 0.18790 96 87 67
2.54785 -3.35455 0.19850 84 77 69
2.54548 -3.36889 0.20922 81 77 63
2.53600 -3.37888 0.22279 96 97 74
2.52191 -3.38598 0.23815 132 141 113
2.50803 -3.40719 0.23676 158 163 152
2.51443 -3.39709 0.25086 153 162 136
2.50056 -3.41828 0.24947 148 156 148
2.48498 -3.39445 0.27215 153 161 138
2.45998 -3.40997 0.30123 148 157 164
2.42579 -3.40381 0.32403 198 212 213
2.41219 -3.42459 0.32267 212 219 223
1.10627 -2.86540 1.01809 149 125 117
1.10496 -2.87508 1.02509 96 90 120
1.09479 -2.87798 1.03481 115 152 174
1.08568 -2.89190 1.03390 122 140 169
1.08832 -2.88365 1.04336 112 139 182
1.07922 -2.89755 1.04245 112 138 166
1.08271 -2.88996 1.05163 103 137 185
1.07362 -2.90384 1.05073 114 138 164
1.07305 -2.89309 1.06109 103 141 185
1.06287 -2.89574 1.07066 111 145 190
1.05070 -2.89676 1.08077 124 154 199
1.04178 -2.90027 1.08988 145 170 212
1.05286 -2.91961 1.09324 164 190 233
1.04700 -2.92553 1.10146 182 210 251
1.04056 -2.93095 1.10983 191 222 253
1.03381 -2.93608 1.11826 196 228 250
1.02877 -2.94256 1.12620 201 239 249
1.02605 -2.95091 1.13349 204 242 250
