ply
format ascii 1.0
element face 0
property list uchar int vertex_indices
element vertex 1301
property float x
property float y
property float z
property uchar diffuse_red
property uchar diffuse_green
property uchar diffuse_blue
end_header
-0.19689 -4.36085 0.72390 112 117 113
-0.17972 -4.35132 0.73706 123 120 116
-0.18267 -4.35275 0.72064 120 122 118
-0.21274 -4.36400 0.72829 106 113 104
-0.22613 -4.37458 0.73099 115 121 115
-0.24330 -4.38410 0.71784 121 126 128
-0.67892 -4.56797 0.84321 103 110 102
-0.66780 -4.56139 0.82378 96 107 120
-0.68184 -4.56938 0.82700 102 117 104
-0.69587 -4.57738 0.83022 113 116 90
-0.69526 -4.56494 0.84855 106 114 96
-0.72600 -4.56731 0.85755 98 102 85
-0.73706 -4.57386 0.87688 91 105 91
-0.73996 -4.57526 0.86076 98 101 86
-0.74286 -4.57666 0.84464 98 103 103
-0.76682 -4.59673 0.86613 91 98 84
-0.74993 -4.58736 0.87906 93 93 82
-0.75574 -4.59017 0.84678 101 103 103
-0.76972 -4.59813 0.84999 112 109 106
-0.77789 -4.60329 0.88547 92 99 92
-0.78079 -4.60469 0.86933 95 101 76
-0.90459 -4.68899 0.89597 100 105 95
-0.89058 -4.68101 0.89275 99 99 94
-0.89349 -4.68241 0.87657 98 99 101
-0.90168 -4.68758 0.91215 91 98 84
-0.90751 -4.69039 0.87979 98 101 96
-0.91861 -4.69697 0.89919 108 114 100
-0.93204 -4.70882 0.90173 92 96 90
-0.92912 -4.70741 0.91792 95 101 85
-0.94315 -4.71540 0.92114 94 95 90
-0.94607 -4.71681 0.90495 89 92 91
2.43537 -2.64133 0.13176 111 105 142
2.44899 -2.63357 0.12863 60 65 150
2.44616 -2.63494 0.11291 47 61 169
2.41129 -2.64225 0.13897 147 143 136
2.39488 -2.65135 0.12640 135 129 138
2.40758 -2.65648 0.13822 148 138 97
2.39429 -2.68128 0.13900 127 104 64
2.37341 -2.68423 0.14497 131 110 71
2.35694 -2.69337 0.13235 133 109 61
2.35323 -2.68759 0.15068 133 110 79
2.34469 -2.69879 0.15180 133 102 71
2.34664 -2.71719 0.14877 111 83 42
2.34942 -2.73631 0.14540 60 47 45
2.33646 -2.79723 0.14131 37 36 96
2.34746 -2.79071 0.12208 36 32 81
2.33224 -2.81200 0.14064 42 43 118
2.33338 -2.83068 0.13783 47 48 130
2.32231 -2.83724 0.15717 47 46 125
2.31940 -2.83864 0.14103 50 51 131
2.31650 -2.84005 0.12489 53 57 140
2.45242 -3.14703 0.05977 59 58 106
2.46433 -3.13998 0.03897 52 53 106
2.44930 -3.14854 0.04242 53 52 104
2.43427 -3.15710 0.04586 52 50 105
2.40652 -3.15180 0.07313 66 66 115
2.38468 -3.15493 0.07937 73 73 124
2.37723 -3.16937 0.07973 86 86 131
2.34629 -3.16520 0.08971 106 106 133
2.35630 -3.19363 0.08290 123 123 139
2.34616 -3.20610 0.08434 144 140 145
2.33426 -3.21315 0.10514 157 149 139
2.33121 -3.21472 0.08777 153 147 142
2.31930 -3.22177 0.10856 156 146 142
2.31582 -3.22298 0.09136 153 152 145
2.30392 -3.23003 0.11216 160 152 151
2.30080 -3.23154 0.09481 160 159 158
2.20070 -3.23207 0.12524 153 158 157
2.19761 -3.23356 0.10807 154 160 162
2.14872 -3.31550 0.13006 144 143 146
2.13058 -3.32556 0.11617 160 159 163
2.13467 -3.32490 0.13310 156 154 160
2.11614 -3.33034 0.13803 152 151 153
2.10113 -3.33889 0.14148 146 133 148
2.09801 -3.34039 0.12415 158 142 134
1.92016 -3.39486 0.18923 150 146 136
1.90219 -3.40483 0.17547 167 158 160
1.89934 -3.42045 0.19219 155 149 157
1.89624 -3.42195 0.17497 150 153 157
1.88133 -3.43044 0.17840 152 158 150
1.88327 -3.42782 0.19612 143 142 139
1.86526 -3.43781 0.18232 159 155 155
1.86318 -3.43124 0.20179 156 161 161
1.82698 -3.44181 0.21142 164 169 166
1.80903 -3.45177 0.19768 142 139 155
1.80717 -3.44533 0.21699 148 155 148
1.75348 -3.46132 0.23124 152 161 158
1.76520 -3.45438 0.21076 135 144 157
1.73560 -3.47124 0.21755 160 169 168
1.72540 -3.47975 0.23737 162 166 162
1.70751 -3.48967 0.22367 142 140 146
1.71479 -3.49257 0.23891 151 151 156
1.53596 -3.54288 0.28676 172 168 153
1.55370 -3.53304 0.30034 155 156 155
1.55065 -3.53451 0.28339 166 170 158
1.51823 -3.55271 0.27317 156 152 161
1.52641 -3.55700 0.28780 163 156 156
1.51758 -3.57204 0.28851 152 142 156
1.48648 -3.58695 0.29601 152 149 155
1.48342 -3.58842 0.27901 151 139 132
1.46881 -3.59193 0.30074 149 148 165
1.45715 -3.59884 0.32110 165 162 158
1.45410 -3.60032 0.30412 151 150 162
1.45104 -3.60179 0.28713 150 149 153
1.26883 -3.61015 0.35927 145 153 161
1.28028 -3.60337 0.33927 141 153 169
1.26583 -3.61160 0.34259 145 151 170
1.24991 -3.61280 0.36469 138 140 152
1.23363 -3.61869 0.36887 130 129 142
1.21621 -3.62835 0.35553 129 142 160
1.21738 -3.62458 0.37304 127 142 150
1.20227 -3.63190 0.37668 124 140 149
1.17493 -3.65021 0.38260 122 131 153
1.16226 -3.66071 0.38507 121 129 158
1.15653 -3.68036 0.38422 130 141 164
1.15146 -3.70106 0.38303 151 170 173
1.13782 -3.71049 0.38594 170 175 159
1.12028 -3.72022 0.37251 158 155 155
1.12303 -3.71841 0.38940 155 149 161
1.10974 -3.72835 0.39214 144 148 169
1.09220 -3.73808 0.37870 149 154 168
1.09177 -3.73192 0.39714 151 162 165
1.07425 -3.74165 0.38372 155 156 166
1.07548 -3.73773 0.40134 167 171 167
1.06303 -3.74883 0.40367 157 158 150
1.04550 -3.75855 0.39025 140 132 153
1.05094 -3.76048 0.40582 143 139 151
1.04070 -3.77478 0.40705 161 157 161
1.00121 -3.80560 0.41501 141 144 152
0.98361 -3.81537 0.40153 135 133 131
0.98614 -3.81318 0.41860 137 139 152
0.96855 -3.82294 0.40512 144 145 140
0.96774 -3.81587 0.42385 145 146 151
0.95114 -3.82112 0.42822 143 146 154
0.93358 -3.83086 0.41477 126 130 141
0.93452 -3.82630 0.43260 136 132 142
0.91698 -3.83603 0.41916 135 140 148
0.88664 -3.84457 0.44477 132 140 136
0.90415 -3.83485 0.45819 140 150 144
0.89813 -3.83776 0.42471 136 136 132
0.88966 -3.84311 0.46151 140 145 143
0.88363 -3.84602 0.42804 129 131 133
0.87516 -3.85137 0.46484 147 149 145
0.87135 -3.85161 0.44850 146 147 144
0.85987 -3.85841 0.46856 151 152 148
0.85686 -3.85986 0.45183 150 149 153
0.82045 -3.86471 0.46229 142 155 148
0.80465 -3.87082 0.46629 141 149 136
0.79321 -3.87759 0.48628 136 132 127
0.79021 -3.87904 0.46961 134 137 129
0.78721 -3.88049 0.45293 135 140 128
0.70822 -3.90392 0.49131 121 128 135
0.71962 -3.89717 0.47140 137 138 136
0.68239 -3.92526 0.49636 123 128 124
0.67940 -3.92670 0.47973 118 118 128
0.67099 -3.93202 0.51629 125 134 124
0.66799 -3.93346 0.49966 121 133 132
0.55016 -3.99427 0.52754 137 138 134
0.54717 -3.99571 0.51093 131 135 127
0.53279 -4.00391 0.51423 127 127 123
0.50314 -4.01162 0.53957 121 130 136
0.51452 -4.00488 0.51970 127 134 132
0.50016 -4.01306 0.52300 128 132 139
0.48580 -4.02123 0.52629 128 134 131
0.48928 -4.02072 0.54260 120 129 131
0.47193 -4.03034 0.52931 127 135 138
0.22444 -4.15381 0.60572 128 137 130
0.23578 -4.14710 0.58591 122 130 137
0.22147 -4.15525 0.58920 130 140 134
0.20715 -4.16340 0.59248 135 143 128
0.21132 -4.16464 0.60829 128 132 126
0.19734 -4.17356 0.61137 122 121 116
0.18301 -4.18172 0.61466 115 120 116
0.11992 -4.20054 0.63140 112 119 119
0.13123 -4.19384 0.61164 108 117 122
0.11695 -4.20197 0.61492 100 110 120
0.08817 -4.20905 0.63995 127 128 120
-0.18648 -4.35162 0.70482 118 122 120
-0.16932 -4.34210 0.71796 122 125 117
-0.17227 -4.34353 0.70155 126 130 119
-0.17522 -4.34495 0.68514 120 126 123
-0.18944 -4.35305 0.68841 127 130 122
-0.20235 -4.35473 0.70924 107 106 120
-0.21950 -4.36424 0.69611 119 118 113
-0.21769 -4.35933 0.71331 113 109 112
-0.23482 -4.36883 0.70018 111 113 120
-0.23175 -4.36778 0.71648 121 122 120
-0.35721 -4.39161 0.75156 115 116 113
-0.34024 -4.38219 0.76456 110 116 105
-0.34316 -4.38360 0.74833 121 123 114
-0.35429 -4.39020 0.76779 111 118 106
-0.36835 -4.39820 0.77102 106 111 111
-0.37229 -4.39608 0.75557 103 102 106
-0.38342 -4.40267 0.77501 108 108 121
-0.38926 -4.40548 0.74257 106 102 107
-0.38576 -4.40609 0.75835 102 105 110
-0.39689 -4.41268 0.77780 118 119 122
-0.40273 -4.41550 0.74535 111 109 112
-0.51268 -4.47630 0.78775 118 117 118
-0.49863 -4.46830 0.78453 118 122 123
-0.52964 -4.48571 0.77476 104 107 106
-0.52646 -4.48535 0.79076 113 113 109
-0.54343 -4.49476 0.77776 109 112 105
-0.61388 -4.51967 0.81286 102 103 97
-0.62789 -4.52765 0.81608 89 85 97
-0.71427 -4.56404 0.83759 108 107 103
-0.70320 -4.55749 0.81825 98 100 97
-0.71717 -4.56544 0.82146 102 108 100
-0.72932 -4.56661 0.84184 109 119 109
-0.78607 -4.59343 0.85559 110 110 89
-0.79711 -4.59998 0.87488 95 95 67
-0.80291 -4.60277 0.84269 99 99 96
-0.92146 -4.69879 0.88293 98 99 96
-0.91035 -4.69221 0.86353 94 94 86
-0.92437 -4.70019 0.86675 98 95 81
-0.93839 -4.70818 0.86996 92 89 68
-0.93516 -4.70885 0.88578 83 78 86
-0.95210 -4.71824 0.87280 90 97 95
2.42680 -2.63897 0.11830 87 90 172
2.43757 -2.63258 0.09947 57 67 170
2.41028 -2.64480 0.12257 123 124 174
2.39386 -2.65391 0.11000 90 95 168
2.39465 -2.66793 0.12423 143 131 97
2.37819 -2.67707 0.11162 129 118 116
2.38032 -2.67523 0.12764 145 126 81
2.36595 -2.68249 0.13106 143 116 68
2.31525 -2.69905 0.14436 134 111 67
2.33909 -2.73255 0.13252 87 65 43
2.33695 -2.74838 0.13103 43 31 51
2.32605 -2.75483 0.15008 33 30 68
2.32319 -2.75621 0.13419 34 30 68
2.32033 -2.75760 0.11830 31 26 67
2.32444 -2.79218 0.12894 39 36 99
2.32039 -2.80704 0.12817 42 44 119
2.32052 -2.82497 0.12570 47 53 134
2.30368 -2.83431 0.11280 55 58 150
2.37371 -3.13011 0.06808 48 49 109
2.38549 -3.12314 0.04752 48 49 111
2.37062 -3.13160 0.05093 47 48 110
2.35576 -3.14007 0.05434 52 52 109
2.34938 -3.13114 0.07541 47 49 118
2.33148 -3.14107 0.06169 63 59 95
2.32617 -3.13295 0.08228 60 59 109
2.31231 -3.14212 0.08529 85 83 97
2.31303 -3.16298 0.08224 102 102 106
2.30025 -3.17311 0.08479 116 110 121
2.28856 -3.18415 0.08688 127 119 124
2.29984 -3.21398 0.07938 142 136 136
2.28716 -3.22441 0.08186 153 144 161
2.27529 -3.23144 0.10260 156 154 156
2.27218 -3.23294 0.08530 156 154 155
2.26907 -3.23444 0.06799 147 142 153
2.10670 -3.28289 0.12927 145 150 146
2.11848 -3.27592 0.10870 163 154 139
2.10361 -3.28438 0.11211 160 157 148
2.08908 -3.31058 0.13092 155 147 149
2.08599 -3.31208 0.11371 149 140 141
2.04937 -3.36273 0.13604 155 163 158
2.06436 -3.35419 0.13260 140 144 153
2.06125 -3.35569 0.11529 150 150 141
2.02248 -3.38266 0.14159 142 148 137
2.01059 -3.38970 0.16235 162 157 152
2.00436 -3.39272 0.12771 150 140 146
2.00135 -3.38551 0.14768 145 149 150
1.90783 -3.38753 0.17608 163 164 141
1.88990 -3.39747 0.16235 161 152 165
1.82796 -3.42418 0.19561 159 154 156
1.83969 -3.41723 0.17510 148 157 151
1.80752 -3.42703 0.20149 157 148 159
1.78966 -3.43693 0.18780 144 141 145
1.77674 -3.44267 0.20881 137 148 157
1.74168 -3.45390 0.21804 143 150 155
1.71223 -3.47079 0.22478 158 157 152
1.54579 -3.50945 0.27058 163 162 166
1.56343 -3.49967 0.28409 149 158 160
1.56040 -3.50113 0.26722 157 151 162
1.55736 -3.50260 0.25036 155 159 158
1.53133 -3.51794 0.27386 161 167 162
1.52013 -3.53006 0.27566 158 161 158
1.50246 -3.53986 0.26213 151 156 158
1.50177 -3.55907 0.27736 152 149 160
1.49872 -3.56054 0.26041 154 161 152
1.48669 -3.56697 0.28091 157 148 137
1.45354 -3.57928 0.28941 144 141 147
1.43584 -3.58910 0.27585 154 154 154
1.24991 -3.61800 0.34660 145 150 166
1.26135 -3.61122 0.32661 140 149 165
1.24691 -3.61945 0.32993 140 148 161
1.23246 -3.62767 0.33324 137 143 157
1.23258 -3.62259 0.35129 136 145 158
1.20014 -3.63444 0.35963 125 135 157
1.18627 -3.64335 0.36268 127 138 157
1.16886 -3.65301 0.34935 164 172 162
1.17120 -3.65072 0.36630 148 155 158
1.15380 -3.66037 0.35297 165 162 157
1.15733 -3.65963 0.36935 155 163 151
1.13992 -3.66928 0.35602 165 161 161
1.15254 -3.68051 0.36799 165 163 163
1.14412 -3.69677 0.36837 166 171 176
1.12661 -3.70648 0.35496 145 150 155
1.12716 -3.70173 0.37290 164 168 168
1.10080 -3.72177 0.37827 154 169 174
1.09779 -3.72323 0.36153 158 172 168
1.08330 -3.73149 0.36486 154 161 169
1.05617 -3.74496 0.38881 155 154 148
1.06765 -3.73816 0.36876 165 160 169
1.03867 -3.75466 0.37541 147 146 151
1.03248 -3.76892 0.39283 152 149 150
1.02947 -3.77038 0.37607 154 155 136
1.01890 -3.77852 0.39570 145 148 143
1.00136 -3.78825 0.38226 130 130 136
1.00422 -3.78657 0.39911 139 151 145
0.98989 -3.79511 0.40235 134 132 142
0.97235 -3.80484 0.38891 135 137 133
0.94021 -3.81090 0.41544 142 139 139
0.93720 -3.81236 0.39871 133 127 130
0.86258 -3.84422 0.43473 133 132 140
0.87404 -3.83743 0.41472 132 132 135
0.85958 -3.84567 0.41804 129 130 136
0.84488 -3.84743 0.43973 139 144 157
0.82975 -3.85459 0.44340 144 146 153
0.81415 -3.86098 0.44731 146 153 146
0.79839 -3.86709 0.45132 142 148 135
0.78097 -3.87675 0.43798 129 135 137
0.69839 -3.89398 0.47834 134 133 129
0.68483 -3.90346 0.48121 124 121 123
0.66751 -3.91307 0.46794 119 121 136
0.65672 -3.92078 0.48749 118 125 136
0.64535 -3.92751 0.50735 119 132 135
0.63939 -3.93039 0.47421 135 146 130
0.19094 -4.16724 0.59693 127 130 120
0.17631 -4.17460 0.60042 117 118 120
0.15904 -4.18418 0.58720 99 102 114
0.16132 -4.18115 0.60413 107 109 112
0.14703 -4.18929 0.60741 110 116 108
0.09716 -4.19682 0.62168 113 127 134
0.10844 -4.19014 0.60199 110 118 125
0.07997 -4.20635 0.60852 131 142 141
0.08177 -4.20210 0.62569 129 140 136
0.06575 -4.20578 0.63010 120 127 111
0.05450 -4.21244 0.64977 119 126 121
0.05154 -4.21387 0.63336 113 124 119
0.04859 -4.21529 0.61696 109 116 121
-0.00559 -4.24545 0.64660 120 121 127
0.01157 -4.23593 0.65974 128 132 130
0.00566 -4.23879 0.62694 118 119 113
-0.00264 -4.24402 0.66300 127 130 136
-0.00854 -4.24688 0.63020 115 120 121
-0.01979 -4.25354 0.64986 109 112 112
-0.20799 -4.34802 0.69477 123 122 118
-0.19676 -4.34137 0.67516 119 122 123
-0.21093 -4.34944 0.67841 123 122 120
-0.22510 -4.35752 0.68167 122 118 116
-0.32884 -4.38763 0.72647 120 121 118
-0.31182 -4.37819 0.73950 124 124 111
-0.31475 -4.37960 0.72323 119 121 121
-0.32591 -4.38621 0.74273 125 125 109
-0.34444 -4.39054 0.73086 121 120 115
-0.36144 -4.39997 0.71784 116 114 112
-0.36047 -4.39186 0.73559 119 115 113
-0.37613 -4.39431 0.74006 107 101 107
-0.39308 -4.40371 0.72708 114 115 106
-0.51014 -4.43620 0.77548 109 118 126
-0.49330 -4.42686 0.78837 113 121 115
-0.49619 -4.42826 0.77228 107 115 123
-0.49909 -4.42966 0.75618 117 117 116
-0.52697 -4.44554 0.76258 109 105 99
-0.52345 -4.44663 0.77815 107 106 113
-0.54029 -4.45597 0.76524 110 109 108
-0.63185 -4.52438 0.80086 100 100 100
-0.64584 -4.53235 0.80407 111 112 103
-0.73445 -4.55688 0.82792 104 114 105
-0.72342 -4.55035 0.80865 105 111 99
-0.75126 -4.56621 0.81504 108 111 104
-0.74973 -4.55790 0.83246 91 93 108
-0.76257 -4.57129 0.83459 98 94 96
-0.77654 -4.57896 0.83783 105 107 100
-0.79335 -4.58828 0.82496 92 90 96
-0.79095 -4.58423 0.84154 102 108 94
-0.80775 -4.59355 0.82867 92 96 96
2.41378 -2.63370 0.10666 82 83 176
2.42453 -2.62733 0.08788 63 69 169
2.40689 -2.64580 0.10711 94 100 184
2.38264 -2.66321 0.11217 104 102 143
2.37981 -2.66458 0.09647 80 66 164
2.35283 -2.67695 0.11946 142 125 89
2.33816 -2.68396 0.12302 134 117 77
2.30508 -2.69539 0.13164 146 128 87
2.29982 -2.70884 0.13139 125 102 69
2.33443 -2.74999 0.11501 65 47 59
2.32254 -2.77664 0.11498 31 29 80
2.31967 -2.77802 0.09903 31 27 84
2.31343 -2.78783 0.11624 38 36 98
2.30840 -2.80196 0.11583 42 45 120
2.30384 -2.81651 0.11522 47 53 138
2.28706 -2.82582 0.10237 51 58 150
2.29396 -3.13143 0.07460 72 66 79
2.30564 -3.12451 0.05420 57 56 82
2.29090 -3.13291 0.05758 66 62 68
2.27884 -3.13952 0.07814 73 67 77
2.26917 -3.15201 0.07939 81 75 81
2.27718 -3.17891 0.07319 116 107 100
2.28703 -3.20756 0.06618 142 140 136
2.26899 -3.21757 0.05236 148 139 142
2.27508 -3.21853 0.06835 144 143 152
2.25703 -3.22855 0.05452 151 146 142
2.18348 -3.24677 0.09269 157 147 140
2.19836 -3.23830 0.08927 157 156 150
2.17169 -3.25376 0.11329 150 145 138
2.16859 -3.25525 0.09610 151 149 144
2.07072 -3.27691 0.12329 155 149 154
2.06765 -3.27839 0.10621 153 145 148
2.05286 -3.28682 0.10961 152 152 152
2.02784 -3.34741 0.12675 158 151 158
2.03965 -3.34041 0.10610 148 151 146
2.02474 -3.34891 0.10952 158 152 144
2.01238 -3.35541 0.13040 158 160 156
1.99437 -3.36540 0.11661 148 144 150
2.00284 -3.36888 0.13148 156 159 137
1.98479 -3.37888 0.11766 149 143 147
1.91623 -3.37738 0.15702 150 151 157
1.92798 -3.37043 0.13650 152 149 149
1.89833 -3.38732 0.14330 159 169 162
1.81031 -3.41125 0.18500 148 158 145
1.79170 -3.41581 0.19011 135 138 147
1.76690 -3.43731 0.19477 140 132 150
1.74908 -3.44720 0.18112 164 172 172
1.74672 -3.44021 0.20059 159 154 177
1.73477 -3.45145 0.20272 171 174 165
1.72294 -3.46284 0.20479 164 164 160
1.70511 -3.47273 0.19114 149 144 144
1.70228 -3.46513 0.21085 157 154 152
1.69094 -3.47707 0.21269 155 160 152
1.67619 -3.48547 0.21608 162 163 160
1.54478 -3.51316 0.25278 155 150 163
1.52713 -3.52295 0.23925 139 141 145
1.53049 -3.52185 0.25598 140 145 162
1.51865 -3.53328 0.25804 140 149 159
1.47434 -3.55781 0.26831 153 152 135
1.48593 -3.55094 0.24806 155 152 152
1.47130 -3.55927 0.25142 153 155 151
1.45667 -3.56761 0.25478 149 156 152
1.45696 -3.56298 0.27296 148 138 138
1.43931 -3.57277 0.25944 152 162 156
1.31942 -3.60449 0.30963 142 151 157
1.33695 -3.59476 0.32306 155 152 146
1.33394 -3.59622 0.30630 156 158 153
1.32244 -3.60303 0.32639 145 152 163
1.30792 -3.61130 0.32972 139 151 169
1.30353 -3.61107 0.31362 132 143 162
1.28902 -3.61933 0.31695 137 147 164
1.21271 -3.62915 0.33913 137 145 163
1.19530 -3.63881 0.32579 169 170 164
1.19532 -3.63355 0.34388 144 160 162
1.18038 -3.64106 0.34745 148 164 158
1.16299 -3.65071 0.33413 168 165 165
1.13445 -3.68938 0.35492 150 157 160
1.14591 -3.68260 0.33490 162 160 165
1.13145 -3.69083 0.33822 154 157 167
1.11699 -3.69907 0.34154 153 156 156
1.10626 -3.70684 0.36119 155 163 154
1.04779 -3.73894 0.37478 168 157 155
1.00882 -3.76993 0.38250 142 138 129
1.02029 -3.76313 0.36246 150 151 138
1.00581 -3.77138 0.36578 141 141 135
0.97951 -3.78594 0.38932 135 135 144
0.94665 -3.79672 0.39797 137 138 142
0.94365 -3.79818 0.38127 132 129 123
0.91545 -3.80980 0.40578 131 132 140
0.90100 -3.81803 0.40909 140 141 144
0.89800 -3.81948 0.39241 148 151 149
0.83778 -3.84254 0.42520 134 140 145
0.84920 -3.83577 0.40524 128 132 133
0.82037 -3.85220 0.41186 134 134 138
0.82238 -3.84921 0.42902 140 138 140
0.80497 -3.85887 0.41569 128 132 138
0.80745 -3.85661 0.43260 132 136 135
0.79005 -3.86626 0.41927 123 123 138
0.79195 -3.86309 0.43648 126 132 134
0.77456 -3.87274 0.42316 127 125 143
0.70360 -3.87709 0.46180 134 137 129
0.71790 -3.86895 0.45851 121 125 119
0.71493 -3.87038 0.44200 122 129 120
0.68633 -3.88667 0.44857 140 149 140
0.68862 -3.88411 0.46544 141 147 136
0.67516 -3.89365 0.46828 131 131 131
0.65788 -3.90323 0.45504 126 130 139
0.37240 -4.02328 0.54370 131 134 125
0.38953 -4.01378 0.55682 133 142 134
0.38659 -4.01520 0.54044 128 140 133
0.38364 -4.01663 0.52406 123 136 134
0.36116 -4.02994 0.56333 120 125 121
0.35821 -4.03136 0.54695 119 120 116
0.19627 -4.14701 0.58087 135 140 122
0.20756 -4.14033 0.56115 116 120 119
0.19331 -4.14844 0.56442 123 123 116
0.17906 -4.15656 0.56769 120 121 114
0.18322 -4.15786 0.58339 126 131 119
0.16600 -4.16741 0.57020 115 121 119
0.16908 -4.16625 0.58659 114 117 120
0.15185 -4.17580 0.57340 103 107 117
0.09031 -4.18884 0.60776 120 132 132
0.10156 -4.18218 0.58810 111 122 113
0.07316 -4.19835 0.59462 134 142 138
0.05860 -4.19685 0.61643 122 128 120
-0.14427 -4.29712 0.66510 120 114 128
-0.12720 -4.28765 0.67818 115 115 114
-0.13307 -4.29049 0.64555 128 125 134
-0.14133 -4.29570 0.68142 112 116 120
-0.14720 -4.29853 0.64879 126 124 131
-0.16133 -4.30658 0.65203 129 129 133
-0.15665 -4.31023 0.66711 130 126 132
-0.16785 -4.31686 0.68669 119 123 125
-0.17079 -4.31828 0.67035 124 124 127
-0.32108 -4.36977 0.70958 110 108 100
-0.30411 -4.36035 0.72258 118 119 118
-0.30703 -4.36176 0.70635 117 115 110
-0.33628 -4.37397 0.71368 104 103 100
-0.35085 -4.38016 0.71732 108 107 112
-0.36780 -4.38956 0.70433 121 119 115
-0.73823 -4.55381 0.81274 101 109 99
-0.76707 -4.56433 0.82017 107 116 105
-0.76996 -4.56573 0.80414 101 106 102
-0.84062 -4.58067 0.84060 95 91 65
-0.82392 -4.57141 0.85338 107 100 96
-0.82967 -4.57419 0.82147 95 97 92
-0.83775 -4.57928 0.85655 100 90 91
-0.85157 -4.58715 0.85973 93 96 90
-0.85374 -4.59260 0.84299 89 86 85
-0.86470 -4.59909 0.86214 93 96 90
-0.87045 -4.60187 0.83019 104 100 82
2.41466 -2.63747 0.08950 67 70 173
2.42542 -2.63110 0.07071 106 93 172
2.39183 -2.63913 0.09635 76 78 180
2.37547 -2.64821 0.08382 69 77 177
2.38257 -2.64968 0.09773 76 83 177
2.36619 -2.65877 0.08518 114 96 194
2.34642 -2.65910 0.10761 117 93 148
2.33473 -2.66804 0.10997 138 118 112
2.31380 -2.68765 0.11368 147 126 74
2.29967 -2.69498 0.11703 144 122 78
2.29449 -2.70847 0.11672 136 110 68
2.32237 -2.74499 0.10289 86 71 56
2.32049 -2.76108 0.10118 41 34 67
2.30386 -2.77031 0.08844 30 26 82
2.30088 -2.78237 0.10425 38 38 101
2.29602 -2.79659 0.10374 44 47 123
2.28921 -2.80950 0.10402 48 54 140
2.27248 -2.81878 0.09120 52 60 155
2.26523 -3.13253 0.06560 69 63 64
2.25673 -3.14591 0.06634 80 73 71
2.26511 -3.17309 0.05988 114 110 102
2.27015 -3.19778 0.05481 141 137 137
2.25217 -3.20775 0.04104 149 142 142
2.20745 -3.22904 0.06983 150 144 131
2.22541 -3.21908 0.08359 147 150 156
2.22232 -3.22057 0.06642 141 143 138
2.21923 -3.22206 0.04924 153 144 145
2.21054 -3.22755 0.08700 152 147 145
2.18801 -3.23365 0.07521 160 157 156
2.17007 -3.24361 0.06147 166 169 161
2.17404 -3.24287 0.07824 163 162 156
2.16423 -3.25566 0.07947 162 159 152
2.14936 -3.26414 0.08288 153 154 152
1.99266 -3.34161 0.12051 153 139 138
1.98958 -3.34310 0.10337 147 128 146
1.97473 -3.35156 0.10678 147 140 149
1.80681 -3.38938 0.17141 149 154 156
1.80375 -3.39086 0.15445 155 161 155
1.79773 -3.40331 0.17225 162 167 157
1.78329 -3.41196 0.17551 136 134 154
1.76552 -3.42182 0.16189 158 155 154
1.77507 -3.42686 0.17594 157 156 143
1.75787 -3.43277 0.18044 158 167 149
1.72633 -3.44742 0.18815 173 172 161
1.70855 -3.45729 0.17453 158 158 162
1.71213 -3.45635 0.19129 163 157 149
1.69435 -3.46621 0.17767 153 150 154
1.67670 -3.46686 0.20079 156 157 151
1.67364 -3.46833 0.18383 159 154 154
1.66137 -3.47456 0.20446 155 163 166
1.64973 -3.48146 0.22480 159 154 166
1.64667 -3.48293 0.20783 159 165 160
1.56810 -3.49483 0.23053 161 157 157
1.58574 -3.48505 0.24404 158 157 155
1.58270 -3.48651 0.22718 158 151 153
1.57113 -3.49337 0.24739 154 156 153
1.55046 -3.50462 0.21702 164 172 169
1.55220 -3.50173 0.23448 164 163 164
1.53843 -3.51097 0.23744 148 140 155
1.51124 -3.52986 0.24320 143 146 149
1.50821 -3.53133 0.22633 132 135 138
1.49471 -3.53601 0.24746 151 147 151
1.32904 -3.59540 0.29044 157 152 161
1.34656 -3.58568 0.30387 158 164 161
1.34355 -3.58714 0.28712 169 164 168
1.34053 -3.58859 0.27037 167 174 168
1.31507 -3.60432 0.29351 137 130 147
1.29829 -3.60979 0.29795 134 136 151
1.28077 -3.61950 0.28453 137 137 149
1.28117 -3.61481 0.30254 136 147 163
1.26669 -3.62306 0.30587 136 151 165
1.26368 -3.62452 0.28914 136 147 154
1.22314 -3.62113 0.31966 144 153 151
1.23755 -3.61292 0.31635 140 153 156
1.23456 -3.61437 0.29971 146 156 148
1.20573 -3.63078 0.30633 156 161 166
1.20646 -3.62645 0.32408 156 165 162
1.17401 -3.63814 0.33249 162 152 153
1.17102 -3.63958 0.31589 139 136 156
1.09314 -3.69463 0.34957 154 164 157
1.06560 -3.71280 0.35554 153 161 166
1.05239 -3.72268 0.35824 156 155 161
1.04191 -3.73639 0.35954 158 157 156
1.02446 -3.74607 0.34618 139 142 138
1.03012 -3.74835 0.36150 147 143 144
1.01266 -3.75803 0.34813 143 148 139
0.98422 -3.76942 0.37276 145 143 140
0.99566 -3.76265 0.35276 133 138 141
0.96676 -3.77330 0.37763 144 159 136
0.95075 -3.77921 0.38176 137 140 132
0.93333 -3.78887 0.36842 130 133 122
0.91911 -3.79149 0.38983 126 132 135
0.90413 -3.79884 0.39344 140 147 144
0.88673 -3.80849 0.38012 135 149 147
0.82964 -3.83601 0.41128 129 128 128
0.84104 -3.82926 0.39137 129 134 133
0.82665 -3.83745 0.39467 128 126 126
0.69509 -3.86936 0.44830 133 140 132
0.70640 -3.86267 0.42855 125 130 129
0.67786 -3.87892 0.43510 135 146 141
0.36715 -4.02012 0.52868 133 139 126
0.36421 -4.02154 0.51232 137 146 138
0.34981 -4.02179 0.53382 120 120 111
0.33861 -4.02843 0.55341 123 125 119
0.33567 -4.02985 0.53707 119 126 117
0.20848 -4.10270 0.56620 120 129 121
0.22557 -4.09322 0.57929 125 131 128
0.22263 -4.09464 0.56295 127 137 130
0.21969 -4.09606 0.54662 128 143 140
0.21142 -4.10128 0.58254 124 128 130
0.13390 -4.17527 0.57904 114 120 122
0.12263 -4.18195 0.59874 121 123 133
0.11967 -4.18338 0.58231 124 123 122
0.11672 -4.18480 0.56588 122 125 118
0.08496 -4.18447 0.59293 120 131 130
0.09620 -4.17782 0.57330 111 121 117
0.05323 -4.19229 0.60167 129 139 132
0.05029 -4.19372 0.58533 132 136 132
0.03614 -4.20178 0.58857 130 134 125
0.03874 -4.19952 0.60514 123 125 122
0.02753 -4.20615 0.62472 116 122 127
0.02459 -4.20757 0.60838 124 126 122
-0.32691 -4.36156 0.69562 102 106 103
-0.31580 -4.35498 0.67621 120 119 123
-0.32983 -4.36297 0.67943 114 114 119
-0.34211 -4.36561 0.69976 102 109 103
-0.35903 -4.37499 0.68680 118 119 120
-0.35668 -4.37168 0.70342 113 116 111
-0.37360 -4.38107 0.69046 117 116 117
-0.67729 -4.48919 0.78624 102 97 102
-0.66347 -4.48132 0.78307 109 103 103
-0.67442 -4.48781 0.80220 96 93 93
-0.68016 -4.49058 0.77028 111 110 112
-0.68824 -4.49568 0.80538 100 109 113
-0.69112 -4.49707 0.78941 97 106 107
-0.72863 -4.54032 0.79492 104 102 91
-0.71474 -4.53241 0.79173 114 115 110
-0.74365 -4.54252 0.79927 88 86 67
-0.75764 -4.54981 0.80257 96 97 102
-0.77438 -4.55910 0.78974 104 99 108
-0.84452 -4.57619 0.82579 104 102 99
-0.83358 -4.56971 0.80669 98 99 99
-0.84739 -4.57758 0.80985 111 107 102
-0.86119 -4.58544 0.81302 103 103 99
-0.85764 -4.58804 0.82818 100 101 92
-0.87432 -4.59729 0.81540 109 109 101
2.40974 -2.63746 0.07468 100 90 175
2.42049 -2.63109 0.05590 215 158 174
2.39334 -2.64655 0.06213 165 150 177
2.39181 -2.64233 0.07957 91 92 176
2.35716 -2.66952 0.08644 181 172 213
2.34093 -2.67547 0.09065 157 151 180
2.30928 -2.68785 0.09873 143 132 87
2.29291 -2.69693 0.08619 140 118 89
2.29788 -2.69705 0.10095 136 123 80
2.29810 -2.71428 0.09838 130 103 71
2.29505 -2.72936 0.09714 120 98 58
2.31191 -2.75846 0.08765 65 52 64
2.29530 -2.76768 0.07493 40 37 63
2.28958 -2.77779 0.09182 39 40 106
2.28802 -2.79433 0.08990 49 51 134
2.27126 -2.80008 0.09430 52 57 151
2.27333 -2.85543 0.08561 50 57 148
2.29018 -2.84608 0.09852 52 57 149
2.28728 -2.84748 0.08241 52 60 153
2.27623 -2.85403 0.10173 49 53 142
2.26227 -2.86197 0.10493 48 52 137
2.26956 -2.87087 0.08455 47 55 139
2.25848 -2.87743 0.10391 45 51 129
2.25557 -2.87884 0.08776 42 52 131
2.26284 -3.07463 0.05704 45 50 89
2.28040 -3.06489 0.07049 46 50 109
2.27738 -3.06635 0.05371 45 51 103
2.26587 -3.07317 0.07383 49 51 100
2.25970 -3.09195 0.05551 49 52 69
2.26087 -3.11284 0.05211 59 58 59
2.25244 -3.12618 0.05280 62 58 64
2.25045 -3.14478 0.05072 74 69 74
2.24487 -3.16060 0.05017 116 108 103
2.25952 -3.19310 0.04087 145 138 142
2.20080 -3.22754 0.05421 150 147 146
2.19771 -3.22903 0.03705 155 156 153
2.18101 -3.23183 0.05976 160 156 157
2.15904 -3.25535 0.06321 167 163 157
2.14381 -3.26351 0.06677 149 149 142
2.13203 -3.27049 0.08736 155 150 145
2.12585 -3.27347 0.05302 155 154 153
2.13501 -3.27726 0.06753 152 149 146
2.12012 -3.28574 0.07094 145 132 138
2.11702 -3.28723 0.05375 149 146 142
1.99580 -3.32675 0.10380 153 151 143
2.01062 -3.31831 0.10040 150 152 151
1.80031 -3.36474 0.15932 151 143 154
1.78490 -3.39509 0.15973 155 155 164
1.76718 -3.40492 0.14615 145 162 167
1.77275 -3.40596 0.16194 150 155 158
1.75176 -3.43116 0.16483 163 168 160
1.73323 -3.43566 0.16996 160 164 158
1.71548 -3.44551 0.15636 147 154 161
1.71856 -3.44407 0.17332 150 156 165
1.64105 -3.45783 0.19553 145 151 158
1.62259 -3.46208 0.20068 156 156 152
1.61102 -3.46893 0.22088 163 151 158
1.60798 -3.47039 0.20403 169 159 147
1.57895 -3.48720 0.21065 153 149 151
1.59355 -3.47889 0.20730 161 150 146
1.59052 -3.48035 0.19044 162 173 153
1.57591 -3.48867 0.19379 158 159 146
1.56131 -3.49699 0.19714 152 159 153
1.56552 -3.49680 0.21345 163 164 165
1.53616 -3.51328 0.22022 150 162 162
1.53313 -3.51474 0.20336 153 153 149
1.51852 -3.52306 0.20671 151 160 140
1.51834 -3.51801 0.22510 136 143 141
1.48723 -3.53246 0.23271 138 140 144
1.48420 -3.53392 0.21588 146 144 128
1.47157 -3.53954 0.23657 147 150 160
1.45356 -3.54391 0.24156 147 153 160
1.43597 -3.55366 0.22809 135 125 143
1.43795 -3.55099 0.24541 140 141 152
1.42037 -3.56074 0.23194 131 128 148
1.32297 -3.59315 0.27519 157 156 158
1.33445 -3.58635 0.25513 144 145 149
1.31996 -3.59460 0.25845 148 145 143
1.31013 -3.60342 0.27770 144 140 149
1.29262 -3.61314 0.26429 148 153 159
1.29415 -3.60986 0.28176 141 144 153
1.27664 -3.61957 0.26835 147 142 146
1.21978 -3.62211 0.30320 151 158 155
1.21678 -3.62356 0.28656 168 167 156
1.20237 -3.63177 0.28987 157 165 164
1.18368 -3.62917 0.31345 158 161 165
1.10950 -3.66703 0.33111 153 155 166
1.12386 -3.65885 0.32781 162 162 162
1.12087 -3.66029 0.31123 148 153 152
1.09491 -3.67490 0.33452 142 154 160
1.07756 -3.68452 0.32124 125 137 146
1.08142 -3.68426 0.33737 140 140 159
1.06407 -3.69388 0.32409 137 143 149
1.06924 -3.69543 0.33955 144 143 154
1.05188 -3.70506 0.32625 149 155 145
1.05440 -3.70298 0.34309 149 143 153
1.03704 -3.71261 0.32979 134 133 151
1.04119 -3.71278 0.34579 145 152 154
1.02382 -3.72241 0.33249 145 153 142
1.03009 -3.72554 0.34740 145 146 150
1.01270 -3.73519 0.33408 142 147 136
0.97202 -3.75766 0.36087 151 154 148
0.98343 -3.75091 0.34094 124 136 156
0.96903 -3.75910 0.34425 146 153 160
0.95696 -3.76488 0.36452 146 155 139
0.94298 -3.77369 0.36761 133 129 130
0.91234 -3.78733 0.37519 124 135 138
0.89496 -3.79697 0.36189 131 140 137
0.89603 -3.79265 0.37951 127 139 139
0.87867 -3.80228 0.36622 136 146 147
0.52243 -3.90338 0.48008 134 140 138
0.37396 -4.00470 0.51172 125 134 132
0.39104 -3.99523 0.52480 113 126 134
0.38810 -3.99665 0.50847 115 115 125
0.38516 -3.99807 0.49215 123 116 124
0.34350 -4.01639 0.51953 130 135 125
0.32644 -4.02585 0.50647 126 127 137
0.32901 -4.02368 0.52300 121 125 126
0.31782 -4.03031 0.54255 110 114 121
0.31281 -4.02745 0.52751 116 120 124
0.30164 -4.03407 0.54703 118 122 129
0.29577 -4.03690 0.51446 133 138 136
0.19261 -4.11490 0.55234 117 126 124
0.20383 -4.10826 0.53274 120 129 136
0.18967 -4.11633 0.53599 122 135 136
0.17845 -4.12297 0.55558 117 122 118
0.14114 -4.15919 0.56197 113 114 114
0.15534 -4.15110 0.55872 118 120 114
0.12815 -4.17012 0.56444 119 125 126
0.02023 -4.20540 0.59301 128 136 118
0.03143 -4.19877 0.57345 126 133 136
0.00315 -4.21487 0.57994 105 120 123
0.00565 -4.21233 0.59656 109 124 113
-0.00554 -4.21896 0.61612 115 110 116
-0.00848 -4.22038 0.59980 114 114 116
-0.01142 -4.22180 0.58348 117 126 121
-0.06888 -4.24217 0.61550 117 120 120
-0.05185 -4.23272 0.62854 118 113 113
-0.05478 -4.23414 0.61226 116 117 113
-0.08005 -4.24878 0.63501 128 130 120
-0.08298 -4.25020 0.61873 133 136 129
-0.35211 -4.34321 0.68926 116 119 122
-0.34108 -4.33667 0.66997 121 119 122
-0.35501 -4.34461 0.67317 120 119 123
-0.73174 -4.54059 0.77912 97 98 93
-0.72074 -4.53408 0.75990 88 90 98
-0.73462 -4.54198 0.76309 94 111 102
-0.74851 -4.54989 0.76627 96 105 105
-0.74521 -4.55057 0.78187 84 91 83
-0.76095 -4.54897 0.78702 97 104 101
-0.77769 -4.55826 0.77420 102 100 102
2.40050 -2.63463 0.06165 205 169 185
2.41124 -2.62828 0.04290 207 101 96
2.38414 -2.64371 0.04912 215 155 153
2.36457 -2.64423 0.07151 104 102 167
2.35563 -2.65498 0.07272 124 116 187
2.35175 -2.66915 0.07184 177 173 224
2.33832 -2.67697 0.07489 146 147 210
2.29332 -2.71429 0.08348 150 120 70
2.27908 -2.72160 0.08687 157 130 67
2.28823 -2.74527 0.08048 88 83 52
2.27171 -2.75443 0.06783 44 37 67
2.27271 -2.76924 0.08179 52 51 110
2.26884 -2.78408 0.08081 59 60 143
2.26129 -2.79637 0.08135 57 63 160
2.26582 -2.81744 0.07680 56 66 165
2.26478 -2.83463 0.07457 54 63 163
2.26706 -2.85437 0.07092 52 60 159
2.26104 -2.86814 0.07077 49 56 151
2.25964 -2.88541 0.06864 47 55 140
2.24853 -2.89199 0.08804 40 51 130
2.24562 -2.89339 0.07186 44 52 133
2.23505 -3.03696 0.05385 43 48 99
2.25243 -3.02732 0.06717 47 52 113
2.24944 -3.02876 0.05055 46 50 108
2.24645 -3.03021 0.03393 46 49 104
2.23600 -3.05727 0.05054 37 44 84
2.21855 -3.06695 0.03717 27 35 54
2.23431 -3.07565 0.04834 36 40 65
2.24134 -3.10112 0.04235 48 47 55
2.23388 -3.11516 0.04260 57 52 59
2.23608 -3.13710 0.03865 72 68 78
2.24256 -3.16269 0.03282 116 114 118
2.22679 -3.19084 0.03359 139 136 145
2.21507 -3.19778 0.05407 159 147 146
2.21199 -3.19927 0.03698 140 144 150
2.20247 -3.21212 0.03806 160 154 149
2.19939 -3.21361 0.02095 158 161 155
2.16693 -3.22400 0.04746 154 152 150
2.15769 -3.23717 0.04841 160 165 149
2.14566 -3.24801 0.05058 149 138 139
2.12775 -3.25794 0.03686 146 141 140
2.12745 -3.25354 0.05548 141 132 137
2.01971 -3.28724 0.08431 155 149 146
2.03445 -3.27884 0.08093 143 138 147
2.03139 -3.28032 0.06391 142 138 135
2.02278 -3.28576 0.10133 154 151 150
2.00803 -3.29416 0.10472 158 159 154
2.00191 -3.29712 0.07068 173 171 165
2.00048 -3.29157 0.08971 166 164 158
1.98270 -3.30144 0.07609 164 157 165
1.98895 -3.30287 0.09165 152 155 151
1.97115 -3.31274 0.07802 157 171 160
1.98457 -3.32076 0.09037 155 158 137
1.97119 -3.33047 0.09313 151 147 143
1.95641 -3.33889 0.09652 151 143 150
1.95334 -3.34037 0.07945 156 149 152
1.77616 -3.36812 0.14880 152 157 148
1.78771 -3.36128 0.12862 152 150 136
1.77313 -3.36959 0.13196 146 152 143
1.76622 -3.38104 0.15001 143 142 157
1.74858 -3.39082 0.13650 150 153 162
1.74804 -3.40877 0.15160 142 153 156
1.74499 -3.41024 0.13468 151 158 152
1.71108 -3.41765 0.16189 143 148 152
1.69342 -3.42744 0.14836 150 151 146
1.62651 -3.42359 0.18757 150 156 165
1.64101 -3.41533 0.18424 145 144 164
1.63800 -3.41678 0.16750 152 152 143
1.60899 -3.43330 0.17415 140 137 138
1.62026 -3.44056 0.18701 137 139 154
1.60663 -3.44980 0.18992 150 150 146
1.59673 -3.46306 0.19106 164 169 148
1.50050 -3.52755 0.21170 151 156 131
1.51206 -3.52070 0.19151 154 153 148
1.46040 -3.53172 0.22368 143 137 140
1.45738 -3.53318 0.20689 147 138 132
1.44284 -3.54146 0.21023 146 144 145
1.44141 -3.53490 0.22917 143 130 144
1.30218 -3.59884 0.26341 150 148 150
1.28470 -3.60854 0.25002 150 152 167
1.23471 -3.61978 0.28149 156 158 152
1.24614 -3.61301 0.26152 151 159 159
1.23172 -3.62123 0.26483 152 157 157
1.15671 -3.62635 0.30502 141 150 149
1.16806 -3.61963 0.28519 153 153 163
1.15373 -3.62779 0.28848 149 149 158
1.14238 -3.63451 0.30830 141 148 149
1.13941 -3.63594 0.29177 148 163 155
1.10028 -3.66015 0.31772 144 150 155
1.08298 -3.66975 0.30446 128 140 136
1.08655 -3.66912 0.32070 122 141 151
0.94681 -3.75594 0.35170 151 155 137
0.93357 -3.76575 0.35440 134 134 125
0.91802 -3.77217 0.35833 134 136 122
0.90068 -3.78178 0.34505 149 154 148
0.90279 -3.77904 0.36209 135 141 136
0.88546 -3.78865 0.34882 145 148 143
0.54684 -3.88724 0.45783 116 125 128
0.56386 -3.87780 0.47086 128 136 144
0.54977 -3.88582 0.47409 131 134 142
0.54392 -3.88865 0.44156 108 117 119
0.52983 -3.89668 0.44479 114 125 130
0.53102 -3.89215 0.46207 121 130 140
0.51401 -3.90158 0.44905 121 125 123
0.51621 -3.89884 0.46573 131 134 136
0.49921 -3.90827 0.45271 122 128 129
0.50309 -3.90859 0.46840 130 135 139
0.46679 -3.90954 0.47966 124 127 124
0.46388 -3.91095 0.46347 124 131 131
0.45568 -3.91612 0.49907 127 130 126
0.45277 -3.91753 0.48288 132 138 134
0.44691 -3.94092 0.48124 125 124 120
0.44984 -3.93951 0.49750 119 118 121
0.43283 -3.94894 0.48447 108 125 126
0.42991 -3.95035 0.46822 112 122 117
0.37019 -4.00447 0.49590 127 134 133
0.36726 -4.00589 0.47958 127 129 129
0.35365 -4.00768 0.50062 130 142 145
0.33660 -4.01713 0.48756 121 126 131
0.33647 -4.00952 0.50574 132 135 138
0.31945 -4.01896 0.49270 120 127 138
0.16204 -4.13402 0.54204 116 117 121
0.17326 -4.12737 0.52244 118 128 129
0.16498 -4.13260 0.55839 115 117 112
0.15909 -4.13544 0.52569 120 126 127
0.14882 -4.14427 0.54467 119 119 123
0.13546 -4.15425 0.54738 119 124 127
0.11834 -4.16374 0.53427 127 142 135
0.12234 -4.16480 0.54994 122 134 130
0.10520 -4.17430 0.53681 125 134 127
0.01177 -4.19284 0.58050 125 133 122
0.02293 -4.18623 0.56100 117 119 141
0.00884 -4.19425 0.56423 121 125 132
-0.07593 -4.23247 0.60216 115 116 116
-0.09292 -4.24189 0.58916 126 127 129
-0.37296 -4.33885 0.67966 114 112 117
-0.37585 -4.34025 0.66362 111 106 109
-0.38685 -4.34677 0.68285 110 109 111
-0.68375 -4.48864 0.75503 98 106 100
-0.66994 -4.48077 0.75186 88 86 98
-0.68662 -4.49003 0.73908 102 103 100
-0.69757 -4.49651 0.75820 100 102 94
-0.70044 -4.49790 0.74225 98 101 96
-0.76374 -4.55081 0.77092 103 106 91
-0.76662 -4.55221 0.75492 85 84 81
2.36866 -2.65015 0.05303 155 139 175
2.33521 -2.64460 0.06444 92 81 170
2.31369 -2.64688 0.07090 85 59 172
2.30502 -2.67457 0.06943 97 81 170
2.30220 -2.68958 0.06804 121 103 159
2.28885 -2.69743 0.07107 138 117 106
2.28296 -2.71045 0.07095 154 127 80
2.26871 -2.71771 0.07435 161 132 80
2.27756 -2.74115 0.06800 88 80 59
2.26094 -2.76429 0.06974 56 63 106
2.25487 -2.77752 0.06964 72 70 131
2.26300 -2.80104 0.06350 82 73 164
2.26245 -2.81847 0.06103 67 75 177
2.26067 -2.83513 0.05906 54 68 174
2.24391 -2.84443 0.04622 51 67 176
2.26199 -2.85418 0.05575 52 65 170
2.24516 -2.86351 0.04286 51 67 174
2.25087 -2.86419 0.05775 50 61 164
2.24557 -2.87854 0.05724 48 58 156
2.23852 -2.89167 0.05748 43 54 146
2.22743 -2.89824 0.07685 44 50 138
2.22452 -2.89965 0.06069 42 49 140
2.21938 -3.02845 0.04275 41 46 94
2.22068 -3.04899 0.03922 30 39 76
2.20329 -3.05864 0.02590 37 36 51
2.21956 -3.08757 0.03372 44 43 46
2.21527 -3.10407 0.03257 56 50 54
2.20949 -3.11946 0.03206 73 67 69
2.22104 -3.14911 0.02391 108 103 109
2.22298 -3.17113 0.01995 129 117 139
2.20873 -3.17993 0.02312 135 126 147
2.19092 -3.18980 0.00948 163 158 146
2.20279 -3.19565 0.02261 142 145 154
2.17533 -3.21425 0.02846 148 149 158
2.15145 -3.21495 0.03590 121 125 138
2.13725 -3.24491 0.03583 150 144 141
2.11117 -3.26487 0.04104 142 149 144
2.10809 -3.26636 0.02393 130 131 120
2.09635 -3.27331 0.04445 141 136 146
2.01276 -3.28522 0.06905 159 156 155
1.95805 -3.32264 0.08066 148 155 146
1.95498 -3.32412 0.06364 141 142 144
1.75157 -3.37095 0.13857 140 139 158
1.73399 -3.38070 0.12511 162 171 151
1.72026 -3.40836 0.14278 148 154 150
1.73184 -3.40151 0.12256 156 163 161
1.70262 -3.41815 0.12927 154 155 152
1.60964 -3.41049 0.17741 155 145 138
1.58571 -3.45595 0.17807 155 159 147
1.56816 -3.46569 0.16463 146 152 159
1.49216 -3.52303 0.19745 158 162 147
1.50370 -3.51620 0.17729 150 147 156
1.47038 -3.52316 0.20431 154 150 131
1.30696 -3.58391 0.24672 162 157 146
1.32140 -3.57569 0.24341 148 149 148
1.28952 -3.59359 0.23336 164 163 163
1.29343 -3.59326 0.24958 163 158 155
1.27598 -3.60294 0.23621 153 157 165
1.20289 -3.61117 0.27547 163 160 154
1.19991 -3.61261 0.25889 150 141 146
1.18854 -3.61935 0.27876 156 153 157
1.11980 -3.63714 0.29778 147 158 151
1.12277 -3.63571 0.31429 142 149 152
1.10253 -3.64672 0.28455 146 152 152
1.10572 -3.64557 0.30095 146 151 147
1.08845 -3.65515 0.28772 143 145 149
1.09078 -3.65286 0.30456 130 138 145
1.07351 -3.66244 0.29134 140 150 143
1.06348 -3.67090 0.31045 141 150 142
1.04621 -3.68048 0.29722 130 131 144
1.04965 -3.67969 0.31348 135 147 156
1.03451 -3.68668 0.31721 145 156 155
1.02021 -3.69483 0.32049 135 139 146
0.95272 -3.74133 0.33476 152 155 161
0.96704 -3.73317 0.33147 135 146 158
0.96406 -3.73461 0.31493 136 145 153
0.93762 -3.74837 0.33846 143 152 150
0.92033 -3.75796 0.32521 133 150 154
0.92370 -3.75711 0.34153 135 140 143
0.90641 -3.76670 0.32828 142 149 144
0.90749 -3.76247 0.34584 140 150 139
0.89021 -3.77205 0.33260 151 151 151
0.84153 -3.78179 0.36374 147 153 148
0.85579 -3.77367 0.36047 148 152 151
0.85283 -3.77510 0.34401 148 155 158
0.83024 -3.78848 0.38348 135 142 139
0.82653 -3.78877 0.36743 135 144 143
0.81524 -3.79546 0.38716 130 135 132
0.81227 -3.79689 0.37070 129 136 134
0.80931 -3.79832 0.35424 131 138 137
0.55815 -3.88088 0.43825 118 126 126
0.57516 -3.87144 0.45128 125 130 133
0.57224 -3.87285 0.43501 128 131 132
0.47865 -3.90434 0.45980 122 128 125
0.45018 -3.91955 0.46649 132 138 134
0.44726 -3.92095 0.45030 129 124 117
0.43323 -3.92894 0.45352 127 132 126
0.34906 -4.00576 0.48535 118 127 125
0.36023 -3.99915 0.46583 128 131 122
0.34613 -4.00718 0.46907 120 128 117
0.33202 -4.01521 0.47230 124 130 130
0.14176 -4.13616 0.53106 123 129 128
0.15296 -4.12953 0.51149 124 130 127
0.13882 -4.13758 0.51473 127 138 125
0.12468 -4.14563 0.51798 126 135 125
0.12809 -4.14531 0.53399 124 133 130
0.11101 -4.15478 0.52090 129 139 134
-0.06099 -4.19071 0.58684 119 128 126
-0.04412 -4.18135 0.59976 119 125 120
-0.04702 -4.18275 0.58363 113 122 123
-0.04993 -4.18415 0.56750 114 125 121
-0.07787 -4.20007 0.57391 136 139 132
-0.07238 -4.20558 0.58818 125 133 125
-0.08928 -4.21496 0.57523 127 129 121
-0.23500 -4.31751 0.62257 113 117 113
-0.21803 -4.30810 0.63556 121 123 121
-0.22095 -4.30951 0.61935 122 126 115
-0.23208 -4.31610 0.63879 123 123 119
-0.23792 -4.31892 0.60635 112 113 107
-0.25197 -4.32692 0.60957 106 109 111
-0.25445 -4.30878 0.63004 106 109 109
-0.26553 -4.31535 0.64941 114 112 105
-0.26844 -4.31675 0.63325 101 105 107
-0.67449 -4.47439 0.73762 100 98 97
-0.65784 -4.46515 0.75038 101 106 115
-0.66070 -4.46654 0.73446 101 101 110
-0.69115 -4.48363 0.72486 105 112 97
-0.75055 -4.55556 0.74933 92 98 93
-0.73954 -4.54904 0.73010 90 91 94
-0.75344 -4.55695 0.73329 93 97 92
-0.78064 -4.55927 0.75828 93 99 105
-0.79162 -4.56577 0.77746 103 106 104
-0.79450 -4.56716 0.76146 101 108 103
-0.79738 -4.56855 0.74545 99 105 94
-1.62664 -4.90593 0.97296 77 79 63
-1.63732 -4.91226 0.99163 80 81 74
-1.64013 -4.91361 0.97606 82 85 76
-1.64293 -4.91496 0.96048 83 96 74
2.36627 -2.63515 0.03979 219 124 115
2.37977 -2.62746 0.03670 208 95 84
2.37696 -2.62882 0.02111 206 113 93
2.36163 -2.64872 0.03917 218 184 178
2.34918 -2.65714 0.04182 181 162 199
2.33283 -2.66621 0.02930 182 175 223
2.32325 -2.65652 0.05016 120 99 177
2.30073 -2.67493 0.05446 103 84 176
2.28442 -2.68397 0.04196 117 125 185
2.29551 -2.68828 0.05404 130 110 177
2.28227 -2.69620 0.05703 143 127 127
2.26592 -2.70526 0.04450 156 133 105
2.27239 -2.70644 0.05858 156 136 93
2.25825 -2.71374 0.06194 150 129 88
2.26310 -2.73437 0.05720 76 67 77
2.24666 -2.74349 0.04461 57 55 90
2.25810 -2.74820 0.05664 53 45 87
2.24572 -2.75686 0.05923 51 50 120
2.24776 -2.77585 0.05564 102 94 164
2.21217 -2.76790 0.06818 163 181 208
2.25416 -2.83388 0.04460 63 75 178
2.23680 -2.87559 0.04365 50 64 168
2.24785 -2.86904 0.02433 52 67 177
2.23390 -2.87699 0.02753 53 66 179
2.22229 -2.88312 0.04709 47 60 160
2.21677 -2.89742 0.04662 47 56 151
2.20569 -2.90398 0.06598 48 47 133
2.20612 -2.90790 0.04838 48 53 142
2.19503 -2.91447 0.06776 50 48 128
2.19877 -2.92094 0.04870 47 53 134
2.18766 -2.92752 0.06810 48 51 125
2.18475 -2.92892 0.05192 46 51 128
2.18184 -2.93033 0.03573 47 55 133
2.19277 -2.99202 0.03958 43 47 99
2.20992 -2.98251 0.05272 46 49 110
2.20697 -2.98393 0.03632 43 48 107
2.20264 -3.01905 0.03225 40 42 88
2.18537 -3.02863 0.01902 34 35 67
2.20456 -3.04004 0.02838 34 36 69
2.18722 -3.04965 0.01510 39 40 54
2.20641 -3.08090 0.02145 46 44 49
2.20297 -3.09804 0.01989 56 54 56
2.20399 -3.11892 0.01632 76 77 72
2.21341 -3.14684 0.00899 110 115 112
2.21201 -3.16610 0.00645 133 132 132
2.20109 -3.17762 0.00813 147 139 139
2.18331 -3.18748 -0.00549 158 155 141
2.16264 -3.20762 0.01570 148 146 143
2.14483 -3.21750 0.00206 156 158 139
2.14435 -3.21300 0.02068 131 133 135
2.13572 -3.22662 0.02131 150 158 144
2.12007 -3.23426 0.02510 157 162 141
2.10387 -3.24141 0.02914 144 141 139
2.08024 -3.26336 0.03325 136 134 137
2.06853 -3.27029 0.05370 149 151 142
2.06546 -3.27177 0.03664 148 151 138
2.06239 -3.27326 0.01958 155 147 143
2.01943 -3.27384 0.05095 159 151 138
2.03719 -3.26398 0.06456 154 152 142
2.03414 -3.26546 0.04758 154 147 140
2.03108 -3.26694 0.03060 152 152 152
2.01638 -3.27531 0.03397 149 151 148
2.00002 -3.27797 0.05648 160 169 156
1.98275 -3.28399 0.06104 156 156 151
1.96807 -3.29235 0.06440 168 164 163
1.86963 -3.33264 0.08944 163 155 162
1.88426 -3.32431 0.08609 158 150 157
1.87267 -3.33118 0.10634 164 162 165
1.86659 -3.33411 0.07255 145 143 134
1.85804 -3.33951 0.10970 152 155 156
1.85500 -3.34098 0.09280 168 155 160
1.75574 -3.31195 0.12886 167 159 154
1.74339 -3.32217 0.13120 173 158 148
1.73209 -3.33345 0.13304 169 165 146
1.71467 -3.34311 0.11970 161 164 164
1.72442 -3.34839 0.13316 166 162 149
1.70697 -3.35807 0.11979 153 154 142
1.63086 -3.39066 0.15634 160 162 169
1.64228 -3.38389 0.13638 159 159 166
1.63385 -3.38921 0.17299 154 150 142
1.61344 -3.40032 0.14300 143 139 150
1.61495 -3.39732 0.16036 145 150 154
1.60003 -3.40499 0.16392 148 154 153
1.59207 -3.42003 0.16411 154 142 134
1.58434 -3.43541 0.16418 159 158 144
1.56687 -3.44511 0.15080 151 153 144
1.47244 -3.50570 0.18885 153 159 163
1.48392 -3.49890 0.16880 145 140 150
1.46039 -3.51671 0.19097 153 164 158
1.44089 -3.51925 0.19678 148 148 136
1.40078 -3.52282 0.20897 144 145 149
1.39778 -3.52426 0.19232 157 157 157
1.38336 -3.53248 0.19563 157 158 162
1.34679 -3.53477 0.22428 159 150 155
1.36415 -3.52514 0.23757 151 153 147
1.36116 -3.52659 0.22098 149 142 155
1.34978 -3.53333 0.24087 157 154 145
1.34380 -3.53622 0.20769 131 136 145
1.33540 -3.54152 0.24417 150 147 149
1.33378 -3.54458 0.22689 155 155 149
1.32239 -3.55133 0.24679 141 143 147
1.32214 -3.55606 0.22881 133 134 143
1.30697 -3.56331 0.23251 132 139 156
1.28959 -3.57295 0.21920 158 158 170
1.29626 -3.57599 0.23394 156 163 166
1.27886 -3.58564 0.22062 159 160 169
1.21553 -3.60602 0.25495 142 153 156
1.22989 -3.59784 0.25165 148 163 163
1.22690 -3.59929 0.23507 159 170 158
1.17701 -3.60984 0.26660 157 156 159
1.14009 -3.61536 0.27748 147 150 160
1.12286 -3.62492 0.26428 140 141 144
1.12622 -3.62401 0.28054 138 141 145
1.10963 -3.62908 0.28503 145 137 143
1.05260 -3.66159 0.29812 142 150 137
1.06390 -3.65490 0.27838 136 140 150
1.02447 -3.67837 0.30445 134 138 151
1.00725 -3.68793 0.29126 134 153 155
1.00941 -3.68537 0.30816 138 147 153
0.99515 -3.69350 0.31143 154 158 162
0.99219 -3.69493 0.29497 146 153 157
0.93629 -3.72335 0.32551 133 140 140
0.93333 -3.72478 0.30906 125 129 134
0.92291 -3.73272 0.32831 130 136 155
0.90569 -3.74226 0.31512 133 144 154
0.83037 -3.77072 0.35183 147 155 150
0.81321 -3.78024 0.33868 136 141 143
0.81582 -3.77829 0.35528 135 143 144
0.79865 -3.78781 0.34213 129 134 140
0.74804 -3.79331 0.37449 126 130 131
0.76513 -3.78383 0.38758 126 127 127
0.76219 -3.78525 0.37124 123 129 125
0.73683 -3.79995 0.39407 133 136 139
0.73096 -3.80279 0.36140 137 141 148
0.73207 -3.79845 0.37877 131 140 142
0.72087 -3.80508 0.39833 131 138 134
0.71794 -3.80650 0.38201 130 142 140
0.71500 -3.80792 0.36569 134 139 147
0.59571 -3.85517 0.41331 129 139 146
0.61272 -3.84573 0.42634 132 138 146
0.60979 -3.84715 0.41008 133 143 153
0.58456 -3.86177 0.43280 122 126 126
0.58164 -3.86318 0.41655 122 123 125
0.57871 -3.86460 0.40029 125 126 125
0.54880 -3.87095 0.42578 125 136 134
0.55993 -3.86436 0.40633 135 141 134
0.54588 -3.87236 0.40956 131 140 137
0.53261 -3.87514 0.43027 118 125 130
0.51858 -3.88313 0.43350 121 129 133
0.51566 -3.88454 0.41729 134 136 133
0.48808 -3.89468 0.44140 127 134 133
0.50209 -3.88669 0.43818 123 127 127
0.49918 -3.88810 0.42200 129 132 132
0.47104 -3.89709 0.44644 133 143 137
0.45342 -3.89834 0.45185 124 130 128
0.43654 -3.90770 0.43892 130 127 113
-0.06803 -4.18115 0.57372 123 129 131
-0.20698 -4.31144 0.59768 121 124 129
-0.18998 -4.30201 0.61070 122 118 118
-0.19291 -4.30342 0.59445 126 129 132
-0.20406 -4.31003 0.61393 120 119 116
-0.22398 -4.32087 0.58465 119 114 105
-0.22278 -4.31424 0.60226 119 113 109
-0.23976 -4.32366 0.58926 118 120 103
-0.57310 -4.38809 0.70216 111 115 118
-0.55654 -4.37891 0.71485 109 112 118
-0.55939 -4.38028 0.69901 111 117 123
-0.58966 -4.39728 0.68947 98 98 86
-0.58569 -4.40058 0.70423 96 96 100
-0.59709 -4.41819 0.70512 92 101 101
-0.60799 -4.42464 0.72416 110 111 97
-0.61085 -4.42602 0.70828 110 121 108
-0.76876 -4.55744 0.73808 95 98 88
-0.75777 -4.55093 0.71888 99 106 99
-0.78397 -4.55830 0.74278 100 101 101
-1.61592 -4.90461 0.95350 70 74 66
-1.60242 -4.89692 0.95040 75 72 75
-1.61872 -4.90597 0.93791 92 87 86
-1.63223 -4.91366 0.94101 85 85 77
-1.65640 -4.90778 0.96588 86 88 81
-1.66705 -4.91409 0.98449 71 77 69
-1.66984 -4.91544 0.96897 78 73 52
-1.67264 -4.91679 0.95344 75 75 72
-1.69667 -4.92297 0.97632 70 72 61
-1.68045 -4.91397 0.98874 75 78 74
-1.68324 -4.91532 0.97324 79 75 70
-1.68603 -4.91667 0.95774 73 75 81
-1.71288 -4.93196 0.96390 61 61 60
2.34854 -2.62666 0.03054 221 123 80
2.34575 -2.62801 0.01501 227 142 116
