ply
format ascii 1.0
element face 0
property list uchar int vertex_indices
element vertex 1321
property float x
property float y
property float z
property uchar diffuse_red
property uchar diffuse_green
property uchar diffuse_blue
end_header
1.06711 -3.26784 1.78428 133 114 92
1.06176 -3.27111 1.77221 130 114 97
1.05640 -3.27437 1.76013 127 115 98
1.04948 -3.27392 1.77729 127 110 90
1.03882 -3.27923 1.78284 110 101 85
1.00529 -3.27016 1.79008 53 40 41
0.99687 -3.27881 1.79623 73 66 41
0.99485 -3.29784 1.80443 117 107 92
0.98085 -3.30936 1.79854 126 106 92
3.19698 -1.96551 0.54699 194 193 191
3.20086 -1.95971 0.52618 190 190 190
3.19086 -1.96924 0.53319 190 191 188
3.16907 -1.99507 0.56772 120 113 116
3.17296 -1.98926 0.54690 174 169 145
3.16295 -1.99880 0.55392 108 87 74
3.13093 -1.99156 0.57877 156 179 200
3.11684 -1.99908 0.58633 149 160 173
3.07549 -2.00782 0.60325 104 102 107
3.06257 -2.01577 0.61059 111 108 102
3.09019 -2.04321 0.61239 170 178 165
3.07414 -2.05641 0.60563 186 187 183
3.09281 -2.08765 0.62903 178 178 176
3.09671 -2.08183 0.60814 181 181 180
3.10396 -2.10771 0.63329 170 169 166
3.10185 -2.12130 0.63933 162 158 160
3.08658 -2.12835 0.64708 153 148 151
3.10470 -2.15224 0.65058 104 98 110
3.06972 -2.14930 0.66083 83 81 78
3.05344 -2.16270 0.65397 88 88 72
3.23408 -2.35858 0.68963 82 79 77
3.25137 -2.34435 0.69691 82 80 70
3.24481 -2.34835 0.68211 77 76 69
3.24064 -2.35457 0.70443 84 81 78
3.23872 -2.37715 0.69543 88 84 88
3.22435 -2.38544 0.70338 95 92 94
3.21691 -2.39753 0.71056 104 100 96
3.19817 -2.40337 0.71897 112 109 105
2.63813 -2.19281 0.81866 146 151 149
2.64181 -2.18731 0.79894 140 150 149
2.65073 -2.21478 0.82321 121 120 108
2.66627 -2.23867 0.82755 75 70 64
2.66523 -2.25292 0.83349 53 52 56
2.66150 -2.25850 0.85352 45 52 52
2.65561 -2.26209 0.84024 51 51 58
2.64972 -2.26568 0.82696 52 50 57
2.71654 -2.37549 0.86502 63 58 61
2.72039 -2.36973 0.84438 64 61 55
2.79041 -2.45321 0.87153 116 124 105
2.69647 -2.52241 0.92940 111 109 105
2.69027 -2.52619 0.91542 134 130 125
2.68366 -2.53029 0.93668 107 103 104
2.66734 -2.54372 0.92981 150 149 134
2.65649 -2.52850 0.94483 109 104 99
2.63533 -2.53062 0.95257 107 105 92
2.58480 -2.52893 0.96838 96 94 92
2.53688 -2.51225 0.97743 97 100 99
2.54560 -2.53455 0.98337 99 105 106
2.52450 -2.53618 0.99089 108 118 118
2.46649 -2.51173 1.00018 152 168 145
2.49590 -2.54875 1.00516 213 230 151
2.48748 -2.55916 1.01200 226 230 122
2.48092 -2.57092 1.01877 222 222 130
2.48001 -2.58680 1.02532 223 222 137
2.47070 -2.59665 1.03223 215 205 134
2.38827 -2.56936 1.04836 178 160 123
2.41557 -2.63956 1.06710 152 165 149
2.35051 -2.60723 1.07558 145 151 148
2.40339 -2.66415 1.08075 110 105 109
2.41544 -2.69042 1.08716 99 101 99
2.40313 -2.69811 1.09421 114 123 121
2.39949 -2.71251 1.10106 133 139 137
2.39653 -2.72750 1.10793 150 148 142
2.38042 -2.74076 1.10115 162 165 143
2.38379 -2.73487 1.11498 155 166 136
2.36769 -2.74812 1.10821 161 164 155
2.37976 -2.74911 1.12190 153 158 144
2.36363 -2.76238 1.11512 157 161 159
2.36831 -2.75749 1.12894 161 167 160
2.35218 -2.77076 1.12215 162 159 147
2.34470 -2.79130 1.14994 161 160 165
2.34859 -2.78549 1.12909 164 159 149
2.34236 -2.80714 1.15694 182 190 187
2.32246 -2.82645 1.17103 206 203 178
2.30299 -2.82815 1.17805 151 127 102
2.33266 -2.87105 1.18526 113 66 36
2.32983 -2.88689 1.19242 124 91 41
2.35073 -2.92300 1.19983 150 125 69
2.34675 -2.92895 1.22117 160 133 79
2.34048 -2.93278 1.20702 162 135 80
2.12042 -2.86828 1.25337 167 148 90
2.08818 -2.85735 1.25958 122 111 67
1.58140 -2.50784 1.28720 36 27 54
1.58462 -2.50303 1.26993 69 67 56
1.53415 -2.47873 1.29115 98 99 100
1.58892 -2.54674 1.30006 146 137 118
1.57541 -2.55785 1.29438 155 134 111
1.36500 -2.69573 1.43172 150 127 117
1.36821 -2.69094 1.41452 151 123 95
1.34610 -2.69173 1.43631 181 175 164
1.33283 -2.70264 1.43072 206 210 195
1.31720 -2.67630 1.43966 201 207 187
1.29256 -2.66540 1.44340 190 185 180
1.28446 -2.67312 1.44908 190 190 184
1.21245 -2.62407 1.45324 179 178 164
1.19972 -2.63455 1.44789 160 164 158
1.13475 -2.68373 1.50206 161 167 149
1.13781 -2.67917 1.48568 157 166 160
1.12993 -2.68667 1.49120 159 167 154
1.13114 -2.69650 1.50827 144 146 137
1.12492 -2.70610 1.51407 126 126 127
1.11219 -2.71657 1.50872 119 123 122
1.11775 -2.71454 1.51973 121 125 124
1.10502 -2.72501 1.51437 117 124 122
1.11260 -2.72553 1.52574 124 133 128
1.10132 -2.72879 1.53070 124 137 135
1.09050 -2.73259 1.53572 137 148 149
1.07867 -2.73504 1.54055 152 161 158
1.07561 -2.73961 1.55692 158 165 160
1.07080 -2.74254 1.54607 157 165 158
1.06598 -2.74548 1.53521 156 165 159
1.00697 -2.95195 1.64932 155 157 146
1.01012 -2.94724 1.63241 157 160 157
0.99972 -2.96097 1.65523 135 127 115
0.98662 -2.97175 1.64972 104 82 66
1.00397 -2.98677 1.66400 104 87 75
0.99079 -2.99762 1.65845 96 82 72
1.06197 -3.17500 1.71920 89 78 54
1.06531 -3.17002 1.70132 92 83 64
1.07817 -3.22088 1.73197 46 42 37
1.06948 -3.22917 1.73807 42 42 36
1.07484 -3.25912 1.74812 95 90 86
1.06688 -3.26872 1.75449 124 112 87
1.05276 -3.28033 1.74854 125 114 93
1.04715 -3.28193 1.76612 124 98 86
1.03109 -3.27870 1.77009 79 65 63
1.00859 -3.28720 1.78077 59 54 66
1.00068 -3.29676 1.78711 109 102 76
0.98666 -3.30830 1.78121 133 118 100
0.99355 -3.30761 1.79371 129 115 100
0.97951 -3.31915 1.78780 127 110 94
3.13137 -1.99829 0.56411 86 85 130
3.13523 -1.99252 0.54340 157 149 124
3.10652 -2.00080 0.57326 96 106 137
3.09174 -2.00795 0.58091 102 105 119
3.07834 -2.01573 0.58836 94 93 108
3.05596 -2.01918 0.59706 149 144 138
3.04006 -2.03226 0.59037 188 186 186
3.08166 -2.04575 0.59899 184 189 190
3.06562 -2.05894 0.59224 184 185 181
3.11316 -2.10446 0.61158 174 177 174
3.14237 -2.13362 0.61337 165 169 164
3.14067 -2.14759 0.61939 156 157 158
3.12894 -2.15658 0.62675 149 147 147
3.09850 -2.15605 0.63656 103 101 105
3.08212 -2.16256 0.64449 82 87 82
3.23088 -2.34840 0.66818 87 76 67
3.22635 -2.36195 0.67497 95 87 80
3.23242 -2.38132 0.68054 102 97 95
3.23650 -2.39973 0.68639 107 108 105
3.22740 -2.41098 0.69378 114 115 105
3.20867 -2.41687 0.70224 119 120 120
3.19128 -2.43118 0.69493 130 135 135
3.18918 -2.42228 0.71077 122 124 125
3.17841 -2.43254 0.71832 123 131 127
3.17182 -2.43656 0.70346 128 134 136
2.64033 -2.20101 0.80478 148 156 151
2.64402 -2.19550 0.78502 137 146 150
2.63452 -2.20456 0.79168 146 151 151
2.64513 -2.21848 0.81003 128 131 115
2.66942 -2.24760 0.81342 78 77 66
2.67064 -2.26324 0.81913 53 51 55
2.65507 -2.27604 0.81258 56 51 52
2.71970 -2.38492 0.85054 62 60 63
2.72356 -2.37915 0.82986 64 63 59
2.71361 -2.38863 0.83683 68 65 64
2.71434 -2.39726 0.85713 75 79 72
2.77637 -2.46818 0.86444 129 134 127
2.76619 -2.47788 0.87158 131 133 127
2.66681 -2.52694 0.92343 139 136 132
2.66064 -2.53071 0.90950 174 176 167
2.65054 -2.54033 0.91658 181 182 170
2.62946 -2.53456 0.93868 145 142 122
2.62332 -2.53831 0.92482 171 168 154
2.60769 -2.53613 0.94646 123 119 109
2.59013 -2.54050 0.95394 110 110 106
2.55453 -2.53232 0.96245 112 112 111
2.54535 -2.54229 0.96937 111 116 113
2.51846 -2.53986 0.97726 105 114 113
2.49872 -2.54232 0.98471 113 123 124
2.47857 -2.54440 0.99214 141 153 140
2.47134 -2.55560 0.99890 137 146 137
2.45549 -2.56864 0.99224 98 97 108
2.47924 -2.57774 1.00495 121 128 133
2.47207 -2.58912 1.01176 127 130 140
2.45762 -2.61188 1.02540 125 116 129
2.41260 -2.67951 1.06663 87 84 91
2.39657 -2.69270 1.05989 83 66 60
2.42227 -2.70408 1.07305 84 80 81
2.40439 -2.70751 1.08027 96 100 93
2.39944 -2.72094 1.08715 124 128 135
2.39563 -2.73532 1.09402 157 156 157
2.37949 -2.74860 1.08723 169 165 148
2.34365 -2.79919 1.13607 163 163 156
2.33205 -2.80747 1.14312 181 184 180
2.32348 -2.81824 1.15014 197 199 194
2.31252 -2.82704 1.15719 206 202 185
2.32302 -2.85380 1.16419 170 148 116
2.32553 -2.87404 1.17127 120 67 38
2.31539 -2.88370 1.17838 120 84 42
2.33102 -2.91536 1.18561 147 120 67
2.31906 -2.92359 1.19276 162 133 76
2.31510 -2.92952 1.21401 165 136 77
2.30885 -2.93332 1.19992 165 136 77
2.30261 -2.93713 1.18584 166 137 83
2.12761 -2.86563 1.23307 163 144 104
2.14340 -2.85263 1.23972 175 148 99
2.13741 -2.85629 1.22620 177 150 101
2.11182 -2.87863 1.22642 41 43 39
2.11072 -2.86859 1.23978 110 105 75
2.09496 -2.88156 1.23315 20 18 26
2.00929 -2.81262 1.25126 46 44 43
2.00559 -2.81814 1.27107 82 86 71
1.58653 -2.52061 1.27618 36 27 61
1.58976 -2.51578 1.25884 66 66 56
1.53087 -2.48342 1.27995 100 103 97
1.58469 -2.55072 1.28855 148 138 118
1.57118 -2.56184 1.28286 154 133 107
1.36357 -2.70287 1.42070 151 127 115
1.36679 -2.69806 1.40347 150 124 94
1.34113 -2.69487 1.42496 186 183 175
1.32786 -2.70579 1.41938 206 207 198
1.29332 -2.67492 1.43289 198 194 188
1.28835 -2.67795 1.42168 203 202 193
1.28023 -2.68569 1.42738 202 203 195
1.26556 -2.66019 1.43626 197 196 191
1.24471 -2.65311 1.44035 204 208 193
1.21642 -2.63722 1.44344 173 176 169
1.20363 -2.64774 1.43806 161 166 161
1.13206 -2.70656 1.49827 153 157 144
1.13514 -2.70197 1.48181 159 166 158
1.12909 -2.72026 1.50460 133 133 127
1.10558 -2.74330 1.52134 116 124 125
1.10866 -2.73870 1.50483 116 120 121
1.09358 -2.74564 1.52620 129 136 139
1.08146 -2.74777 1.53102 148 157 154
1.06872 -2.75825 1.52566 156 164 158
1.01225 -2.96979 1.64053 152 154 141
1.01542 -2.96506 1.62353 157 161 157
0.99755 -2.96807 1.64469 124 115 100
0.98443 -2.97887 1.63917 104 82 65
1.06107 -3.18481 1.70849 90 80 59
1.06441 -3.17982 1.69057 92 82 67
1.07234 -3.22334 1.71984 44 42 23
1.06364 -3.23163 1.72594 39 40 32
1.07077 -3.26438 1.73639 95 89 88
1.06327 -3.27469 1.74289 120 112 86
1.04913 -3.28632 1.73694 127 114 92
1.04512 -3.29045 1.75501 124 94 77
1.02615 -3.28259 1.75818 74 45 32
1.01221 -3.28254 1.76274 57 53 44
1.01661 -3.31194 1.77278 95 89 87
1.00501 -3.31567 1.77806 134 123 96
0.99092 -3.32727 1.77213 131 117 96
1.02832 -5.56233 2.64825 133 148 180
1.00799 -5.57905 2.63970 78 98 112
2.88188 -1.61068 0.47934 200 194 190
2.89621 -1.59889 0.48537 198 198 198
2.89077 -1.60221 0.47311 201 194 193
2.88732 -1.60736 0.49160 196 198 194
2.87843 -1.61584 0.49784 197 196 197
2.87299 -1.61915 0.48557 201 195 194
3.16695 -2.02146 0.54410 98 57 36
3.16080 -2.02521 0.53024 171 159 117
3.15690 -2.03104 0.55115 74 41 42
3.07486 -2.02065 0.57433 116 105 114
3.09139 -2.04279 0.57743 172 178 180
3.07533 -2.05601 0.57067 183 183 184
3.13213 -2.10599 0.58843 179 179 176
3.13607 -2.10011 0.56733 181 181 180
3.12593 -2.10978 0.57444 175 176 175
3.14355 -2.12633 0.59253 171 173 169
3.16409 -2.15136 0.59543 161 162 161
3.16116 -2.16483 0.60162 151 154 155
3.15173 -2.17507 0.60872 146 141 145
3.13514 -2.18872 0.60174 121 120 124
3.11592 -2.17188 0.61936 105 102 110
3.09944 -2.18545 0.61242 108 99 111
3.08524 -2.17114 0.62925 88 88 93
3.06884 -2.18463 0.62234 117 93 114
3.06629 -2.17630 0.63753 90 78 73
3.05069 -2.19812 0.65117 109 103 97
3.03430 -2.21160 0.64427 185 187 160
3.17896 -2.31217 0.65286 130 120 98
3.33880 -2.44710 0.65217 144 148 140
3.32800 -2.45778 0.65990 142 147 140
3.32125 -2.47071 0.66715 139 142 135
3.25395 -2.44986 0.68139 133 135 134
3.23634 -2.46435 0.67398 134 139 141
2.66249 -2.23572 0.79449 134 137 124
2.66622 -2.23015 0.77451 141 147 149
2.64944 -2.24282 0.80157 86 86 71
2.67704 -2.27421 0.80459 59 52 45
2.66143 -2.28705 0.79802 58 50 54
2.71953 -2.40806 0.84240 73 72 74
2.72341 -2.40226 0.82162 68 64 62
2.74000 -2.45281 0.85297 106 109 104
2.74257 -2.47054 0.85899 120 122 115
2.73864 -2.47641 0.88007 132 133 127
2.73672 -2.48295 0.86574 131 129 123
2.73279 -2.48883 0.88684 136 136 129
2.67571 -2.49182 0.88942 163 163 155
2.58436 -2.54446 0.94013 133 129 119
2.54867 -2.53616 0.94874 133 130 122
2.54363 -2.54904 0.95541 134 135 127
2.50636 -2.53929 0.96399 131 131 126
2.49754 -2.54943 0.97084 124 121 122
2.48361 -2.55593 0.97798 122 123 121
2.49182 -2.57828 0.98393 111 110 111
2.47106 -2.59647 0.99787 109 112 122
2.46500 -2.60017 0.98421 130 126 121
2.46201 -2.60654 1.00477 116 117 122
2.45288 -2.61655 1.01168 115 114 116
2.40581 -2.66564 1.04633 88 76 76
2.38983 -2.67878 1.03960 88 67 58
2.41484 -2.68960 1.05263 87 71 72
2.40836 -2.71906 1.06620 85 75 70
2.37528 -2.71056 1.07388 120 112 114
2.39619 -2.74431 1.08003 158 154 156
2.38002 -2.75762 1.07323 177 168 151
2.37181 -2.77759 1.10102 165 165 156
2.38186 -2.76802 1.09397 168 168 158
2.35909 -2.78501 1.10812 166 161 142
2.34003 -2.80499 1.12218 171 168 154
2.33253 -2.81666 1.12920 193 186 176
2.32611 -2.82925 1.13621 206 199 187
2.31434 -2.83742 1.14328 213 205 187
2.32716 -2.86622 1.15020 184 166 137
2.31315 -2.87260 1.15732 120 70 49
2.30377 -2.88287 1.16441 116 80 49
2.30630 -2.90335 1.17151 146 119 65
2.29542 -2.91241 1.17863 161 133 75
2.17892 -2.88398 1.20624 172 148 98
2.19491 -2.87082 1.21297 167 141 94
2.18884 -2.87452 1.19929 170 142 99
2.18499 -2.88028 1.21992 173 145 96
2.14243 -2.86976 1.21283 158 139 93
2.11684 -2.86501 1.21947 105 97 73
2.10107 -2.87798 1.21284 17 17 20
1.59006 -2.53192 1.26500 33 28 59
1.59330 -2.52707 1.24760 65 67 58
1.54154 -2.50147 1.26928 99 101 90
1.58625 -2.56030 1.27727 147 137 117
1.57271 -2.57144 1.27157 151 134 108
1.36402 -2.71212 1.40984 152 131 115
1.36724 -2.70731 1.39257 149 126 94
1.33946 -2.70174 1.41396 190 189 178
1.32618 -2.71267 1.40837 205 206 200
1.24879 -2.66648 1.43035 201 203 193
1.25191 -2.66182 1.41363 205 207 195
1.24388 -2.66948 1.41927 199 200 187
1.21940 -2.64929 1.43344 171 173 168
1.20657 -2.65985 1.42804 161 166 162
1.14086 -2.72646 1.48941 160 164 151
1.14395 -2.72184 1.47284 159 165 161
1.13082 -2.73145 1.49467 141 143 129
1.12124 -2.73698 1.50000 121 124 117
1.10842 -2.74752 1.49461 110 115 120
1.10628 -2.75334 1.51130 119 123 123
1.09669 -2.75881 1.51660 135 140 139
1.08388 -2.76935 1.51121 157 163 155
1.08531 -2.76196 1.52159 151 158 155
1.07253 -2.77248 1.51621 157 164 159
1.01311 -2.98133 1.63061 149 149 138
1.01413 -3.00256 1.63851 116 106 95
1.00087 -3.01348 1.63293 103 88 73
1.06557 -3.20287 1.69913 90 81 61
1.06812 -3.22826 1.70813 39 39 17
1.06154 -3.23983 1.71480 38 39 28
1.06311 -3.26408 1.72368 95 88 87
1.05700 -3.27655 1.73054 119 111 83
1.04324 -3.29924 1.74390 131 113 85
1.03787 -3.30251 1.73179 134 124 99
1.03175 -3.30329 1.74928 115 91 58
1.02684 -3.31784 1.75656 108 90 72
1.01268 -3.32949 1.75060 122 105 90
1.01342 -3.31872 1.76135 120 104 89
0.99929 -3.33034 1.75540 125 112 92
1.00160 -3.32210 1.76658 132 119 92
0.98750 -3.33371 1.76064 126 115 95
2.95104 -1.58313 0.43025 214 208 204
2.96548 -1.57125 0.43632 200 194 193
2.96000 -1.57459 0.42397 209 210 206
2.95652 -1.57978 0.44261 200 194 192
2.94756 -1.58832 0.44889 200 195 191
2.93459 -1.58879 0.43793 217 208 206
2.93112 -1.59397 0.45653 199 195 191
2.91543 -1.59335 0.44609 219 211 208
2.91197 -1.59852 0.46465 201 194 194
2.90106 -1.60518 0.44004 213 222 226
2.90225 -1.60019 0.45313 222 214 212
2.88789 -1.61200 0.44709 207 211 216
2.88192 -1.60418 0.46147 222 212 211
2.86760 -1.61596 0.45545 205 207 214
2.86865 -1.61091 0.46849 223 214 211
2.85848 -1.61884 0.47495 227 220 214
2.85504 -1.62399 0.49340 205 200 208
2.84418 -1.63061 0.46894 190 181 207
2.83997 -1.62342 0.48290 233 224 220
2.83654 -1.62855 0.50131 217 208 224
2.83367 -1.63288 0.48865 229 222 231
2.83024 -1.63802 0.50707 219 217 213
2.84984 -1.65155 0.49043 217 217 221
2.85075 -1.66409 0.49495 218 219 226
2.84728 -1.66927 0.51354 242 241 230
2.84182 -1.67261 0.50121 221 224 230
2.83635 -1.67594 0.48889 176 169 206
3.25824 -2.05626 0.50960 188 186 169
3.26850 -2.04648 0.50240 186 188 184
3.26222 -2.05031 0.48824 186 186 184
3.25196 -2.06009 0.49544 186 186 181
3.10258 -2.01206 0.54465 115 106 61
3.08564 -2.01820 0.55267 124 99 78
3.14719 -2.06188 0.54890 171 170 154
3.13093 -2.07526 0.54205 183 184 180
3.11721 -2.06190 0.55894 185 188 179
3.10102 -2.07522 0.55212 182 182 182
3.18748 -2.15504 0.57128 168 170 166
3.19149 -2.14905 0.54981 172 176 176
3.19514 -2.17386 0.57596 158 158 159
3.17843 -2.18760 0.56893 151 149 146
3.19898 -2.19089 0.58123 151 149 148
3.15858 -2.18558 0.59270 148 141 144
3.25400 -2.45771 0.66552 135 141 143
3.23636 -2.47222 0.65810 138 144 146
2.69958 -2.26474 0.77667 135 139 135
2.70335 -2.25911 0.75646 135 144 148
2.68495 -2.27106 0.78399 94 97 86
2.70076 -2.29561 0.78815 66 56 51
2.68502 -2.30857 0.78153 56 47 52
2.73010 -2.42227 0.82709 71 65 67
2.73399 -2.41646 0.80622 65 58 56
2.72007 -2.43183 0.83412 75 70 71
2.70264 -2.43667 0.84181 90 85 68
2.70430 -2.45371 0.84782 116 109 89
2.68812 -2.46703 0.84100 142 126 94
2.72352 -2.48221 0.85235 135 125 108
2.70720 -2.49563 0.84549 148 135 113
2.67687 -2.50040 0.87496 176 181 181
2.58042 -2.58279 0.93892 172 170 162
2.54886 -2.57721 0.94733 180 179 169
2.53565 -2.58446 0.95454 178 176 159
2.50621 -2.58008 0.96270 166 164 142
2.48039 -2.57811 0.97057 151 145 120
2.47726 -2.59244 0.97713 138 131 114
2.46102 -2.61395 0.99085 126 121 114
2.44999 -2.62258 0.99786 122 122 115
2.43400 -2.63573 0.99113 91 82 79
2.41353 -2.71425 1.04533 91 71 57
2.41742 -2.70844 1.02449 98 78 57
2.40429 -2.72439 1.05232 90 72 70
2.37354 -2.71768 1.06002 122 109 113
2.39205 -2.74963 1.06613 163 158 159
2.38960 -2.78287 1.07974 181 174 156
2.38211 -2.79458 1.08675 184 176 155
2.36927 -2.80198 1.09390 187 179 149
2.34242 -2.81574 1.10817 191 186 167
2.32608 -2.83810 1.12224 213 201 188
2.31335 -2.84549 1.12934 218 208 190
2.31793 -2.86745 1.13626 195 178 146
2.30395 -2.87382 1.14339 121 77 54
2.29624 -2.88550 1.15046 123 91 61
2.28640 -2.89537 1.15755 151 125 72
2.27325 -2.90239 1.16465 164 135 81
2.25696 -2.91579 1.15779 170 143 101
2.25878 -2.90822 1.17173 168 138 89
2.25486 -2.91407 1.19273 168 138 91
2.24869 -2.91784 1.17881 170 142 94
2.20281 -2.89590 1.18571 169 146 103
2.17288 -2.88769 1.19256 149 126 96
2.14708 -2.90124 1.20640 43 41 37
2.13112 -2.91436 1.19969 20 18 16
1.59165 -2.54144 1.25368 35 29 62
1.59491 -2.53657 1.23624 61 63 57
1.55495 -2.52224 1.25857 96 94 79
1.58782 -2.56991 1.26592 143 133 113
1.57424 -2.58108 1.26021 150 136 107
1.36249 -2.71921 1.39874 155 139 114
1.21589 -2.65385 1.42261 168 171 163
1.20305 -2.66441 1.41721 160 167 158
1.14822 -2.74468 1.48020 161 166 159
1.15133 -2.74004 1.46354 160 165 162
1.14332 -2.74767 1.46915 160 167 160
1.13839 -2.75004 1.48555 148 153 136
1.12839 -2.75514 1.49086 121 125 117
1.11266 -2.77070 1.50211 126 130 131
1.10401 -2.77748 1.50761 148 153 144
1.09113 -2.78808 1.50219 159 166 155
1.02330 -2.98670 1.61512 157 161 154
1.03654 -2.97580 1.62070 157 162 157
1.03152 -2.97887 1.60936 158 163 159
1.02649 -2.98193 1.59802 158 164 159
1.01490 -2.99426 1.62084 145 142 129
1.01804 -3.01874 1.62921 111 99 92
1.00472 -3.02970 1.62360 103 91 81
1.06873 -3.19755 1.68107 89 79 62
1.08267 -3.18608 1.68694 90 79 59
1.07738 -3.18930 1.67501 89 78 65
1.06964 -3.22039 1.68956 83 75 54
1.06462 -3.23432 1.69660 37 31 24
1.05748 -3.24504 1.70311 47 46 32
1.05951 -3.27009 1.71207 96 91 85
1.05260 -3.28133 1.71871 120 110 83
1.03847 -3.29296 1.71277 130 121 99
1.04642 -3.29378 1.72557 129 119 95
1.03227 -3.30542 1.71961 135 124 108
1.03539 -3.32098 1.73973 133 121 85
1.03001 -3.32427 1.72757 137 125 97
1.02583 -3.32815 1.74568 124 108 85
3.06450 -1.52325 0.35364 206 203 203
3.07907 -1.51126 0.35977 195 194 188
3.07354 -1.51463 0.34730 203 201 196
3.07003 -1.51988 0.36611 197 196 190
3.06099 -1.52850 0.37246 198 198 192
3.08317 -1.54181 0.35443 208 206 203
3.07406 -1.55049 0.36081 189 179 194
3.05074 -1.55398 0.37002 180 161 195
3.05629 -1.55060 0.38253 191 192 193
3.04721 -1.55925 0.38890 203 195 194
3.04166 -1.56263 0.37638 222 210 205
3.03611 -1.56602 0.36386 193 199 201
2.97224 -1.57269 0.40363 218 217 219
2.98671 -1.56078 0.40972 200 198 198
2.98121 -1.56413 0.39734 220 214 218
2.96674 -1.57604 0.39125 184 181 210
2.95777 -1.58459 0.39754 181 185 209
2.94889 -1.57579 0.41269 224 232 230
2.94107 -1.58475 0.41875 222 226 228
2.92665 -1.59662 0.41268 165 156 191
2.92164 -1.58923 0.42702 217 221 223
2.90930 -1.59642 0.43392 214 222 226
2.84987 -1.62087 0.46330 201 197 215
2.85331 -1.61573 0.44487 117 125 152
2.83558 -1.63263 0.45729 105 112 146
2.77705 -1.61533 0.48574 175 169 198
2.74170 -1.61273 0.49667 159 158 193
3.27379 -2.08496 0.49758 189 185 173
3.27781 -2.07896 0.47606 186 185 185
3.26746 -2.08882 0.48331 186 184 182
3.25712 -2.09867 0.49056 185 186 182
3.15447 -2.07211 0.53291 186 186 180
3.13815 -2.08554 0.52604 182 183 187
3.03973 -2.14686 0.60015 167 181 171
3.05145 -2.16771 0.60416 155 158 147
3.25250 -2.46471 0.64979 139 146 149
3.23484 -2.47923 0.64236 143 148 151
2.71886 -2.28334 0.76048 137 142 139
2.72266 -2.27767 0.74014 132 139 147
2.69989 -2.28716 0.76834 105 106 94
2.72107 -2.31508 0.77186 69 55 51
2.70521 -2.32813 0.76519 51 47 51
2.72535 -2.44284 0.81921 75 67 60
2.70769 -2.44756 0.82697 92 84 56
2.66758 -2.50209 0.86132 165 167 167
2.65135 -2.51544 0.85449 181 184 184
2.59789 -2.58644 0.91704 194 199 187
2.57649 -2.58812 0.92489 196 198 193
2.56729 -2.59832 0.93189 201 204 200
2.55336 -2.60516 0.93921 200 204 192
2.52017 -2.59816 0.94772 179 177 163
2.47400 -2.58156 0.95695 154 149 138
2.47456 -2.59858 0.96326 136 131 119
2.47559 -2.61604 0.96959 118 112 102
2.47629 -2.63337 0.97597 110 97 93
2.46021 -2.64661 0.96920 100 82 79
2.46745 -2.64373 0.98291 102 92 100
2.45135 -2.65697 0.97614 97 80 69
2.41157 -2.72122 1.03135 102 85 58
2.40221 -2.73130 1.03835 103 90 69
2.32509 -2.68806 1.04785 138 126 122
2.38308 -2.75114 1.05238 170 165 162
2.37821 -2.76482 1.05924 181 169 155
2.38931 -2.79136 1.06564 188 180 159
2.38100 -2.80244 1.07267 195 188 168
2.37109 -2.81225 1.07976 202 195 173
2.35769 -2.81920 1.08694 208 199 178
2.34274 -2.82484 1.09413 211 204 189
2.30712 -2.84920 1.11545 220 216 201
2.30416 -2.86482 1.12241 199 190 153
2.29594 -2.87604 1.12947 140 101 65
2.28675 -2.88644 1.13654 141 110 70
2.26645 -2.88728 1.14371 161 133 82
2.25021 -2.90064 1.13688 173 146 95
2.25564 -2.89624 1.15077 168 139 90
2.22387 -2.90521 1.16492 166 146 98
2.20593 -2.90778 1.17195 140 119 76
2.18507 -2.90766 1.17893 88 68 54
2.17232 -2.91467 1.18591 42 32 37
2.15625 -2.92789 1.17915 27 23 19
2.15506 -2.91760 1.19285 26 23 25
2.13904 -2.93078 1.18611 23 23 16
1.59583 -2.55347 1.24238 35 28 64
1.59910 -2.54859 1.22488 57 60 44
1.56822 -2.54300 1.24769 96 90 86
1.58560 -2.57590 1.25440 143 134 112
1.57201 -2.58709 1.24868 153 135 109
1.36925 -2.71833 1.38176 148 128 99
1.38267 -2.70729 1.38740 156 133 100
1.37758 -2.71040 1.37592 154 133 101
1.37248 -2.71350 1.36443 154 132 103
1.36186 -2.72733 1.38768 158 147 121
1.32505 -2.70299 1.39080 196 198 181
1.31179 -2.71390 1.38522 206 206 200
1.24483 -2.67930 1.40881 196 194 180
1.25289 -2.67162 1.40316 207 208 195
1.23990 -2.68231 1.39770 190 189 172
1.21586 -2.66249 1.41216 166 168 155
1.20299 -2.67307 1.40675 159 167 160
1.14014 -2.76138 1.47546 150 158 141
1.13070 -2.76724 1.48089 125 127 121
1.11862 -2.76971 1.48590 113 118 122
1.11364 -2.78124 1.49198 134 140 142
1.10072 -2.79187 1.48654 157 163 160
1.10600 -2.78937 1.49766 154 162 151
1.09308 -2.80000 1.49222 157 165 159
1.02312 -2.99680 1.60483 155 159 151
1.01817 -3.00944 1.61133 137 133 117
1.01449 -3.02403 1.61815 107 94 85
1.00115 -3.03499 1.61254 104 92 82
1.07648 -3.19917 1.66413 83 75 60
1.09046 -3.18767 1.67001 93 82 69
1.08515 -3.19090 1.65805 94 83 67
1.07985 -3.19414 1.64609 96 84 63
1.07897 -3.22440 1.67292 78 70 46
1.07256 -3.23624 1.67961 68 63 41
1.06387 -3.24462 1.68574 43 28 37
1.05099 -3.24649 1.69079 69 64 46
1.05598 -3.27620 1.70046 101 96 85
1.04816 -3.28606 1.70686 121 114 86
1.03402 -3.29769 1.70091 130 121 95
1.02654 -3.34131 1.73525 134 122 92
1.02997 -3.33618 1.71688 139 126 104
1.02114 -3.34460 1.72307 140 127 101
1.01634 -3.34750 1.74105 131 112 96
1.00752 -3.35591 1.74724 129 113 98
1.00212 -3.35920 1.73507 139 122 100
3.07919 -1.52197 0.33252 211 214 215
3.09381 -1.50994 0.33867 199 197 194
3.08826 -1.51332 0.32616 209 212 213
3.08271 -1.51670 0.31365 179 183 205
3.07364 -1.52535 0.32001 173 176 197
3.07660 -1.53292 0.33755 210 215 221
3.09310 -1.55079 0.33871 204 211 218
3.04755 -1.54629 0.35250 180 176 196
3.05777 -1.56197 0.35496 165 157 188
2.98470 -1.55892 0.37866 202 200 203
2.99019 -1.55557 0.39104 231 220 202
2.96644 -1.56400 0.38679 193 188 214
2.95201 -1.57588 0.38071 113 119 153
2.93656 -1.58846 0.40622 174 172 200
2.81943 -1.56682 0.43785 151 143 180
2.81410 -1.57007 0.42581 103 111 138
2.78601 -1.56542 0.44868 140 137 169
2.72984 -1.55486 0.46378 126 132 156
2.71605 -1.56621 0.45798 109 100 109
2.70818 -1.56934 0.47664 107 116 151
2.71220 -1.59426 0.48471 108 110 138
2.70694 -1.59747 0.47285 121 117 126
2.70514 -1.60309 0.49046 107 111 138
2.69128 -1.61449 0.48462 87 92 104
2.70696 -1.61561 0.49458 102 105 129
2.69306 -1.62704 0.48873 51 48 95
3.28202 -2.21631 0.52667 163 165 167
3.24632 -2.21375 0.53784 155 152 148
3.22856 -2.22011 0.54629 145 145 144
3.00394 -2.13537 0.59057 209 219 197
3.03941 -2.16846 0.59104 160 158 146
3.02312 -2.18186 0.58418 54 97 74
2.73697 -2.30135 0.74424 135 141 141
2.74079 -2.29564 0.72377 133 140 146
2.74197 -2.31963 0.74947 114 115 105
2.74698 -2.33804 0.75475 70 62 57
2.73433 -2.45624 0.80384 74 68 54
2.71743 -2.46151 0.81158 87 78 61
2.59465 -2.59226 0.90289 192 197 196
2.59858 -2.58640 0.88186 189 191 189
2.57510 -2.59523 0.91066 187 188 190
2.56143 -2.60229 0.91798 188 190 194
2.54706 -2.60881 0.92534 190 193 188
2.51833 -2.60496 0.93365 173 170 162
2.48556 -2.59801 0.94216 142 133 132
2.50113 -2.62608 0.94750 122 113 101
2.48499 -2.63936 0.94071 109 95 75
2.49205 -2.63630 0.95447 114 105 86
2.47590 -2.64958 0.94767 111 95 74
2.49740 -2.65721 0.96057 107 91 75
2.48119 -2.67055 0.95375 111 93 72
2.41811 -2.71745 1.01036 111 91 63
2.41046 -2.72887 1.01729 114 96 61
2.40151 -2.73930 1.02428 117 103 71
2.36586 -2.72866 1.03238 158 148 132
2.39049 -2.76564 1.03802 180 179 173
2.38361 -2.77779 1.04496 187 182 170
2.38780 -2.79889 1.05153 194 194 178
2.37816 -2.80893 1.05861 199 202 189
2.37009 -2.82025 1.06565 205 209 198
2.35127 -2.82278 1.07300 210 213 206
2.33588 -2.82804 1.08023 214 216 205
2.32674 -2.83844 1.08728 211 212 204
2.31585 -2.84739 1.09438 211 204 202
2.30218 -2.85399 1.10152 209 192 195
2.29374 -2.86498 1.10856 185 166 148
2.26308 -2.87518 1.12285 162 130 79
2.24688 -2.88851 1.11604 174 149 104
2.25168 -2.88359 1.12992 169 141 89
2.22974 -2.90112 1.14402 166 145 96
2.21559 -2.90707 1.15109 136 122 74
2.19601 -2.90815 1.15815 92 78 57
2.18634 -2.91797 1.16516 54 43 46
2.17610 -2.92728 1.17217 33 27 28
2.15999 -2.94054 1.16539 27 26 20
1.60400 -2.56939 1.23109 32 34 48
1.57752 -2.56003 1.23655 96 93 91
1.58701 -2.58544 1.24295 144 138 116
1.57338 -2.59665 1.23721 153 135 114
1.36472 -2.73943 1.37689 163 154 133
1.32921 -2.71650 1.38029 198 200 188
1.31589 -2.72746 1.37468 207 204 198
1.22019 -2.67630 1.40212 164 166 152
1.21529 -2.67929 1.39106 163 163 152
1.20727 -2.68693 1.39668 159 166 161
1.15927 -2.77683 1.46093 159 165 156
1.16735 -2.76912 1.45526 159 165 161
1.16241 -2.77214 1.44411 158 166 159
1.15432 -2.77985 1.44978 159 164 155
1.14316 -2.77440 1.46549 144 148 141
1.13272 -2.77905 1.47080 128 130 131
1.12016 -2.78095 1.47579 131 133 139
1.10722 -2.79160 1.47035 156 161 158
1.11833 -2.79659 1.48234 148 152 153
1.10535 -2.80728 1.47688 156 164 158
1.03530 -2.98523 1.58207 155 163 154
1.04858 -2.97430 1.58766 158 164 159
1.04354 -2.97738 1.57629 157 165 159
1.04034 -2.98216 1.59344 157 164 158
1.02869 -2.99544 1.58818 154 158 149
1.02393 -3.00838 1.59471 146 145 138
1.02508 -3.03005 1.60252 123 118 104
1.01170 -3.04106 1.59689 105 95 84
1.01982 -3.04244 1.60901 105 93 82
1.00642 -3.05347 1.60337 105 94 81
1.09489 -3.23835 1.65772 71 63 49
1.08536 -3.24556 1.66369 52 42 27
1.07301 -3.24840 1.66897 40 42 34
1.06385 -3.25612 1.67501 50 45 42
1.05993 -3.27197 1.68235 92 87 60
1.05359 -3.28415 1.68912 110 102 85
1.04362 -3.29064 1.69497 121 113 89
1.02948 -3.30228 1.68902 131 123 96
3.01866 -1.51754 0.33592 167 165 194
3.02214 -1.51234 0.31727 119 124 146
3.05486 -1.54240 0.33286 159 153 184
2.99413 -1.53223 0.34986 146 139 162
2.93807 -1.52346 0.36578 133 132 147
2.81287 -1.51164 0.40426 116 122 156
2.79898 -1.52307 0.39841 114 92 102
2.78310 -1.52328 0.41885 110 120 149
2.76346 -1.52721 0.42706 106 118 148
2.74965 -1.53858 0.42125 112 105 109
2.76597 -1.53968 0.43089 103 113 144
2.71912 -1.54436 0.44871 105 110 134
2.70538 -1.55566 0.44293 117 105 132
2.71406 -1.55386 0.45402 107 107 121
2.69883 -1.57086 0.46563 113 96 108
2.68507 -1.58218 0.45984 222 207 198
2.70569 -1.58527 0.46870 118 103 115
2.69127 -1.60273 0.48021 114 118 129
2.67744 -1.61411 0.47439 79 76 76
3.31649 -2.22529 0.49993 169 174 166
3.29949 -2.23227 0.50838 160 165 163
3.24928 -2.22242 0.52189 150 151 149
3.22206 -2.22398 0.53181 136 138 148
2.99294 -2.13658 0.57751 205 217 201
3.00018 -2.15504 0.58197 177 182 154
2.98402 -2.16834 0.57517 99 117 116
2.93140 -2.14846 0.60307 137 171 167
2.92535 -2.15215 0.58941 111 118 112
2.91544 -2.16159 0.59636 185 207 208
2.76117 -2.32308 0.72710 138 145 143
2.76502 -2.31733 0.70645 140 146 148
2.74406 -2.32821 0.73489 123 126 114
2.76092 -2.35387 0.73876 74 71 60
2.75232 -2.36421 0.74560 51 50 49
2.74844 -2.37000 0.76636 53 49 47
2.74234 -2.37372 0.75260 52 51 40
2.73624 -2.37744 0.73883 56 50 38
2.74755 -2.45629 0.78186 68 59 53
2.75767 -2.44664 0.77476 67 55 53
2.73034 -2.46142 0.78968 76 69 59
2.71207 -2.46579 0.79759 84 76 70
2.69581 -2.47917 0.79075 92 84 69
2.66713 -2.46884 0.81415 123 112 76
2.63880 -2.48244 0.82898 144 142 135
2.65217 -2.50754 0.83383 161 167 165
2.65448 -2.52543 0.83976 184 193 180
2.59112 -2.59790 0.88874 182 182 182
2.57482 -2.61131 0.88188 177 174 168
2.55358 -2.60485 0.90422 181 179 178
2.53760 -2.61019 0.91171 183 180 177
2.52585 -2.61854 0.91888 173 168 160
2.50219 -2.61822 0.92687 140 126 109
2.51731 -2.64613 0.93218 112 95 71
2.50106 -2.65949 0.92535 109 92 70
2.46062 -2.68938 0.96788 112 92 66
2.47068 -2.67979 0.96083 111 91 69
2.45446 -2.69313 0.95401 120 101 71
2.44441 -2.70272 0.96106 120 103 69
2.44970 -2.69831 0.97498 113 94 65
2.43558 -2.70478 0.98226 117 96 63
2.42411 -2.71325 0.98937 120 98 66
2.41894 -2.72661 0.99617 122 102 71
2.40274 -2.73994 0.98935 126 102 72
2.40889 -2.73619 1.00322 122 101 69
2.39014 -2.73893 1.01068 127 112 85
2.38831 -2.75498 1.01734 173 173 160
2.37973 -2.76574 1.02432 190 191 184
2.37508 -2.77965 1.03115 189 192 183
2.38245 -2.80335 1.03753 190 189 188
2.37150 -2.81233 1.04466 185 180 190
2.35930 -2.82027 1.05183 186 182 180
2.34587 -2.82718 1.05904 189 179 167
2.32816 -2.83051 1.06636 189 171 158
2.30561 -2.82973 1.07380 178 164 153
2.29184 -2.83617 1.08094 175 155 142
2.28167 -2.84562 1.08798 177 151 138
2.26550 -2.85893 1.08118 171 142 99
2.26823 -2.85228 1.09510 170 142 119
2.25207 -2.86557 1.08830 175 143 96
2.25902 -2.86253 1.10211 172 135 94
2.24286 -2.87583 1.09531 176 151 100
2.25097 -2.87379 1.10910 175 144 91
2.23032 -2.89241 1.12318 164 142 102
2.21916 -2.90097 1.13023 130 118 80
2.20300 -2.91426 1.12343 81 82 69
2.20966 -2.91099 1.13725 97 92 63
2.19792 -2.91902 1.14430 78 78 66
2.18623 -2.92708 1.15134 54 54 54
2.17778 -2.93805 1.15835 34 31 30
2.16163 -2.95134 1.15156 27 26 28
2.13635 -2.95625 1.17940 29 30 24
2.14634 -2.94673 1.17240 26 27 20
2.14246 -2.95252 1.19318 25 25 19
1.62236 -2.57891 1.21375 56 58 45
1.63607 -2.56763 1.21952 67 72 54
1.63087 -2.57080 1.20778 65 67 52
1.62566 -2.57397 1.19605 64 63 52
1.60701 -2.58042 1.21958 37 41 49
1.59168 -2.58188 1.22538 97 95 81
1.59354 -2.60000 1.23156 145 140 121
1.57984 -2.61127 1.22580 151 136 114
1.37140 -2.73844 1.35978 153 133 109
1.37465 -2.73358 1.34236 156 132 99
1.32723 -2.72309 1.36915 200 202 192
1.31390 -2.73406 1.36354 206 204 197
1.26335 -2.70129 1.38286 205 206 191
1.26651 -2.69657 1.36594 205 204 196
1.25025 -2.71207 1.37734 180 181 163
1.23040 -2.67996 1.38614 185 182 161
1.21744 -2.69063 1.38068 162 163 154
1.14833 -2.79022 1.45573 151 152 147
1.15147 -2.78552 1.43889 159 165 159
1.14338 -2.79324 1.44456 160 164 157
1.13528 -2.80095 1.45024 158 165 158
1.13981 -2.79739 1.46135 146 149 146
1.12676 -2.80812 1.45586 156 165 159
1.13093 -2.80410 1.46691 150 156 154
1.04949 -2.95698 1.55233 158 165 158
1.06273 -2.94608 1.55790 158 165 162
1.05770 -2.94915 1.54656 157 165 164
1.05451 -2.95391 1.56366 159 165 159
1.04629 -2.96175 1.56943 158 165 159
1.04537 -2.97065 1.55888 153 163 155
1.04056 -2.98340 1.56532 146 157 151
1.02726 -2.99434 1.55972 135 138 135
1.03292 -2.99214 1.57123 143 149 143
1.03056 -3.00855 1.57821 139 138 133
1.02741 -3.02393 1.58507 132 127 122
1.03527 -3.05559 1.59428 114 103 90
1.02179 -3.06668 1.58860 107 96 84
1.10105 -3.23743 1.64010 99 86 65
1.11521 -3.22578 1.64605 102 91 75
1.10983 -3.22906 1.63394 104 93 76
1.10446 -3.23233 1.62182 104 95 79
1.09247 -3.24610 1.64630 60 50 47
1.07624 -3.24306 1.65072 35 20 22
1.07200 -3.25836 1.65793 33 36 55
1.06502 -3.26951 1.66451 71 75 58
1.06195 -3.28680 1.67207 106 100 74
1.04776 -3.29847 1.66610 116 106 96
1.05242 -3.29404 1.67806 115 104 91
1.03824 -3.30571 1.67209 123 113 101
1.04086 -3.29805 1.68353 122 112 98
1.02670 -3.30970 1.67757 130 122 98
3.00157 -1.49335 0.31729 121 128 154
2.90826 -1.49464 0.35003 116 117 144
2.82140 -1.50858 0.38526 102 108 118
2.80748 -1.52002 0.37940 134 119 146
2.78644 -1.52978 0.40525 114 95 102
2.77256 -1.54120 0.39941 222 212 188
2.76168 -1.53175 0.41455 112 103 108
2.72872 -1.54189 0.42972 113 102 107
2.72350 -1.54507 0.41794 222 211 189
2.70665 -1.54466 0.43839 114 100 117
2.69294 -1.55595 0.43262 222 214 207
2.71251 -1.57008 0.44584 142 121 153
2.66212 -1.56128 0.45998 188 164 167
2.60064 -1.57052 0.48468 163 168 164
2.74041 -1.73798 0.49883 242 219 157
2.73696 -1.74314 0.51734 189 159 106
2.73152 -1.74646 0.50507 192 169 114
3.44020 -2.13867 0.40641 164 168 182
3.42040 -2.14463 0.41548 179 182 185
3.41625 -2.15083 0.43773 183 185 181
3.40971 -2.15482 0.42298 182 181 176
3.40317 -2.15881 0.40822 178 179 177
3.33930 -2.22837 0.47475 175 177 171
3.35655 -2.21417 0.48201 180 180 181
3.35001 -2.21817 0.46725 180 180 178
3.34346 -2.22216 0.45248 178 179 172
3.32759 -2.23807 0.48242 169 165 157
3.27083 -2.22509 0.49720 147 138 125
3.20287 -2.20610 0.51360 137 125 116
3.19049 -2.21506 0.52123 126 113 111
3.14795 -2.20851 0.53349 137 135 151
2.97002 -2.13159 0.56630 189 196 198
2.77732 -2.34011 0.71070 143 149 148
2.78120 -2.33432 0.68994 143 148 151
2.77122 -2.34383 0.69694 145 149 155
2.76291 -2.34695 0.71824 131 133 127
2.78493 -2.37590 0.72142 84 83 69
2.76247 -2.37789 0.72993 60 52 50
2.74632 -2.39118 0.72313 65 50 33
2.76122 -2.45659 0.75972 72 58 56
2.77758 -2.44313 0.76661 62 53 53
2.77137 -2.44691 0.75260 66 58 52
2.74952 -2.46529 0.76701 76 61 63
2.73317 -2.47874 0.76013 88 78 68
2.73184 -2.47012 0.77493 82 70 67
2.71836 -2.47760 0.78238 88 82 73
2.68699 -2.48960 0.79770 98 94 74
2.64213 -2.47629 0.80823 112 107 84
2.63923 -2.49052 0.81455 120 119 114
2.61787 -2.49247 0.82266 128 131 135
2.62990 -2.51680 0.82758 158 162 161
2.61371 -2.53012 0.82077 174 175 170
2.62339 -2.61189 0.86530 186 180 169
2.63982 -2.59837 0.87222 191 192 187
2.63358 -2.60217 0.85815 188 184 169
2.62735 -2.60597 0.84409 183 181 169
2.60696 -2.62541 0.85839 175 171 159
2.59411 -2.60814 0.87403 180 175 168
2.57777 -2.62159 0.86715 172 169 157
2.54312 -2.62234 0.89695 179 176 174
2.54704 -2.61649 0.87597 171 169 161
2.53695 -2.62610 0.88304 171 170 166
2.52478 -2.62596 0.90464 172 169 158
2.51045 -2.63244 0.91201 146 133 105
2.52644 -2.66112 0.91718 115 94 61
2.43530 -2.71304 0.96805 124 105 73
2.42457 -2.72211 0.97515 130 109 74
2.40836 -2.73545 0.96833 142 119 70
2.41825 -2.73461 0.98200 131 111 73
2.40202 -2.74796 0.97517 139 111 70
2.40062 -2.75578 0.99599 133 117 82
2.34508 -2.72928 1.00530 167 162 143
2.33223 -2.73643 1.01241 174 157 141
2.32206 -2.74570 1.01939 165 153 142
2.35569 -2.79047 1.02446 153 131 136
2.34165 -2.79681 1.03168 138 118 120
2.33075 -2.80569 1.03876 164 143 124
2.31856 -2.81350 1.04589 177 148 118
2.30237 -2.82682 1.03908 177 148 100
2.30439 -2.81964 1.05308 177 144 110
2.28822 -2.83294 1.04627 179 148 98
2.29374 -2.82868 1.06013 173 141 109
2.27758 -2.84198 1.05333 179 146 89
2.27996 -2.83507 1.06728 170 140 95
2.26381 -2.84836 1.06049 176 147 96
2.26927 -2.84406 1.07432 170 143 99
2.25313 -2.85734 1.06753 175 146 97
2.23039 -2.88325 1.10239 160 141 97
2.22311 -2.89521 1.10936 120 110 76
2.21585 -2.90720 1.11635 89 85 67
2.19760 -2.92795 1.13040 71 79 65
2.18822 -2.93812 1.13743 47 50 47
2.17203 -2.95144 1.13062 19 19 22
2.17974 -2.94911 1.14446 28 26 30
2.15605 -2.96497 1.15857 33 32 31
2.14416 -2.97282 1.16561 39 37 36
2.12392 -2.97290 1.17263 43 45 42
2.10781 -2.98616 1.16585 51 56 46
1.61912 -2.58396 1.20204 55 56 46
1.62242 -2.57902 1.18433 63 61 51
1.60665 -2.58826 1.20795 37 43 43
1.61178 -2.60962 1.21414 94 95 81
1.59374 -2.60846 1.21995 144 141 121
1.58002 -2.61975 1.21418 152 135 112
1.37385 -2.75012 1.34881 153 136 113
1.37711 -2.74525 1.33134 156 134 101
1.33651 -2.74260 1.35891 202 206 194
1.32309 -2.75364 1.35327 205 204 196
1.25997 -2.70618 1.37178 205 204 189
1.26312 -2.70146 1.35485 204 205 194
1.12564 -2.82489 1.46250 154 163 156
1.12879 -2.82018 1.44560 145 153 148
1.11255 -2.83565 1.45699 139 146 140
1.11624 -2.83095 1.46801 150 159 152
1.11309 -2.83566 1.48490 155 163 158
1.10316 -2.84171 1.46251 141 146 144
1.05286 -2.93315 1.52805 154 161 159
1.06606 -2.92230 1.53360 158 165 163
1.06105 -2.92535 1.52231 160 165 165
1.05787 -2.93010 1.53934 158 166 164
1.04906 -2.94713 1.53458 146 155 153
1.04589 -2.96208 1.54125 145 153 150
1.03263 -2.97298 1.53567 129 136 141
1.04106 -2.97476 1.54765 139 148 147
1.02778 -2.98569 1.54206 133 140 147
1.03930 -2.99192 1.55466 132 141 143
1.02598 -3.00288 1.54905 141 147 142
1.02996 -3.01814 1.56767 133 133 130
1.02662 -3.03330 1.57448 126 123 119
1.03201 -3.06146 1.58312 111 97 87
1.01852 -3.07256 1.57744 105 94 84
1.11080 -3.26364 1.63131 103 92 71
1.11424 -3.25851 1.61290 103 96 79
1.10539 -3.26694 1.61911 105 97 75
1.09692 -3.26438 1.63639 78 70 62
1.07794 -3.25718 1.64026 71 59 42
1.08508 -3.29019 1.65011 78 77 76
1.07081 -3.30192 1.64411 111 104 86
1.07812 -3.30156 1.65676 104 102 79
1.06384 -3.31331 1.65075 113 105 89
1.06684 -3.30621 1.66239 112 104 85
1.05258 -3.31794 1.65639 117 108 96
2.90062 -1.48558 0.33420 106 112 123
2.88701 -1.49212 0.34136 108 103 116
2.86181 -1.49437 0.35098 115 99 109
2.85488 -1.50329 0.35669 116 101 109
2.81612 -1.51180 0.37335 111 106 125
2.81083 -1.51502 0.36144 219 213 201
2.80220 -1.52324 0.36749 226 222 218
2.79800 -1.52792 0.38563 173 144 167
2.78408 -1.53937 0.37978 249 245 243
2.71476 -1.50743 0.40705 206 186 182
2.70113 -1.51865 0.40132 253 251 244
2.68296 -1.51773 0.42195 224 214 189
2.66109 -1.53180 0.43478 218 208 195
2.64753 -1.54296 0.42907 252 252 248
2.62766 -1.54114 0.44989 230 224 222
2.61416 -1.55225 0.44421 253 254 252
2.60359 -1.54274 0.45887 243 238 230
2.59015 -1.55380 0.45321 254 254 254
2.58874 -1.54802 0.46600 252 250 247
2.57944 -1.55555 0.47203 240 240 238
2.59551 -1.57364 0.47312 167 170 180
2.71985 -1.73455 0.48934 243 220 187
2.72329 -1.72942 0.47091 250 226 194
2.70557 -1.74630 0.48333 121 97 125
3.41403 -2.13352 0.39508 128 139 147
3.43873 -2.16029 0.39638 168 171 177
3.34382 -2.25348 0.46394 168 159 150
3.23295 -2.21318 0.48767 146 129 104
3.20171 -2.21265 0.49836 133 114 101
3.16613 -2.20975 0.50968 120 107 97
3.14576 -2.21451 0.51855 127 119 120
2.97013 -2.13852 0.55163 168 176 179
2.95467 -2.14513 0.55946 207 218 219
2.93297 -2.14840 0.56823 191 192 176
2.92306 -2.15785 0.57518 100 98 89
2.94150 -2.18245 0.57786 158 190 185
2.93763 -2.18824 0.59863 205 214 212
2.77042 -2.35891 0.70279 136 139 140
2.77430 -2.35311 0.68198 144 152 155
2.78569 -2.38387 0.70671 92 91 84
2.76413 -2.38641 0.71516 68 54 49
2.76031 -2.41568 0.72733 69 56 46
2.76648 -2.41192 0.74124 59 53 43
2.75639 -2.42153 0.74831 62 55 49
2.74405 -2.42906 0.72049 82 73 66
2.76163 -2.43244 0.73307 72 60 56
2.74532 -2.44586 0.72621 82 77 60
2.75742 -2.44582 0.73949 75 63 57
2.74109 -2.45925 0.73261 86 78 58
2.75610 -2.46107 0.74559 81 69 59
2.73973 -2.47454 0.73870 91 80 55
2.74978 -2.47321 0.75229 86 77 66
2.72160 -2.48750 0.76740 93 95 71
2.71257 -2.49790 0.77439 88 87 57
2.69423 -2.50218 0.78237 85 80 55
2.67791 -2.51561 0.77550 85 77 43
2.67214 -2.50392 0.79071 86 70 43
2.66811 -2.51757 0.79717 88 70 59
2.64085 -2.51571 0.80598 97 85 82
2.61688 -2.51591 0.81440 143 142 140
2.62004 -2.61772 0.85098 180 176 165
2.52394 -2.63358 0.89034 169 169 159
2.48920 -2.62513 0.89932 155 149 128
2.51574 -2.66157 0.90356 122 108 85
2.51674 -2.67944 0.90983 107 92 71
2.51281 -2.68532 0.93092 114 97 76
2.50348 -2.68677 0.91716 111 102 82
2.49954 -2.69265 0.93824 117 98 74
2.49334 -2.69643 0.92427 116 108 86
2.46245 -2.70765 0.93919 116 106 77
2.47255 -2.69802 0.93210 117 108 87
2.43809 -2.72369 0.95361 125 108 82
2.42743 -2.73286 0.96072 141 120 80
2.41118 -2.74623 0.95388 152 124 68
2.39954 -2.76357 0.98181 144 121 68
2.40346 -2.75772 0.96081 151 123 69
2.38327 -2.77695 0.97496 158 132 81
2.39051 -2.77404 0.98883 158 136 97
2.37424 -2.78743 0.98198 162 134 78
2.37496 -2.77928 0.99619 161 129 88
2.36405 -2.78822 1.00330 151 125 90
2.32740 -2.79393 1.01818 121 95 72
2.31987 -2.80554 1.02511 155 131 87
2.30557 -2.81157 1.03232 174 146 99
2.28942 -2.82486 1.02552 171 148 108
2.23991 -2.86412 1.07465 171 145 104
2.22749 -2.87156 1.08173 149 125 99
2.22767 -2.88997 1.08848 101 92 65
2.22383 -2.90497 1.09537 72 73 52
2.21548 -2.91605 1.10238 72 72 64
2.20863 -2.92849 1.10937 75 78 65
2.19423 -2.93419 1.11650 58 63 53
2.18857 -2.94773 1.12349 33 35 35
2.17059 -2.96888 1.13758 35 34 33
2.16637 -2.98385 1.14459 67 68 56
2.15268 -2.99014 1.15169 72 77 52
2.13533 -2.99296 1.15878 57 61 39
2.11912 -3.00630 1.15196 53 56 46
1.61705 -2.59016 1.19032 55 55 46
1.62035 -2.58522 1.17259 63 61 50
1.60588 -2.59572 1.19627 37 44 43
1.59690 -2.61985 1.20833 143 141 118
1.58313 -2.63118 1.20254 151 134 109
1.37380 -2.75902 1.33759 154 136 116
1.37707 -2.75414 1.32008 154 132 104
1.36529 -2.76693 1.34348 180 176 166
1.25828 -2.71306 1.36084 203 205 191
1.24397 -2.71357 1.36601 171 179 172
1.23329 -2.71828 1.37148 158 167 156
1.23014 -2.72299 1.38837 158 167 160
1.22517 -2.72602 1.37717 159 168 159
1.12597 -2.83481 1.45201 140 148 142
1.12913 -2.83009 1.43507 138 144 137
1.12099 -2.83785 1.44078 137 143 136
1.05823 -2.93145 1.51138 158 161 158
1.07144 -2.92058 1.51694 161 166 164
1.06643 -2.92364 1.50563 162 167 162
1.06141 -2.92670 1.49433 161 167 162
1.05239 -2.94257 1.51753 141 143 143
1.03917 -2.95345 1.51196 120 123 119
1.05265 -2.96235 1.52476 126 132 129
1.04664 -2.97336 1.53093 128 136 135
1.02821 -3.02609 1.55687 139 145 137
1.03143 -3.02127 1.53958 142 147 144
1.01482 -3.03710 1.55123 115 110 102
1.02460 -3.04092 1.56361 125 122 113
1.03151 -3.07141 1.57249 109 95 84
1.01798 -3.08254 1.56680 103 93 82
1.10323 -3.28562 1.62677 107 98 77
1.10668 -3.28047 1.60831 104 98 81
1.09780 -3.28893 1.61453 105 98 84
1.08893 -3.29739 1.62075 107 99 82
1.09497 -3.29502 1.63313 111 99 73
1.08066 -3.30679 1.62711 108 98 81
1.09094 -3.31102 1.64046 112 102 78
1.07660 -3.32281 1.63442 108 100 89
2.89072 -1.48718 0.32316 108 100 121
2.88168 -1.49537 0.32934 119 108 132
2.86484 -1.50068 0.33721 161 141 155
2.85082 -1.51222 0.33131 248 243 242
2.75138 -1.47008 0.36583 200 181 183
2.75095 -1.48114 0.37004 217 208 192
2.72369 -1.50468 0.38826 238 231 233
2.71003 -1.51592 0.38252 254 254 254
2.62985 -1.51327 0.42438 253 251 244
2.63308 -1.50843 0.40704 254 254 254
2.62475 -1.51638 0.41288 254 254 254
2.61641 -1.52432 0.41873 254 254 254
2.56292 -1.55392 0.46282 245 243 243
2.56615 -1.54911 0.44556 254 254 254
2.55814 -1.56329 0.46794 189 171 178
2.66442 -1.63125 0.45556 111 88 90
2.69931 -1.73110 0.47995 234 214 187
2.68509 -1.74279 0.47397 108 78 103
3.37649 -2.10798 0.38042 54 46 53
3.35946 -2.12199 0.37326 78 87 93
3.45718 -2.17610 0.37708 146 152 162
3.45719 -2.19154 0.38275 172 176 174
3.45298 -2.19783 0.40531 179 180 174
3.44634 -2.20187 0.39035 177 177 176
3.35064 -2.24856 0.44112 172 174 166
3.35482 -2.24232 0.41872 178 178 172
3.22338 -2.21551 0.47369 152 130 101
3.19866 -2.21826 0.48339 141 119 92
3.15973 -2.21361 0.49535 126 105 83
3.13696 -2.21711 0.50464 124 108 90
3.03368 -2.17854 0.52676 151 156 158
2.93388 -2.15579 0.55347 209 210 199
2.93128 -2.16915 0.55929 93 115 110
2.92064 -2.17826 0.56637 98 98 95
2.78628 -2.37601 0.68617 143 151 145
2.79018 -2.37017 0.66524 146 154 160
2.76897 -2.38116 0.69415 104 104 100
2.76384 -2.39376 0.70058 80 64 60
2.75874 -2.40643 0.70702 76 61 51
2.74251 -2.41979 0.70019 80 65 54
2.75505 -2.42001 0.71330 81 71 59
2.73879 -2.43339 0.70646 74 64 56
2.72827 -2.48338 0.74598 90 79 53
2.73221 -2.47749 0.72485 89 79 57
2.71539 -2.49128 0.75340 99 101 81
2.70866 -2.50319 0.76014 91 94 76
2.69197 -2.50855 0.76797 82 78 54
2.66484 -2.52330 0.78291 90 76 50
2.64838 -2.52867 0.79067 87 78 68
2.61778 -2.52441 0.79986 129 133 131
2.63641 -2.60362 0.82239 170 166 161
2.65287 -2.59008 0.82931 175 175 170
2.64662 -2.59389 0.81523 166 164 162
2.62829 -2.61481 0.82935 172 170 165
2.61183 -2.62836 0.82242 150 152 158
2.60874 -2.61796 0.83738 169 170 165
2.58663 -2.61920 0.84560 166 167 160
2.57437 -2.62738 0.85291 164 166 158
2.55377 -2.62953 0.86094 163 166 160
2.53562 -2.63336 0.86872 158 163 161
2.50645 -2.64601 0.88361 143 143 139
2.51907 -2.67237 0.88886 110 103 96
2.52170 -2.69152 0.89497 79 74 57
2.50824 -2.69876 0.90235 80 81 66
2.48760 -2.70055 0.91026 86 91 76
2.46665 -2.70200 0.91815 80 85 76
2.45241 -2.72583 0.93190 72 66 65
2.43837 -2.73244 0.93926 117 103 86
2.42806 -2.74192 0.94636 150 128 81
2.41177 -2.75532 0.93951 155 123 70
2.39761 -2.77070 0.96763 153 128 71
2.40153 -2.76484 0.94661 154 124 70
2.39142 -2.77447 0.95369 154 128 74
2.34546 -2.78191 0.99007 159 130 79
2.34936 -2.77609 0.96918 157 137 92
2.33932 -2.78566 0.97622 158 137 88
2.32928 -2.79523 0.98326 154 130 86
2.31148 -2.80743 1.01137 148 126 81
2.29944 -2.81531 1.01850 166 145 95
2.27626 -2.83177 1.03268 173 150 102
2.26993 -2.84444 1.03956 174 147 97
2.25908 -2.85328 1.04662 172 146 97
2.25205 -2.86541 1.05354 172 143 93
2.22195 -2.85761 1.06125 150 117 74
2.22534 -2.87874 1.06781 97 61 56
2.22403 -2.89590 1.07458 58 41 31
2.21579 -2.90705 1.08156 60 54 41
2.20758 -2.91824 1.08856 67 66 59
2.19843 -2.92863 1.09558 62 67 58
2.17866 -2.92946 1.10284 44 47 47
2.18182 -2.95095 1.10961 26 25 30
2.17401 -2.96259 1.11663 15 13 17
2.16423 -2.97245 1.12369 39 36 37
2.17006 -2.99672 1.13055 103 107 91
2.16208 -3.00836 1.13763 116 125 91
2.14575 -3.02179 1.13076 60 59 51
2.13629 -3.00337 1.14486 65 67 43
2.12005 -3.01673 1.13802 49 50 38
1.61934 -2.60060 1.17859 54 55 43
1.62266 -2.59564 1.16081 67 64 53
1.61411 -2.60379 1.16680 55 58 44
1.60837 -2.60638 1.18457 36 44 38
1.61829 -2.63259 1.19071 93 92 72
1.32898 -2.75187 1.33614 203 209 198
1.31555 -2.76292 1.33049 203 203 195
1.28606 -2.73710 1.34579 203 204 192
1.25910 -2.72293 1.35006 192 195 177
1.24337 -2.72177 1.35517 149 151 139
1.23532 -2.72965 1.36088 139 149 148
1.22430 -2.73396 1.36634 154 165 164
1.22115 -2.73868 1.38326 163 168 164
1.21617 -2.74171 1.37204 159 168 164
1.16856 -2.84423 1.42641 155 163 152
1.18182 -2.83331 1.43199 158 165 162
1.17679 -2.83638 1.42064 158 165 158
1.17359 -2.84116 1.43776 158 166 159
1.16536 -2.84900 1.44353 152 162 156
1.15529 -2.85514 1.42082 140 144 147
1.15096 -2.83999 1.43103 144 152 149
1.11807 -2.85248 1.44717 140 148 139
1.11036 -2.86086 1.45296 146 153 146
1.10719 -2.86560 1.46994 144 149 154
1.09721 -2.87169 1.44742 159 167 162
1.05468 -2.93656 1.50031 156 157 149
1.05787 -2.93180 1.48325 161 167 163
1.05437 -2.95548 1.50737 134 133 126
1.04109 -2.96639 1.50178 128 128 121
1.04476 -2.98096 1.52010 123 133 131
1.03970 -2.98404 1.50870 124 132 128
1.03144 -2.99191 1.51449 125 136 136
1.02806 -3.03642 1.54633 137 140 134
1.03129 -3.03159 1.52900 136 143 145
1.01464 -3.04746 1.54068 109 105 97
0.98734 -3.50269 1.73182 148 133 104
1.00194 -3.49068 1.73796 153 134 109
0.99640 -3.49406 1.72547 152 137 114
0.99086 -3.49744 1.71297 143 131 110
0.99288 -3.49931 1.74432 150 132 105
0.98382 -3.50795 1.75067 145 126 100
0.97839 -3.51152 1.73821 144 125 97
0.97488 -3.51678 1.75706 144 122 95
