ply
format ascii 1.0
element face 0
property list uchar int vertex_indices
element vertex 1296
property float x
property float y
property float z
property uchar diffuse_red
property uchar diffuse_green
property uchar diffuse_blue
end_header
2.17886 -3.41586 0.21766 155 153 137
2.12048 -3.42457 0.23635 157 155 159
2.13446 -3.41641 0.23304 159 157 161
2.13131 -3.41761 0.21681 154 156 164
2.09412 -3.46459 0.23787 161 158 150
2.10501 -3.45760 0.21824 161 163 166
2.07692 -3.47400 0.22489 155 143 150
2.09314 -3.48592 0.23412 164 165 161
2.07587 -3.49536 0.22109 152 147 152
2.08267 -3.49782 0.23549 161 157 161
2.06538 -3.50727 0.22245 142 141 145
2.04361 -3.52595 0.24372 147 144 149
2.04044 -3.52716 0.22731 157 151 156
2.02631 -3.53541 0.23066 156 157 160
2.00288 -3.50653 0.26165 150 142 147
1.86207 -3.47125 0.31754 144 141 139
1.87268 -3.46443 0.29839 147 147 150
1.85899 -3.47243 0.30164 152 152 144
1.84529 -3.48042 0.30488 151 150 134
1.69507 -3.56405 0.35799 154 133 128
1.71183 -3.55489 0.37063 152 133 123
1.70876 -3.55606 0.35475 153 133 126
1.69815 -3.56288 0.37387 153 133 121
1.68761 -3.57937 0.35765 155 135 136
1.67525 -3.58899 0.36012 159 145 150
1.65845 -3.59817 0.34744 160 158 163
1.66600 -3.60234 0.36078 164 160 158
1.64917 -3.61154 0.34808 157 161 160
1.65587 -3.61471 0.36195 161 157 156
1.63902 -3.62392 0.34923 156 159 157
1.62498 -3.62664 0.37043 158 161 157
1.60815 -3.63584 0.35773 169 183 168
1.60981 -3.63290 0.37452 169 173 165
1.59655 -3.64150 0.37750 165 164 160
1.56094 -3.64728 0.38881 153 155 163
1.55786 -3.64845 0.37291 145 149 161
1.54170 -3.64823 0.39534 159 161 162
1.53110 -3.65504 0.41445 177 175 167
1.52496 -3.65738 0.38271 153 160 163
1.52568 -3.65320 0.39998 172 171 168
1.51509 -3.66000 0.41906 168 166 169
1.50426 -3.65117 0.40783 169 169 169
1.49371 -3.65795 0.42687 156 161 177
1.49064 -3.65912 0.41106 149 158 178
1.18867 -3.45671 0.55521 154 164 173
1.19842 -3.45045 0.53762 151 157 172
1.17237 -3.45890 0.56048 110 118 127
1.18930 -3.50750 0.54525 49 32 66
1.17371 -3.51602 0.53349 40 43 74
1.10644 -3.64888 0.54704 51 54 87
1.12233 -3.64019 0.55903 45 49 81
1.11941 -3.64130 0.54396 46 48 80
1.11144 -3.71158 0.53327 83 95 117
1.10969 -3.73692 0.52902 92 109 128
1.09349 -3.74577 0.51680 91 102 126
1.06863 -3.78670 0.53379 95 105 134
1.05704 -3.79721 0.53582 101 116 145
1.05293 -3.81990 0.53290 109 125 152
1.04878 -3.84280 0.52995 124 139 155
1.03236 -3.85178 0.51755 147 151 149
1.04017 -3.85855 0.52994 136 148 152
1.02370 -3.86755 0.51751 144 150 154
1.03008 -3.87199 0.53088 138 147 152
1.02085 -3.88696 0.53123 145 153 159
1.00433 -3.89599 0.51876 156 165 172
1.01053 -3.90019 0.53229 153 161 167
0.99398 -3.90924 0.51980 164 167 169
1.00010 -3.91333 0.53341 160 164 163
0.98783 -3.92339 0.53576 155 156 149
0.97429 -3.93130 0.53896 146 149 149
0.85218 -4.00184 0.56803 156 167 154
0.83540 -4.00361 0.57354 139 134 132
0.79007 -4.01795 0.58660 145 148 142
0.76138 -4.03025 0.59425 131 137 138
0.75835 -4.03141 0.57861 132 141 142
0.74489 -4.03927 0.58180 131 133 146
0.74664 -4.03556 0.59837 135 138 149
0.73621 -4.04226 0.61719 146 147 142
0.73318 -4.04342 0.60156 145 145 151
0.72505 -4.06210 0.60081 137 140 145
0.72201 -4.06326 0.58514 135 131 134
0.70852 -4.07114 0.58834 132 135 138
0.48197 -4.16330 0.66619 130 131 123
0.49836 -4.15434 0.67856 128 127 121
0.49535 -4.15549 0.66302 127 130 119
0.46967 -4.17374 0.66848 120 113 116
0.44664 -4.19865 0.67173 121 122 129
0.43019 -4.20764 0.65933 129 132 127
0.42415 -4.22531 0.67447 127 126 132
0.42112 -4.22646 0.65883 125 127 128
0.41158 -4.23545 0.67690 113 114 116
0.39509 -4.24447 0.66445 127 123 115
0.39875 -4.24493 0.67956 120 120 115
0.38224 -4.25396 0.66711 115 122 127
0.38565 -4.25379 0.68243 121 128 126
0.36915 -4.26282 0.66997 117 122 126
0.21715 -4.23457 0.74489 127 128 129
0.23030 -4.22689 0.74178 124 128 126
0.21419 -4.23570 0.72961 138 138 135
0.20399 -4.24225 0.74801 126 131 138
0.15831 -4.29435 0.75395 124 126 128
0.15533 -4.29549 0.73859 123 119 124
0.14508 -4.30208 0.75708 118 116 121
-0.11669 -4.46767 0.81663 114 113 117
-0.10641 -4.46107 0.79809 120 119 118
-0.11967 -4.46881 0.80123 116 114 115
-0.18427 -4.50082 0.83384 112 110 119
-0.17401 -4.49423 0.81533 110 112 107
-0.18129 -4.49969 0.84922 117 113 118
-0.18725 -4.50196 0.81846 108 104 107
-0.19800 -4.50640 0.83756 119 120 126
-0.27635 -4.55804 0.85498 116 113 115
-0.26607 -4.55144 0.83646 122 121 121
-0.29258 -4.56691 0.84273 111 112 106
-0.35080 -4.55333 0.88186 109 113 105
-0.33768 -4.54567 0.87875 122 116 111
-0.34785 -4.55220 0.89710 111 123 100
-0.35375 -4.55445 0.86662 102 105 104
-0.36393 -4.56099 0.88497 104 107 101
-0.37648 -4.57180 0.88727 111 110 105
-0.37352 -4.57067 0.90252 104 106 95
-0.38665 -4.57834 0.90563 104 102 93
-0.39256 -4.58059 0.87513 122 121 118
-0.38823 -4.58715 0.88843 116 119 104
-0.40139 -4.59483 0.89154 117 117 111
-0.40435 -4.59596 0.87627 118 123 121
-0.52235 -4.64643 0.92384 103 106 101
-0.53840 -4.65520 0.91173 114 106 105
-0.57569 -4.67007 0.93791 114 112 107
-0.59171 -4.67883 0.92582 106 108 106
-1.09940 -4.94984 1.06692 83 81 73
-1.08346 -4.94112 1.07895 90 93 88
-1.08638 -4.94224 1.06384 83 80 79
-1.08931 -4.94336 1.04873 84 82 83
-1.09647 -4.94872 1.08203 75 78 82
-1.11533 -4.95855 1.05490 93 90 98
-1.11220 -4.97442 1.06668 95 91 92
-1.12232 -4.98092 1.08493 89 94 97
-1.12526 -4.98204 1.06977 89 90 97
-1.12819 -4.98316 1.05460 88 85 89
-1.17746 -4.98692 1.08704 79 83 76
-1.18038 -4.98804 1.07196 83 82 69
-1.19337 -4.99562 1.07503 86 82 80
-1.20354 -5.01683 1.09040 84 80 82
-1.21950 -5.02555 1.07836 67 68 69
2.49006 -2.92394 0.18731 44 43 88
2.50029 -2.91737 0.16885 47 46 104
2.48709 -2.92508 0.17198 47 46 98
2.47389 -2.93278 0.17511 46 42 88
2.50457 -2.95236 0.17668 44 41 76
2.48827 -2.96127 0.16438 48 41 83
2.50878 -2.97330 0.17112 45 38 68
2.52670 -3.00480 0.15868 46 36 58
2.53432 -3.02875 0.15134 45 36 52
2.55367 -3.08045 0.13446 52 45 40
2.55312 -3.09870 0.13110 60 51 43
2.54870 -3.11406 0.12965 68 54 49
2.55320 -3.13654 0.12368 78 60 54
2.52724 -3.13508 0.13307 92 78 70
2.52692 -3.15393 0.12951 107 102 97
2.52579 -3.17228 0.12632 123 119 117
2.51297 -3.18132 0.12905 138 136 132
2.50040 -3.19057 0.13166 147 143 134
2.48332 -3.19991 0.11877 155 149 141
2.48134 -3.21413 0.13375 149 138 146
2.46422 -3.22349 0.12082 156 152 149
2.47939 -3.23226 0.13089 162 160 151
2.46221 -3.24165 0.11793 150 145 146
2.46822 -3.24283 0.13275 167 166 159
2.45103 -3.25223 0.11977 153 151 157
2.40001 -3.30590 0.14437 164 155 157
2.41411 -3.29767 0.14103 161 153 155
2.41094 -3.29888 0.12465 154 150 155
2.39684 -3.30711 0.12799 155 147 154
2.38868 -3.31654 0.14627 152 145 150
2.35764 -3.33052 0.15442 149 149 141
2.34037 -3.33996 0.14139 154 151 159
2.26577 -3.37321 0.17832 150 140 144
2.24854 -3.38263 0.16531 155 154 154
2.23571 -3.38784 0.18600 155 161 165
2.21849 -3.39726 0.17301 159 165 157
2.20558 -3.40236 0.19374 157 161 161
2.20242 -3.40357 0.17742 160 155 143
2.17127 -3.41281 0.20374 165 160 162
2.16040 -3.41980 0.22335 161 155 151
2.15724 -3.42100 0.20706 157 153 158
2.15409 -3.42220 0.19077 152 147 161
2.11727 -3.42570 0.22016 153 149 147
2.11413 -3.42690 0.20393 152 144 148
2.10015 -3.43506 0.20724 152 144 150
2.10139 -3.43199 0.22450 156 154 151
2.03891 -3.50282 0.23260 149 146 153
2.04980 -3.49582 0.21294 152 150 140
2.02168 -3.51224 0.21960 148 144 136
1.71522 -3.54446 0.33801 155 134 124
1.73195 -3.53531 0.35064 153 134 122
1.72888 -3.53648 0.33477 154 134 124
1.71829 -3.54329 0.35387 154 134 124
1.70117 -3.55199 0.34146 157 136 129
1.69034 -3.56328 0.34306 159 149 145
1.67359 -3.57243 0.33042 160 162 173
1.68450 -3.58052 0.34175 162 158 160
1.66998 -3.58756 0.34546 161 155 162
1.65319 -3.59674 0.33279 156 149 160
1.61703 -3.62186 0.35734 157 165 160
1.62766 -3.61503 0.33817 162 161 159
1.58777 -3.63561 0.36492 171 172 170
1.56868 -3.63686 0.37137 161 161 161
1.55192 -3.64602 0.35873 149 150 160
1.53315 -3.64245 0.38275 150 154 158
1.49537 -3.64483 0.39554 154 156 163
1.49231 -3.64599 0.37976 156 157 159
1.47873 -3.65392 0.38298 154 155 162
1.47799 -3.64783 0.40105 149 152 168
1.46748 -3.65458 0.42001 154 167 178
1.19889 -3.47580 0.53251 150 159 170
1.20870 -3.46950 0.51482 151 156 170
1.19604 -3.47689 0.51781 147 156 169
1.19200 -3.49121 0.53192 142 146 151
1.19871 -3.52579 0.52281 60 51 82
1.12145 -3.64986 0.52570 51 51 84
1.13738 -3.64116 0.53773 47 50 83
1.13446 -3.64227 0.52262 50 48 83
1.12073 -3.67606 0.52084 70 79 104
1.10472 -3.68482 0.50876 92 108 123
1.12736 -3.71376 0.51116 87 106 128
1.11120 -3.72259 0.49897 87 102 124
1.10893 -3.74149 0.51222 94 109 121
1.07652 -3.77626 0.51680 97 111 142
1.07125 -3.79683 0.51463 107 126 152
1.06103 -3.80962 0.51572 121 139 161
1.05240 -3.82509 0.51573 134 148 163
1.04421 -3.84140 0.51542 143 151 154
1.01593 -3.88493 0.51685 147 156 162
1.02637 -3.87822 0.49801 143 148 156
0.98170 -3.91924 0.52216 157 161 160
0.99218 -3.91251 0.50326 157 162 170
0.97866 -3.92040 0.50646 155 161 167
0.96515 -3.92829 0.50966 149 156 159
0.83931 -3.98454 0.55936 151 156 141
0.82281 -3.99356 0.54691 136 140 136
0.82687 -3.99435 0.56181 138 138 134
0.81037 -4.00337 0.54935 136 143 129
0.81388 -4.00314 0.56465 132 142 135
0.79737 -4.01217 0.55219 141 146 148
0.78373 -4.01266 0.57337 144 148 148
0.76725 -4.02167 0.56093 137 153 150
0.77238 -4.02465 0.57501 132 138 137
0.72633 -4.03685 0.58878 140 136 139
0.48807 -4.14650 0.65095 125 132 132
0.50443 -4.13756 0.66329 124 128 119
0.50142 -4.13871 0.64779 123 127 127
0.49842 -4.13985 0.63229 119 122 131
0.47172 -4.15544 0.63861 137 144 140
0.47750 -4.16095 0.65184 132 137 136
0.46112 -4.16990 0.63948 134 141 132
0.46551 -4.17211 0.65387 133 130 127
0.44912 -4.18108 0.64150 133 138 132
0.45477 -4.18640 0.65485 132 131 124
0.43835 -4.19537 0.64246 131 132 128
0.40784 -4.23477 0.66187 122 123 117
0.41827 -4.22807 0.64305 123 126 127
0.40481 -4.23593 0.64624 125 126 125
0.39135 -4.24379 0.64943 126 126 120
0.24040 -4.22003 0.72348 118 126 128
0.25651 -4.21122 0.73564 118 114 119
0.25355 -4.21235 0.72036 109 117 119
0.25059 -4.21348 0.70509 110 120 117
0.24335 -4.21890 0.73876 120 124 126
0.22619 -4.22470 0.72755 128 129 132
0.21009 -4.23350 0.71540 137 140 136
0.16386 -4.27343 0.73991 128 134 135
0.17407 -4.26686 0.72148 120 122 119
0.14771 -4.28225 0.72772 126 123 127
0.07047 -4.37546 0.75275 123 126 128
0.08378 -4.36769 0.74960 122 128 124
0.08078 -4.36883 0.73415 124 129 127
0.07346 -4.37432 0.76821 110 111 114
0.06747 -4.37660 0.73730 131 136 135
0.05416 -4.38437 0.74045 128 132 134
0.05639 -4.38061 0.75669 127 129 131
0.04608 -4.38724 0.77528 127 126 123
0.04309 -4.38838 0.75984 128 132 126
-0.20452 -4.49183 0.82650 106 113 117
-0.19430 -4.48526 0.80806 107 105 107
-0.20749 -4.49296 0.81118 106 110 112
-0.22068 -4.50066 0.81431 111 112 111
-0.21595 -4.50748 0.82745 112 118 116
-0.23213 -4.51632 0.81524 115 116 116
-0.36946 -4.54812 0.87337 106 108 99
-0.38548 -4.55688 0.86127 117 118 113
-0.38113 -4.56355 0.87445 115 120 113
-0.39718 -4.57232 0.86234 118 116 112
-0.45796 -4.62053 0.89028 107 114 115
-0.44778 -4.61398 0.87191 114 110 106
-0.47405 -4.62932 0.87814 103 109 94
-0.52726 -4.63402 0.91195 115 114 102
2.51517 -2.99951 0.14731 46 41 81
2.52559 -2.99281 0.12850 47 39 89
2.51214 -3.00066 0.13169 46 40 96
2.49869 -3.00852 0.13487 45 44 96
2.52581 -3.02574 0.13835 42 40 78
2.50923 -3.03481 0.12583 45 46 90
2.55003 -3.06264 0.12248 43 39 67
2.53327 -3.07180 0.10984 45 42 76
2.54226 -3.07519 0.12273 45 35 48
2.53619 -3.08912 0.12211 50 37 42
2.53781 -3.10915 0.11756 58 49 56
2.53597 -3.12661 0.11475 74 65 64
2.53846 -3.14763 0.10970 97 90 87
2.52676 -3.15749 0.11187 110 108 118
2.51727 -3.16915 0.11290 123 116 121
2.51014 -3.18276 0.11271 141 133 128
2.50036 -3.19428 0.11387 153 150 137
2.47682 -3.21419 0.11822 156 146 148
2.47368 -3.21539 0.10200 168 152 154
2.45971 -3.22355 0.10531 162 155 154
2.36970 -3.24317 0.15026 152 161 152
2.38671 -3.23387 0.16309 155 152 151
2.38358 -3.23506 0.14697 154 154 155
2.37282 -3.24198 0.16638 156 151 153
2.36684 -3.30142 0.13970 150 147 147
2.37772 -3.29443 0.12008 155 154 155
2.36013 -3.31607 0.13916 151 140 144
2.34290 -3.32549 0.12616 156 156 166
2.34015 -3.31904 0.14562 154 156 165
2.32295 -3.32844 0.13264 153 149 160
2.28854 -3.33505 0.16064 163 166 151
2.29940 -3.32808 0.14107 157 162 151
2.28539 -3.33625 0.14438 164 154 148
2.27831 -3.34667 0.16195 157 142 145
2.22540 -3.38236 0.17353 153 158 161
2.23628 -3.37537 0.15391 154 152 142
2.22224 -3.38356 0.15723 147 149 145
2.17903 -3.40285 0.18581 169 161 168
2.16221 -3.40834 0.19066 161 153 165
2.12613 -3.41683 0.20170 150 152 160
2.10903 -3.42618 0.18878 153 148 155
2.00375 -3.47112 0.23409 155 149 138
1.74017 -3.53048 0.31527 154 134 129
1.75690 -3.52133 0.32790 153 133 128
1.75383 -3.52250 0.31203 152 134 125
1.74324 -3.52931 0.33113 153 133 126
1.72686 -3.53887 0.31830 156 137 135
1.71242 -3.54595 0.32199 158 144 146
1.69568 -3.55509 0.30936 163 158 159
1.69877 -3.55394 0.32521 162 154 155
1.68204 -3.56309 0.31258 159 160 166
1.68857 -3.56598 0.32642 160 160 165
1.67181 -3.57514 0.31378 167 163 169
1.66532 -3.58685 0.33048 161 159 169
1.66224 -3.58803 0.31457 171 163 166
1.60726 -3.61483 0.34541 162 161 165
1.61786 -3.60802 0.32628 153 157 152
1.59227 -3.62121 0.34943 163 170 168
1.57697 -3.62717 0.35364 167 172 168
1.55734 -3.62767 0.36046 159 157 164
1.52417 -3.63609 0.37049 152 152 158
1.50750 -3.64520 0.35791 164 174 172
1.50693 -3.63938 0.37592 155 166 166
1.45220 -3.64488 0.39413 151 160 177
1.44915 -3.64603 0.37843 148 156 163
1.44172 -3.65161 0.41303 154 162 180
1.43868 -3.65277 0.39733 154 162 180
1.43564 -3.65393 0.38164 152 162 183
1.21137 -3.52324 0.50321 151 157 160
1.22129 -3.51686 0.48531 147 156 171
1.20874 -3.54499 0.49982 79 87 105
1.19490 -3.55112 0.50348 46 43 71
1.18494 -3.55752 0.52145 45 45 75
1.18205 -3.55862 0.50653 47 45 77
1.17915 -3.55973 0.49160 45 37 70
1.16466 -3.58567 0.50729 51 46 80
1.18046 -3.57704 0.51922 46 46 71
1.17756 -3.57814 0.50424 46 44 77
1.16756 -3.58457 0.52227 46 48 77
1.15466 -3.59210 0.52533 47 49 82
1.15945 -3.60443 0.50540 50 48 84
1.14942 -3.61088 0.52350 50 50 83
1.15447 -3.62369 0.50334 52 50 88
1.14441 -3.63016 0.52150 50 50 84
1.14316 -3.63376 0.50533 55 51 93
1.13446 -3.64775 0.50562 59 58 100
1.11851 -3.65647 0.49359 84 92 119
1.13108 -3.66988 0.50242 70 72 105
1.11507 -3.67863 0.49034 87 97 123
1.12958 -3.69506 0.49796 87 98 120
1.11348 -3.70386 0.48581 89 98 123
1.10700 -3.74425 0.49616 89 101 123
1.09804 -3.75868 0.49645 95 109 133
1.08155 -3.79015 0.49602 118 137 153
1.06928 -3.79962 0.49847 134 151 162
1.05295 -3.80855 0.48615 160 169 170
1.05676 -3.80871 0.50108 147 160 169
1.04042 -3.81764 0.48876 164 171 171
1.04772 -3.82350 0.50134 159 167 172
1.03866 -3.83838 0.50158 158 164 162
1.02915 -3.85262 0.50211 147 151 155
1.00902 -3.87956 0.50386 144 151 158
1.00599 -3.88071 0.48824 137 139 135
0.99828 -3.89201 0.50518 149 158 167
0.84361 -3.96637 0.54497 143 147 145
0.85401 -3.95968 0.52620 141 147 142
0.84059 -3.96752 0.52938 149 155 152
0.76996 -3.99284 0.56569 133 141 143
0.78033 -3.98618 0.54699 147 150 143
0.76695 -3.99399 0.55016 130 136 133
0.74589 -4.01382 0.57002 144 147 146
0.74287 -4.01497 0.55446 147 149 151
0.72962 -4.01588 0.57535 140 144 139
0.71789 -4.02704 0.57727 131 132 129
0.70326 -4.03233 0.58138 136 134 136
0.68988 -4.04014 0.58455 140 141 137
0.68687 -4.04129 0.56901 140 144 141
0.48470 -4.14677 0.63575 126 131 137
0.49505 -4.14013 0.61709 108 114 125
0.46835 -4.15571 0.62342 133 137 126
0.23559 -4.21591 0.70989 120 125 130
0.24578 -4.20936 0.69152 113 119 117
0.22121 -4.22000 0.71415 131 135 142
0.20513 -4.22879 0.70202 135 142 133
0.19474 -4.23469 0.72057 125 128 137
0.18457 -4.24123 0.73892 123 124 124
0.18162 -4.24235 0.72368 122 124 121
0.03464 -4.37069 0.75005 126 129 124
0.02438 -4.37729 0.76856 125 129 123
0.01842 -4.37956 0.73781 111 113 120
-0.29168 -4.51441 0.83662 119 120 124
-0.30774 -4.52319 0.82450 125 124 114
-0.36205 -4.52705 0.85893 112 112 110
-0.34901 -4.51944 0.85584 113 114 112
-0.35194 -4.52056 0.84070 108 114 119
-0.46160 -4.61740 0.87611 106 108 110
-0.54474 -4.63232 0.90247 114 107 112
-0.53464 -4.62582 0.88425 107 106 116
-0.56071 -4.64104 0.89043 101 97 99
-0.67636 -4.69665 0.93613 104 107 100
-0.66336 -4.68906 0.93305 108 109 111
-0.67344 -4.69554 0.95122 94 98 92
-0.68644 -4.70312 0.95430 91 95 91
-0.68936 -4.70424 0.93921 93 100 93
-0.69229 -4.70535 0.92411 105 101 87
2.53251 -3.08984 0.10647 46 40 62
2.54315 -3.08301 0.08728 49 50 94
2.51570 -3.09903 0.09378 53 48 73
2.52521 -3.10289 0.10642 55 48 65
2.53010 -3.12562 0.10010 70 60 70
2.50820 -3.12727 0.10754 88 80 77
2.51731 -3.15363 0.09899 102 99 94
2.50468 -3.16273 0.10163 116 111 110
2.49992 -3.17822 0.10019 136 131 121
2.48475 -3.18532 0.10414 147 143 135
2.47523 -3.19704 0.10515 161 152 144
2.36463 -3.22275 0.13919 153 152 158
2.38156 -3.21349 0.15196 151 151 157
2.37845 -3.21468 0.13591 144 146 153
2.37534 -3.21586 0.11986 158 149 143
2.34819 -3.22856 0.14384 163 168 166
2.34936 -3.24958 0.13919 157 159 155
2.33237 -3.25886 0.12637 161 157 159
2.34587 -3.28702 0.13287 164 158 151
2.34272 -3.28821 0.11666 172 168 164
2.33816 -3.30069 0.13284 161 155 155
2.32102 -3.31006 0.11991 159 153 147
2.26164 -3.33554 0.15295 171 170 168
2.25850 -3.33673 0.13674 164 163 168
2.24366 -3.34000 0.15843 163 157 158
2.22657 -3.34934 0.14554 144 131 155
2.23215 -3.35040 0.16041 156 152 142
2.18463 -3.39088 0.16910 170 175 154
2.19547 -3.38391 0.14953 156 153 158
2.18148 -3.39208 0.15285 158 169 158
2.17160 -3.39997 0.17188 155 156 159
2.15566 -3.40627 0.17626 152 151 156
2.13818 -3.41105 0.18150 145 140 155
2.12106 -3.42041 0.16858 142 140 148
2.12018 -3.41529 0.18703 144 141 152
2.10309 -3.42463 0.17412 155 150 151
1.87289 -3.45097 0.26752 148 149 146
1.88962 -3.44183 0.28015 141 141 136
1.88655 -3.44300 0.26429 137 138 144
1.87596 -3.44980 0.28339 145 145 138
1.86230 -3.45778 0.28662 144 143 136
1.85615 -3.46012 0.25490 158 164 159
1.85564 -3.45510 0.27281 154 158 146
1.84506 -3.46189 0.29188 143 135 132
1.83892 -3.46423 0.26020 156 162 156
1.81087 -3.47478 0.28471 148 141 147
1.82756 -3.46566 0.29731 142 134 131
1.82143 -3.46800 0.26566 150 148 149
1.81393 -3.47362 0.30054 145 135 131
1.80780 -3.47595 0.26889 150 148 147
1.80030 -3.48157 0.30376 150 135 128
1.79640 -3.48182 0.28842 151 138 134
1.78585 -3.48860 0.30747 152 135 126
1.78278 -3.48977 0.29165 152 134 125
1.74891 -3.52157 0.29725 155 136 123
1.76563 -3.51243 0.30987 152 134 120
1.76256 -3.51360 0.29401 154 135 120
1.73506 -3.52933 0.30059 156 142 144
1.71833 -3.53847 0.28797 158 157 169
1.72231 -3.53834 0.30329 158 151 162
1.70558 -3.54749 0.29067 164 162 162
1.70885 -3.54654 0.30641 162 156 160
1.69212 -3.55569 0.29379 173 167 154
1.59328 -3.60262 0.33608 155 156 154
1.59022 -3.60379 0.32026 156 158 145
1.57835 -3.60896 0.34010 159 168 171
1.56319 -3.61499 0.34426 163 164 167
1.54624 -3.61875 0.34951 161 161 167
1.53233 -3.62630 0.35292 158 160 165
1.51567 -3.63540 0.34035 156 160 169
1.51558 -3.63021 0.35807 157 158 164
1.49894 -3.63930 0.34552 165 172 167
1.48031 -3.63558 0.36950 163 165 162
1.47726 -3.63674 0.35377 166 165 168
1.46044 -3.63524 0.37661 160 160 163
1.44390 -3.64428 0.36413 156 157 154
1.22433 -3.54643 0.47826 150 158 167
1.23432 -3.54001 0.46024 147 158 173
1.19835 -3.56120 0.48449 52 47 70
1.17785 -3.58384 0.48720 49 47 84
1.17758 -3.60973 0.48207 77 79 90
1.16091 -3.61192 0.48754 66 65 89
1.15641 -3.63196 0.48509 62 60 100
1.15751 -3.66050 0.47894 74 76 120
1.14808 -3.67362 0.47964 86 94 126
1.13201 -3.68240 0.46752 71 79 116
1.11066 -3.72747 0.48204 90 103 133
1.10559 -3.74783 0.47973 98 115 143
1.09875 -3.76562 0.47857 109 129 149
1.07671 -3.78836 0.48180 145 157 158
1.06040 -3.79727 0.46949 159 164 164
1.06643 -3.80100 0.48289 155 164 166
1.05010 -3.80992 0.47057 155 161 165
1.03277 -3.83478 0.48801 162 170 170
1.04313 -3.82812 0.46932 155 162 159
1.02976 -3.83593 0.47249 156 166 163
1.02404 -3.85030 0.48798 149 156 160
1.01450 -3.86458 0.48848 141 144 142
0.99094 -3.88584 0.49254 138 142 154
0.97448 -3.89485 0.48012 145 150 156
0.97836 -3.89516 0.49513 148 153 164
0.96491 -3.90301 0.49831 151 155 162
0.96188 -3.90416 0.48270 146 149 151
0.91832 -3.91548 0.51232 148 155 164
0.93475 -3.90650 0.52471 144 153 158
0.93173 -3.90765 0.50914 145 153 169
0.92871 -3.90880 0.49357 148 156 163
0.90793 -3.92216 0.53106 138 142 150
0.90239 -3.91880 0.51730 138 138 145
0.88583 -3.92089 0.52275 134 138 141
0.87547 -3.92755 0.54144 145 152 154
0.87246 -3.92870 0.52591 150 155 160
0.86945 -3.92984 0.51039 150 151 149
0.74701 -3.98887 0.55826 136 145 149
0.75735 -3.98223 0.53962 138 142 138
0.73068 -3.99780 0.54593 146 148 154
0.71957 -4.00289 0.56516 146 148 139
0.70324 -4.01182 0.55284 116 116 137
0.70934 -4.01695 0.56595 118 120 129
0.69592 -4.02461 0.56917 135 138 139
0.67956 -4.03355 0.55683 141 147 142
0.66764 -4.03692 0.57671 140 146 140
0.66464 -4.03806 0.56122 146 151 144
0.65730 -4.04356 0.59536 124 130 139
0.65287 -4.04171 0.58098 130 137 140
0.64254 -4.04835 0.59962 123 127 134
0.63954 -4.04949 0.58414 124 130 135
0.63655 -4.05064 0.56866 122 128 131
0.53052 -4.10628 0.61134 130 133 130
0.54383 -4.09851 0.60819 131 135 140
0.54084 -4.09965 0.59273 128 129 128
0.53352 -4.10514 0.62680 129 129 124
0.52753 -4.10742 0.59589 130 131 123
0.52020 -4.11291 0.62995 135 136 123
0.51737 -4.11441 0.61437 121 120 120
0.50106 -4.12332 0.60206 113 114 123
0.50394 -4.12192 0.61762 113 116 123
0.48017 -4.14428 0.62153 119 123 125
0.46384 -4.15321 0.60921 131 134 124
0.23132 -4.21326 0.69587 122 126 129
0.21524 -4.22205 0.68373 129 129 127
0.21677 -4.21683 0.70030 132 136 137
0.18858 -4.22632 0.70839 129 134 133
0.18563 -4.22744 0.69318 135 136 130
0.17616 -4.23598 0.71084 125 129 125
0.16306 -4.24363 0.71394 119 125 119
0.16011 -4.24476 0.69873 116 126 124
0.03101 -4.36954 0.73537 114 120 122
0.04126 -4.36295 0.71687 123 125 127
0.02803 -4.37068 0.72000 118 124 124
0.01479 -4.37840 0.72314 111 118 123
-0.03480 -4.35349 0.76194 116 105 114
-0.01877 -4.34472 0.77404 123 119 124
-0.02171 -4.34585 0.75884 119 117 122
-0.05878 -4.37697 0.76571 117 115 118
-0.06894 -4.38350 0.78404 110 109 119
-0.07091 -4.38834 0.76772 116 121 124
-0.08109 -4.39487 0.78607 114 114 117
-0.08404 -4.39600 0.77083 116 119 121
-0.10573 -4.42938 0.77178 111 110 103
-0.08958 -4.42056 0.78397 118 119 117
-0.09255 -4.42169 0.76866 116 115 110
-0.10276 -4.42825 0.78709 118 122 117
-0.11594 -4.43595 0.79021 119 119 125
-0.12187 -4.43821 0.75960 103 104 97
-0.11973 -4.43377 0.77586 108 111 108
-0.12994 -4.44033 0.79427 120 120 125
-0.20683 -4.44435 0.80462 113 115 112
-0.19084 -4.43561 0.81669 112 113 107
-0.19377 -4.43673 0.80153 114 111 105
-0.19671 -4.43784 0.78636 113 115 110
-0.22103 -4.44691 0.80914 115 115 119
-0.23518 -4.44951 0.81363 119 117 118
-0.24821 -4.45712 0.81672 118 119 116
-0.27368 -4.47510 0.82212 120 116 108
-0.25771 -4.46637 0.83417 114 113 119
-0.26064 -4.46749 0.81903 117 118 112
-0.27661 -4.47622 0.80698 128 125 132
-0.28965 -4.48383 0.81007 115 113 116
-0.28604 -4.48601 0.82430 109 102 105
-0.30202 -4.49475 0.81224 129 131 117
-0.30075 -4.48542 0.82964 123 124 131
-0.36712 -4.51668 0.84687 115 120 121
-0.35705 -4.51020 0.82869 113 119 117
-0.37005 -4.51779 0.83177 119 119 118
-0.37991 -4.52546 0.84963 123 124 123
-0.39584 -4.53416 0.83761 114 112 106
-0.39147 -4.54108 0.85058 118 115 113
-0.40253 -4.55981 0.85072 116 122 101
-0.41560 -4.56744 0.85382 103 101 92
-0.42829 -4.57722 0.85635 109 110 104
-0.42535 -4.57610 0.87152 111 116 114
-0.43842 -4.58373 0.87462 118 119 113
-0.44136 -4.58485 0.85944 120 116 107
-0.44430 -4.58597 0.84427 105 109 104
-0.45141 -4.61101 0.85773 114 113 101
-0.45436 -4.61213 0.84248 105 107 103
-0.46505 -4.61540 0.86168 103 99 95
-0.47855 -4.62059 0.86542 97 96 79
-0.49166 -4.62825 0.86852 103 102 107
-0.49461 -4.62937 0.85330 99 96 107
-0.54824 -4.62940 0.88836 104 101 107
-0.53815 -4.62291 0.87015 111 114 107
-0.56419 -4.63811 0.87632 98 104 95
-0.66648 -4.68843 0.91838 109 107 103
-0.65057 -4.67973 0.93039 104 104 105
-0.65349 -4.68085 0.91530 102 98 103
-0.66941 -4.68955 0.90329 94 93 94
-0.68240 -4.69713 0.90637 97 98 93
-1.16039 -4.91424 1.04797 83 73 76
-1.17609 -4.92283 1.03611 78 88 92
2.51550 -3.11773 0.09001 63 55 70
2.51240 -3.11891 0.07402 57 50 81
2.49577 -3.12104 0.09637 76 64 72
2.49208 -3.13713 0.09439 88 78 90
2.49725 -3.16045 0.08776 99 95 102
2.48383 -3.16890 0.09081 112 111 115
2.46998 -3.17701 0.09409 133 131 131
2.46028 -3.18853 0.09518 152 147 136
2.44583 -3.19616 0.09877 162 154 143
2.43195 -3.20426 0.10206 162 161 158
2.41177 -3.20708 0.10868 157 150 142
2.41488 -3.20589 0.12477 154 154 148
2.40103 -3.21398 0.12805 150 155 150
2.39791 -3.21517 0.11196 151 145 140
2.35324 -3.21685 0.12754 153 145 150
2.36392 -3.20998 0.10827 157 154 143
2.33612 -3.22204 0.13258 164 171 163
2.33225 -3.23865 0.13056 167 172 155
2.31533 -3.24790 0.11779 163 162 165
2.25034 -3.30852 0.14543 162 161 157
2.26422 -3.30042 0.14214 157 151 164
2.22523 -3.32714 0.15057 164 161 162
2.19695 -3.34289 0.15742 149 156 144
2.18307 -3.35099 0.16071 147 156 168
2.16013 -3.39320 0.16023 150 154 152
2.14501 -3.40024 0.16418 145 149 146
2.12791 -3.40958 0.15128 134 136 133
2.13105 -3.40839 0.16748 140 140 144
1.99996 -3.40943 0.21402 152 155 151
2.01680 -3.40022 0.22673 155 159 154
2.01371 -3.40140 0.21076 163 161 156
2.01062 -3.40258 0.19479 159 163 159
1.99687 -3.41060 0.19805 161 154 157
1.97908 -3.41020 0.22130 148 147 146
1.96227 -3.41939 0.20862 152 147 154
1.86561 -3.44765 0.25408 150 153 159
1.87618 -3.44086 0.23501 152 145 156
1.86254 -3.44882 0.23824 151 147 157
1.84890 -3.45679 0.24147 147 148 151
1.79058 -3.47993 0.27422 155 148 135
1.77913 -3.49028 0.27618 155 137 122
1.76857 -3.49707 0.29522 152 134 124
1.76585 -3.49862 0.27920 156 135 125
1.75194 -3.50625 0.28259 159 143 137
1.74012 -3.51625 0.28476 160 150 145
1.72343 -3.52537 0.27216 159 156 165
1.72723 -3.52505 0.28755 159 152 157
1.71054 -3.53418 0.27495 152 155 167
1.59989 -3.59099 0.31943 158 163 153
1.61656 -3.58188 0.33201 149 154 159
1.61350 -3.58304 0.31621 158 163 164
1.59682 -3.59216 0.30363 164 169 166
1.56745 -3.60041 0.32907 154 148 153
1.56439 -3.60157 0.31330 144 147 155
1.55242 -3.60654 0.33317 157 154 163
1.53864 -3.61421 0.33651 162 171 181
1.52427 -3.62113 0.34021 163 174 179
1.50765 -3.63022 0.32767 151 153 163
1.44958 -3.62618 0.36581 168 169 170
1.46002 -3.61948 0.34698 166 165 170
1.23716 -3.56951 0.45318 145 156 175
1.24722 -3.56305 0.43504 145 157 173
1.23424 -3.57062 0.43811 143 154 176
1.22826 -3.58283 0.45362 139 143 153
1.19938 -3.56788 0.46698 64 62 95
1.19031 -3.58091 0.46754 54 54 85
1.19627 -3.61567 0.45829 81 87 111
1.18771 -3.62977 0.45845 117 125 115
1.17656 -3.64019 0.46029 105 110 120
1.16906 -3.65604 0.45971 92 100 117
1.15751 -3.66599 0.46179 92 92 124
1.14495 -3.67448 0.46453 85 82 117
1.12471 -3.69890 0.46674 81 97 131
1.11894 -3.71790 0.46490 95 112 142
1.11178 -3.73493 0.46396 111 128 153
1.10786 -3.75714 0.46080 126 141 154
1.09865 -3.77130 0.46118 132 151 155
1.01700 -3.84475 0.47523 151 159 159
1.02737 -3.83809 0.45653 158 165 157
1.00062 -3.85371 0.46286 144 151 145
1.00706 -3.85832 0.47599 145 148 136
0.99408 -3.86684 0.47887 145 148 130
0.97767 -3.87581 0.46649 153 155 156
0.98162 -3.87625 0.48138 142 146 151
0.96520 -3.88523 0.46899 152 152 154
0.90808 -3.90378 0.50196 148 153 158
0.90507 -3.90492 0.48645 147 152 152
0.89274 -3.90803 0.50656 141 140 144
0.87639 -3.91697 0.49422 148 153 153
0.87735 -3.91212 0.51121 136 142 143
0.86101 -3.92105 0.49888 149 148 148
0.73635 -3.97488 0.54861 140 144 151
0.74665 -3.96826 0.53004 132 137 142
0.71388 -3.99862 0.55176 147 151 140
0.69757 -4.00753 0.53945 118 118 137
0.68871 -4.01714 0.55693 134 136 138
0.64344 -4.02930 0.57058 135 139 137
0.62717 -4.03820 0.55830 123 128 131
0.51212 -4.11034 0.60078 122 121 122
0.52243 -4.10371 0.58220 129 132 127
0.50913 -4.11148 0.58534 128 135 134
0.49584 -4.11924 0.58849 123 127 124
0.48616 -4.12735 0.60655 113 118 124
0.48317 -4.12849 0.59111 124 130 124
0.46987 -4.13625 0.59426 126 134 128
0.45087 -4.16187 0.61205 127 127 129
0.46121 -4.15523 0.59341 130 133 128
0.44787 -4.16302 0.59657 132 139 137
0.43753 -4.16966 0.61521 114 121 128
0.31595 -4.14933 0.66273 127 131 122
0.33198 -4.14057 0.67483 123 131 134
0.32904 -4.14169 0.65963 124 135 134
0.32610 -4.14281 0.64444 122 133 130
0.31890 -4.14821 0.67793 129 133 123
0.30286 -4.15697 0.66583 122 127 126
0.24153 -4.20684 0.67748 114 124 122
0.25761 -4.19805 0.68961 119 121 121
0.25466 -4.19917 0.67437 114 117 121
0.25171 -4.20030 0.65912 108 112 119
0.22545 -4.21563 0.66534 125 137 138
0.22701 -4.21051 0.68190 123 134 134
0.21095 -4.21929 0.66978 123 126 129
0.19696 -4.21461 0.69178 132 136 129
0.19402 -4.21573 0.67659 124 133 128
0.16775 -4.22072 0.70094 125 129 128
0.15176 -4.22946 0.68888 113 123 120
-0.02430 -4.34826 0.74326 126 125 115
-0.00826 -4.33950 0.75536 116 114 123
-0.01121 -4.34062 0.74016 119 123 124
-0.01415 -4.34174 0.72496 122 129 127
-0.03790 -4.35401 0.74693 118 110 106
-0.05080 -4.36236 0.74981 119 112 115
-0.06683 -4.37112 0.73772 131 137 133
-0.06211 -4.37667 0.75091 129 129 126
-0.07816 -4.38545 0.73880 128 131 131
-0.07425 -4.38799 0.75292 126 124 125
-0.09032 -4.39677 0.74079 127 132 126
-0.08475 -4.40576 0.75302 119 120 122
-0.09841 -4.41146 0.75672 119 125 112
-0.11451 -4.42027 0.74457 121 121 109
-0.11029 -4.42415 0.75835 112 111 102
-0.13964 -4.42712 0.76821 110 115 104
-0.14981 -4.43366 0.78656 120 117 121
-0.15276 -4.43478 0.77132 117 120 119
-0.15571 -4.43591 0.75608 120 123 118
-0.21451 -4.42455 0.79544 120 121 119
-0.20444 -4.41808 0.77727 112 112 109
-0.23043 -4.43325 0.78342 121 124 127
-0.22687 -4.43501 0.79770 123 126 128
-0.24280 -4.44372 0.78567 124 126 130
-0.23992 -4.44237 0.80084 126 129 132
-0.25203 -4.45410 0.80275 119 119 119
-0.26798 -4.46281 0.79072 108 103 119
-0.26178 -4.47704 0.80153 112 110 114
-0.38531 -4.51301 0.83819 128 128 111
-0.40712 -4.55155 0.83807 114 118 108
-0.42309 -4.56028 0.82602 122 120 116
-0.41986 -4.56089 0.84069 114 116 117
-0.43583 -4.56962 0.82864 118 118 107
-0.48148 -4.62186 0.85016 96 96 87
-0.51166 -4.61071 0.86321 105 101 102
-0.50873 -4.60960 0.87834 103 95 101
-0.52176 -4.61720 0.88142 99 97 98
-0.52762 -4.61944 0.85116 114 120 102
-0.55309 -4.61684 0.87672 101 99 104
-0.54303 -4.61037 0.85858 120 120 110
2.48995 -3.12005 0.08183 65 54 86
2.50060 -3.11320 0.06262 55 48 95
2.48685 -3.12122 0.06587 57 51 101
2.47311 -3.12925 0.06913 62 54 98
2.48918 -3.13847 0.07827 74 64 93
2.47927 -3.14965 0.07949 85 79 93
2.45920 -3.15263 0.08607 96 92 96
2.42834 -3.16602 0.09434 125 125 124
2.42742 -3.18469 0.09077 149 140 142
2.41824 -3.19663 0.09158 158 157 154
2.40182 -3.20254 0.09623 159 163 148
2.38115 -3.20483 0.10317 151 151 145
2.32870 -3.21949 0.11891 161 157 165
2.31185 -3.22871 0.10620 157 155 148
2.31980 -3.23174 0.11955 164 166 164
2.30292 -3.24096 0.10682 154 154 155
2.22431 -3.28891 0.14187 159 147 137
2.20655 -3.31402 0.14301 170 168 160
2.19429 -3.32354 0.14542 146 142 154
2.18301 -3.33398 0.14728 147 153 139
2.17295 -3.34560 0.14847 150 152 153
2.15598 -3.35488 0.13566 145 142 145
2.16249 -3.35691 0.14986 158 158 157
2.15032 -3.36662 0.15220 155 160 160
2.13333 -3.37591 0.13937 145 143 141
2.14242 -3.38045 0.15215 153 151 144
2.12748 -3.38756 0.15602 141 142 139
2.10276 -3.40678 0.16088 142 145 152
2.08885 -3.41490 0.16417 150 153 152
2.08572 -3.41609 0.14802 146 150 157
1.79923 -3.47107 0.25630 153 150 140
1.81283 -3.46313 0.25308 149 146 136
1.78398 -3.47719 0.26049 157 158 150
1.76913 -3.48373 0.26445 161 152 145
1.75476 -3.49077 0.26814 164 152 144
1.73812 -3.49987 0.25558 172 174 167
1.73970 -3.49704 0.27223 169 165 156
1.73101 -3.51053 0.27254 170 168 165
1.57585 -3.59102 0.31139 155 155 156
1.58637 -3.58426 0.29241 163 161 168
1.55922 -3.60011 0.29884 144 151 146
1.54639 -3.60397 0.31925 149 148 159
1.53093 -3.60951 0.32364 157 156 175
1.51449 -3.61375 0.32865 161 171 173
1.49791 -3.62282 0.31613 149 153 165
1.44094 -3.62000 0.35372 173 171 172
1.45135 -3.61330 0.33493 165 167 173
1.42038 -3.61846 0.36141 157 150 155
1.40396 -3.62744 0.34902 145 151 158
1.40525 -3.62399 0.36568 142 151 167
1.38984 -3.62912 0.37013 146 156 174
1.37947 -3.63578 0.38884 156 159 178
1.37646 -3.63693 0.37330 152 159 175
1.37345 -3.63808 0.35777 148 156 166
1.23546 -3.59820 0.43193 145 152 164
1.22492 -3.60940 0.43337 104 109 131
1.20891 -3.61814 0.42130 119 119 137
1.20689 -3.60991 0.43973 96 102 123
1.20327 -3.63112 0.43661 114 124 138
1.18723 -3.63988 0.42451 127 129 137
1.18695 -3.63406 0.44185 132 133 133
1.17423 -3.64221 0.44471 135 145 152
1.16504 -3.65558 0.44521 102 108 117
1.15496 -3.66772 0.44630 73 70 107
1.14314 -3.67731 0.44854 67 65 114
1.13361 -3.69040 0.44922 74 87 127
1.12685 -3.70780 0.44802 95 116 144
1.12144 -3.72743 0.44587 118 138 158
1.11004 -3.73796 0.44776 138 152 164
1.10291 -3.75522 0.44672 148 159 158
1.09121 -3.76543 0.44879 152 166 160
1.07494 -3.77432 0.43651 166 172 175
1.07915 -3.77512 0.45109 160 171 172
1.06288 -3.78402 0.43881 165 172 173
1.00847 -3.83669 0.46360 149 158 154
1.01881 -3.83004 0.44495 159 166 162
0.98516 -3.85797 0.46752 153 159 151
0.98215 -3.85912 0.45201 150 157 157
0.96879 -3.86692 0.45517 152 154 156
0.88089 -3.89327 0.49754 147 150 153
0.89119 -3.88665 0.47896 143 150 155
0.87790 -3.89441 0.48211 145 154 160
0.79028 -3.88674 0.53139 138 136 151
0.80636 -3.87795 0.54353 141 140 140
0.80341 -3.87908 0.52828 145 145 149
0.78733 -3.88787 0.51614 131 127 148
0.78010 -3.89328 0.54975 142 147 154
0.77715 -3.89441 0.53450 132 139 147
0.74236 -3.89330 0.54720 147 152 145
0.75838 -3.88455 0.55928 141 148 152
0.75543 -3.88567 0.54411 140 143 144
0.74530 -3.89218 0.56238 142 138 140
0.73223 -3.89981 0.56548 147 153 150
0.73738 -3.91667 0.54412 136 140 149
0.72130 -3.92546 0.53198 128 135 138
0.71860 -3.98081 0.53748 133 138 149
0.72888 -3.97420 0.51893 132 126 131
0.71561 -3.98194 0.52207 124 134 146
0.70617 -3.99026 0.53997 136 144 141
0.68991 -3.99915 0.52769 123 124 129
0.66919 -4.01943 0.54715 133 142 142
0.67950 -4.01281 0.52855 126 130 125
0.66620 -4.02057 0.53170 126 132 137
0.65298 -4.02111 0.55261 138 147 148
0.63727 -4.02371 0.55770 132 138 135
0.62102 -4.03258 0.54544 129 132 128
0.30219 -4.12169 0.65741 116 121 119
0.31226 -4.11522 0.63924 119 127 125
0.29106 -4.13430 0.65877 116 121 123
0.28098 -4.14078 0.67696 118 122 129
0.27805 -4.14190 0.66185 125 133 136
0.27512 -4.14301 0.64674 124 137 133
0.23639 -4.20175 0.66431 112 119 120
0.24655 -4.19523 0.64599 110 110 116
0.17579 -4.20806 0.68472 130 131 127
0.17286 -4.20918 0.66960 124 126 125
0.16022 -4.20803 0.69031 116 122 121
0.14429 -4.21674 0.67829 112 121 119
0.09318 -4.23955 0.70778 123 125 122
0.10909 -4.23086 0.71978 124 127 128
0.10617 -4.23197 0.70470 122 131 132
0.09611 -4.23844 0.72285 125 132 135
0.09026 -4.24066 0.69270 120 121 117
0.07728 -4.24824 0.69577 120 118 117
0.08223 -4.25369 0.70876 119 116 116
0.07215 -4.26016 0.72693 119 115 126
0.06923 -4.26128 0.71183 113 112 121
-0.02656 -4.35185 0.72730 128 132 126
-0.01641 -4.34532 0.70899 120 123 131
-0.02951 -4.35297 0.71209 125 128 131
-0.03968 -4.35943 0.73042 122 121 112
-0.05253 -4.36799 0.73324 124 125 118
-0.10448 -4.40034 0.74513 125 128 116
-0.12053 -4.40912 0.73301 112 111 107
-0.12981 -4.41923 0.75027 118 119 109
-0.14587 -4.42801 0.73815 119 125 119
-0.14434 -4.42109 0.75509 123 124 117
-0.16038 -4.42986 0.74298 114 120 113
-0.21854 -4.42077 0.78176 121 123 122
-0.22146 -4.42188 0.76669 119 117 119
-0.25633 -4.44887 0.78945 121 118 118
-0.24625 -4.44240 0.77128 124 129 133
-0.27225 -4.45757 0.77744 113 107 114
-0.37785 -4.49258 0.82391 116 119 120
-0.36492 -4.48504 0.82085 113 120 118
-0.36783 -4.48614 0.80584 111 110 117
-0.38075 -4.49369 0.80890 111 108 116
-0.39027 -4.50289 0.82621 114 109 103
-0.40611 -4.51155 0.81426 106 102 84
-0.40173 -4.51866 0.82704 108 101 84
-0.41174 -4.54306 0.82554 110 104 109
-0.48575 -4.61447 0.83719 110 114 107
-0.47561 -4.60796 0.81890 111 114 106
-0.48870 -4.61560 0.82200 112 116 111
-0.50178 -4.62323 0.82509 113 115 108
-0.50011 -4.61375 0.84249 110 107 105
-0.51610 -4.62249 0.83041 120 121 115
-0.55796 -4.60395 0.86527 112 118 116
-0.57381 -4.61261 0.85331 106 106 105
-0.57298 -4.59622 0.87227 105 107 99
-0.58297 -4.60264 0.89029 98 99 91
-0.58588 -4.60375 0.87532 102 105 99
-0.58878 -4.60485 0.86035 105 105 106
-0.88463 -4.74241 0.95353 87 88 82
-0.86895 -4.73384 0.96536 92 89 91
-0.87183 -4.73494 0.95049 93 92 93
-0.87471 -4.73604 0.93563 96 95 93
-0.88175 -4.74132 0.96839 88 89 76
-0.89742 -4.74988 0.95656 81 86 82
2.46518 -3.14196 0.06930 68 61 85
2.47585 -3.13511 0.05005 55 52 109
2.46208 -3.14314 0.05331 59 56 100
2.44930 -3.14828 0.07368 74 70 82
2.39577 -3.18166 0.08591 136 136 134
2.38439 -3.19169 0.08789 139 139 136
2.36201 -3.19247 0.09579 138 133 138
2.35744 -3.20829 0.09408 153 148 149
2.22661 -3.27447 0.12723 158 152 142
2.23727 -3.26763 0.10801 154 152 154
2.22352 -3.27565 0.11127 157 156 149
2.20603 -3.29685 0.12991 150 147 154
2.18916 -3.30608 0.11717 153 142 142
2.19158 -3.30427 0.13355 158 153 142
2.17471 -3.31349 0.12082 143 144 141
2.16037 -3.31693 0.14211 135 130 133
2.15115 -3.32923 0.14284 139 135 142
2.12679 -3.34836 0.14756 145 138 137
2.12369 -3.34954 0.13155 142 141 148
2.11030 -3.37517 0.14783 144 141 138
2.09335 -3.38443 0.13504 136 131 141
2.10200 -3.38863 0.14797 136 135 139
2.08619 -3.39481 0.15236 149 156 162
2.06922 -3.40408 0.13956 143 141 155
2.04696 -3.39954 0.16550 151 151 153
2.05006 -3.39836 0.18153 152 152 153
2.03005 -3.40879 0.15274 161 164 166
2.02453 -3.39898 0.17371 157 161 160
2.01076 -3.40701 0.17697 159 159 161
2.00767 -3.40820 0.16098 159 158 163
1.86760 -3.43617 0.22240 158 154 149
1.88427 -3.42705 0.23499 153 151 148
1.88121 -3.42822 0.21918 153 146 142
1.85167 -3.44165 0.22698 159 154 151
1.83807 -3.44959 0.23020 146 150 150
1.80521 -3.45931 0.23999 160 162 149
1.82185 -3.45022 0.25254 146 148 149
1.81574 -3.45255 0.22100 152 162 156
1.80216 -3.46047 0.22422 162 165 159
1.78858 -3.46840 0.22743 165 163 162
1.79047 -3.46595 0.24389 164 160 153
1.77535 -3.47217 0.24803 162 158 163
1.75873 -3.48125 0.23549 172 178 171
1.75936 -3.47739 0.25269 170 168 168
1.74275 -3.48646 0.24016 175 177 171
1.74426 -3.48357 0.25682 177 175 167
1.72367 -3.50682 0.25932 166 167 168
1.70704 -3.51591 0.24677 157 151 164
1.71149 -3.51635 0.26169 153 150 165
1.69791 -3.52429 0.26491 147 146 164
1.56237 -3.57932 0.30211 154 150 155
1.57285 -3.57259 0.28320 164 160 169
1.53347 -3.59278 0.30968 141 145 148
1.53043 -3.59394 0.29399 141 145 147
1.51681 -3.59670 0.31485 143 130 150
1.50231 -3.60330 0.31868 153 157 167
1.48578 -3.61233 0.30621 151 156 163
1.41308 -3.61396 0.34859 157 157 157
1.39669 -3.62292 0.33622 153 152 142
1.24937 -3.59703 0.41118 142 153 165
1.26245 -3.58940 0.40809 145 157 170
1.23699 -3.60564 0.41382 139 147 156
1.22697 -3.61762 0.41490 123 130 143
1.20104 -3.63327 0.42093 125 131 146
1.17339 -3.64642 0.42811 133 137 148
1.16593 -3.66238 0.42742 92 88 105
1.15353 -3.67111 0.43004 72 78 113
1.14306 -3.68275 0.43135 89 103 133
1.13880 -3.70386 0.42842 111 128 144
1.13134 -3.72031 0.42762 129 146 155
1.11515 -3.72916 0.41540 152 158 163
1.11868 -3.72888 0.43037 142 155 164
1.10552 -3.73671 0.43346 153 162 170
1.09614 -3.75044 0.43393 154 161 166
1.07992 -3.75931 0.42168 168 174 179
1.08396 -3.75984 0.43633 160 167 167
1.04988 -3.79224 0.44175 156 165 164
1.05287 -3.79110 0.45718 159 168 165
1.03959 -3.79886 0.46033 153 162 166
1.03361 -3.80114 0.42947 144 147 153
1.03634 -3.79958 0.44508 150 157 162
1.02605 -3.80620 0.46365 154 162 158
1.02306 -3.80734 0.44823 157 163 162
0.98823 -3.83906 0.45406 143 152 149
0.99855 -3.83243 0.43545 151 157 171
0.98523 -3.84020 0.43860 155 162 165
0.97192 -3.84798 0.44175 154 160 158
0.85389 -3.88270 0.49325 141 148 148
0.86413 -3.87612 0.47476 147 156 162
0.83769 -3.89155 0.48102 128 141 124
0.79771 -3.87508 0.51511 139 142 153
0.81377 -3.86630 0.52723 144 150 147
0.81082 -3.86742 0.51200 139 147 144
0.80787 -3.86855 0.49678 137 146 137
0.76409 -3.87636 0.52696 127 138 149
0.75223 -3.88628 0.52913 141 151 152
0.73927 -3.89413 0.53214 154 165 155
0.73476 -3.91844 0.52862 130 130 143
0.71868 -3.92723 0.51648 133 139 136
0.69341 -3.97166 0.53225 126 134 133
0.69044 -3.97279 0.51691 126 129 126
0.67723 -3.98050 0.52004 120 124 130
0.64263 -4.00681 0.54311 126 133 138
0.65288 -4.00022 0.52463 127 133 136
0.62643 -4.01566 0.53089 120 120 123
0.62830 -4.01218 0.54714 123 127 126
0.59604 -4.01505 0.55816 130 130 133
0.59900 -4.01392 0.57346 121 126 135
0.59308 -4.01618 0.54287 138 142 136
0.58583 -4.02161 0.57658 119 124 131
0.29821 -4.11999 0.64330 116 119 122
0.30827 -4.11353 0.62515 119 126 129
0.29529 -4.12111 0.62822 125 128 130
0.28230 -4.12869 0.63130 121 125 118
0.28802 -4.13510 0.64377 112 114 116
0.26634 -4.16223 0.64584 124 122 126
0.25622 -4.16873 0.66408 118 110 124
0.25329 -4.16985 0.64893 118 115 121
0.22919 -4.19077 0.65319 112 115 115
0.22625 -4.19189 0.63802 117 125 112
0.21504 -4.19530 0.65733 120 130 135
0.20199 -4.20292 0.66042 128 132 138
0.18516 -4.19944 0.66722 122 131 125
0.15552 -4.20381 0.67698 118 123 118
0.11416 -4.21905 0.68866 107 117 123
0.13004 -4.21037 0.70065 114 119 118
0.12712 -4.21148 0.68559 110 114 114
0.11125 -4.22016 0.67361 104 108 114
0.10037 -4.22400 0.69258 116 124 127
0.06738 -4.26590 0.69561 117 120 124
0.06445 -4.26702 0.68049 123 126 124
0.05436 -4.27350 0.69869 118 124 126
0.05143 -4.27462 0.68358 122 125 121
-0.04406 -4.35525 0.71685 124 124 118
-0.04700 -4.35637 0.70166 121 125 123
-0.06008 -4.36401 0.70476 110 115 116
-0.05567 -4.36840 0.71825 117 122 117
-0.06972 -4.37244 0.72246 121 132 131
-0.08280 -4.38008 0.72556 127 132 135
-0.08575 -4.38120 0.71036 120 123 129
-0.09576 -4.38824 0.72850 125 126 127
-0.09870 -4.38936 0.71330 118 119 120
-0.10917 -4.39459 0.73199 116 114 110
-0.12520 -4.40335 0.71990 108 111 108
-0.21171 -4.40020 0.76777 116 112 114
-0.19586 -4.39154 0.77973 108 116 111
-0.19877 -4.39264 0.76470 114 113 115
-0.22756 -4.40886 0.75581 121 120 120
-0.23666 -4.41945 0.77269 117 120 122
-0.39459 -4.49620 0.81336 105 103 107
-0.38458 -4.48977 0.79531 117 114 119
-0.56125 -4.60233 0.85096 106 110 116
-0.57709 -4.61099 0.83901 101 104 109
-0.85128 -4.69068 0.93680 97 96 94
-0.83857 -4.68326 0.93378 102 99 103
-0.84842 -4.68959 0.95156 97 95 96
-0.86114 -4.69702 0.95457 94 94 97
-0.86399 -4.69811 0.93981 96 96 92
-0.88875 -4.72357 0.94334 96 96 87
-0.89162 -4.72466 0.92854 96 100 95
-0.90436 -4.73210 0.93156 96 101 92
-0.90106 -4.73831 0.94465 92 94 85
-0.91382 -4.74576 0.94767 91 92 90
-0.91669 -4.74685 0.93286 91 95 88
-1.30825 -4.93597 1.04957 83 82 77
-1.29275 -4.92749 1.06127 87 88 84
-1.29559 -4.92858 1.04658 88 94 88
-1.29844 -4.92966 1.03188 85 87 86
-1.32090 -4.94335 1.05257 76 68 69
2.41886 -3.14637 0.06828 74 75 108
2.39803 -3.14849 0.07538 84 83 117
2.37454 -3.14833 0.08392 93 90 122
2.36011 -3.15563 0.08758 101 100 133
2.33637 -3.15510 0.09630 113 111 130
2.31972 -3.16421 0.08373 100 102 94
2.34357 -3.18065 0.08819 124 124 130
2.32682 -3.18981 0.07555 112 116 104
2.34430 -3.20092 0.08357 144 140 145
2.31418 -3.21466 0.09153 153 154 172
2.30046 -3.22268 0.09478 159 154 173
2.19818 -3.27312 0.12099 156 162 146
2.20880 -3.26630 0.10184 157 156 153
2.18140 -3.28230 0.10833 148 134 133
2.14502 -3.30665 0.13305 144 135 135
2.15564 -3.29982 0.11389 145 141 142
2.13505 -3.31817 0.13418 156 156 155
2.12103 -3.32590 0.13760 156 154 148
2.10307 -3.35103 0.13870 142 146 153
2.08622 -3.36025 0.12598 160 158 155
2.09331 -3.36293 0.13968 155 158 151
2.06801 -3.38124 0.14491 152 156 157
2.03106 -3.38801 0.15685 152 158 162
2.02797 -3.38919 0.14088 151 151 154
1.94155 -3.40677 0.18525 145 143 151
1.95827 -3.39763 0.19788 163 157 153
1.95213 -3.39997 0.16616 156 153 149
1.94462 -3.40560 0.20111 147 142 147
1.92482 -3.41591 0.17263 165 164 164
1.92597 -3.41276 0.18961 157 157 157
1.91540 -3.41956 0.20869 161 161 166
1.91233 -3.42073 0.19284 164 162 166
1.90926 -3.42190 0.17699 164 164 164
1.87667 -3.42782 0.20423 151 152 152
1.88722 -3.42105 0.18521 154 156 163
1.87361 -3.42899 0.18843 154 158 162
1.86000 -3.43694 0.19165 165 163 167
1.85393 -3.42604 0.21286 165 164 160
1.83731 -3.43513 0.20032 172 169 167
1.83751 -3.43091 0.21776 168 166 167
1.82111 -3.43575 0.22267 154 162 160
1.76898 -3.46966 0.23426 164 165 167
1.72609 -3.49086 0.24525 166 165 168
1.70950 -3.49993 0.23273 152 150 167
1.71406 -3.50049 0.24754 159 156 165
1.69746 -3.50956 0.23501 161 159 166
1.69492 -3.52554 0.24908 156 155 167
1.69187 -3.52670 0.23331 163 163 167
1.67828 -3.53463 0.23653 168 165 169
1.54703 -3.56527 0.29414 160 160 162
1.55746 -3.55857 0.27532 168 166 168
1.54400 -3.56643 0.27851 168 167 168
1.53649 -3.57677 0.29548 144 152 147
1.50792 -3.59045 0.30289 143 143 150
1.49142 -3.59947 0.29045 155 159 158
1.49205 -3.59526 0.30761 153 157 163
1.47557 -3.60427 0.29517 151 151 150
1.42873 -3.61423 0.32648 159 160 162
1.43912 -3.60755 0.30774 153 154 160
1.42572 -3.61538 0.31091 152 154 154
1.41231 -3.62320 0.31409 153 155 155
1.26145 -3.59323 0.39162 146 158 166
1.27748 -3.58447 0.40371 148 158 172
1.27453 -3.58559 0.38852 150 158 171
1.27159 -3.58671 0.37333 149 156 168
1.25213 -3.60615 0.39222 137 142 152
1.23608 -3.61492 0.38011 128 122 143
1.23732 -3.61139 0.39646 131 134 144
1.21156 -3.62728 0.40237 114 114 135
1.19552 -3.63605 0.39027 127 137 153
1.20153 -3.63937 0.40341 127 131 148
1.18731 -3.64541 0.40726 125 134 143
1.17595 -3.65563 0.40918 118 124 144
1.16002 -3.65912 0.41420 99 105 123
1.15091 -3.67273 0.41458 111 123 132
1.15020 -3.69907 0.40917 127 138 148
1.13986 -3.71110 0.41033 139 153 156
1.12809 -3.72102 0.41246 149 160 164
1.10416 -3.74035 0.41698 162 169 172
1.08795 -3.74921 0.40474 172 182 184
1.09284 -3.75108 0.41877 165 171 179
1.06792 -3.76904 0.42394 167 170 176
1.05691 -3.78037 0.42549 163 166 170
1.04066 -3.78925 0.41323 150 155 162
1.04266 -3.78653 0.42933 150 156 159
1.02642 -3.79541 0.41707 148 154 162
0.84407 -3.87139 0.48305 137 145 144
0.85428 -3.86483 0.46463 151 154 156
0.84111 -3.87252 0.46775 144 152 150
0.79343 -3.87373 0.50090 124 128 137
0.77922 -3.87928 0.50486 129 136 143
0.76318 -3.88805 0.49275 143 145 138
0.76156 -3.87825 0.51148 139 147 148
0.74982 -3.88842 0.51355 142 154 157
0.73380 -3.89717 0.50146 139 144 149
0.73633 -3.89526 0.51696 145 152 152
0.72032 -3.90401 0.50488 139 144 137
0.72853 -3.91317 0.51593 131 131 139
0.71248 -3.92195 0.50382 135 141 136
0.63439 -3.99689 0.53204 127 134 130
0.64461 -3.99032 0.51361 130 137 141
0.63143 -3.99802 0.51673 133 139 138
0.60190 -3.99917 0.54333 131 136 133
0.59894 -4.00030 0.52807 131 133 142
0.58580 -4.00797 0.53118 138 142 143
0.57456 -4.01221 0.55043 133 135 134
0.56438 -4.01875 0.56879 117 123 124
0.56143 -4.01987 0.55354 124 132 131
0.48350 -4.06789 0.57146 131 135 132
0.49959 -4.05909 0.58360 129 130 128
0.49368 -4.06134 0.55309 131 137 135
0.48646 -4.06676 0.58671 126 130 126
0.48054 -4.06901 0.55620 136 141 134
0.47332 -4.07443 0.58983 117 123 115
0.35174 -4.10233 0.61180 131 130 127
0.36769 -4.09361 0.62384 126 132 140
0.34881 -4.10345 0.59668 121 124 123
0.33578 -4.11105 0.59976 120 126 125
0.27355 -4.14781 0.63036 123 132 126
0.28364 -4.14132 0.61215 126 126 120
0.25759 -4.15653 0.61832 131 137 139
0.26118 -4.15722 0.63281 128 131 133
0.25036 -4.17098 0.63377 112 115 122
0.23692 -4.17749 0.63725 116 117 118
0.20972 -4.18954 0.64451 117 119 120
0.20679 -4.19066 0.62937 114 113 106
0.19376 -4.19827 0.63246 115 111 114
0.19644 -4.19642 0.64784 126 126 133
0.17960 -4.19280 0.65472 119 118 121
0.16532 -4.19655 0.65909 122 121 128
0.14942 -4.20525 0.64709 132 136 133
0.15005 -4.19722 0.66448 133 135 129
0.13417 -4.20589 0.65250 123 122 128
0.13522 -4.19907 0.66946 120 122 121
0.12107 -4.20289 0.67377 113 116 114
0.09591 -4.22019 0.67917 106 109 112
0.08392 -4.23078 0.68123 121 125 123
0.06806 -4.23945 0.66926 127 133 133
0.07178 -4.24097 0.68344 127 129 126
