ply
format ascii 1.0
element face 0
property list uchar int vertex_indices
element vertex 1325
property float x
property float y
property float z
property uchar diffuse_red
property uchar diffuse_green
property uchar diffuse_blue
end_header
2.69347 -2.53270 0.91307 139 139 141
2.67776 -2.54578 0.90738 179 190 186
2.67457 -2.53576 0.92110 157 156 155
2.65890 -2.54880 0.91543 175 184 182
2.66874 -2.54747 0.92806 171 169 154
2.63484 -2.54031 0.93719 154 149 120
2.59276 -2.52738 0.94683 121 119 102
2.58642 -2.53853 0.95374 107 100 119
2.56014 -2.53600 0.96207 110 116 112
2.54783 -2.54297 0.96937 110 114 96
2.53537 -2.54981 0.97667 94 104 115
2.52683 -2.55935 0.98369 111 126 142
2.51152 -2.57209 0.97815 117 119 135
2.53348 -2.57962 0.98975 154 168 171
2.52732 -2.59092 0.99665 168 152 157
2.51193 -2.60373 0.99108 103 95 131
2.51564 -2.59830 1.00390 148 133 153
2.50026 -2.61109 0.99833 109 106 137
2.50714 -2.60794 1.01094 139 136 154
2.48529 -2.60791 1.01873 135 128 143
2.45811 -2.60386 1.02676 98 94 120
2.45972 -2.62077 1.03322 62 62 104
2.44867 -2.62842 1.04035 39 47 95
2.43384 -2.63323 1.04765 43 60 106
2.42145 -2.63981 1.05481 92 111 135
2.40013 -2.63962 1.06235 122 129 143
2.41417 -2.66612 1.06836 104 102 126
2.41795 -2.68501 1.07488 89 89 115
2.41439 -2.69839 1.08171 95 103 121
2.41196 -2.71268 1.08853 111 125 138
2.40218 -2.72132 1.09562 139 149 154
2.40359 -2.73871 1.10235 166 170 159
2.38818 -2.75153 1.09677 159 160 163
2.39124 -2.74534 1.10953 170 175 157
2.37584 -2.75815 1.10395 158 160 159
2.37456 -2.74851 1.11680 163 166 157
2.35920 -2.76128 1.11124 156 157 153
2.35187 -2.76316 1.13100 160 162 165
2.34502 -2.76632 1.11843 159 155 153
2.33654 -2.77592 1.12545 161 157 158
2.33151 -2.77960 1.14512 151 154 164
2.34337 -2.82254 1.15875 190 196 207
2.32792 -2.83540 1.15316 202 202 202
2.33482 -2.83222 1.16583 198 199 203
2.33167 -2.84641 1.17286 195 184 159
2.35439 -2.88242 1.17973 111 66 47
2.34574 -2.89221 1.18690 98 75 40
2.35064 -2.91353 1.19402 130 114 86
2.10296 -2.86592 1.26268 135 117 77
2.05803 -2.85840 1.27559 85 82 63
2.05646 -2.86460 1.29444 93 89 81
2.04988 -2.86763 1.28235 90 89 79
2.04330 -2.87066 1.27026 83 85 77
0.97506 -2.89000 1.67557 143 142 140
0.98313 -2.91924 1.68486 105 95 90
0.97128 -2.92910 1.68057 92 83 76
1.08416 -3.16383 1.75056 57 47 52
1.07142 -3.17444 1.74595 35 39 35
1.07869 -3.17429 1.75687 30 39 34
1.07130 -3.18177 1.76262 48 59 63
1.09061 -3.23142 1.77639 103 102 94
1.07768 -3.24218 1.77171 119 108 96
1.03848 -3.26493 1.80895 126 112 88
1.03986 -3.25952 1.79250 124 109 92
1.02210 -3.25768 1.81178 100 81 62
1.00804 -3.25408 1.81531 31 14 19
0.99437 -3.25100 1.81891 50 47 44
3.51734 -1.39452 0.12891 50 50 67
3.53255 -1.38186 0.13442 61 56 60
3.52576 -1.38499 0.12194 52 48 68
3.52413 -1.39139 0.14140 59 58 65
3.51571 -1.40092 0.14837 60 60 66
3.19855 -1.51201 0.29233 207 209 215
3.19698 -1.51815 0.31101 197 197 202
3.19347 -1.52214 0.29835 207 203 214
3.19190 -1.52828 0.31704 196 196 203
3.17589 -1.52817 0.30717 208 204 216
3.17432 -1.53430 0.32582 198 197 205
3.16281 -1.53564 0.31497 210 209 215
3.16125 -1.54176 0.33360 199 198 207
3.15540 -1.54498 0.32150 215 211 217
3.15384 -1.55110 0.34013 199 198 206
3.14733 -1.55410 0.32818 217 215 222
3.08043 -1.55489 0.35261 201 190 204
2.97219 -1.57535 0.40005 216 214 228
2.92012 -1.56817 0.41584 233 239 247
2.91381 -1.57743 0.42194 222 226 238
2.89972 -1.60707 0.43927 210 218 235
2.84914 -1.62287 0.46403 191 204 215
2.82907 -1.62678 0.47287 186 197 208
2.79171 -1.62386 0.48512 175 181 198
2.76698 -1.62572 0.49480 168 172 206
3.31528 -2.09039 0.48944 189 190 187
3.31704 -2.08350 0.46849 184 186 193
3.30797 -2.09376 0.47600 184 187 193
3.29890 -2.10402 0.48351 187 189 191
3.17266 -2.05355 0.52558 168 160 141
3.15677 -2.06677 0.51983 185 189 189
3.20364 -2.09617 0.53204 184 187 194
3.18756 -2.10955 0.52622 183 186 194
2.70147 -2.26153 0.78131 133 139 140
2.70309 -2.25520 0.76203 133 143 156
2.71885 -2.28604 0.78518 95 94 90
2.72982 -2.30697 0.78988 49 49 55
2.71456 -2.31967 0.78435 50 51 54
2.74533 -2.51208 0.86911 146 152 142
2.76115 -2.49892 0.87484 129 135 140
2.75409 -2.50217 0.86186 130 126 135
2.74702 -2.50543 0.84888 141 130 121
2.75239 -2.50882 0.88209 139 142 141
2.73530 -2.52117 0.87648 151 150 149
2.69879 -2.51294 0.88623 174 178 166
2.68490 -2.51935 0.89388 182 188 178
2.66991 -2.52498 0.90161 177 186 181
2.64378 -2.55426 0.92313 174 186 159
2.59392 -2.55156 0.93997 125 133 145
2.55835 -2.54265 0.94910 132 127 130
2.55226 -2.55396 0.95597 139 138 125
2.53673 -2.55869 0.96352 128 128 126
2.51952 -2.56217 0.97116 118 118 122
2.52586 -2.59795 0.98367 107 101 135
2.47255 -2.60677 1.00652 116 114 132
2.47419 -2.60035 0.98697 136 139 149
2.46573 -2.60992 0.99398 133 142 165
2.46824 -2.61939 1.01329 115 107 111
2.45586 -2.62609 1.02052 107 95 97
2.44739 -2.63567 1.02753 102 92 92
2.44674 -2.65107 1.03414 101 99 94
2.41578 -2.64379 1.04228 97 103 103
2.40877 -2.65439 1.04918 94 99 103
2.43041 -2.68681 1.05479 91 85 85
2.41504 -2.69960 1.04923 82 67 56
2.44259 -2.71228 1.06094 78 71 73
2.44090 -2.72726 1.06774 69 71 74
2.43081 -2.73579 1.07491 89 92 95
2.38481 -2.71627 1.08340 124 127 136
2.39383 -2.73962 1.08981 151 154 163
2.37843 -2.75243 1.08423 172 169 167
2.33981 -2.79512 1.13222 167 163 160
2.34300 -2.81438 1.13903 179 181 179
2.34627 -2.83383 1.14590 197 198 198
2.33077 -2.84673 1.14029 209 203 199
2.33481 -2.85803 1.16003 203 193 175
2.33941 -2.87888 1.16700 120 79 83
2.32382 -2.89186 1.16135 90 48 30
2.32919 -2.88730 1.17416 95 63 45
2.32908 -2.90434 1.18124 126 109 80
2.32972 -2.92211 1.18836 152 130 79
2.32104 -2.93192 1.19555 160 133 91
2.31405 -2.93515 1.18269 160 133 90
2.10351 -2.84200 1.23672 170 152 112
2.11834 -2.82966 1.24209 171 147 111
2.11172 -2.83271 1.22992 173 148 111
2.08382 -2.85760 1.25026 62 54 50
2.07116 -2.86280 1.25697 45 46 53
2.05637 -2.87511 1.25161 56 60 63
2.04847 -2.85869 1.26344 67 71 67
2.03376 -2.87093 1.25811 74 78 73
1.59695 -2.52825 1.28945 54 60 65
1.59830 -2.52295 1.27332 40 42 41
1.37227 -2.68501 1.43520 144 119 112
1.38464 -2.67472 1.43968 154 132 111
1.37911 -2.67727 1.42953 152 130 113
1.37779 -2.68247 1.44535 150 125 106
1.37094 -2.69022 1.45102 153 135 122
1.36450 -2.69172 1.44077 158 139 137
1.36317 -2.69691 1.45659 181 181 171
1.35765 -2.69946 1.44644 188 187 181
1.35213 -2.70201 1.43630 193 193 192
0.98777 -2.90211 1.66347 151 157 156
0.99960 -2.89226 1.66775 154 158 161
0.99432 -2.89470 1.65805 153 159 163
0.98904 -2.89713 1.64834 152 158 164
0.97952 -2.90696 1.66845 133 126 128
0.98412 -2.93116 1.67679 100 85 82
0.97223 -2.94105 1.67249 91 83 70
1.08010 -3.16900 1.74057 77 58 44
1.08147 -3.16364 1.72426 94 80 66
1.06493 -3.18332 1.75196 36 51 55
1.08715 -3.23776 1.76646 96 96 96
1.07420 -3.24853 1.76178 117 109 93
1.03850 -3.27708 1.80025 125 111 86
1.03988 -3.27165 1.78374 118 106 89
1.02074 -3.26754 1.80270 81 62 51
1.00107 -3.25458 1.80443 29 16 18
0.99931 -3.27147 1.81204 73 67 46
0.99859 -3.29023 1.82006 104 97 83
0.98576 -3.30091 1.81542 118 100 89
3.51155 -1.39793 0.11618 69 36 40
3.51318 -1.39153 0.09672 187 119 107
3.50476 -1.40106 0.10370 204 119 111
3.49633 -1.41059 0.11067 206 119 108
3.19203 -1.51502 0.28035 213 216 220
3.17313 -1.53241 0.29436 208 216 225
3.15631 -1.53864 0.30303 206 219 225
3.09571 -1.55355 0.33116 199 207 222
3.08128 -1.56555 0.32594 125 122 156
3.06958 -1.55632 0.34179 183 189 209
3.06260 -1.56565 0.34816 164 166 177
3.04823 -1.57761 0.34296 106 117 139
2.98280 -1.56102 0.37524 185 194 210
2.89970 -1.58899 0.41692 157 159 199
2.88669 -1.59577 0.42443 152 149 187
2.74319 -1.58729 0.47307 114 113 149
2.72968 -1.59854 0.46817 120 113 123
2.75033 -1.63591 0.49045 58 80 149
2.76303 -1.65259 0.49269 141 156 193
2.79121 -1.67568 0.49194 195 191 212
2.78972 -1.68151 0.50968 206 202 219
2.78353 -1.68436 0.49830 206 199 217
2.72396 -2.28169 0.76533 131 138 144
2.72559 -2.27530 0.74590 131 139 153
2.74904 -2.31089 0.76822 102 103 105
2.74769 -2.32472 0.77439 56 56 65
2.71817 -2.50234 0.85809 145 143 138
2.71986 -2.49573 0.83797 143 130 107
2.71812 -2.51783 0.86447 161 158 154
2.67188 -2.50312 0.87522 192 205 204
2.65627 -2.51610 0.86957 167 171 184
2.67162 -2.51842 0.88160 194 200 206
2.67115 -2.53366 0.88803 173 175 184
2.65991 -2.54177 0.89545 164 160 172
2.63726 -2.54216 0.90384 155 153 170
2.62343 -2.54842 0.91143 158 155 165
2.60964 -2.55465 0.91900 152 147 168
2.59094 -2.55746 0.92694 154 151 169
2.56775 -2.55707 0.93521 149 142 160
2.55230 -2.56992 0.92961 195 197 196
2.58025 -2.58140 0.94066 168 174 175
2.57352 -2.59244 0.94765 178 183 178
2.54330 -2.58693 0.95636 177 176 167
2.51979 -2.58598 0.96451 168 165 165
2.50843 -2.59358 0.97175 150 144 144
2.50083 -2.60386 0.97874 143 144 140
2.48185 -2.63755 0.99947 132 142 163
2.43860 -2.62153 1.00860 116 118 125
2.43256 -2.63286 1.01545 108 110 109
2.45746 -2.66737 1.02059 101 96 92
2.44205 -2.68019 1.01501 82 67 62
2.43720 -2.66818 1.02828 89 73 71
2.42185 -2.68096 1.02272 87 69 53
2.43239 -2.68060 1.03512 81 62 56
2.43182 -2.72878 1.05513 82 68 62
2.43146 -2.74488 1.06187 92 80 79
2.39223 -2.73060 1.07025 129 124 120
2.37204 -2.78029 1.09800 175 165 163
2.38060 -2.77061 1.09092 175 168 167
2.35865 -2.78605 1.10523 172 161 153
2.34591 -2.79228 1.11242 169 159 155
2.33977 -2.80388 1.11942 172 166 160
2.34378 -2.82389 1.12618 192 183 171
2.34590 -2.84246 1.13304 206 198 194
2.33036 -2.85538 1.12741 214 207 198
2.33308 -2.86559 1.14720 207 199 180
2.31586 -2.86804 1.15446 132 94 90
2.30522 -2.89307 1.16861 128 111 85
2.28967 -2.90600 1.16298 157 132 82
2.30333 -2.90860 1.17567 154 129 81
2.28776 -2.92156 1.17003 161 136 88
2.12040 -2.84948 1.21783 165 145 108
2.13531 -2.83708 1.22323 167 143 112
2.12865 -2.84015 1.21100 170 145 106
2.09111 -2.85655 1.23137 52 38 42
2.09109 -2.87334 1.23828 20 13 35
2.06394 -2.86527 1.24482 33 30 53
2.04915 -2.87758 1.23947 51 56 54
1.59316 -2.53262 1.27916 60 64 63
1.59451 -2.52731 1.26301 39 41 44
1.59897 -2.55291 1.28538 128 124 110
1.58628 -2.56347 1.28079 147 135 112
1.37612 -2.68265 1.41963 152 127 113
1.38850 -2.67235 1.42412 157 135 118
1.38297 -2.67490 1.41396 157 134 120
1.37744 -2.67745 1.40379 155 132 119
1.37591 -2.69793 1.42599 141 114 112
1.35382 -2.68839 1.43009 163 148 148
1.34148 -2.69865 1.42562 197 197 193
0.99642 -2.92535 1.65725 150 154 152
0.99769 -2.92034 1.64201 152 158 159
0.98604 -2.92713 1.66176 119 110 117
0.98800 -2.94750 1.66941 97 81 77
0.97605 -2.95745 1.66509 92 82 73
1.07279 -3.16909 1.72965 90 74 39
1.07415 -3.16374 1.71336 92 82 71
1.06862 -3.18162 1.73631 43 37 34
1.06029 -3.18761 1.74180 31 41 48
1.08290 -3.24287 1.75629 90 88 92
1.06994 -3.25365 1.75160 115 108 94
1.03829 -3.28894 1.79142 115 102 75
1.01336 -3.26744 1.79164 57 44 28
1.00650 -3.27587 1.79760 44 38 31
1.00638 -3.29567 1.80578 97 89 77
0.99350 -3.30638 1.80112 121 104 92
1.00020 -3.30534 1.81200 116 102 86
0.98732 -3.31606 1.80733 122 101 90
3.04613 -1.51850 0.31960 146 144 187
2.85000 -1.53022 0.39622 96 107 146
2.85349 -1.54279 0.40007 96 104 146
2.79152 -1.54278 0.42276 102 100 138
2.71977 -1.56084 0.45641 102 106 126
2.72182 -1.58414 0.46517 103 102 130
2.73562 -1.62375 0.47629 115 117 120
2.72659 -1.63167 0.48282 46 69 116
2.71153 -1.63714 0.49057 105 108 131
2.78265 -1.67757 0.48103 177 181 200
2.78160 -1.68896 0.48607 201 193 209
2.78011 -1.69480 0.50383 216 211 221
2.77391 -1.69766 0.49243 213 207 220
3.45040 -2.10638 0.41149 142 152 168
3.46723 -2.09238 0.41759 160 162 170
3.45220 -2.09931 0.38997 126 108 101
3.45791 -2.10292 0.42530 175 182 192
3.44288 -2.10985 0.39768 88 89 118
3.44860 -2.11346 0.43301 180 186 192
3.03466 -2.15588 0.58396 182 187 187
3.05043 -2.14275 0.58967 168 176 157
3.04339 -2.14600 0.57673 173 183 184
3.03635 -2.14925 0.56379 160 166 180
3.03297 -2.16251 0.60413 121 128 154
3.02593 -2.16576 0.59119 111 127 161
2.74732 -2.30246 0.74903 131 136 145
2.74896 -2.29602 0.72943 133 139 153
2.75674 -2.32262 0.75380 110 112 115
2.75391 -2.33565 0.76016 64 66 67
2.75194 -2.34925 0.76643 49 45 46
2.75029 -2.35574 0.78619 55 54 55
2.74339 -2.35893 0.77351 52 50 49
2.73649 -2.36211 0.76083 51 48 46
2.71860 -2.46414 0.82554 92 87 57
2.72028 -2.45757 0.80552 80 83 71
2.69830 -2.49724 0.84648 147 140 142
2.70295 -2.51577 0.85234 150 147 153
2.67803 -2.51496 0.86114 162 165 177
2.65468 -2.53057 0.87606 169 182 192
2.64770 -2.53379 0.86323 190 196 200
2.63905 -2.54359 0.87040 193 197 208
2.63743 -2.53459 0.88402 185 189 196
2.63389 -2.54781 0.89071 201 207 207
2.61827 -2.56080 0.88505 197 200 212
2.62291 -2.55600 0.89807 203 204 204
2.60730 -2.56899 0.89242 200 211 213
2.60198 -2.57303 0.91269 201 210 212
2.59941 -2.58701 0.91934 200 206 196
2.58378 -2.60001 0.91368 187 187 200
2.57782 -2.60356 0.93400 200 203 199
2.56690 -2.61171 0.94133 201 208 198
2.54127 -2.60936 0.94975 174 181 180
2.50693 -2.60059 0.95875 154 158 155
2.49164 -2.60534 0.96629 138 139 137
2.49196 -2.62137 0.97272 116 112 117
2.47824 -2.65911 0.99314 93 84 89
2.46279 -2.67198 0.98755 93 73 65
2.47288 -2.67118 1.00003 88 72 69
2.45741 -2.68405 0.99443 93 75 63
2.46173 -2.67892 1.00728 81 66 66
2.42501 -2.69951 1.02913 89 70 53
2.42811 -2.71813 1.03559 90 73 61
2.42244 -2.73006 1.04254 91 77 72
2.42369 -2.74742 1.04917 103 90 88
2.39276 -2.75599 1.06399 168 163 158
2.38083 -2.77951 1.07796 183 176 169
2.37577 -2.79204 1.08493 188 179 168
2.36584 -2.80065 1.09208 193 183 159
2.35694 -2.81009 1.09919 194 181 165
2.35723 -2.82708 1.10603 194 187 177
2.35728 -2.84398 1.11290 201 196 188
2.34170 -2.85694 1.10726 215 212 210
2.34819 -2.85335 1.12005 210 202 195
2.33261 -2.86631 1.11441 217 213 208
2.33308 -2.87466 1.13429 212 204 184
2.30771 -2.87020 1.14176 142 107 94
2.30982 -2.88905 1.14868 104 54 23
2.29260 -2.89138 1.15594 141 122 85
2.27708 -2.90429 1.15032 163 133 90
2.15166 -2.86973 1.19872 155 141 104
2.16672 -2.85720 1.20418 169 140 97
2.15999 -2.86030 1.19182 167 146 107
2.17473 -2.90743 1.20566 111 89 81
2.10655 -2.86285 1.21243 47 32 35
2.09163 -2.87526 1.20703 15 13 13
2.08669 -2.87847 1.22608 15 13 25
2.07179 -2.89087 1.22069 30 31 26
2.06049 -2.87123 1.23272 31 35 39
2.04569 -2.88355 1.22736 47 51 48
1.58897 -2.53662 1.26884 61 66 68
1.59032 -2.53131 1.25269 42 42 41
1.59141 -2.55369 1.27491 128 128 113
1.57873 -2.56424 1.27032 144 133 113
1.37822 -2.69382 1.41019 151 126 106
1.37955 -2.68860 1.39430 155 132 114
1.37267 -2.69638 1.40000 150 127 104
0.99641 -2.95324 1.65591 107 96 101
0.98441 -2.96322 1.65157 95 83 80
1.06660 -3.17094 1.71906 92 80 48
1.06797 -3.16558 1.70277 92 83 73
1.06308 -3.18449 1.72588 42 36 43
1.05602 -3.19249 1.73174 28 34 36
1.07564 -3.24316 1.74523 88 86 87
1.06269 -3.25394 1.74055 115 110 97
1.04834 -3.29782 1.77754 92 86 73
1.06135 -3.28699 1.78225 123 109 97
1.05554 -3.28967 1.77157 108 98 87
1.03534 -3.30864 1.77283 55 39 44
1.03706 -3.29916 1.78222 84 67 59
1.00469 -3.26514 1.78019 48 33 20
1.01553 -3.30335 1.79182 81 74 43
1.00260 -3.31411 1.78713 128 115 99
1.01190 -3.31744 1.79889 117 108 92
0.99895 -3.32822 1.79420 124 107 96
2.84736 -1.54561 0.38881 104 104 123
2.83668 -1.55308 0.39578 117 100 113
2.78547 -1.54556 0.41165 133 110 116
2.76012 -1.54740 0.42175 113 107 115
2.71917 -1.55444 0.43973 121 104 118
2.71888 -1.57680 0.44890 132 122 138
2.73661 -1.59498 0.44973 141 125 169
2.65468 -1.57432 0.47160 172 165 169
2.65010 -1.58371 0.47710 148 160 146
2.73281 -1.62785 0.46446 113 119 119
2.67828 -1.61752 0.48040 43 44 95
2.69338 -1.63504 0.48193 89 65 115
2.77630 -1.68036 0.46969 166 170 190
2.76862 -1.68904 0.47604 196 186 199
2.75669 -1.69596 0.48325 207 202 217
2.75521 -1.70178 0.50096 200 191 199
2.75422 -1.70679 0.48856 206 199 204
2.75273 -1.71262 0.50629 179 135 110
2.74654 -1.71548 0.49492 216 182 135
3.43362 -2.12041 0.40539 113 128 158
3.43543 -2.11334 0.38387 68 53 66
3.42611 -2.12388 0.39158 73 85 104
2.99547 -2.15708 0.58206 126 139 146
2.99379 -2.16367 0.60211 120 144 177
2.98416 -2.16555 0.58967 100 115 140
2.98249 -2.17214 0.60970 192 209 222
2.92464 -2.14908 0.60497 167 186 206
2.92299 -2.15558 0.62474 215 224 233
2.91609 -2.15877 0.61205 211 225 235
2.90918 -2.16195 0.59937 199 220 229
2.77276 -2.32459 0.73222 137 140 148
2.77442 -2.31809 0.71244 137 146 157
2.74973 -2.32571 0.74118 118 121 123
2.76054 -2.34688 0.74577 73 73 72
2.76095 -2.36197 0.75174 51 42 41
2.74542 -2.37489 0.74612 50 49 46
2.73536 -2.45180 0.79762 72 63 67
2.75104 -2.43876 0.80329 64 59 58
2.74404 -2.44198 0.79043 65 57 54
2.73704 -2.44521 0.77756 68 56 55
2.72495 -2.47588 0.81122 87 77 67
2.70924 -2.48895 0.80553 98 92 78
2.68321 -2.49520 0.83447 148 141 144
2.68403 -2.51121 0.84066 144 144 157
2.66625 -2.51502 0.84877 175 186 183
2.62878 -2.55228 0.87772 197 202 215
2.59983 -2.57958 0.89947 198 204 214
2.59602 -2.59272 0.90621 192 198 211
2.58038 -2.60573 0.90055 178 179 189
2.57528 -2.60989 0.92083 195 199 212
2.56478 -2.61836 0.92814 193 197 201
2.53734 -2.61469 0.93679 172 172 165
2.47917 -2.58872 0.94774 142 139 137
2.49266 -2.61421 0.95309 128 129 132
2.50834 -2.64151 0.95837 117 109 103
2.49283 -2.65442 0.95276 110 94 82
2.51298 -2.66094 0.96454 108 93 82
2.49741 -2.67390 0.95890 108 90 78
2.50967 -2.67462 0.97131 99 79 81
2.43923 -2.68645 1.00211 94 76 62
2.42599 -2.69252 1.00947 97 78 64
2.42413 -2.70729 1.01614 101 82 67
2.40869 -2.72014 1.01055 117 97 77
2.41965 -2.72011 1.02299 105 89 67
2.41497 -2.73280 1.02987 106 94 71
2.40246 -2.73941 1.03717 119 110 93
2.39269 -2.74813 1.04431 149 145 134
2.39238 -2.78091 1.05771 182 173 171
2.38264 -2.78971 1.06488 188 183 177
2.38107 -2.80512 1.07171 193 192 183
2.36551 -2.81807 1.06608 206 208 209
2.37608 -2.81782 1.07870 200 199 186
2.36050 -2.83079 1.07306 212 216 214
2.36257 -2.84042 1.09286 213 209 203
2.35538 -2.85139 1.09996 215 212 209
2.32935 -2.88060 1.12142 218 213 189
2.30170 -2.87417 1.12902 153 119 100
2.31286 -2.90082 1.13570 137 74 27
2.28377 -2.89293 1.14325 156 130 91
2.26827 -2.90583 1.13763 168 141 90
2.20697 -2.89415 1.17210 165 147 98
2.22226 -2.88143 1.17764 165 139 91
2.21543 -2.88458 1.16509 168 142 98
2.21379 -2.89100 1.18465 167 141 96
2.18094 -2.88807 1.17925 143 129 101
2.14592 -2.89068 1.19324 35 25 28
2.13081 -2.90325 1.18777 26 25 23
2.12797 -2.89144 1.20017 21 16 15
2.11291 -2.90397 1.19472 21 22 16
1.58971 -2.56015 1.26461 127 125 112
1.57701 -2.57072 1.26001 144 129 118
1.35381 -2.70609 1.41090 176 169 155
1.34141 -2.71641 1.40641 201 202 200
1.01347 -2.95435 1.63724 154 158 156
1.02552 -2.94431 1.64161 153 159 164
1.02014 -2.94680 1.63172 153 159 162
1.01476 -2.94928 1.62182 154 158 158
1.00057 -2.95253 1.64127 139 133 128
1.00115 -2.97101 1.64855 103 85 80
0.98909 -2.98105 1.64418 97 85 80
1.07199 -3.19100 1.71159 93 83 54
1.07336 -3.18561 1.69520 93 84 73
1.05694 -3.20568 1.72310 26 31 27
1.06745 -3.24196 1.73393 85 86 81
1.05452 -3.25272 1.72925 115 109 89
1.04297 -3.28119 1.75888 84 69 62
1.05592 -3.27041 1.76357 130 113 97
1.05014 -3.27307 1.75294 129 111 95
1.04435 -3.27574 1.74231 129 110 95
1.02662 -3.27409 1.76204 58 48 44
1.01336 -3.29195 1.77418 70 64 53
1.00046 -3.30269 1.76950 130 123 114
1.02115 -3.32529 1.78482 116 111 94
1.00814 -3.33612 1.78011 130 116 103
2.83778 -1.53585 0.37376 118 108 144
2.84177 -1.54864 0.37743 123 116 171
2.78072 -1.53759 0.39571 152 145 153
2.82942 -1.56689 0.38938 194 182 173
2.75471 -1.55041 0.41055 144 140 109
2.73754 -1.55519 0.41888 135 120 148
2.60093 -1.51452 0.45335 169 153 165
2.60522 -1.52703 0.45679 215 205 210
2.59221 -1.53785 0.45209 254 254 254
2.62411 -1.54526 0.45710 246 244 226
2.61101 -1.55616 0.45236 254 254 254
2.62107 -1.55510 0.46220 253 250 236
2.61324 -1.56309 0.46834 254 252 237
2.61167 -1.57356 0.47314 184 190 203
2.70362 -1.62142 0.45818 105 97 106
2.67857 -1.62281 0.46807 31 18 71
2.68900 -1.63849 0.47050 116 90 132
2.74628 -1.67346 0.46326 178 178 191
2.73251 -1.68492 0.45827 188 167 172
2.74329 -1.68400 0.46862 192 178 184
2.73939 -1.69418 0.47417 200 197 210
2.73558 -1.70443 0.47972 217 212 218
2.72176 -1.71593 0.47471 240 225 212
3.45587 -2.15212 0.39188 127 141 162
3.46116 -2.16947 0.39690 164 173 188
3.38905 -2.25649 0.45880 174 179 179
3.40611 -2.24230 0.46497 179 183 186
3.39850 -2.24581 0.45098 177 181 185
3.39088 -2.24932 0.43698 177 180 182
3.39667 -2.25298 0.47279 175 180 184
3.38723 -2.26366 0.48061 166 172 174
3.00884 -2.15642 0.56004 194 205 204
3.01053 -2.14981 0.53993 132 132 138
2.97371 -2.15277 0.57165 170 180 163
2.95986 -2.15986 0.57967 97 111 117
2.92174 -2.15434 0.59163 136 166 182
2.78298 -2.33787 0.71722 141 147 153
2.78465 -2.33134 0.69735 140 150 159
2.76142 -2.33991 0.72607 125 130 129
2.77570 -2.36326 0.73016 84 81 76
2.77017 -2.37489 0.73690 51 45 38
2.75458 -2.38787 0.73126 55 49 47
2.74064 -2.46279 0.78330 75 62 67
2.72496 -2.48361 0.79753 87 78 82
2.66257 -2.50493 0.82934 147 148 163
2.67036 -2.52559 0.83477 185 193 204
2.66992 -2.54092 0.84110 194 197 213
2.65419 -2.55401 0.83541 175 171 178
2.60663 -2.57655 0.87902 200 204 205
2.59625 -2.60098 0.89273 178 181 196
2.58058 -2.61402 0.88705 176 178 180
2.57169 -2.61550 0.90772 177 177 193
2.56471 -2.61872 0.89489 177 178 185
2.55605 -2.62852 0.90206 179 182 180
2.56195 -2.62452 0.91498 181 182 189
2.54102 -2.62550 0.92317 174 176 169
2.50214 -2.61340 0.93276 127 122 127
2.51873 -2.65738 0.94431 109 95 85
2.50314 -2.67036 0.93866 108 94 87
2.44561 -2.69972 0.98859 108 88 70
2.44727 -2.69321 0.96878 115 98 78
2.43869 -2.70291 0.97588 118 99 79
2.42866 -2.70301 0.99622 110 91 72
2.41321 -2.71587 0.99062 122 103 82
2.42254 -2.71456 1.00315 114 95 76
2.40708 -2.72743 0.99755 122 106 78
2.39806 -2.72818 1.01775 117 100 75
2.39159 -2.73946 1.02470 136 125 98
2.40016 -2.76268 1.03087 169 165 151
2.40250 -2.78111 1.03742 181 182 184
2.39279 -2.79000 1.04461 189 187 186
2.38704 -2.80205 1.05161 195 195 190
2.37894 -2.81224 1.05873 200 201 199
2.35669 -2.84453 1.08002 212 216 216
2.34934 -2.85537 1.08712 208 218 217
2.34406 -2.86797 1.09416 206 215 217
2.33699 -2.87909 1.10127 208 214 213
2.33057 -2.89077 1.10837 205 207 186
2.31492 -2.90379 1.10270 152 111 102
2.28671 -2.87046 1.11652 159 128 100
2.27845 -2.88040 1.12360 163 122 62
2.26298 -2.89327 1.11800 173 146 90
2.26846 -2.88886 1.13072 168 142 85
2.25300 -2.90172 1.12512 172 148 100
2.21647 -2.89467 1.15242 165 145 101
2.23180 -2.88191 1.15797 166 141 90
2.22495 -2.88507 1.14539 170 144 95
2.20048 -2.89760 1.15955 143 125 88
2.21017 -2.92342 1.16634 75 73 49
2.18223 -2.91556 1.17358 36 29 48
1.59275 -2.55645 1.24840 66 64 65
1.59412 -2.55111 1.23214 41 43 42
1.59455 -2.57304 1.25441 126 117 114
1.58179 -2.58366 1.24979 147 133 115
1.37492 -2.72351 1.39679 148 126 115
1.37626 -2.71825 1.38079 144 122 110
1.35315 -2.71426 1.40117 180 174 169
1.34072 -2.72460 1.39667 203 204 202
1.01673 -2.96981 1.62936 155 157 153
1.01802 -2.96472 1.61387 155 159 160
1.01347 -2.98261 1.63573 125 115 116
1.00133 -2.99271 1.63133 100 87 82
1.00117 -2.98172 1.63995 101 84 75
0.98907 -2.99178 1.63557 98 87 80
1.08097 -3.21689 1.70497 92 81 56
1.08235 -3.21146 1.68845 92 85 74
1.06323 -3.20812 1.70804 32 21 22
1.05766 -3.21863 1.71435 29 33 28
1.06153 -3.24440 1.72328 87 87 85
1.04861 -3.25516 1.71860 114 104 89
1.04707 -3.30022 1.75116 96 75 66
1.04846 -3.29474 1.73449 129 115 100
1.04125 -3.30290 1.74047 129 111 93
1.03404 -3.31106 1.74644 122 100 82
1.03123 -3.29402 1.75455 76 56 52
1.02817 -3.30903 1.76174 79 71 69
1.03273 -3.33701 1.77131 112 103 100
1.01965 -3.34790 1.76658 127 117 103
2.71276 -1.45211 0.37253 145 140 172
2.77827 -1.48605 0.36153 214 185 216
2.72303 -1.47739 0.37880 249 238 219
2.70981 -1.48840 0.37401 254 254 254
2.70666 -1.48242 0.38695 254 246 222
2.69347 -1.49340 0.38218 254 254 254
2.70039 -1.49105 0.39276 254 247 228
2.68720 -1.50203 0.38798 254 254 254
2.67836 -1.49393 0.40218 254 250 237
2.66523 -1.50486 0.39742 254 254 254
2.64944 -1.51594 0.42184 254 249 217
2.63633 -1.52685 0.41710 254 254 254
2.63732 -1.52231 0.42894 254 250 230
2.62422 -1.53321 0.42420 254 254 254
2.63352 -1.53183 0.43417 254 253 236
2.62041 -1.54273 0.42943 254 254 254
2.60271 -1.56395 0.45859 254 253 254
2.60412 -1.55845 0.44184 254 254 254
2.60581 -1.57627 0.46236 189 204 215
2.65327 -1.60644 0.45661 83 71 80
2.66501 -1.62253 0.45865 27 18 53
2.73309 -1.69697 0.46287 196 189 205
2.72095 -1.70372 0.47013 219 208 218
2.70717 -1.71519 0.46514 243 226 209
2.70697 -1.72153 0.48251 251 231 204
2.70550 -1.72733 0.50014 244 226 190
2.69934 -1.73017 0.48883 219 201 161
3.37253 -2.10655 0.38674 54 56 71
3.38175 -2.09612 0.37911 77 57 58
3.37432 -2.09955 0.36546 85 75 50
3.42152 -2.14345 0.38312 100 111 134
3.48394 -2.18691 0.37708 147 156 169
3.48139 -2.20087 0.38363 170 177 185
3.47955 -2.20810 0.40561 180 183 193
3.47187 -2.21164 0.39151 177 181 192
3.46420 -2.21518 0.37740 175 178 186
3.37308 -2.25593 0.44631 175 178 175
3.37490 -2.24877 0.42454 177 179 182
3.37306 -2.27121 0.45243 161 155 145
3.35600 -2.28540 0.44625 153 135 114
2.97631 -2.14667 0.55152 182 193 198
2.97799 -2.14011 0.53154 134 126 123
2.96069 -2.15967 0.54586 203 215 215
2.97275 -2.15906 0.55781 207 212 196
2.95133 -2.16227 0.56714 121 147 129
2.92119 -2.16083 0.57788 108 151 148
2.79024 -2.34947 0.70250 142 152 157
2.79191 -2.34291 0.68255 141 152 161
2.78328 -2.35268 0.68970 143 154 158
2.78065 -2.35867 0.70978 132 138 135
2.78280 -2.37491 0.71547 92 90 76
2.77881 -2.38753 0.72202 57 50 36
2.75484 -2.46405 0.76164 77 64 62
2.77063 -2.45092 0.76736 62 56 54
2.75653 -2.45742 0.74145 81 73 70
2.74779 -2.46730 0.74868 85 76 63
2.73905 -2.47719 0.75592 87 80 68
2.74162 -2.47110 0.76942 82 73 70
2.63907 -2.49723 0.81837 130 132 162
2.65604 -2.52396 0.82269 143 156 181
2.64850 -2.53452 0.82975 175 179 195
2.63284 -2.54756 0.82408 179 177 176
2.61210 -2.58838 0.86496 187 187 185
2.61378 -2.58179 0.84489 184 184 186
2.60084 -2.59642 0.87240 182 180 179
2.58516 -2.60947 0.86673 172 169 175
2.55438 -2.64334 0.90862 174 175 167
2.55606 -2.63675 0.88858 170 174 175
2.51827 -2.63326 0.91814 126 110 114
2.53093 -2.65851 0.92349 106 91 67
2.51529 -2.67153 0.91782 106 93 68
2.43217 -2.71419 0.98284 120 101 80
2.43383 -2.70768 0.96302 123 105 83
2.39205 -2.73204 1.00504 124 108 78
2.39371 -2.72556 0.98530 126 104 74
2.41210 -2.76427 1.01041 149 145 123
2.40135 -2.77233 1.01767 182 194 184
2.40279 -2.79012 1.02424 188 199 200
2.39320 -2.79912 1.03145 185 200 200
2.38335 -2.80791 1.03866 181 199 198
2.37457 -2.81756 1.04582 182 196 200
2.36530 -2.82681 1.05299 195 193 207
2.35651 -2.83644 1.06015 197 180 206
2.30583 -2.82802 1.07580 172 159 161
2.29041 -2.84086 1.07021 173 145 113
2.29613 -2.83670 1.08292 165 141 137
2.28071 -2.84954 1.07733 178 148 115
2.29570 -2.85323 1.08969 163 130 142
2.28024 -2.86609 1.08409 176 146 97
2.28959 -2.86500 1.09669 154 120 123
2.26699 -2.87965 1.11104 170 147 91
2.26009 -2.88283 1.09837 175 152 107
2.25154 -2.89251 1.10545 174 153 103
2.21588 -2.88626 1.13287 165 145 108
2.22075 -2.90768 1.13961 130 107 98
2.20536 -2.92048 1.13404 74 84 82
2.21049 -2.91576 1.14670 91 90 82
2.20559 -2.92863 1.15369 83 88 66
1.61560 -2.55705 1.22646 60 61 54
1.62839 -2.54641 1.23109 74 76 75
1.62268 -2.54904 1.22060 69 69 61
1.61697 -2.55168 1.21011 65 67 57
1.59143 -2.56330 1.23803 68 70 69
1.59695 -2.58362 1.24409 130 124 115
1.58415 -2.59427 1.23945 148 134 111
1.37241 -2.72962 1.38679 152 135 125
1.37375 -2.72435 1.37076 143 118 108
1.35988 -2.74005 1.38225 191 191 187
1.31960 -2.68446 1.38854 184 182 178
1.30733 -2.69467 1.38410 204 206 204
1.01668 -2.98038 1.62064 151 151 148
1.01521 -2.99597 1.62743 113 103 110
1.00303 -3.00611 1.62302 99 89 87
1.08189 -3.23016 1.69611 86 76 54
1.06484 -3.22251 1.69944 30 15 15
1.06277 -3.23873 1.70671 39 40 30
1.05883 -3.25203 1.71351 91 87 88
1.03648 -3.33546 1.75529 112 97 86
1.02338 -3.34636 1.75054 117 104 102
1.03306 -3.35016 1.76245 116 107 102
1.01994 -3.36108 1.75770 121 110 102
2.78664 -1.43913 0.32535 219 184 212
2.74438 -1.44629 0.34419 254 245 221
2.73117 -1.45729 0.33941 254 254 254
2.72509 -1.45039 0.35312 254 249 229
2.71192 -1.46135 0.34835 254 254 254
2.71047 -1.45606 0.36091 254 254 239
2.69733 -1.46700 0.35615 254 254 254
2.71596 -1.46882 0.36390 254 254 254
2.70277 -1.47980 0.35913 254 254 254
2.58246 -1.56094 0.45103 254 254 254
2.58385 -1.55546 0.43435 254 254 254
2.57663 -1.56363 0.44033 254 254 254
2.59994 -1.57897 0.45158 221 213 206
2.61143 -1.59475 0.45350 103 68 54
2.69009 -1.64944 0.44547 150 154 177
2.67652 -1.66073 0.44056 198 198 211
2.72013 -1.69696 0.45299 193 186 203
2.72161 -1.69117 0.43538 177 158 175
2.70991 -1.70449 0.45985 225 213 213
2.69615 -1.71595 0.45487 247 230 209
2.69637 -1.72246 0.47212 251 233 204
2.68421 -1.72912 0.47937 191 167 146
2.68273 -1.73491 0.49696 126 87 88
2.67659 -1.73774 0.48567 111 78 62
2.67045 -1.74057 0.47439 98 75 64
3.35829 -2.10688 0.37444 49 41 52
3.36007 -2.09990 0.35319 94 82 62
3.35087 -2.11031 0.36080 53 35 44
3.39940 -2.14026 0.37215 81 85 102
3.46209 -2.18392 0.36578 128 136 145
3.48427 -2.20930 0.36747 161 167 177
3.35989 -2.25670 0.43337 173 176 174
3.36171 -2.24956 0.41164 178 182 182
3.34651 -2.26540 0.44189 163 157 143
3.32953 -2.27953 0.43574 160 141 113
2.96847 -2.14944 0.53886 169 176 183
2.91519 -2.16451 0.56500 95 119 137
2.91580 -2.17905 0.57055 129 155 175
2.97017 -2.22215 0.56711 181 200 212
2.96848 -2.22880 0.58732 201 209 214
2.96142 -2.23205 0.57435 193 204 212
2.79283 -2.37333 0.69429 138 144 141
2.79451 -2.36673 0.67424 146 156 161
2.78631 -2.38445 0.70118 103 102 94
2.77897 -2.39509 0.70818 67 57 51
2.77560 -2.40816 0.71466 63 52 50
2.77391 -2.41477 0.73476 61 52 53
2.75988 -2.42124 0.70897 75 71 62
2.76708 -2.41812 0.72184 69 62 58
2.76539 -2.42473 0.74194 66 54 59
2.75135 -2.43120 0.71615 75 72 62
2.73966 -2.49307 0.76200 91 91 87
2.74136 -2.48641 0.74176 88 80 61
2.72383 -2.50624 0.75627 98 107 102
2.71536 -2.50850 0.77733 85 75 61
2.70718 -2.51876 0.78450 83 80 71
2.69189 -2.52435 0.79251 84 81 83
2.65704 -2.51693 0.80275 90 77 91
2.64631 -2.52536 0.81016 105 102 117
2.65053 -2.54381 0.81589 169 176 183
2.63483 -2.55688 0.81020 176 174 173
2.60920 -2.59447 0.85166 184 185 179
2.60218 -2.59770 0.83877 171 174 172
2.59348 -2.60754 0.84597 169 170 170
2.60034 -2.60419 0.85888 178 178 171
2.58462 -2.61727 0.85319 167 167 172
2.55492 -2.65201 0.89507 170 172 165
2.55660 -2.64540 0.87499 165 167 169
2.52012 -2.64286 0.90460 152 142 116
2.53225 -2.66781 0.90993 118 105 67
2.49743 -2.70702 0.93869 117 99 85
2.51311 -2.69397 0.94436 112 95 86
2.50611 -2.69720 0.93150 116 98 86
2.50443 -2.70379 0.95155 112 95 80
2.49576 -2.71361 0.95874 113 96 77
2.48144 -2.71130 0.94644 121 102 83
2.47278 -2.72110 0.95361 121 105 79
2.42902 -2.72029 0.96985 127 106 92
2.41350 -2.73320 0.96423 145 124 94
2.39791 -2.74525 0.99154 129 109 76
2.41472 -2.77506 0.99702 149 138 125
2.40979 -2.78780 1.00395 162 156 161
2.39759 -2.79474 1.01133 159 143 136
2.37262 -2.79134 1.01943 145 124 104
2.35372 -2.79270 1.02712 118 93 81
2.34702 -2.80393 1.03412 109 94 95
2.32647 -2.80377 1.04183 140 121 124
2.31103 -2.81662 1.03624 171 152 107
2.31335 -2.80965 1.04913 155 133 120
2.29793 -2.82248 1.04355 175 151 119
2.30639 -2.82062 1.05612 166 142 123
2.29097 -2.83345 1.05054 174 149 106
2.29639 -2.82905 1.06326 172 148 117
2.28097 -2.84187 1.05768 172 146 102
2.26742 -2.87211 1.09133 172 145 99
2.26907 -2.86562 1.07159 171 145 96
2.26053 -2.87529 1.07866 172 146 100
2.22958 -2.89041 1.11292 157 144 102
2.21421 -2.90321 1.10735 67 61 64
2.24191 -2.91846 1.11941 116 92 71
2.22643 -2.93134 1.11380 73 75 77
2.23585 -2.93039 1.12644 76 73 83
2.22267 -2.95338 1.14057 73 78 74
2.21575 -2.95658 1.12783 56 50 65
2.20716 -2.96630 1.13495 31 26 38
2.21281 -2.96195 1.14770 38 38 39
2.19730 -2.97485 1.14208 21 21 28
1.61764 -2.56717 1.21601 58 58 52
1.61901 -2.56177 1.19960 61 65 59
1.61191 -2.56981 1.20548 54 57 52
1.60005 -2.56501 1.22181 44 43 44
1.59211 -2.57216 1.22765 72 76 71
1.59752 -2.59243 1.23366 133 130 113
1.58469 -2.60311 1.22902 148 134 114
1.36818 -2.73377 1.37662 159 142 136
1.02624 -2.98769 1.60692 156 162 163
1.03844 -2.97754 1.61134 153 158 158
1.03300 -2.98005 1.60132 154 161 163
1.02755 -2.98256 1.59131 153 161 163
1.01918 -2.99488 1.61244 141 138 140
1.01869 -3.01206 1.61946 107 91 98
1.00644 -3.02224 1.61502 101 91 87
1.09027 -3.23578 1.68129 85 80 64
1.10328 -3.22496 1.68600 86 78 68
1.09747 -3.22764 1.67532 81 74 64
1.08267 -3.24329 1.68715 74 63 48
1.06693 -3.23774 1.69090 31 18 16
1.06446 -3.25342 1.69807 55 57 38
1.05910 -3.26453 1.70451 97 91 88
1.05561 -3.27872 1.71147 115 107 93
1.05422 -3.28420 1.72811 124 111 96
1.04841 -3.28688 1.71743 125 114 100
1.04260 -3.28956 1.70675 128 118 104
1.04086 -3.33495 1.73940 129 112 97
1.04812 -3.32673 1.73338 134 120 104
1.04226 -3.32943 1.72262 136 122 114
1.03500 -3.33765 1.72863 135 122 107
1.03644 -3.34797 1.74624 117 102 98
2.75427 -1.44365 0.32521 254 254 254
2.74102 -1.45467 0.32042 254 254 254
2.55703 -1.56684 0.44907 252 248 240
2.55842 -1.56137 0.43245 254 254 254
2.59575 -1.59352 0.44484 173 180 155
2.68828 -1.68899 0.44723 192 185 203
2.68217 -1.69180 0.43601 188 176 192
2.68881 -1.70099 0.45176 232 222 209
2.67510 -1.71239 0.44680 250 231 203
2.67101 -1.71703 0.46488 251 233 207
2.67834 -1.73207 0.46803 155 128 143
3.38593 -2.14099 0.35954 65 67 80
3.38773 -2.13393 0.33806 56 39 51
3.37843 -2.14445 0.34576 52 53 60
3.42366 -2.17322 0.35787 107 120 123
3.48305 -2.21586 0.35205 148 159 166
3.47074 -2.22538 0.36050 171 176 181
3.46889 -2.23263 0.38256 177 180 185
3.46119 -2.23618 0.36841 176 180 183
3.45349 -2.23973 0.35426 169 177 182
3.33883 -2.25360 0.42196 166 174 169
3.28356 -2.24154 0.43828 157 152 134
3.26681 -2.25548 0.43221 160 133 114
2.95870 -2.15123 0.52654 159 163 171
2.94806 -2.15996 0.53405 186 202 213
2.91893 -2.15907 0.54481 184 188 197
2.89418 -2.16032 0.55474 100 94 136
2.89627 -2.17561 0.55998 93 112 136
2.93653 -2.21127 0.55870 148 171 171
2.94918 -2.23253 0.56227 175 189 203
2.94749 -2.23917 0.58245 191 200 207
2.94045 -2.24242 0.56950 183 195 211
2.79522 -2.38218 0.68007 143 150 149
2.79690 -2.37557 0.65996 150 159 164
2.79366 -2.39634 0.68625 114 118 110
2.77748 -2.40167 0.69453 81 74 67
2.76485 -2.40912 0.70228 74 64 63
2.74915 -2.42218 0.69660 81 73 59
2.71091 -2.51345 0.76404 83 73 67
2.71261 -2.50680 0.74382 98 105 102
2.70106 -2.52263 0.77142 77 70 65
2.68532 -2.52791 0.77951 79 80 72
2.65005 -2.52016 0.78990 88 87 73
2.63523 -2.52584 0.79780 98 109 105
2.65767 -2.55657 0.80137 163 177 181
2.63753 -2.59035 0.82239 164 163 165
2.65332 -2.57721 0.82811 172 175 179
2.64627 -2.58046 0.81515 165 163 170
2.63047 -2.59361 0.80943 166 166 164
2.62173 -2.60350 0.81667 167 170 173
2.62670 -2.59881 0.82986 168 170 174
2.55203 -2.65823 0.88179 165 170 172
2.53733 -2.66370 0.88956 164 164 146
2.52904 -2.67382 0.89672 121 115 81
2.52171 -2.68466 0.90379 100 98 82
2.52003 -2.69126 0.92387 111 98 82
2.51593 -2.69667 0.91073 107 103 92
2.50643 -2.70591 0.91801 112 109 102
2.49200 -2.71143 0.92569 111 116 110
2.48188 -2.72016 0.93300 112 119 105
2.46391 -2.72288 0.94093 101 100 83
2.44930 -2.72809 0.94856 114 103 83
2.41152 -2.74811 0.97087 143 120 75
2.40458 -2.75131 0.95811 152 123 80
2.39597 -2.76105 0.96524 152 125 83
2.40507 -2.75955 0.97785 144 118 76
2.38951 -2.77250 0.97221 154 130 87
2.39979 -2.77195 0.98475 149 123 96
2.38421 -2.78491 0.97911 159 135 90
2.39206 -2.78242 0.99183 157 132 109
2.37648 -2.79538 0.98619 159 133 91
2.38080 -2.79006 0.99914 159 135 101
2.36524 -2.80301 0.99351 150 125 89
2.36272 -2.79214 1.00686 154 130 82
2.34708 -2.79611 1.01440 141 117 74
2.33638 -2.80406 1.02162 136 113 91
2.31921 -2.80665 1.02919 159 138 105
2.30378 -2.81950 1.02360 169 144 98
2.23864 -2.87335 1.08625 175 152 110
2.23101 -2.88375 1.09326 155 141 94
2.23446 -2.90392 1.09991 92 79 43
2.21902 -2.91677 1.09432 65 65 69
2.21961 -2.94261 1.12085 71 81 75
2.22126 -2.93610 1.10104 70 75 70
2.20411 -2.95550 1.11524 44 36 49
1.60156 -2.57467 1.21135 42 46 43
1.60293 -2.56928 1.19497 54 54 59
1.59508 -2.58329 1.21723 75 78 72
1.59928 -2.60247 1.22320 134 132 115
1.58640 -2.61319 1.21854 149 135 112
1.36850 -2.72733 1.36051 146 121 111
1.38103 -2.71690 1.36505 155 130 104
1.37544 -2.71948 1.35476 155 130 109
1.36984 -2.72206 1.34448 156 132 109
1.36172 -2.73536 1.36626 166 155 147
1.29773 -2.67681 1.36756 193 195 191
1.29098 -2.68446 1.37316 203 205 202
1.28553 -2.68697 1.36314 203 203 202
1.23303 -2.66242 1.38656 198 200 192
1.24502 -2.65245 1.39090 205 205 205
1.23967 -2.65491 1.38107 205 206 204
1.23432 -2.65738 1.37123 205 206 203
1.23175 -2.66746 1.40188 180 181 181
1.22640 -2.66992 1.39205 175 177 175
1.02699 -2.99957 1.59824 152 159 153
1.03102 -3.02365 1.60621 125 120 111
1.01870 -3.03390 1.60175 103 92 84
1.01633 -3.01933 1.61010 104 88 87
1.00407 -3.02954 1.60566 103 93 89
1.09515 -3.23582 1.66549 69 64 57
1.08845 -3.24481 1.67160 65 69 53
1.08188 -3.25399 1.67773 56 45 43
1.07056 -3.25556 1.68267 37 35 34
1.05976 -3.25788 1.68770 75 79 64
1.05881 -3.27618 1.69529 106 102 89
1.04578 -3.28703 1.69057 120 112 107
1.05293 -3.28655 1.70162 119 111 98
1.03989 -3.29740 1.69690 128 118 108
1.03063 -3.35076 1.73548 130 116 108
1.03203 -3.34524 1.71868 137 124 110
1.02476 -3.35347 1.72470 136 124 114
1.01749 -3.36170 1.73072 135 123 115
1.02593 -3.36338 1.74225 127 110 111
1.01864 -3.37162 1.74828 126 109 108
2.52558 -1.55920 0.44423 224 243 238
2.52696 -1.55378 0.42774 250 252 252
2.58279 -1.59336 0.43563 110 122 158
2.65409 -1.64519 0.42853 170 173 193
2.68195 -1.66830 0.42688 186 189 211
2.63122 -1.65874 0.44264 161 146 179
2.66157 -1.69483 0.44511 232 220 202
2.64794 -1.70616 0.44018 244 227 201
2.64359 -1.71064 0.45823 245 228 199
2.67220 -1.73491 0.45674 119 106 135
2.67904 -1.74987 0.45998 81 73 68
2.67756 -1.75567 0.47764 97 83 67
2.67139 -1.75852 0.46631 94 82 72
2.66523 -1.76136 0.45497 84 76 69
3.40991 -2.17386 0.34519 91 102 109
3.41172 -2.16673 0.32350 39 41 56
3.47602 -2.23504 0.34376 159 169 178
3.26131 -2.23766 0.42734 143 125 111
3.00046 -2.17951 0.50483 149 147 153
3.00216 -2.17287 0.48462 161 140 110
2.94494 -2.16517 0.52056 169 182 196
2.92316 -2.21111 0.54694 135 154 144
2.92312 -2.22556 0.55262 146 153 160
2.94712 -2.26779 0.55995 179 192 205
2.94542 -2.27447 0.58026 187 196 205
2.93833 -2.27774 0.56723 185 197 209
2.79505 -2.38954 0.66615 145 153 153
2.79674 -2.38292 0.64601 154 164 167
2.79697 -2.40586 0.67181 120 122 114
2.77787 -2.40943 0.68055 96 88 73
2.76465 -2.41653 0.68842 86 77 67
2.73292 -2.44258 0.71083 67 64 56
2.74162 -2.43274 0.70363 74 67 54
2.73993 -2.43934 0.72372 78 74 66
2.73124 -2.44918 0.73092 83 77 68
2.73303 -2.45798 0.71682 76 70 57
2.73135 -2.46460 0.73696 88 79 62
2.72431 -2.46784 0.72404 89 79 61
2.72976 -2.50232 0.73546 82 80 74
2.73854 -2.49239 0.72820 84 76 64
2.71048 -2.52103 0.75022 85 77 61
2.70521 -2.53326 0.75704 63 43 38
2.68936 -2.54646 0.75129 38 21 20
2.69905 -2.54493 0.76398 59 53 45
2.66697 -2.53932 0.77412 62 59 55
2.64583 -2.54086 0.78285 60 74 85
2.65217 -2.56086 0.78825 138 154 154
2.65637 -2.57955 0.79396 176 182 181
2.64499 -2.58767 0.80152 169 165 172
2.61160 -2.61243 0.82406 164 170 173
2.60294 -2.62237 0.83129 157 166 175
2.59415 -2.63223 0.83854 155 163 177
2.59246 -2.63886 0.85873 166 166 166
2.58473 -2.64163 0.84584 153 166 175
2.58304 -2.64827 0.86603 165 166 168
2.57082 -2.64781 0.85361 148 167 171
2.55844 -2.65504 0.86121 141 160 165
2.54385 -2.66062 0.86901 135 149 153
2.52430 -2.66252 0.87727 127 126 152
2.53311 -2.68522 0.88278 90 76 99
2.52858 -2.69819 0.88961 64 44 55
2.51281 -2.71131 0.88390 35 18 18
2.50435 -2.69649 0.89826 64 58 58
2.48866 -2.70956 0.89257 31 18 21
2.49489 -2.70574 0.90552 67 66 68
2.47919 -2.71880 0.89984 33 20 22
2.48467 -2.71441 0.91285 59 60 69
2.46150 -2.71320 0.92128 41 44 51
2.44324 -2.71561 0.92924 23 31 40
2.45338 -2.73983 0.93485 76 77 69
2.43217 -2.73989 0.94303 135 120 89
2.41657 -2.75288 0.93738 153 123 80
2.33601 -2.79590 1.00195 140 113 89
2.33767 -2.78940 0.98217 154 130 88
2.32911 -2.79908 0.98926 148 126 89
2.30901 -2.80708 1.01672 156 129 92
2.23929 -2.86603 1.06663 166 148 119
2.24780 -2.85641 1.05959 169 145 104
2.21869 -2.86510 1.07419 127 114 97
2.22954 -2.89166 1.08043 51 48 48
2.22252 -2.90264 1.08743 50 40 54
2.20711 -2.91546 1.08185 62 58 65
2.16812 -2.97513 1.13677 49 57 30
2.17667 -2.96546 1.12969 14 14 13
2.16977 -2.96864 1.11702 14 13 13
2.16647 -2.98162 1.15651 43 34 28
2.16848 -2.99309 1.14367 92 100 73
2.16682 -2.99960 1.16347 45 42 42
2.15991 -3.00278 1.15077 82 92 47
1.60491 -2.58619 1.20083 44 45 44
1.60629 -2.58078 1.18439 52 58 54
1.59917 -2.58884 1.19028 40 50 45
1.59648 -2.59294 1.20673 72 76 71
1.60295 -2.61446 1.21267 133 131 117
1.59003 -2.62522 1.20799 151 135 113
1.36112 -2.74374 1.35633 173 165 141
1.30405 -2.69307 1.35841 197 198 187
1.29178 -2.70328 1.35397 205 203 202
1.23689 -2.67591 1.37751 194 196 186
1.23818 -2.67085 1.36212 204 205 201
1.03194 -2.99990 1.58332 143 152 153
1.04421 -2.98969 1.58777 154 162 167
1.03873 -2.99221 1.57770 148 156 156
1.03325 -2.99474 1.56763 132 138 134
1.03165 -3.01743 1.59031 136 143 133
1.03093 -3.03444 1.59725 112 107 77
1.01858 -3.04472 1.59278 102 96 86
1.09791 -3.23248 1.64915 76 70 58
1.09930 -3.22700 1.63247 98 90 71
1.08960 -3.23893 1.65487 45 36 46
1.08269 -3.24758 1.66091 41 39 49
1.07521 -3.25532 1.66682 44 32 50
1.06802 -3.26352 1.67280 63 61 59
1.06166 -3.27307 1.67900 95 98 82
1.04862 -3.28392 1.67427 113 104 103
1.05532 -3.28268 1.68520 111 106 96
1.04227 -3.29354 1.68048 121 111 109
2.49753 -1.49902 0.41782 234 244 248
2.51021 -1.48847 0.42241 254 254 254
2.50455 -1.49108 0.41201 254 254 253
2.50319 -1.49641 0.42822 252 254 254
2.49618 -1.50434 0.43403 253 254 254
2.49131 -1.50726 0.42344 239 244 250
2.48995 -1.51259 0.43966 254 254 254
2.48429 -1.51520 0.42926 251 254 254
2.50751 -1.55689 0.43649 143 140 210
2.53594 -1.57939 0.43423 44 38 99
2.54275 -1.59327 0.43699 65 62 93
2.60908 -1.63184 0.42631 132 143 181
2.62786 -1.65109 0.42652 158 162 182
2.60220 -1.65184 0.43676 125 123 155
2.61894 -1.67043 0.43751 170 157 152
2.64106 -1.69147 0.43713 222 208 183
2.62065 -1.70613 0.45075 225 211 180
2.66816 -1.73866 0.44500 98 78 89
2.66990 -1.75140 0.44929 59 55 61
2.65610 -1.76288 0.44429 68 64 54
3.42444 -2.18763 0.32671 73 81 98
3.42626 -2.18046 0.30491 43 42 44
3.41682 -2.19114 0.31273 61 67 76
3.47024 -2.22419 0.32320 113 123 130
3.48812 -2.24796 0.32552 145 155 161
3.45942 -2.24977 0.33735 162 171 177
3.45757 -2.25704 0.35948 173 179 184
3.44984 -2.26061 0.34528 169 176 181
3.22084 -2.22467 0.42004 149 121 105
3.17358 -2.21594 0.43495 169 139 122
3.16450 -2.22622 0.44247 179 154 121
3.04107 -2.20738 0.48297 135 130 131
2.96378 -2.18181 0.50297 150 163 174
2.89679 -2.21837 0.54317 146 147 138
2.90290 -2.23617 0.54773 145 143 150
2.88721 -2.24922 0.54205 143 138 167
2.89905 -2.24864 0.55408 154 158 184
2.92369 -2.27684 0.55551 166 177 199
2.92199 -2.28351 0.57577 189 199 207
2.92231 -2.30573 0.56729 178 196 203
2.92061 -2.31242 0.58764 174 183 184
2.91350 -2.31570 0.57458 166 186 195
2.83180 -2.32866 0.61129 139 158 172
2.84752 -2.31558 0.61698 153 163 168
2.84050 -2.31882 0.60409 142 160 170
2.83882 -2.32542 0.62418 151 160 167
2.83012 -2.33526 0.63139 149 159 170
2.81572 -2.33419 0.61968 136 155 173
2.81404 -2.34079 0.63973 148 158 169
2.81297 -2.34750 0.62593 134 153 171
2.81129 -2.35410 0.64601 147 157 166
2.80926 -2.36029 0.63234 139 156 169
2.80758 -2.36690 0.65246 147 157 166
2.80055 -2.37014 0.63955 148 160 169
2.79595 -2.39758 0.65202 149 156 158
2.79764 -2.39094 0.63183 157 167 173
2.79535 -2.41241 0.65803 129 127 126
2.77854 -2.41739 0.66648 113 101 93
2.76445 -2.42398 0.67451 101 94 81
2.74745 -2.42871 0.68294 90 79 60
2.73361 -2.43535 0.69089 74 67 53
2.71830 -2.44102 0.69903 50 45 45
2.70242 -2.44627 0.70722 54 46 41
2.71656 -2.47062 0.71122 79 74 62
2.71254 -2.48350 0.71779 79 72 71
2.71862 -2.50295 0.72301 74 74 76
2.71638 -2.51711 0.72940 107 109 104
2.71203 -2.52995 0.73608 102 99 85
2.70665 -2.54215 0.74291 46 24 28
2.67710 -2.55406 0.75900 56 33 27
2.65054 -2.55199 0.76849 66 57 58
2.62659 -2.55153 0.77759 129 131 129
2.64740 -2.58151 0.78120 177 189 190
2.63799 -2.59097 0.78853 167 173 175
2.62828 -2.60022 0.79590 153 166 162
2.61668 -2.60815 0.80348 145 157 163
2.61111 -2.62028 0.81036 132 137 160
2.60692 -2.63341 0.81710 111 119 143
2.59924 -2.64411 0.82424 100 101 133
2.59424 -2.65673 0.83109 90 87 118
2.58842 -2.66879 0.83804 74 76 100
2.57254 -2.68201 0.83229 44 16 15
2.57614 -2.67621 0.84569 49 56 68
2.56513 -2.68452 0.85319 31 33 54
2.54884 -2.68892 0.86122 27 23 56
2.53856 -2.69770 0.86862 31 12 41
2.53468 -2.71122 0.87539 38 12 19
2.44676 -2.71047 0.90917 30 15 13
2.42268 -2.70834 0.91767 27 18 20
2.45082 -2.74649 0.92162 87 81 68
2.43521 -2.75091 0.92939 140 122 86
2.41957 -2.76393 0.92372 154 127 93
2.31520 -2.80435 0.99670 146 125 98
2.30181 -2.80999 1.00409 152 140 112
2.28697 -2.81437 1.01154 165 154 116
2.28532 -2.82084 1.03122 175 145 107
2.27806 -2.82368 1.01862 169 152 115
2.27641 -2.83014 1.03829 175 143 100
2.26473 -2.82923 1.02595 167 147 109
2.26308 -2.83568 1.04559 173 143 98
2.25529 -2.83804 1.03304 164 145 109
2.25364 -2.84450 1.05268 171 143 99
2.24575 -2.84677 1.04013 162 140 110
2.24080 -2.85945 1.04699 159 134 105
2.22352 -2.87847 1.06109 62 48 45
2.20944 -2.88317 1.06838 37 24 31
2.14377 -2.96211 1.12456 50 51 51
2.14542 -2.95566 1.10493 14 12 21
2.15343 -2.98868 1.13116 138 156 128
2.15371 -3.00664 1.13805 106 123 83
2.15205 -3.01315 1.15786 61 65 43
2.14513 -3.01634 1.14515 57 65 39
2.13822 -3.01953 1.13244 44 54 41
1.60539 -2.61008 1.19614 73 80 71
1.60678 -2.60464 1.17961 50 47 43
1.60504 -2.62494 1.20207 136 132 114
1.59208 -2.63573 1.19737 148 135 113
1.36510 -2.74151 1.34044 152 129 108
1.36645 -2.73622 1.32435 154 131 103
1.35566 -2.74649 1.34604 179 172 157
1.34309 -2.75694 1.34149 202 202 201
1.30714 -2.70564 1.34893 202 201 194
1.29482 -2.71589 1.34447 204 203 201
1.03423 -3.01416 1.57482 129 137 138
1.03555 -3.00898 1.55906 131 136 135
1.03869 -3.03904 1.58278 118 125 121
1.03122 -3.04586 1.58833 107 99 81
1.01882 -3.05618 1.58384 103 96 84
1.08475 -3.24316 1.64440 40 22 29
1.07840 -3.25271 1.65058 38 27 47
1.07065 -3.26004 1.65643 57 50 61
1.06750 -3.27481 1.66341 94 89 83
1.05443 -3.28569 1.65867 112 104 94
1.05916 -3.28119 1.66912 107 103 90
1.04610 -3.29207 1.66439 116 105 105
2.48130 -1.48690 0.40586 254 254 252
2.49390 -1.47641 0.41043 254 254 254
2.48827 -1.47901 0.40008 254 254 254
2.48265 -1.48160 0.38974 253 254 254
2.42714 -1.47646 0.42298 184 195 235
2.42527 -1.48621 0.42748 200 188 216
2.47778 -1.51748 0.41906 242 249 253
2.47642 -1.52280 0.43526 254 254 254
2.45772 -1.53093 0.43209 210 221 227
2.47968 -1.55058 0.43111 89 85 133
2.51931 -1.57764 0.42610 44 28 68
2.53784 -1.60749 0.43040 85 99 125
2.57685 -1.63502 0.42581 117 128 137
2.55561 -1.63746 0.43505 95 90 127
2.58008 -1.65923 0.43391 164 151 137
2.62189 -1.68865 0.42895 219 204 185
2.60927 -1.69489 0.43629 244 228 192
2.60768 -1.70591 0.44117 199 182 143
2.64418 -1.73367 0.43765 89 69 56
2.62456 -1.73692 0.44657 28 20 32
2.61091 -1.74827 0.44163 66 59 55
3.44041 -2.21734 0.31365 98 106 113
3.44225 -2.21012 0.29167 52 51 62
3.47599 -2.24947 0.31217 130 138 141
3.45863 -2.26392 0.30588 142 147 156
3.45715 -2.25593 0.32203 154 162 165
3.43982 -2.27035 0.31576 156 164 170
3.42376 -2.25534 0.33484 165 171 177
3.42192 -2.26258 0.35687 171 178 184
3.41423 -2.26613 0.34274 167 174 187
3.15497 -2.21364 0.42371 173 156 131
3.15672 -2.20677 0.40279 141 133 120
3.13962 -2.22070 0.43243 171 150 122
3.13787 -2.22756 0.45332 180 154 111
3.12329 -2.23429 0.42652 152 135 93
3.10216 -2.21641 0.44541 168 149 111
3.08594 -2.22991 0.43954 152 130 96
3.03014 -2.20871 0.47056 133 121 120
2.98181 -2.19812 0.48534 136 143 153
2.93664 -2.18889 0.49942 158 171 184
2.94432 -2.20736 0.50356 155 161 173
2.89514 -2.19564 0.51823 125 127 136
2.91450 -2.22042 0.52026 141 157 170
2.91182 -2.23350 0.52636 165 177 178
2.89611 -2.24658 0.52067 157 165 180
2.87842 -2.25899 0.54926 141 151 175
2.87794 -2.27338 0.55501 141 155 166
2.86528 -2.28100 0.56291 121 141 149
2.86266 -2.29427 0.56906 102 123 149
