ply
format ascii 1.0
element face 0
property list uchar int vertex_indices
element vertex 1312
property float x
property float y
property float z
property uchar diffuse_red
property uchar diffuse_green
property uchar diffuse_blue
end_header
1.03582 -3.75418 0.55149 98 112 124
1.03755 -3.75973 0.57154 88 99 113
1.03441 -3.79038 0.56462 94 107 127
1.02132 -3.79095 0.57559 93 105 125
1.02397 -3.81397 0.58103 94 105 124
1.01130 -3.83442 0.59823 94 107 115
1.00197 -3.84029 0.60784 95 103 114
0.89949 -3.96106 0.73218 98 98 98
0.89675 -3.97681 0.73965 71 68 85
0.89813 -3.99922 0.74593 57 59 76
0.89167 -4.00916 0.75454 57 63 72
0.88416 -4.01740 0.76345 59 68 91
0.85962 -4.03867 0.79069 94 106 132
0.85066 -4.04439 0.79996 125 136 142
0.83654 -4.05940 0.79696 132 146 151
0.83582 -4.16544 0.85223 130 142 142
0.85012 -4.15022 0.85528 136 145 148
0.84210 -4.15503 0.84362 132 143 147
0.83407 -4.15983 0.83196 129 143 148
0.83416 -4.18386 0.85969 121 126 130
0.82032 -4.18115 0.87018 76 71 73
0.82816 -4.21627 0.87535 41 33 34
0.83876 -4.34467 0.90910 59 65 54
0.83789 -4.36545 0.91669 69 77 63
0.83572 -4.38397 0.92461 74 75 66
0.82753 -4.39153 0.93386 80 79 65
0.81510 -4.39125 0.94399 84 88 76
0.80064 -4.40968 0.96200 96 99 87
0.79224 -4.41668 0.97123 101 102 88
0.77758 -4.43228 0.96811 121 121 110
0.79046 -4.43615 0.97914 109 107 96
0.77577 -4.45178 0.97601 121 120 111
0.78545 -4.44957 0.98771 112 116 99
0.77074 -4.46521 0.98458 110 112 108
0.74674 -4.46730 1.02544 110 118 107
0.74496 -4.46157 1.00473 108 113 107
0.73854 -4.47220 1.01353 111 116 108
0.73213 -4.48284 1.02233 116 117 109
2.07851 -1.99320 -0.90925 63 72 85
2.07679 -1.98767 -0.92924 67 70 93
2.07060 -1.99793 -0.92075 73 74 97
2.06441 -2.00820 -0.91226 68 75 88
2.07658 -2.00538 -0.90366 61 72 81
2.06246 -2.02040 -0.90666 66 74 87
2.07624 -2.01832 -0.89913 65 72 80
2.06209 -2.03336 -0.90214 69 71 84
2.07112 -2.02911 -0.89135 68 68 76
2.07420 -2.04371 -0.88911 53 55 63
2.07840 -2.05889 -0.88760 40 35 43
2.07712 -2.07159 -0.88238 37 34 43
2.07422 -2.08355 -0.87606 38 35 43
2.07377 -2.09672 -0.87137 35 34 46
2.07050 -2.10856 -0.86477 25 21 30
2.07225 -2.11417 -0.84449 10 9 12
2.06825 -2.12093 -0.85885 14 9 21
2.07000 -2.12654 -0.83855 9 9 7
2.06196 -2.13135 -0.85022 9 7 9
2.05393 -2.13617 -0.86190 9 7 14
2.01487 -2.38491 -0.72804 54 45 52
1.99594 -2.38836 -0.71124 74 86 87
2.00186 -2.40618 -0.71029 74 81 67
1.99866 -2.41876 -0.70352 65 64 56
1.98842 -2.42720 -0.69227 59 62 65
1.99022 -2.43294 -0.67149 67 71 76
1.98392 -2.43902 -0.68467 61 70 73
1.98572 -2.44477 -0.66387 73 75 75
1.97748 -2.44970 -0.67583 68 71 79
1.92570 -2.49091 -0.61943 98 95 90
1.92391 -2.48519 -0.64011 94 97 97
1.92169 -2.50302 -0.61214 89 81 70
1.91515 -2.51356 -0.60327 50 44 56
1.90846 -2.52400 -0.59430 40 42 58
1.90237 -2.53483 -0.58571 72 81 90
1.89577 -2.54532 -0.57680 97 106 102
1.88117 -2.56085 -0.57991 110 111 124
1.87518 -2.56148 -0.55446 107 112 127
1.86701 -2.56637 -0.56632 112 116 129
1.86410 -2.56898 -0.54282 119 127 136
1.86588 -2.57468 -0.52222 120 123 129
1.85772 -2.57956 -0.53407 125 128 133
1.84956 -2.58445 -0.54592 127 126 130
1.79005 -2.71294 -0.43428 162 167 151
1.79008 -2.72823 -0.42929 158 159 135
1.79423 -2.74658 -0.42670 121 124 107
1.77957 -2.76218 -0.42982 110 102 111
1.78528 -2.75540 -0.41640 97 112 113
1.80194 -2.78318 -0.42108 128 149 149
1.31657 -3.57083 0.23921 155 162 151
1.32304 -3.56012 0.23034 149 155 146
1.30185 -3.58649 0.23607 178 185 173
1.30663 -3.57741 0.24960 170 176 160
1.17917 -3.58691 0.35825 156 168 165
1.19347 -3.57169 0.36130 142 157 162
1.18720 -3.58210 0.36991 140 157 165
1.17114 -3.59172 0.34659 171 179 169
1.16486 -3.60213 0.35521 164 169 162
1.16049 -3.61834 0.38403 144 157 161
1.16677 -3.60793 0.37541 139 150 151
1.15246 -3.62315 0.37237 166 175 172
1.15347 -3.62780 0.39295 139 151 153
1.14588 -3.63651 0.40209 127 139 138
1.13245 -3.63765 0.41358 127 142 138
1.12042 -3.64048 0.42447 128 141 140
1.11918 -3.65738 0.43105 122 134 139
1.10882 -3.66234 0.44125 125 138 142
1.09649 -3.66461 0.45220 126 141 148
1.09146 -3.67653 0.46028 123 141 147
1.08390 -3.68508 0.46934 124 142 147
1.07835 -3.69632 0.47762 125 145 141
1.06328 -3.69464 0.48955 119 137 142
1.06227 -3.71202 0.49609 116 137 148
1.06419 -3.73351 0.50155 119 143 146
1.05185 -3.73543 0.51240 115 134 147
1.04890 -3.76935 0.52597 118 136 140
1.04955 -3.78942 0.53201 119 132 142
1.04983 -3.80908 0.53823 117 133 148
1.04879 -3.82695 0.54496 118 131 151
1.04826 -3.84566 0.55153 119 133 153
1.03693 -3.84891 0.56198 118 130 146
1.02852 -3.85630 0.57137 118 131 142
1.02985 -3.87785 0.57734 121 134 141
1.01134 -3.87046 0.59024 120 131 138
1.01072 -3.88922 0.59691 117 127 134
1.01248 -3.89485 0.61724 94 99 111
0.99637 -3.90449 0.59385 128 137 132
1.00120 -3.89489 0.60665 115 125 133
1.00295 -3.90050 0.62696 95 98 107
0.99082 -3.89922 0.61667 116 124 133
0.99257 -3.90482 0.63694 91 97 103
0.98454 -3.90963 0.62528 113 122 132
0.96316 -3.91707 0.64542 115 120 126
0.96941 -3.90670 0.63684 114 121 126
0.95168 -3.91948 0.65571 116 124 129
0.93747 -3.93460 0.65269 129 136 143
0.90623 -3.92887 0.69643 111 118 114
0.89832 -3.93360 0.68495 130 135 132
0.90015 -3.93928 0.70488 110 116 112
0.88606 -3.95427 0.70188 129 131 125
0.89934 -3.95802 0.71170 108 114 109
0.88871 -3.96125 0.72156 106 110 107
0.88411 -3.97404 0.72956 75 81 88
0.88477 -3.99531 0.73599 55 62 73
0.86997 -3.99172 0.74707 48 53 62
0.86399 -4.00230 0.75550 46 52 65
0.87470 -4.04017 0.75906 41 52 72
0.87774 -4.06577 0.76493 38 54 88
0.85496 -4.04883 0.77823 85 102 134
0.84081 -4.06389 0.77522 129 143 145
0.84307 -4.04969 0.78836 122 137 146
0.82896 -4.06471 0.78536 133 145 151
0.83731 -4.18673 0.83810 125 139 137
0.83818 -4.20970 0.84491 103 105 103
0.82366 -4.20584 0.85566 61 54 48
0.82222 -4.22486 0.86310 42 38 32
0.81862 -4.24016 0.87109 45 45 34
0.82039 -4.24581 0.89152 32 42 38
0.81679 -4.25866 0.87868 47 46 38
0.82210 -4.29006 0.88459 51 47 48
0.82539 -4.31805 0.89105 62 60 59
0.82540 -4.34030 0.89834 77 84 70
0.81553 -4.36707 0.91529 91 93 82
0.81445 -4.38760 0.92293 100 100 88
0.79975 -4.40322 0.91980 117 120 111
0.80821 -4.39869 0.93173 110 113 98
0.79352 -4.41432 0.92860 118 117 111
0.78299 -4.41967 0.95950 112 113 104
0.77476 -4.42460 0.94755 120 121 107
0.76833 -4.43526 0.95638 124 120 110
2.05574 -2.04359 -0.89352 64 67 79
2.05401 -2.03805 -0.91357 72 75 91
2.04780 -2.04834 -0.90505 72 75 88
2.06648 -2.06183 -0.89653 60 61 72
2.06394 -2.07393 -0.89048 59 65 74
2.05625 -2.09694 -0.87659 55 65 65
2.05897 -2.11167 -0.87406 40 47 47
1.99716 -2.37005 -0.73855 36 45 37
2.00357 -2.35943 -0.74734 40 47 41
1.98716 -2.37860 -0.72744 75 86 83
1.97257 -2.39411 -0.73054 104 113 114
1.98351 -2.39081 -0.72043 91 101 104
1.98027 -2.40329 -0.71367 100 101 99
1.98413 -2.41998 -0.71146 78 79 69
1.98036 -2.43222 -0.70433 57 37 41
1.96569 -2.44782 -0.70746 31 30 58
1.97121 -2.44127 -0.69377 48 50 69
1.96551 -2.45238 -0.68541 59 69 81
1.96730 -2.45812 -0.66464 77 76 82
1.95585 -2.46109 -0.67454 75 77 81
1.95764 -2.46682 -0.65379 80 82 87
1.94943 -2.47174 -0.66572 80 82 88
1.91591 -2.49480 -0.63031 91 94 98
1.91412 -2.48909 -0.65097 94 94 93
1.90518 -2.50268 -0.61882 72 76 74
1.89858 -2.51315 -0.60992 47 45 48
1.89116 -2.52308 -0.60051 39 39 61
1.88441 -2.53344 -0.59152 63 64 82
1.88514 -2.54865 -0.58719 95 103 108
1.84699 -2.56793 -0.54915 123 125 136
1.78119 -2.70213 -0.45070 154 158 156
1.78757 -2.69154 -0.45946 154 153 152
1.77485 -2.71275 -0.44198 158 167 162
1.76031 -2.72823 -0.44507 143 131 152
1.76641 -2.72184 -0.43199 163 170 152
1.77664 -2.74462 -0.43309 144 140 124
1.76202 -2.76017 -0.43621 117 100 118
1.76283 -2.76517 -0.41491 116 123 143
1.78669 -2.79851 -0.42393 153 164 170
1.78849 -2.80429 -0.40302 160 161 154
1.78021 -2.80924 -0.41504 162 163 165
1.77193 -2.81420 -0.42707 159 162 167
1.48769 -3.25704 -0.02583 182 188 178
1.48125 -3.26772 -0.01699 170 175 172
1.31604 -3.56655 0.21777 159 166 161
1.32250 -3.55583 0.20890 159 161 152
1.30777 -3.57150 0.20577 165 174 167
1.30131 -3.58222 0.21464 169 177 169
1.30397 -3.57063 0.22915 165 174 166
1.28927 -3.58627 0.22602 175 183 181
1.18592 -3.59193 0.33436 166 176 162
1.20028 -3.57667 0.33742 151 160 158
1.19222 -3.58149 0.32572 158 167 159
1.18417 -3.58631 0.31402 164 171 167
1.17787 -3.59676 0.32266 169 178 175
1.14992 -3.63837 0.37944 159 167 163
1.14817 -3.63276 0.35913 169 171 172
1.14188 -3.64319 0.36776 164 169 169
1.13560 -3.65361 0.37639 170 177 168
1.14127 -3.64573 0.38904 154 162 150
1.12695 -3.66096 0.38599 176 182 173
1.12735 -3.64621 0.40078 161 172 156
1.11308 -3.66139 0.39774 180 187 179
1.11467 -3.64818 0.41198 163 172 158
1.11152 -3.66262 0.41930 155 165 155
1.09727 -3.67778 0.41626 160 165 154
1.10386 -3.67113 0.42844 156 163 152
1.08962 -3.68627 0.42541 162 167 166
1.09056 -3.69078 0.44591 152 159 155
1.08654 -3.70415 0.45360 155 166 154
1.07229 -3.71931 0.45057 165 178 151
1.06924 -3.71835 0.47263 150 161 155
1.06689 -3.73404 0.47969 148 158 166
1.05265 -3.74919 0.47665 177 176 173
1.06249 -3.74696 0.48756 156 164 163
1.04823 -3.76212 0.48452 170 173 172
1.05770 -3.75938 0.49558 149 156 163
1.04344 -3.77455 0.49254 170 182 176
1.05867 -3.77986 0.50144 157 170 163
1.04436 -3.79508 0.49839 161 166 165
1.05740 -3.79731 0.50817 148 155 154
1.05572 -3.83368 0.52140 141 146 154
1.04132 -3.84901 0.51834 154 155 151
1.05250 -3.84860 0.52894 141 146 156
1.03808 -3.86394 0.52587 150 159 162
1.04648 -3.85954 0.53751 143 154 166
1.03205 -3.87488 0.53444 148 149 150
1.03862 -3.86782 0.54675 137 141 151
1.02897 -3.87349 0.55662 133 146 156
1.01457 -3.88881 0.55356 160 173 151
1.02440 -3.88653 0.56467 148 159 156
1.01490 -3.89234 0.57447 138 147 147
1.00846 -3.90262 0.58318 132 142 140
0.99408 -3.91793 0.58011 141 146 135
0.98903 -3.91337 0.60285 131 140 140
0.98098 -3.91819 0.59116 148 152 137
0.97469 -3.92863 0.59980 138 142 142
0.98006 -3.91977 0.61241 127 131 139
0.96573 -3.93501 0.60936 137 144 140
0.96562 -3.93779 0.63029 128 135 134
0.95387 -3.93984 0.64073 129 138 138
0.89537 -3.98924 0.70551 127 130 126
0.88822 -3.99808 0.71434 120 123 121
0.88151 -4.00762 0.72303 114 120 113
0.88407 -4.03219 0.72889 109 114 107
0.87318 -4.03497 0.73886 108 113 106
0.86303 -4.03887 0.74858 106 111 110
0.84885 -4.05396 0.74556 132 136 135
0.85624 -4.04826 0.75729 104 112 119
0.84207 -4.06334 0.75427 129 137 134
0.85183 -4.06158 0.76529 117 131 140
0.83764 -4.07667 0.76227 130 137 128
0.84303 -4.17266 0.80876 126 141 154
0.85741 -4.15737 0.81182 135 146 154
0.84934 -4.16220 0.80010 129 143 154
0.84127 -4.16703 0.78838 126 133 144
0.85110 -4.16783 0.82048 132 144 152
0.83727 -4.18407 0.81727 123 140 149
0.83373 -4.19936 0.82519 118 131 129
0.82309 -4.20228 0.83500 82 80 68
0.81860 -4.21595 0.84318 52 41 41
0.81305 -4.22776 0.85164 53 51 57
0.80732 -4.23927 0.86016 72 77 65
0.81352 -4.29415 0.87285 88 80 71
0.81556 -4.31998 0.87955 97 89 79
0.80098 -4.33548 0.87645 123 115 98
0.80476 -4.34486 0.89664 110 111 99
0.79016 -4.36038 0.89353 121 117 104
0.80594 -4.36947 0.90366 113 111 98
0.79129 -4.38505 0.90054 121 117 104
0.80197 -4.38470 0.91192 115 114 99
0.78731 -4.40029 0.90880 117 115 111
2.05077 -2.06296 -0.90282 70 75 87
2.04903 -2.05740 -0.92292 77 79 92
2.04281 -2.06772 -0.91438 74 80 94
2.03658 -2.07804 -0.90584 77 81 99
2.04845 -2.07514 -0.89695 72 77 91
2.03425 -2.09024 -0.89997 79 82 100
2.05395 -2.09109 -0.89640 72 79 91
2.04769 -2.10146 -0.88782 67 74 81
2.04703 -2.11456 -0.88305 54 59 69
2.04982 -2.12940 -0.88059 38 29 53
2.05222 -2.14411 -0.87786 22 7 8
2.05397 -2.14974 -0.85752 4 5 20
2.04752 -2.15536 -0.87030 11 5 16
2.04928 -2.16098 -0.84995 5 5 33
2.04122 -2.16580 -0.86165 5 4 33
1.97230 -2.35115 -0.74417 43 51 40
1.98680 -2.33573 -0.74108 41 39 46
1.97866 -2.34061 -0.75290 39 33 41
1.98611 -2.37331 -0.74858 82 91 89
1.97152 -2.38882 -0.75169 108 115 117
1.98277 -2.38570 -0.74179 102 120 107
1.96945 -2.40665 -0.72388 112 119 113
1.97079 -2.42186 -0.72009 74 81 77
1.96948 -2.43557 -0.71458 50 30 46
1.95603 -2.45654 -0.69656 46 40 54
1.94007 -2.46139 -0.68163 59 63 73
1.92997 -2.46975 -0.67048 72 77 75
1.93176 -2.47547 -0.64980 84 84 91
1.91676 -2.47615 -0.65735 80 81 83
1.89992 -2.49479 -0.63724 83 87 96
1.88537 -2.51026 -0.64034 58 44 65
1.88834 -2.50208 -0.62520 59 51 69
1.88106 -2.51208 -0.61589 62 57 41
1.87761 -2.52451 -0.60898 57 58 58
1.86856 -2.53336 -0.59856 58 49 72
1.87523 -2.55242 -0.59799 74 79 94
1.86331 -2.55940 -0.58576 96 103 108
1.85025 -2.56558 -0.57283 104 110 115
1.83573 -2.58103 -0.57592 72 90 97
1.83701 -2.57157 -0.55981 103 109 123
1.82252 -2.58698 -0.56290 70 88 97
1.82302 -2.57700 -0.54635 108 116 122
1.82479 -2.58267 -0.52587 129 132 127
1.76428 -2.70069 -0.45728 138 147 149
1.76756 -2.71827 -0.45436 140 143 156
1.75301 -2.73375 -0.45745 131 115 147
1.76236 -2.74505 -0.44137 136 117 129
1.75408 -2.76967 -0.42650 119 118 143
1.77085 -2.79777 -0.43147 153 159 165
1.75613 -2.81343 -0.43460 157 164 166
1.17086 -3.60631 0.33161 161 166 171
1.16456 -3.61675 0.34025 161 167 168
1.10078 -3.66377 0.40881 171 174 164
1.09279 -3.66856 0.39721 164 163 163
1.08655 -3.67891 0.40578 155 160 160
1.08478 -3.69855 0.43341 169 173 163
1.07053 -3.71370 0.43038 181 189 176
1.06534 -3.72872 0.45942 167 174 168
1.05735 -3.73351 0.44781 173 178 169
1.05110 -3.74388 0.45639 173 178 178
1.06062 -3.74121 0.46740 169 175 175
1.04637 -3.75637 0.46437 171 176 176
1.05575 -3.85011 0.50661 168 168 158
1.04129 -3.86548 0.50353 155 156 148
1.02322 -3.88172 0.54404 145 156 156
1.02145 -3.87608 0.52362 154 162 155
1.00880 -3.89705 0.54097 168 176 154
1.00689 -3.89726 0.56272 147 149 144
0.99250 -3.91257 0.55966 156 161 149
1.00084 -3.90813 0.57129 145 158 141
0.94736 -3.94695 0.62858 140 153 138
0.93598 -3.94944 0.63891 138 142 136
0.93773 -3.95502 0.65912 127 133 132
0.92972 -3.95981 0.64749 133 131 129
0.88705 -3.99342 0.69406 135 133 123
0.87286 -4.00851 0.69104 148 154 133
0.88176 -4.00527 0.70231 141 147 130
0.86757 -4.02036 0.69928 146 151 135
0.87464 -4.01414 0.71113 140 149 129
0.86045 -4.02922 0.70811 140 142 135
0.86985 -4.02680 0.71923 134 134 129
0.86337 -4.03672 0.72785 131 131 131
0.85488 -4.04331 0.73709 136 140 135
0.84070 -4.05839 0.73407 138 132 120
0.83874 -4.18402 0.79598 116 122 142
0.82433 -4.19934 0.79292 123 119 122
0.83264 -4.19488 0.80460 113 122 131
0.82733 -4.20715 0.81299 109 114 114
0.81831 -4.21289 0.82240 90 84 78
0.81334 -4.22575 0.83071 82 74 67
0.80474 -4.23218 0.83998 88 83 80
0.80509 -4.25457 0.84691 100 100 93
0.79371 -4.25601 0.85689 112 114 93
0.77932 -4.27132 0.85383 125 125 116
0.79326 -4.29916 0.87119 122 115 97
0.77878 -4.31456 0.86811 122 117 105
2.03948 -2.10615 -0.89929 77 82 97
2.03774 -2.10057 -0.91948 83 84 106
2.03149 -2.11093 -0.91090 82 86 105
2.02524 -2.12130 -0.90233 77 81 100
2.03702 -2.11837 -0.89331 67 74 89
2.03382 -2.13027 -0.88681 60 61 80
2.03538 -2.14456 -0.88356 51 52 55
2.03436 -2.15762 -0.87852 35 32 50
2.03411 -2.17110 -0.87399 20 13 39
2.03586 -2.17673 -0.85364 4 4 12
2.03978 -2.18767 -0.87347 17 10 15
2.04154 -2.19331 -0.85305 4 7 10
2.02895 -2.19583 -0.86174 17 8 8
2.03071 -2.20147 -0.84135 6 7 17
2.02206 -2.20601 -0.85269 11 6 11
2.02382 -2.21165 -0.83230 8 7 22
2.01574 -2.21648 -0.84403 9 6 17
1.95465 -2.29437 -0.76769 19 18 27
1.96899 -2.27911 -0.76464 14 18 16
1.96094 -2.28393 -0.77633 13 16 19
1.96270 -2.28955 -0.75600 15 21 18
1.95640 -2.29998 -0.74737 26 24 32
1.95538 -2.30874 -0.76371 33 30 33
1.95714 -2.31438 -0.74334 38 35 38
1.94907 -2.31920 -0.75506 44 41 32
1.95045 -2.33404 -0.75147 40 26 41
1.95730 -2.35208 -0.75146 80 77 74
1.97906 -2.37887 -0.76121 104 116 125
1.96446 -2.39439 -0.76432 112 113 114
1.96641 -2.40019 -0.74375 106 116 115
1.96188 -2.41192 -0.73619 91 98 111
1.96441 -2.42787 -0.73321 69 65 74
1.95910 -2.43920 -0.72512 58 50 51
1.95504 -2.45129 -0.71784 49 42 46
1.94745 -2.46125 -0.70827 54 46 35
1.92797 -2.46390 -0.69102 48 42 44
1.91210 -2.46867 -0.67614 64 51 43
1.89755 -2.48414 -0.67924 66 66 68
1.90183 -2.47683 -0.66488 72 63 68
1.89332 -2.48607 -0.65476 82 87 81
1.88129 -2.49307 -0.64240 75 81 88
1.86290 -2.51053 -0.62134 84 83 52
1.86098 -2.52392 -0.61544 87 74 52
1.85610 -2.53543 -0.60765 59 39 49
1.84637 -2.54377 -0.59679 50 45 68
1.84349 -2.55660 -0.59027 61 68 83
1.79287 -2.58172 -0.53962 74 89 96
1.79462 -2.58736 -0.51924 113 123 130
1.78655 -2.59219 -0.53096 78 83 105
1.77848 -2.59702 -0.54268 95 99 104
1.73330 -2.64402 -0.46956 113 107 128
1.73155 -2.63841 -0.48984 115 104 120
1.70881 -2.64136 -0.44979 119 109 132
1.70102 -2.66548 -0.43553 99 105 123
1.68677 -2.68063 -0.43856 125 134 134
1.75124 -2.74777 -0.45148 133 121 142
1.74703 -2.76001 -0.44403 120 120 125
1.74251 -2.77204 -0.43638 123 126 141
1.72792 -2.78756 -0.43948 156 170 178
1.75735 -2.79874 -0.44032 154 164 169
1.74265 -2.81437 -0.44345 156 162 161
1.16891 -3.60045 0.31135 170 173 172
1.17521 -3.59000 0.30271 171 173 170
1.16716 -3.59482 0.29102 167 169 162
1.15456 -3.61571 0.30830 161 158 152
1.15917 -3.60651 0.32149 153 155 163
1.14484 -3.62175 0.31844 153 154 155
1.15007 -3.61335 0.33134 152 158 161
1.15182 -3.61896 0.35162 173 180 173
1.14379 -3.62377 0.33996 166 172 168
1.08091 -3.69009 0.41410 158 166 171
1.07916 -3.68451 0.39392 167 174 166
1.07292 -3.69487 0.40249 162 167 168
1.04718 -3.85431 0.49500 175 175 163
1.04541 -3.84865 0.47452 170 176 165
1.03273 -3.86968 0.49193 152 154 145
1.02020 -3.89402 0.53041 159 171 162
1.00576 -3.90939 0.52733 171 177 160
1.00362 -3.90924 0.54923 164 165 162
0.93048 -3.95812 0.62643 151 154 136
0.92874 -3.95253 0.60620 154 157 141
0.92247 -3.96291 0.61479 154 157 142
0.91760 -3.95815 0.63728 150 144 132
0.91934 -3.96372 0.65745 141 141 132
0.90337 -3.97329 0.63425 167 168 162
0.90678 -3.96130 0.64739 154 153 141
0.89512 -3.96304 0.65776 143 140 136
0.88095 -3.97811 0.65475 161 161 154
0.88898 -3.97347 0.66627 149 149 131
0.88744 -3.99128 0.67326 151 146 118
0.88195 -4.00280 0.68157 145 144 130
0.86774 -4.01791 0.67854 148 151 144
0.85372 -4.03871 0.71681 141 146 140
0.85198 -4.03315 0.69671 142 147 139
0.84576 -4.04347 0.70525 143 153 145
0.83954 -4.05379 0.71379 156 162 144
0.84765 -4.04928 0.72530 150 152 136
0.83849 -4.07546 0.74138 139 141 129
0.82429 -4.09056 0.73835 159 158 148
0.82976 -4.08157 0.75069 144 143 131
0.83149 -4.08713 0.77079 132 143 134
0.81557 -4.09666 0.74767 157 156 149
0.82430 -4.13526 0.77245 156 156 145
0.83858 -4.12007 0.77549 134 139 142
0.82256 -4.12967 0.75222 162 165 150
0.83231 -4.13046 0.78409 133 140 141
0.81629 -4.14006 0.76081 163 168 146
0.82918 -4.16491 0.77782 145 144 132
0.83028 -4.18821 0.78435 130 127 129
0.81863 -4.21091 0.80142 124 126 108
0.81253 -4.22179 0.81003 123 126 104
0.80208 -4.22495 0.81983 122 119 103
0.79414 -4.23248 0.82893 122 118 102
0.77976 -4.24777 0.82587 129 131 126
0.79031 -4.24741 0.83692 122 121 112
0.77592 -4.26271 0.83386 128 127 125
0.78116 -4.25274 0.84633 125 125 120
0.76679 -4.26802 0.84328 125 124 119
2.02613 -2.13522 -0.89867 76 80 96
2.02438 -2.12963 -0.91890 83 84 108
2.01811 -2.14002 -0.91030 82 87 109
2.01185 -2.15041 -0.90171 81 89 102
2.02609 -2.14874 -0.89436 74 81 91
2.01179 -2.16395 -0.89740 79 87 100
2.02493 -2.16173 -0.88925 67 73 86
2.02865 -2.17725 -0.88748 64 66 81
2.02504 -2.18909 -0.88067 67 68 71
2.01206 -2.20984 -0.86311 31 35 38
2.00923 -2.22214 -0.85682 17 10 14
2.01099 -2.22778 -0.83641 10 8 10
2.00291 -2.23261 -0.84815 15 12 15
1.95715 -2.29111 -0.79087 16 15 28
1.97151 -2.27583 -0.78782 9 11 9
1.96346 -2.28066 -0.79952 10 11 13
1.95112 -2.30171 -0.78240 29 24 38
1.94977 -2.31496 -0.77706 39 43 41
1.94560 -2.32664 -0.76983 47 45 47
1.94272 -2.33909 -0.76345 50 47 54
1.96407 -2.36553 -0.77313 98 105 93
1.96765 -2.38190 -0.77098 107 112 122
1.95623 -2.40392 -0.75433 103 105 105
1.94164 -2.41943 -0.75743 87 86 106
1.95160 -2.41559 -0.74671 81 67 107
1.93700 -2.43111 -0.74982 94 94 85
1.94709 -2.42734 -0.73917 78 74 79
1.93249 -2.44287 -0.74228 93 97 93
1.94119 -2.43827 -0.73071 83 91 77
1.92659 -2.45380 -0.73382 93 96 97
1.93437 -2.44864 -0.72165 90 96 93
1.92158 -2.45536 -0.70869 95 102 82
1.90701 -2.47086 -0.71180 90 93 86
1.91016 -2.46287 -0.69665 88 89 78
1.89814 -2.46995 -0.68423 83 79 70
1.87311 -2.48335 -0.65881 65 69 71
1.85864 -2.49874 -0.66189 40 38 48
1.86248 -2.49116 -0.64733 58 59 72
1.85113 -2.49846 -0.63541 54 56 66
1.84335 -2.50803 -0.62579 88 104 80
1.83703 -2.51852 -0.61711 105 105 69
1.83983 -2.53499 -0.61427 58 50 44
1.83321 -2.54533 -0.60539 48 45 51
1.83759 -2.56295 -0.60350 76 77 74
1.80956 -2.57379 -0.57635 100 111 98
1.79513 -2.58915 -0.57942 113 111 102
1.80787 -2.58744 -0.57059 93 103 97
1.79112 -2.59087 -0.55533 91 101 92
1.77671 -2.60620 -0.55840 118 117 118
1.72527 -2.64882 -0.48122 115 106 117
1.70082 -2.64614 -0.46139 123 110 119
1.68660 -2.66127 -0.46441 156 162 146
1.70019 -2.66056 -0.45628 125 110 117
1.68594 -2.67572 -0.45931 160 158 147
1.73744 -2.74847 -0.45993 139 145 152
1.73566 -2.74277 -0.48055 146 155 155
1.72928 -2.75336 -0.47179 141 149 156
1.72289 -2.76395 -0.46303 137 145 152
1.73555 -2.76243 -0.45391 127 134 135
1.72098 -2.77793 -0.45701 150 159 161
1.73875 -2.78029 -0.45096 131 140 148
1.72413 -2.79583 -0.45407 163 172 172
1.15877 -3.60261 0.30059 167 166 160
1.15072 -3.60743 0.28890 163 158 155
1.14443 -3.61786 0.29753 167 166 159
1.06588 -3.70417 0.41139 171 175 180
1.06414 -3.69859 0.39122 165 170 169
1.05790 -3.70895 0.39979 167 169 169
1.04436 -3.78880 0.45644 163 164 157
1.05240 -3.78398 0.46812 167 174 172
1.03632 -3.79361 0.44476 160 156 138
1.03807 -3.79923 0.46506 166 165 156
1.04370 -3.86585 0.48142 168 168 157
1.02922 -3.88125 0.47834 153 158 148
1.02124 -3.89248 0.50887 146 153 152
1.03570 -3.87710 0.51195 149 155 155
1.02759 -3.88196 0.50017 147 150 145
1.01313 -3.89734 0.49709 140 135 141
1.01205 -3.89880 0.51866 163 176 171
0.99761 -3.91417 0.51558 167 175 158
0.99441 -3.91242 0.53790 172 176 172
0.98509 -3.91840 0.54768 158 157 149
0.97878 -3.92887 0.55635 153 157 143
0.97070 -3.93371 0.54462 146 149 140
0.91006 -3.96363 0.62552 160 162 151
0.89583 -3.97878 0.62249 167 166 161
0.88876 -3.97033 0.64567 160 157 154
0.88081 -3.97509 0.63412 166 166 156
0.87458 -3.98541 0.64265 157 158 161
0.88097 -3.99846 0.66119 160 163 143
0.87300 -4.00323 0.64961 155 162 152
0.86676 -4.01357 0.65816 152 159 155
0.87454 -4.00849 0.66980 147 150 146
0.86033 -4.02360 0.66678 154 156 153
0.83828 -4.07244 0.72077 152 148 129
0.83654 -4.06687 0.70063 151 159 145
0.83030 -4.07722 0.70919 154 156 138
0.82406 -4.08756 0.71774 154 156 145
0.83249 -4.08355 0.72919 154 157 141
0.81827 -4.09867 0.72616 152 150 143
0.82161 -4.17056 0.76598 154 154 133
0.81985 -4.16494 0.74564 161 160 145
0.81355 -4.17539 0.75428 154 154 138
0.80725 -4.18583 0.76293 145 146 128
0.82070 -4.19043 0.77305 142 137 124
0.81503 -4.20204 0.78153 139 133 123
0.80064 -4.21736 0.77846 151 153 141
0.80906 -4.21313 0.79010 146 147 129
0.79466 -4.22845 0.78703 146 148 133
0.80314 -4.22432 0.79865 143 144 128
0.78874 -4.23963 0.79559 136 135 125
0.79451 -4.23067 0.80797 135 136 126
0.78012 -4.24597 0.80491 131 134 132
0.78581 -4.23685 0.81729 132 136 128
0.77144 -4.25213 0.81423 132 132 131
1.19803 -1.49660 -0.41465 63 63 72
1.20832 -1.48566 -0.41246 62 63 78
1.20255 -1.48912 -0.42084 67 66 81
1.19677 -1.49257 -0.42923 66 71 83
1.19929 -1.50063 -0.40007 46 55 58
1.19352 -1.50409 -0.40846 51 55 50
1.21179 -1.52100 -0.41870 52 54 51
1.20597 -1.52449 -0.42716 49 51 59
1.21306 -1.52506 -0.40398 67 66 75
1.21844 -1.53323 -0.42051 61 66 74
1.21972 -1.53731 -0.40573 66 68 82
1.21387 -1.54082 -0.41423 65 69 82
1.20801 -1.54432 -0.42273 64 67 80
2.01782 -2.18066 -0.89728 79 86 104
2.01606 -2.17504 -0.91763 84 90 106
2.00976 -2.18549 -0.90899 83 91 109
2.00346 -2.19594 -0.90034 84 89 110
2.01168 -2.19119 -0.88875 81 87 103
1.99732 -2.20647 -0.89180 87 92 113
2.00541 -2.20166 -0.88013 83 88 98
2.00153 -2.21338 -0.87314 62 71 71
2.00117 -2.22698 -0.86856 42 18 10
1.99194 -2.23591 -0.85790 30 25 23
1.99370 -2.24154 -0.83752 14 12 15
1.98005 -2.24338 -0.84544 22 24 29
1.98181 -2.24901 -0.82509 15 12 11
1.97632 -2.25522 -0.83854 24 23 23
1.97808 -2.26085 -0.81818 12 11 9
1.97029 -2.27975 -0.82570 26 20 21
1.96231 -2.28931 -0.81591 27 17 14
1.95154 -2.29730 -0.80423 32 16 29
1.94593 -2.30815 -0.79605 43 27 36
1.94541 -2.32190 -0.79129 46 45 51
1.93101 -2.33721 -0.79436 69 74 89
1.94098 -2.33345 -0.78388 47 45 71
1.92657 -2.34878 -0.78695 74 77 94
1.94422 -2.34944 -0.78162 54 53 77
1.95380 -2.36919 -0.78356 83 90 95
1.95406 -2.38363 -0.77924 95 105 105
1.95228 -2.39693 -0.77355 103 110 111
1.94792 -2.40875 -0.76613 96 102 106
1.90853 -2.45726 -0.71737 91 96 84
1.90675 -2.45156 -0.73798 84 81 80
1.90036 -2.46215 -0.72922 81 78 67
1.89398 -2.47273 -0.72046 83 78 74
1.87705 -2.46675 -0.68760 82 82 78
1.86894 -2.47161 -0.69939 78 73 68
1.86550 -2.47401 -0.67549 60 62 62
1.85591 -2.48245 -0.66468 56 53 63
1.84148 -2.49780 -0.66775 49 51 51
1.83931 -2.50092 -0.64475 49 54 54
1.82812 -2.50825 -0.63292 74 79 71
1.81373 -2.52355 -0.63598 84 85 75
1.82350 -2.51982 -0.62535 90 88 65
1.82514 -2.53552 -0.62182 59 59 55
1.81729 -2.54502 -0.61215 64 65 54
1.80446 -2.55118 -0.59930 113 123 102
1.78515 -2.55294 -0.58232 125 132 117
1.78931 -2.57043 -0.58036 121 121 106
1.78224 -2.59517 -0.56657 113 114 106
1.76784 -2.61049 -0.56964 119 115 123
1.71553 -2.63751 -0.49650 137 142 143
1.72980 -2.62233 -0.49346 119 109 135
1.71379 -2.63192 -0.51672 135 141 139
1.70753 -2.64231 -0.50813 133 139 142
1.70126 -2.65269 -0.49954 140 147 148
1.70660 -2.64597 -0.48623 143 150 145
1.69234 -2.66114 -0.48927 151 160 155
1.15922 -3.59979 0.27927 163 164 158
1.17357 -3.58452 0.28233 160 165 162
1.16552 -3.58934 0.27063 161 167 159
1.14487 -3.61505 0.27622 153 155 155
1.10800 -3.62626 0.33118 162 168 163
1.11424 -3.61590 0.32260 155 159 157
1.10626 -3.62068 0.31100 158 164 160
1.11599 -3.62148 0.34278 166 174 168
1.10974 -3.63183 0.35135 167 172 163
1.10175 -3.63662 0.33975 165 169 164
1.05497 -3.72387 0.40697 161 166 168
1.05323 -3.71829 0.38677 173 174 169
1.05671 -3.72945 0.42717 173 179 174
1.04072 -3.73903 0.40394 146 144 154
1.05209 -3.73891 0.41415 155 161 167
1.05383 -3.74450 0.43438 173 179 171
1.03825 -3.77704 0.43791 164 164 149
1.05255 -3.76183 0.44095 174 181 175
1.04453 -3.76663 0.42930 168 176 165
1.03650 -3.77144 0.41764 166 172 158
1.03022 -3.78185 0.42625 161 163 146
1.03634 -3.81303 0.45084 171 174 168
1.03810 -3.81866 0.47120 164 167 163
1.03003 -3.82348 0.45949 169 174 162
1.03513 -3.85037 0.46361 169 171 150
1.02069 -3.86573 0.46053 146 153 147
1.03577 -3.87100 0.46954 157 161 148
1.02129 -3.88640 0.46646 153 162 154
1.02170 -3.89008 0.48751 155 154 149
1.00409 -3.90386 0.50683 157 166 165
0.91021 -3.96103 0.60468 148 150 148
0.91646 -3.95066 0.59610 147 152 136
0.90847 -3.95544 0.58449 156 157 143
0.90222 -3.96581 0.59306 148 143 149
0.90068 -3.96621 0.61441 156 163 159
0.88646 -3.98135 0.61138 161 162 152
0.80455 -4.20263 0.77051 146 148 134
0.80279 -4.19700 0.75013 143 149 137
0.79648 -4.20746 0.75879 149 153 146
0.79017 -4.21793 0.76745 153 152 141
0.55889 -4.61175 1.10811 117 116 121
0.57327 -4.59645 1.11117 113 111 114
0.56520 -4.60128 1.09945 114 107 121
0.55713 -4.60612 1.08773 129 131 125
1.20130 -1.50375 -0.42962 63 68 79
1.20003 -1.49970 -0.44425 66 70 83
1.19550 -1.50722 -0.43803 64 70 83
1.20529 -1.51478 -0.42960 53 57 63
1.19494 -1.52580 -0.43181 46 55 55
1.21457 -1.53756 -0.43044 58 61 71
1.98368 -2.21305 -0.87809 81 90 105
1.98193 -2.20744 -0.89839 90 94 119
1.97564 -2.21787 -0.88977 90 96 120
1.97996 -2.22484 -0.87123 68 59 61
1.97637 -2.23673 -0.86446 49 44 53
1.96838 -2.24626 -0.85466 35 32 48
1.95923 -2.26902 -0.83974 45 44 43
1.94487 -2.28429 -0.84280 59 63 51
1.95207 -2.27899 -0.83051 47 48 42
1.93772 -2.29426 -0.83356 61 65 69
1.94430 -2.28862 -0.82086 51 53 51
1.92995 -2.30388 -0.82391 56 63 69
1.94381 -2.30232 -0.81617 52 56 62
1.92944 -2.31761 -0.81923 59 64 73
1.93961 -2.31397 -0.80895 59 64 72
1.93770 -2.32694 -0.80328 66 73 82
1.93799 -2.36961 -0.79024 76 82 85
1.93094 -2.37974 -0.78105 79 86 83
1.92549 -2.39082 -0.77294 74 79 77
1.91100 -2.40623 -0.77602 57 56 52
1.92440 -2.40451 -0.76774 66 72 70
1.92603 -2.41987 -0.76435 64 72 84
1.92247 -2.43217 -0.75748 75 82 81
1.91608 -2.44277 -0.74871 82 82 89
1.90791 -2.44766 -0.76058 78 80 87
1.85004 -2.47421 -0.68242 68 65 64
1.84828 -2.46856 -0.70283 87 83 77
1.84033 -2.48254 -0.67152 61 65 64
1.82594 -2.49784 -0.67458 58 59 58
1.82290 -2.50038 -0.65104 64 63 62
1.81480 -2.50967 -0.64122 77 74 72
1.80395 -2.53173 -0.62507 73 74 71
1.78958 -2.54701 -0.62813 56 51 66
1.80081 -2.54429 -0.61847 64 60 61
1.79156 -2.55279 -0.60790 103 116 104
1.77350 -2.55532 -0.59166 131 141 139
1.77136 -2.56855 -0.58571 131 133 123
1.77931 -2.58872 -0.58624 118 115 92
1.77214 -2.59862 -0.57702 113 110 108
1.22666 -3.47920 0.16393 159 162 167
1.23295 -3.46876 0.15529 158 159 163
1.22490 -3.47358 0.14359 164 165 167
1.23471 -3.47438 0.17563 165 173 167
1.21231 -3.49446 0.16087 173 186 173
1.21912 -3.48817 0.17317 174 181 166
1.22088 -3.49379 0.19349 164 171 161
1.21283 -3.49860 0.18180 174 177 157
1.15895 -3.57767 0.25253 173 180 165
1.16523 -3.56725 0.24390 175 181 169
1.15720 -3.57206 0.23223 165 171 164
1.16699 -3.57286 0.26420 166 168 158
1.15292 -3.58841 0.26103 151 151 146
1.13859 -3.60365 0.25798 144 146 145
1.14279 -3.59395 0.27142 150 152 150
1.12849 -3.60916 0.26837 141 147 149
1.09585 -3.62558 0.32144 153 159 157
1.09411 -3.62002 0.30130 152 158 159
1.08164 -3.64070 0.31841 139 141 138
1.08640 -3.63169 0.33142 150 156 154
1.08814 -3.63725 0.35153 166 169 161
1.07221 -3.64678 0.32840 136 142 140
1.06995 -3.64700 0.35027 150 156 155
1.07790 -3.64225 0.36181 167 169 160
1.06200 -3.65176 0.33872 140 144 143
1.07168 -3.65255 0.37034 167 171 164
1.05943 -3.65154 0.36068 156 163 162
1.06116 -3.65708 0.38072 171 176 167
1.05275 -3.66119 0.36940 162 169 170
1.05448 -3.66673 0.38944 172 176 168
1.04654 -3.67148 0.37791 165 172 174
1.03825 -3.75470 0.41093 155 159 154
1.03650 -3.74910 0.39070 152 149 150
1.03024 -3.75949 0.39929 156 165 152
1.02902 -3.79948 0.43277 159 165 145
1.02727 -3.79387 0.41246 158 162 152
1.02098 -3.80430 0.42109 158 169 159
1.02529 -3.81358 0.44035 167 170 175
1.01978 -3.84472 0.45477 163 161 144
1.00538 -3.86003 0.45170 155 158 153
1.00189 -3.87772 0.48035 162 162 160
1.00013 -3.87208 0.45994 157 162 155
0.99381 -3.88256 0.46861 161 162 158
0.99571 -3.88840 0.48897 148 145 143
0.98130 -3.90372 0.48590 154 156 156
0.98977 -3.89945 0.49749 154 157 158
0.98310 -3.90942 0.50629 155 164 157
0.96870 -3.92474 0.50323 161 164 163
0.89059 -3.96764 0.60358 145 147 147
0.88885 -3.96207 0.58344 150 148 142
0.87637 -3.98275 0.60055 165 167 157
0.86309 -4.00485 0.63870 143 149 141
0.85512 -4.00962 0.62713 136 138 129
0.84889 -4.01995 0.63568 136 143 123
0.54123 -4.59519 1.09793 123 121 116
0.52692 -4.61041 1.09488 97 88 91
1.20311 -1.51976 -0.44070 54 64 71
1.20184 -1.51570 -0.45540 67 70 83
1.19729 -1.52324 -0.44916 61 69 80
1.21452 -1.54352 -0.44319 54 57 54
1.20865 -1.54703 -0.45171 51 51 59
1.21712 -1.55419 -0.44213 64 65 75
1.21840 -1.55830 -0.42726 67 69 85
1.21251 -1.56182 -0.43581 69 69 82
1.20663 -1.56535 -0.44436 70 70 84
1.94416 -2.21484 -0.86362 87 91 106
1.94242 -2.20927 -0.88377 94 97 121
1.93618 -2.21962 -0.87521 95 101 121
1.93271 -2.22238 -0.85144 83 86 97
1.94120 -2.24070 -0.85309 67 69 73
1.94270 -2.25532 -0.84987 60 63 59
1.93078 -2.33245 -0.81581 64 65 74
1.92270 -2.33729 -0.82756 53 48 56
1.91638 -2.34777 -0.81888 52 48 53
1.92747 -2.34467 -0.80919 58 62 67
1.91304 -2.36001 -0.81226 52 51 64
1.92475 -2.35726 -0.80296 60 65 79
1.91031 -2.37262 -0.80604 48 51 65
1.92308 -2.37050 -0.79744 50 61 72
1.90862 -2.38588 -0.80052 55 54 57
1.91693 -2.38114 -0.78886 60 60 62
1.90247 -2.39652 -0.79194 55 62 64
1.91566 -2.39468 -0.78359 57 61 58
1.91339 -2.42206 -0.77319 60 62 69
1.89886 -2.43751 -0.77629 69 78 81
1.90869 -2.43365 -0.76557 67 74 80
1.89415 -2.44911 -0.76867 78 82 86
1.82703 -2.46956 -0.68424 80 83 80
1.82528 -2.46395 -0.70456 90 89 85
1.82049 -2.47984 -0.67545 63 75 72
1.80491 -2.49876 -0.65620 83 80 80
1.79645 -2.50777 -0.64615 89 93 92
1.78214 -2.52299 -0.64920 94 101 99
1.79061 -2.51847 -0.63782 93 103 97
1.78796 -2.53130 -0.63158 85 85 82
1.77739 -2.55351 -0.61563 71 74 86
1.76666 -2.56094 -0.60411 111 118 131
1.75643 -2.56867 -0.59293 140 147 137
1.76131 -2.58674 -0.59154 147 150 120
1.76244 -2.60233 -0.58770 134 131 118
1.20051 -3.49827 0.17220 168 167 159
1.20226 -3.50388 0.19249 159 165 152
1.19422 -3.50869 0.18082 146 155 147
1.18619 -3.51350 0.16915 155 159 145
1.14176 -3.57092 0.24515 169 167 164
1.14002 -3.56533 0.22493 157 163 164
1.13375 -3.57571 0.23353 166 168 176
1.13396 -3.57934 0.25447 153 149 145
1.04854 -3.65231 0.35046 147 152 158
1.04682 -3.64678 0.33045 152 161 155
1.04062 -3.65706 0.33895 152 155 158
1.03442 -3.66733 0.34746 152 151 158
1.04299 -3.66347 0.35868 154 160 170
1.03914 -3.67695 0.36616 157 164 170
1.04087 -3.68249 0.38620 165 170 175
1.03294 -3.68724 0.37467 160 166 168
1.02500 -3.69200 0.36315 158 167 156
1.01180 -3.81058 0.43092 154 158 164
1.00377 -3.81539 0.41925 145 148 143
1.00697 -3.82311 0.43894 154 161 162
0.99265 -3.83834 0.43589 164 163 163
0.97531 -3.87490 0.48216 158 161 149
0.97356 -3.86928 0.46186 164 164 159
0.96727 -3.87971 0.47048 161 166 150
0.96099 -3.89013 0.47911 155 156 153
0.96512 -3.89933 0.49847 142 150 159
0.95707 -3.90415 0.48678 136 139 148
0.93493 -3.93333 0.53493 151 155 145
0.94121 -3.92292 0.52632 162 161 153
0.94296 -3.92852 0.54659 148 154 151
0.93668 -3.93894 0.55521 153 156 146
0.92858 -3.94363 0.54357 146 148 140
0.93033 -3.94924 0.56385 147 151 136
0.92230 -3.95404 0.55219 145 150 135
0.86125 -3.99913 0.61862 147 148 141
0.87545 -3.98404 0.62164 162 162 151
0.86748 -3.98881 0.61007 159 158 154
0.85952 -3.99357 0.59850 156 156 158
0.62164 -4.36295 0.93703 131 129 105
0.63577 -4.34793 0.94004 127 126 118
0.62784 -4.35267 0.92852 129 126 116
0.61991 -4.35742 0.91701 130 132 122
0.62336 -4.36849 0.95705 115 114 106
0.61683 -4.37606 0.94521 121 119 103
0.61856 -4.38160 0.96525 107 115 115
0.61062 -4.38635 0.95372 107 109 103
0.60269 -4.39110 0.94220 115 114 106
0.54253 -4.59639 1.07713 123 123 114
0.55686 -4.58114 1.08018 125 119 114
0.54882 -4.58596 1.06850 128 124 122
0.54078 -4.59077 1.05681 120 122 123
0.53127 -4.59567 1.08659 101 91 80
1.21368 -1.53960 -0.45833 51 60 68
1.21240 -1.53551 -0.47316 68 68 82
1.20322 -1.55073 -0.46056 46 53 73
1.21929 -1.56117 -0.45659 62 64 75
1.20877 -1.57236 -0.45883 68 70 87
1.87961 -1.98040 -0.89945 74 69 95
1.89317 -1.96599 -0.89656 68 70 91
1.88556 -1.97054 -0.90761 68 68 84
1.87796 -1.97509 -0.91865 72 72 87
1.88722 -1.97585 -0.88840 71 69 93
1.88127 -1.98571 -0.88024 75 76 99
1.87722 -1.99195 -0.89385 79 80 106
1.87888 -1.99727 -0.87462 78 85 102
1.87127 -2.00183 -0.88568 83 88 110
1.86366 -2.00638 -0.89674 89 92 124
1.92779 -2.22880 -0.86514 88 96 112
1.93921 -2.24877 -0.86891 53 56 60
1.92492 -2.26396 -0.87195 42 41 55
1.93520 -2.26040 -0.86188 49 52 59
1.92090 -2.27561 -0.86492 37 41 46
1.90642 -2.41324 -0.79025 66 65 61
1.90465 -2.40756 -0.81081 62 67 76
1.89828 -2.41812 -0.80207 75 71 69
1.89192 -2.42867 -0.79334 76 74 75
1.90495 -2.42676 -0.78484 72 73 70
1.89042 -2.44222 -0.78793 73 77 81
1.80065 -2.47707 -0.67925 67 74 79
1.80070 -2.49156 -0.67487 65 62 64
1.78961 -2.49884 -0.66305 95 85 83
1.77532 -2.51404 -0.66609 101 100 96
1.78444 -2.50996 -0.65517 94 95 97
1.77014 -2.52516 -0.65822 101 104 102
1.77531 -2.53304 -0.64022 87 88 85
1.77211 -2.54552 -0.63363 49 47 67
1.76339 -2.55430 -0.62341 63 65 87
1.75402 -2.56262 -0.61276 95 101 114
1.74970 -2.57436 -0.60543 120 127 126
1.74186 -2.58370 -0.59580 147 152 143
1.73945 -2.59680 -0.58971 154 155 143
1.73064 -2.60544 -0.57944 145 147 141
1.19847 -3.49232 0.15205 165 173 172
1.18415 -3.50755 0.14900 153 164 152
1.18941 -3.49938 0.16204 164 168 160
1.17511 -3.51459 0.15900 152 157 142
1.11714 -3.57287 0.24702 161 164 162
1.11540 -3.56730 0.22689 161 163 167
1.10917 -3.57764 0.23544 155 158 151
1.11043 -3.58259 0.25581 156 159 146
1.09622 -3.59770 0.25278 159 174 156
1.10252 -3.59076 0.26514 155 161 148
1.10425 -3.59632 0.28526 142 146 146
1.09629 -3.60109 0.27369 158 167 149
0.98946 -3.81414 0.43124 149 151 144
0.98772 -3.80856 0.41102 136 140 142
0.98146 -3.81894 0.41961 144 150 146
0.93203 -3.92595 0.51511 158 161 151
0.94633 -3.91074 0.51815 158 155 157
0.93830 -3.91554 0.50650 155 160 155
0.93028 -3.92035 0.49484 155 159 146
0.92589 -3.93657 0.52366 147 142 139
0.91961 -3.94698 0.53228 143 139 139
0.90531 -3.96219 0.52923 156 165 151
0.90989 -3.95198 0.54221 151 163 142
0.91164 -3.95758 0.56245 146 154 141
0.90363 -3.96237 0.55081 145 156 137
0.89561 -3.96717 0.53917 146 153 133
0.85070 -3.99967 0.60799 151 157 146
0.84274 -4.00444 0.59644 150 154 149
0.83652 -4.01475 0.60498 160 162 137
0.84606 -4.01260 0.61596 146 148 128
0.83983 -4.02292 0.62450 145 151 128
0.60718 -4.37731 0.93410 129 126 109
0.53279 -4.59740 1.06575 105 101 101
0.53104 -4.59179 1.04545 113 103 120
0.52124 -4.59594 1.07529 102 97 81
0.50696 -4.61112 1.07225 120 123 112
0.51798 -4.61315 1.08337 112 113 101
0.50368 -4.62836 1.08033 122 125 116
1.86082 -1.97966 -0.90237 78 77 101
1.84732 -1.99402 -0.90525 87 91 119
1.92319 -2.22169 -0.88325 96 106 126
1.92942 -2.21136 -0.89180 97 99 128
1.92145 -2.21613 -0.90337 97 103 128
1.92410 -2.23590 -0.87974 59 67 95
1.90987 -2.25103 -0.88276 38 37 51
1.93532 -2.25582 -0.88345 39 35 52
1.92101 -2.27104 -0.88650 42 40 44
1.77406 -2.48425 -0.67402 76 76 77
1.77232 -2.47868 -0.69418 70 75 86
1.76608 -2.48903 -0.68562 80 85 80
1.77005 -2.49607 -0.66695 102 90 85
1.75581 -2.51121 -0.66998 104 103 94
1.76194 -2.53427 -0.64832 85 95 94
1.76019 -2.52868 -0.66857 109 107 100
1.74765 -2.54947 -0.65137 42 40 51
1.75507 -2.54426 -0.63932 43 43 61
1.74770 -2.55391 -0.62999 73 76 89
1.73771 -2.56175 -0.61893 110 110 110
1.72345 -2.57692 -0.62196 113 113 114
1.73593 -2.57521 -0.61330 111 116 118
1.73625 -2.59018 -0.60904 120 125 133
1.72024 -2.59380 -0.59403 150 157 165
1.71029 -2.61638 -0.57853 144 145 151
1.70402 -2.62677 -0.56993 145 149 151
1.69601 -2.63157 -0.58157 146 150 149
1.18962 -3.47818 0.13535 168 161 160
1.19589 -3.46779 0.12675 166 171 165
1.18788 -3.47259 0.11512 164 161 166
1.16157 -3.51604 0.17122 161 173 171
1.15983 -3.51046 0.15101 163 163 147
1.16331 -3.52163 0.19142 174 179 162
1.15531 -3.52642 0.17980 181 184 168
1.09542 -3.57828 0.24759 158 169 142
1.09369 -3.57273 0.22752 159 156 144
1.08748 -3.58304 0.23605 163 180 154
1.08065 -3.59584 0.26575 157 164 152
1.08238 -3.60138 0.28581 150 159 149
1.07444 -3.60614 0.27427 139 153 143
0.96760 -3.81815 0.43143 155 159 156
0.96934 -3.82372 0.45158 165 165 162
0.95954 -3.82582 0.44075 153 157 161
0.96128 -3.83138 0.46089 162 162 158
0.94533 -3.84093 0.43773 141 142 140
0.94509 -3.82393 0.45275 153 152 155
0.93093 -3.83899 0.44974 140 144 145
0.91626 -3.91876 0.50655 152 148 144
0.91452 -3.91318 0.48636 157 156 145
0.90826 -3.92355 0.49494 152 148 146
0.90201 -3.93392 0.50352 157 167 147
0.91640 -3.93909 0.51259 150 146 136
0.90211 -3.95430 0.50955 147 145 146
0.91013 -3.94949 0.52120 141 134 140
0.89584 -3.96469 0.51815 157 162 153
0.84376 -3.98563 0.58985 152 151 155
0.85791 -3.97059 0.59286 165 167 160
0.84997 -3.97534 0.58133 158 165 156
0.84204 -3.98009 0.56981 155 163 152
0.58792 -4.38173 0.93235 121 122 118
0.57383 -4.39672 0.92935 138 140 128
0.57806 -4.38436 0.94171 127 134 128
0.57978 -4.38987 0.96164 130 127 120
0.57189 -4.39460 0.95018 136 135 127
0.51467 -4.60402 1.06339 118 119 104
0.50038 -4.61922 1.06035 119 121 117
1.84977 -1.96992 -0.91462 73 73 96
1.86323 -1.95560 -0.91175 71 72 85
1.85567 -1.96013 -0.92273 67 73 89
1.84812 -1.96465 -0.93370 66 72 93
1.84411 -1.97984 -0.90670 82 84 108
1.83064 -1.99416 -0.90956 88 93 120
1.90766 -2.22236 -0.88945 85 93 122
1.92886 -2.24765 -0.90038 40 37 67
1.91457 -2.26284 -0.90342 40 44 49
1.74783 -2.49147 -0.66893 100 94 84
1.74365 -2.53215 -0.65306 77 89 87
1.74190 -2.52657 -0.67324 108 111 101
1.73450 -2.55516 -0.63815 80 83 94
1.72729 -2.56488 -0.62894 115 118 117
1.71304 -2.58004 -0.63197 118 115 112
1.72184 -2.59054 -0.61647 109 111 122
1.70755 -2.60573 -0.61951 126 125 138
1.70520 -2.59365 -0.60099 128 132 156
1.68775 -2.59608 -0.58500 160 164 179
1.16792 -3.48434 0.13609 149 154 153
1.15369 -3.49948 0.13306 156 156 156
1.14846 -3.51452 0.16216 159 163 163
1.14672 -3.50894 0.14200 161 164 156
1.13423 -3.52965 0.15913 165 172 183
1.14012 -3.52227 0.17178 175 182 184
1.13389 -3.53261 0.18034 179 186 173
1.07243 -3.58182 0.24883 156 164 153
1.07071 -3.57629 0.22883 167 180 163
1.06663 -3.59261 0.25714 146 144 149
1.06029 -3.60268 0.26571 142 151 147
1.05410 -3.61295 0.27421 157 174 157
1.04618 -3.61769 0.26270 162 166 153
1.04487 -3.61917 0.28414 149 161 150
1.05278 -3.61443 0.29562 157 162 143
1.04659 -3.62469 0.30411 147 150 141
1.03077 -3.63416 0.28114 139 133 129
0.97381 -3.74678 0.38457 150 166 126
0.98792 -3.73177 0.38758 144 150 144
0.98000 -3.73651 0.37607 143 146 146
0.98173 -3.74204 0.39608 141 154 130
0.96589 -3.75152 0.37307 164 177 156
0.97553 -3.75231 0.40457 141 148 130
0.96789 -3.75745 0.39295 150 160 121
0.96961 -3.76298 0.41295 139 141 146
0.96169 -3.76772 0.40145 145 151 140
0.93974 -3.79357 0.42840 149 154 150
0.93802 -3.78805 0.40842 138 140 131
0.93183 -3.79830 0.41691 136 133 129
0.92565 -3.80856 0.42540 139 140 136
0.93264 -3.80247 0.43727 140 141 143
0.91855 -3.81745 0.43428 145 149 139
0.83048 -3.98160 0.58036 147 145 142
0.82256 -3.98634 0.56887 144 144 136
0.81637 -3.99661 0.57736 141 142 138
0.82462 -3.99241 0.58873 145 144 143
0.81842 -4.00268 0.59723 160 164 149
0.81279 -4.01389 0.60552 155 158 147
0.81452 -4.01942 0.62552 140 145 137
0.80660 -4.02416 0.61402 140 145 135
0.50795 -4.58714 1.04410 121 119 119
0.50621 -4.58155 1.02391 118 112 108
0.49370 -4.60229 1.04107 133 135 128
1.83076 -1.96901 -0.91715 78 79 103
1.81735 -1.98328 -0.92001 90 96 127
1.82838 -1.98045 -0.91165 87 90 114
1.81495 -1.99473 -0.91451 88 95 122
1.90022 -2.21372 -0.90541 93 104 114
1.91436 -2.19868 -0.90240 97 101 124
1.90642 -2.20343 -0.91393 99 103 121
1.90732 -2.23126 -0.90644 59 63 85
1.89312 -2.24636 -0.90946 38 43 43
1.91711 -2.25040 -0.90935 39 33 46
1.90284 -2.26557 -0.91239 43 48 55
1.70871 -2.43300 -0.67189 97 93 92
1.72265 -2.41818 -0.66892 95 95 89
1.71483 -2.42286 -0.68028 95 96 94
1.70700 -2.42754 -0.69164 90 91 100
1.71653 -2.42832 -0.66053 95 95 85
1.72471 -2.45759 -0.67864 71 68 79
1.71067 -2.47252 -0.68163 74 75 76
1.71917 -2.46822 -0.67061 79 83 75
1.72560 -2.48678 -0.67075 88 88 80
1.72718 -2.50222 -0.66754 97 99 94
1.72389 -2.52897 -0.65669 67 74 78
1.71787 -2.53943 -0.64829 43 43 57
1.72161 -2.55659 -0.64647 87 94 101
1.71371 -2.56581 -0.63679 119 125 119
1.70804 -2.59128 -0.62423 124 121 121
1.70004 -2.59607 -0.63585 140 140 136
1.69379 -2.60645 -0.62727 141 143 146
1.65721 -2.58480 -0.58149 156 155 166
1.64932 -2.58953 -0.59296 156 152 150
1.65229 -2.59594 -0.57385 159 157 155
1.64659 -2.60653 -0.56569 140 136 139
1.64041 -2.61677 -0.55721 135 137 142
1.63251 -2.62150 -0.56869 137 136 138
1.37852 -3.06109 -0.19491 169 173 167
1.38471 -3.05083 -0.20340 167 169 164
1.38643 -3.05635 -0.18341 164 166 168
1.38024 -3.06661 -0.17492 166 173 180
1.37233 -3.07135 -0.18642 168 175 177
1.14489 -3.45291 0.12694 171 178 176
1.14317 -3.44738 0.10694 166 174 175
1.13616 -3.46008 0.13674 169 181 176
1.12207 -3.47508 0.13374 148 155 161
1.13205 -3.50882 0.15485 159 166 164
1.12410 -3.51358 0.14330 174 184 183
1.11661 -3.52569 0.17344 161 168 177
1.11834 -3.53124 0.19351 173 175 167
1.10705 -3.53176 0.18365 155 161 164
1.10878 -3.53730 0.20369 171 171 175
1.09589 -3.53575 0.19464 159 168 173
1.09762 -3.54128 0.21464 169 171 175
1.08970 -3.54602 0.20314 176 183 182
1.06101 -3.58196 0.23904 157 169 148
1.05929 -3.57644 0.21908 168 171 157
1.05310 -3.58670 0.22756 167 170 149
1.04692 -3.59695 0.23604 164 168 142
1.05656 -3.59451 0.24668 153 156 135
1.04246 -3.60950 0.24368 160 165 144
1.05037 -3.60477 0.25517 155 156 135
1.03627 -3.61977 0.25217 150 157 150
1.03611 -3.62276 0.27306 152 151 142
1.02820 -3.62749 0.26157 143 146 148
1.02238 -3.64141 0.29067 141 146 147
1.02410 -3.64693 0.31063 139 137 130
1.00830 -3.65639 0.28767 153 164 160
0.99507 -3.69766 0.33141 160 159 162
1.00126 -3.68740 0.32291 167 170 169
1.00298 -3.69293 0.34290 161 159 148
0.99679 -3.70319 0.35139 153 151 139
0.98888 -3.70793 0.33990 150 149 148
0.98096 -3.71266 0.32840 146 151 161
0.95141 -3.74978 0.38528 157 169 149
0.93735 -3.76474 0.38228 136 138 143
0.94577 -3.76079 0.39351 148 153 141
0.94749 -3.76630 0.41344 136 133 135
0.93959 -3.77103 0.40198 139 141 127
0.93170 -3.77575 0.39051 133 131 123
0.87823 -3.81493 0.46896 144 143 144
0.89218 -3.80009 0.47193 151 152 149
0.88435 -3.80477 0.46056 145 150 144
0.87652 -3.80946 0.44919 137 142 143
0.88606 -3.81024 0.48033 155 158 146
0.87211 -3.82508 0.47736 152 160 156
0.80975 -4.00617 0.58602 156 166 147
0.80803 -4.00064 0.56603 143 146 133
0.80360 -4.01649 0.59450 159 162 142
0.78949 -4.03149 0.59149 138 136 128
0.79943 -4.03017 0.60223 140 146 129
0.80116 -4.03570 0.62224 140 150 135
0.79324 -4.04045 0.61073 136 146 135
0.78531 -4.04519 0.59922 135 140 134
1.81115 -1.95525 -0.92278 75 79 103
1.82449 -1.94106 -0.91994 71 73 91
1.81700 -1.94554 -0.93082 72 72 90
1.81149 -1.96791 -0.91935 86 93 117
1.79812 -1.98212 -0.92220 92 100 131
1.88842 -2.20275 -0.91815 102 107 125
1.90252 -2.18776 -0.91515 98 105 126
1.89461 -2.19250 -0.92664 100 108 131
1.88670 -2.19723 -0.93813 104 112 139
1.90058 -2.22298 -0.92294 69 87 103
1.88641 -2.23806 -0.92596 33 38 41
1.91506 -2.24464 -0.92935 35 38 53
1.67401 -2.42018 -0.66466 97 97 98
1.67233 -2.41477 -0.68424 92 99 103
1.69976 -2.45111 -0.67830 66 60 76
1.69581 -2.47695 -0.66720 82 80 80
1.68181 -2.49185 -0.67018 101 95 91
1.70057 -2.49445 -0.66625 96 97 93
1.69919 -2.50792 -0.66107 102 105 96
1.68512 -2.52289 -0.66407 57 40 52
1.71375 -2.53225 -0.66676 55 52 69
1.70939 -2.54384 -0.65949 59 59 72
1.70279 -2.55390 -0.65070 100 104 103
1.68861 -2.56898 -0.65372 127 119 111
1.69598 -2.56382 -0.64176 122 122 112
1.69777 -2.57973 -0.63865 125 122 112
1.62547 -2.58706 -0.57261 167 169 160
1.62376 -2.58158 -0.59244 151 153 153
1.61762 -2.59176 -0.58402 177 184 174
1.36959 -3.04864 -0.21057 170 178 179
1.38365 -3.03368 -0.20757 165 169 172
1.37576 -3.03841 -0.21903 168 178 188
1.36787 -3.04313 -0.23050 167 180 177
1.35552 -3.06360 -0.21356 187 196 193
1.36496 -3.06037 -0.20302 186 188 181
1.35089 -3.07534 -0.20602 186 198 195
1.35850 -3.07033 -0.19438 186 186 185
1.36022 -3.07585 -0.17444 171 177 177
1.35233 -3.08057 -0.18591 180 186 179
1.20306 -3.32509 0.01801 172 178 168
1.21712 -3.31014 0.02100 165 160 161
1.20134 -3.31959 -0.00193 182 189 180
1.21095 -3.32037 0.02947 155 149 148
1.20478 -3.33060 0.03794 162 162 160
1.18899 -3.34005 0.01501 168 171 157
1.19717 -3.33566 0.02632 163 171 168
1.19889 -3.34117 0.04625 163 165 173
1.19100 -3.34589 0.03479 150 148 157
1.11386 -3.42946 0.12756 165 172 177
1.09989 -3.44432 0.12458 163 164 165
1.11283 -3.44589 0.13331 164 174 167
1.09882 -3.46078 0.13033 153 159 163
1.11734 -3.48715 0.14147 162 173 165
1.11238 -3.51700 0.15465 179 182 173
1.09899 -3.51821 0.16684 144 147 162
1.09017 -3.52513 0.17667 146 150 156
1.07608 -3.54012 0.17367 159 158 150
1.08204 -3.53289 0.18614 158 158 158
1.06796 -3.54787 0.18315 151 162 150
1.07060 -3.53637 0.19727 161 166 160
1.07232 -3.54187 0.21718 175 183 169
1.01983 -3.63478 0.27112 146 146 151
1.01811 -3.62926 0.25117 153 161 151
1.01193 -3.63950 0.25964 156 163 153
1.00576 -3.64975 0.26812 154 160 157
1.01436 -3.64598 0.27925 152 161 165
1.00028 -3.66095 0.27626 153 157 152
0.99125 -3.68922 0.31241 156 164 164
0.99744 -3.67896 0.30392 153 161 160
0.98953 -3.68370 0.29244 157 160 145
0.98335 -3.69395 0.30092 150 156 149
0.97716 -3.70421 0.30941 144 146 148
0.94204 -3.73319 0.36884 150 160 148
0.94819 -3.72299 0.36040 147 161 161
0.94032 -3.72770 0.34898 152 165 160
0.93417 -3.73790 0.35742 152 152 142
0.92802 -3.74810 0.36586 139 146 146
