ply
format ascii 1.0
element face 0
property list uchar int vertex_indices
element vertex 1309
property float x
property float y
property float z
property uchar diffuse_red
property uchar diffuse_green
property uchar diffuse_blue
end_header
0.96383 -2.91380 1.81725 133 124 117
0.95895 -2.92023 1.83701 140 126 118
0.95370 -2.92326 1.82316 137 127 119
1.05575 -3.21544 1.90193 123 122 111
1.07218 -3.20209 1.91041 139 129 117
1.06657 -3.20533 1.89561 137 130 109
1.06136 -3.21220 1.91673 138 126 117
1.05054 -3.22231 1.92304 138 125 114
1.04484 -3.22546 1.90823 119 116 113
1.03962 -3.23233 1.92935 138 125 116
1.03583 -3.23736 1.91473 130 122 116
1.03062 -3.24423 1.93586 139 126 118
1.02501 -3.24747 1.92105 138 124 114
0.22724 -4.23425 2.47284 100 96 92
0.23267 -4.22710 2.45087 132 143 148
0.25446 -4.31254 2.49398 28 15 14
0.23709 -4.32666 2.48501 26 28 22
0.23158 -4.33393 2.50733 15 17 27
0.19549 -4.30024 2.50434 87 89 76
0.18012 -4.30348 2.50934 101 89 69
0.16454 -4.30622 2.51421 93 71 65
0.14466 -4.30093 2.51729 85 67 59
0.08725 -4.22575 2.50482 45 26 17
0.07097 -4.22620 2.50905 22 10 10
3.15833 -1.92220 0.89509 207 215 227
3.16413 -1.91457 0.87162 214 217 230
3.13071 -1.92809 0.90415 182 191 207
3.11251 -1.94289 0.89476 166 176 191
3.10929 -1.93603 0.91238 169 173 189
3.09113 -1.95080 0.90300 171 180 201
3.06829 -1.95240 0.92854 181 192 214
3.03728 -1.95678 0.93793 193 214 226
3.01957 -1.96580 0.94560 147 157 178
3.00298 -1.97519 0.95312 104 105 127
2.98950 -1.98568 0.96025 94 101 117
2.97550 -1.99597 0.96743 90 99 121
2.93790 -2.02842 0.98842 114 123 127
2.94560 -2.04688 0.99302 88 97 103
2.71577 -2.05058 1.05243 109 114 127
2.72132 -2.04327 1.02996 102 108 120
2.70980 -2.05403 1.03668 106 107 124
2.65076 -2.05515 1.07048 124 135 138
2.63343 -2.06923 1.06153 104 111 118
2.62721 -2.07618 1.08388 112 118 121
2.63088 -2.09308 1.08894 102 104 111
2.61350 -2.10720 1.07996 91 94 108
2.62025 -2.10411 1.09553 96 96 119
2.65744 -2.13523 1.09715 119 129 131
2.72023 -2.17750 1.09624 135 140 146
2.71365 -2.19069 1.10257 138 140 143
2.73806 -2.23342 1.11154 33 21 74
2.81092 -2.28150 1.11014 102 119 135
2.89413 -2.33471 1.10794 143 152 165
2.89442 -2.35180 1.11393 151 156 172
2.87567 -2.36705 1.10424 153 161 169
2.91489 -2.41251 1.13024 161 167 183
2.92091 -2.40458 1.10587 157 162 174
2.90841 -2.41625 1.11316 159 163 179
2.93483 -2.43900 1.13458 169 178 188
2.94064 -2.45921 1.14027 180 188 204
2.95370 -2.48292 1.14536 191 199 213
2.94740 -2.49775 1.15221 203 210 219
2.95251 -2.51800 1.15809 212 220 229
2.93732 -2.52875 1.16573 220 228 238
1.58312 -2.37493 1.45362 84 68 56
1.58804 -2.36846 1.43372 181 182 168
1.58181 -2.38989 1.45925 42 35 35
1.55968 -2.40797 1.47125 30 20 21
1.54043 -2.41189 1.47750 26 14 13
1.53552 -2.41836 1.49740 17 18 15
1.53189 -2.42245 1.48340 26 14 12
1.52697 -2.42893 1.50331 19 18 20
1.52169 -2.43198 1.48936 33 18 18
1.47756 -2.48415 1.51898 111 83 47
1.49308 -2.47153 1.52699 29 16 14
1.48249 -2.47766 1.49904 177 155 98
1.48286 -2.48108 1.53296 33 16 13
1.47264 -2.49063 1.53892 39 23 10
1.46461 -2.49190 1.52500 126 104 63
1.45969 -2.49838 1.54493 52 36 7
1.46014 -2.50525 1.53086 140 125 67
1.45681 -2.51941 1.53672 158 138 76
1.44125 -2.53206 1.52868 175 159 124
1.45056 -2.53168 1.54264 173 148 93
1.43499 -2.54435 1.53460 169 151 127
1.42658 -2.53198 1.54881 179 156 107
1.40328 -2.53260 1.55492 182 163 119
1.38781 -2.54517 1.54694 162 147 126
1.38436 -2.53612 1.56095 182 166 120
1.36894 -2.54866 1.55298 158 141 124
1.36598 -2.53993 1.56694 179 163 125
1.33097 -2.56508 1.58470 166 147 138
1.30420 -2.56271 1.59063 198 179 168
1.29339 -2.57159 1.59650 219 205 188
1.28422 -2.58165 1.60238 216 212 195
1.27156 -2.58918 1.60825 217 214 202
1.25690 -2.59523 1.61410 228 230 210
1.24388 -2.60243 1.61994 239 238 227
1.22863 -2.61483 1.61207 248 251 251
1.22819 -2.60764 1.62575 245 244 236
1.21297 -2.62001 1.61789 252 252 253
1.03506 -2.83724 1.75588 247 252 251
1.05042 -2.82476 1.76380 244 247 247
1.04518 -2.82779 1.74997 249 251 252
1.03994 -2.83082 1.73614 227 230 245
1.02342 -2.84537 1.76170 243 251 251
1.01899 -2.85975 1.76791 239 249 240
0.99107 -2.85363 1.77280 202 199 179
0.98675 -2.86810 1.77902 135 111 95
0.97143 -2.88055 1.77111 93 77 67
0.97619 -2.87711 1.78488 100 76 73
0.96808 -2.88830 1.79089 104 96 96
0.96732 -2.90612 1.79739 115 108 103
0.96415 -2.92187 1.80377 125 116 110
0.96984 -2.94579 1.81080 132 124 112
0.96493 -2.95226 1.83070 139 128 118
0.95964 -2.95532 1.81675 138 126 117
1.05880 -3.20648 1.88062 134 124 100
1.07522 -3.19314 1.88910 140 128 107
1.06961 -3.19638 1.87431 139 125 114
1.06401 -3.19962 1.85952 135 124 114
1.04149 -3.21026 1.88633 75 73 71
1.03085 -3.22049 1.89265 56 57 80
1.03117 -3.24154 1.90002 108 111 115
1.02193 -3.25324 1.90650 132 123 108
1.01671 -3.26011 1.92764 138 124 115
1.01110 -3.26336 1.91282 136 124 108
1.00548 -3.26661 1.89800 134 123 109
0.24384 -4.27698 2.46571 87 85 85
0.24932 -4.26977 2.44353 136 144 142
0.25128 -4.32082 2.47935 26 16 11
0.22836 -4.34222 2.49272 22 20 26
0.19606 -4.31526 2.49134 97 105 83
0.17642 -4.31079 2.49472 107 94 76
0.16261 -4.31678 2.50034 103 89 82
0.13975 -4.30598 2.50229 123 112 84
0.11056 -4.28308 2.50156 84 71 48
0.06285 -4.22493 2.49303 51 31 20
0.04669 -4.22537 2.49727 42 20 15
0.04142 -4.23231 2.51863 13 9 9
0.03575 -4.23559 2.50366 41 23 16
-0.44001 -3.72272 2.44233 157 152 149
-0.43556 -3.71686 2.42432 146 131 117
-0.43523 -3.71995 2.45496 163 156 157
-0.44479 -3.72548 2.42970 152 138 129
-0.44446 -3.72858 2.46035 166 156 150
-0.44924 -3.73134 2.44772 163 158 153
3.14544 -1.92353 0.87955 199 206 227
3.11033 -1.92682 0.88967 170 181 208
3.09218 -1.94157 0.88030 162 174 190
3.04755 -1.95084 0.91415 187 200 225
3.03576 -1.96199 0.92108 177 194 219
3.01310 -1.96924 0.92941 125 129 156
3.00251 -1.98080 0.93618 102 99 115
2.98929 -1.99139 0.94328 115 112 131
2.98845 -2.00654 0.94881 127 132 142
2.97039 -2.02121 0.93949 118 110 127
2.96533 -2.01349 0.95716 125 115 134
2.94731 -2.02814 0.94786 132 153 163
2.96296 -2.04372 0.96838 114 121 130
2.94487 -2.05843 0.95904 76 81 107
2.97299 -2.06319 0.97265 85 94 108
2.95482 -2.07796 0.96327 90 101 111
2.72241 -2.18454 1.07930 131 141 161
2.71735 -2.19840 1.08546 153 151 156
2.73191 -2.23698 1.09529 41 20 82
2.77494 -2.27212 1.09664 82 90 103
2.88034 -2.33513 1.09184 138 146 162
2.86166 -2.35031 1.08220 148 154 164
2.87925 -2.35161 1.09791 150 151 168
2.86053 -2.36682 1.08824 152 159 164
2.93362 -2.44520 1.11689 163 168 185
2.93968 -2.43721 1.09233 156 162 173
2.93609 -2.46391 1.12283 172 180 196
2.94171 -2.48420 1.12852 183 193 209
2.93796 -2.50022 1.13510 196 205 218
2.93378 -2.51609 1.14175 209 218 222
2.93923 -2.53662 1.14756 218 225 236
2.93079 -2.55061 1.15463 232 236 240
2.92464 -2.55872 1.17955 243 245 246
2.93713 -2.57177 1.16044 240 243 246
2.93095 -2.57991 1.18546 245 248 250
2.92431 -2.58375 1.16793 243 246 249
1.60633 -2.39532 1.43848 93 83 79
1.60100 -2.39840 1.42442 104 102 125
1.58428 -2.39772 1.44495 39 32 42
1.57020 -2.40493 1.45108 53 41 29
1.57705 -2.44115 1.46205 90 62 37
1.56140 -2.45387 1.45397 185 167 120
1.53854 -2.44908 1.47468 115 89 56
1.53360 -2.45559 1.49470 42 30 24
1.52296 -2.46175 1.46663 191 173 137
1.51986 -2.45329 1.48093 130 114 78
1.50431 -2.46593 1.47290 186 171 136
1.47719 -2.49044 1.50488 182 162 113
1.48212 -2.48395 1.48491 173 155 126
1.46828 -2.50088 1.51082 183 165 129
1.46174 -2.51290 1.51672 181 167 127
1.45304 -2.52352 1.52267 179 166 124
1.39775 -2.53548 1.54100 166 149 129
1.40265 -2.52902 1.52113 155 136 124
1.39247 -2.53853 1.52707 155 138 124
1.38229 -2.54805 1.53301 155 139 123
1.33831 -2.54386 1.55912 156 138 120
1.34318 -2.53745 1.53942 155 139 121
1.33308 -2.54688 1.54531 155 138 119
1.33043 -2.55485 1.56500 149 132 114
1.32311 -2.56626 1.57088 159 147 142
1.29473 -2.56269 1.57687 217 211 206
1.27958 -2.56844 1.58276 241 237 232
1.27076 -2.57871 1.58862 229 228 223
1.25957 -2.58727 1.59449 223 223 225
1.24390 -2.59253 1.60034 227 232 231
1.03923 -2.72372 1.69871 252 253 254
1.05429 -2.71148 1.70649 252 252 252
1.04915 -2.71446 1.69292 251 253 253
1.04437 -2.72075 1.71228 251 252 252
1.03445 -2.73002 1.71807 251 253 253
1.03328 -2.73627 1.70464 250 254 254
1.02849 -2.74258 1.72402 251 252 252
1.02334 -2.74555 1.71044 247 253 254
1.01932 -2.83123 1.74156 218 220 243
1.02418 -2.82483 1.72189 160 172 197
1.00118 -2.83367 1.74704 204 209 228
0.98906 -2.84126 1.75281 193 196 203
0.98386 -2.85490 1.75893 165 159 157
0.97916 -2.86904 1.76510 119 102 91
0.96932 -2.89712 1.77747 96 90 85
0.96408 -2.90015 1.76364 95 88 81
0.97013 -2.91642 1.78404 107 99 92
0.97016 -2.93514 1.79061 117 108 98
0.95470 -2.94771 1.78263 118 109 104
0.98159 -2.96441 1.79797 126 117 103
0.99510 -2.99585 1.80556 133 122 109
0.99012 -3.00241 1.82573 140 127 113
0.98476 -3.00551 1.81159 137 125 112
1.05174 -3.20831 1.86571 133 121 103
1.05695 -3.20145 1.84462 135 122 109
1.03196 -3.20964 1.87123 83 68 72
1.01099 -3.20968 1.87660 46 31 65
1.01476 -3.23409 1.88421 90 87 76
1.01753 -3.25769 1.89180 124 117 106
0.62360 -4.05255 2.27161 106 101 98
0.64121 -4.03823 2.28071 112 100 83
0.63520 -4.04171 2.26484 112 100 85
0.62919 -4.04519 2.24897 111 100 88
0.62961 -4.04907 2.28748 105 101 93
0.61284 -4.06461 2.27860 100 108 118
0.60725 -4.07197 2.30124 93 107 120
0.60123 -4.07545 2.28537 97 112 127
0.59522 -4.07893 2.26950 104 118 134
0.26604 -4.32982 2.46035 69 67 75
0.27158 -4.32252 2.43791 133 143 141
0.26008 -4.33326 2.44462 49 56 66
0.24815 -4.32923 2.46471 27 19 11
0.23668 -4.33995 2.47141 27 27 22
0.22417 -4.34879 2.47771 34 37 34
0.18841 -4.31547 2.47514 105 118 95
0.17301 -4.31867 2.48020 108 99 88
0.15805 -4.32255 2.48539 106 101 85
0.14088 -4.33650 2.47652 124 120 97
0.13075 -4.30346 2.48566 122 117 92
0.11370 -4.31731 2.47685 125 114 95
0.10621 -4.28909 2.48688 129 112 81
0.08004 -4.27127 2.48731 115 92 66
0.03878 -4.22440 2.48139 104 78 56
0.00890 -4.19841 2.47989 104 86 60
0.00368 -4.20529 2.50104 42 24 13
-0.01405 -4.18522 2.48112 111 91 59
-0.01924 -4.19205 2.50214 49 31 26
-0.04117 -4.16357 2.48045 120 100 76
-0.04632 -4.17035 2.50131 54 52 45
-0.06842 -4.14118 2.47955 126 114 92
-0.07353 -4.14791 2.50024 79 67 40
-0.07902 -4.15109 2.48574 132 119 103
-0.08452 -4.15427 2.47123 134 125 120
-0.47252 -3.69411 2.42577 159 151 149
-0.46812 -3.68832 2.40795 148 130 122
-0.47692 -3.69990 2.44358 164 158 152
-0.48165 -3.70264 2.43110 166 157 150
3.16162 -1.91944 0.85466 209 215 226
3.17989 -1.90459 0.86409 211 216 228
3.17366 -1.90820 0.84764 211 215 226
3.16742 -1.91180 0.83118 210 215 222
3.13641 -1.92618 0.86352 190 197 216
3.11819 -1.94099 0.85411 167 173 190
3.10277 -1.92993 0.87351 167 175 197
3.06584 -1.94769 0.88923 173 185 204
3.05966 -1.95127 0.87293 180 197 214
3.04190 -1.95459 0.89781 194 210 226
3.03206 -1.96643 0.90448 159 170 196
3.01668 -1.97630 0.91189 102 110 134
2.99903 -1.98532 0.91959 100 99 104
2.99045 -1.99763 0.92609 145 134 139
2.99095 -2.01329 0.93142 144 153 159
2.97286 -2.02800 0.92208 116 103 123
2.65450 -2.13030 1.05904 84 90 101
2.63695 -2.14457 1.04998 76 78 92
2.62252 -2.13248 1.06806 65 82 101
2.65932 -2.16380 1.06947 106 114 125
2.78073 -2.26449 1.07320 65 65 86
2.76872 -2.27572 1.08021 61 67 90
2.86661 -2.33556 1.07578 132 147 146
2.93727 -2.45365 1.09867 158 161 175
2.94335 -2.44564 1.07406 155 161 176
2.93074 -2.45743 1.08142 154 157 179
2.94375 -2.47427 1.10419 165 171 190
2.94015 -2.49033 1.11071 174 181 195
2.94248 -2.50924 1.11669 186 196 201
2.93222 -2.52229 1.12389 202 210 215
2.92836 -2.53841 1.13050 213 217 223
2.94456 -2.56424 1.13532 225 231 237
2.95404 -2.58702 1.14081 234 237 242
2.96148 -2.60897 1.14653 240 243 246
2.95524 -2.61717 1.17176 247 248 250
2.94854 -2.62105 1.15408 243 246 248
2.94184 -2.62493 1.13639 239 243 245
2.59714 -2.98572 1.37183 188 190 184
2.61687 -2.96968 1.38202 197 203 201
2.61014 -2.97357 1.36425 191 196 198
2.57741 -3.00175 1.36164 120 123 150
1.60707 -2.41804 1.42969 66 61 78
1.60172 -2.42114 1.41557 106 96 111
1.59140 -2.43079 1.42160 159 153 131
1.58854 -2.42262 1.43607 117 106 67
1.56347 -2.42305 1.44269 160 140 79
1.54790 -2.43571 1.43465 184 171 136
1.47293 -2.49419 1.49085 166 147 130
1.46763 -2.49726 1.47685 148 129 119
1.45739 -2.50683 1.48283 149 131 122
1.46177 -2.50315 1.49685 159 144 133
1.44623 -2.51578 1.48883 153 134 122
1.45403 -2.51438 1.50276 158 143 127
1.43848 -2.52701 1.49473 155 136 121
1.44741 -2.52638 1.50865 158 141 123
1.43185 -2.53903 1.50062 156 138 120
1.32621 -2.55859 1.55117 152 135 116
1.33108 -2.55218 1.53144 157 141 122
1.32097 -2.56162 1.53734 155 138 118
1.31830 -2.56959 1.55704 161 150 142
1.28952 -2.56571 1.56312 209 208 207
1.27152 -2.56940 1.56905 242 244 245
1.25943 -2.57729 1.57492 238 236 235
1.24691 -2.58484 1.58078 232 232 233
1.23509 -2.59289 1.58664 222 223 228
1.22079 -2.59908 1.59249 220 222 228
1.20560 -2.61142 1.58464 217 219 221
1.20369 -2.60314 1.59832 228 235 237
1.19063 -2.61017 1.60413 239 244 247
1.18583 -2.61650 1.62359 253 254 254
1.17854 -2.61789 1.60995 248 252 252
1.17374 -2.62421 1.62939 253 254 254
1.16857 -2.62720 1.61576 252 254 254
1.07404 -2.67267 1.65601 252 254 254
1.08906 -2.66047 1.66376 253 253 253
1.08393 -2.66343 1.65024 253 254 254
1.07917 -2.66971 1.66953 253 254 254
1.06928 -2.67895 1.67531 250 252 253
1.06481 -2.68245 1.66180 245 253 254
1.06005 -2.68872 1.68110 252 253 252
1.05004 -2.70500 1.67347 238 251 254
1.04418 -2.71757 1.67936 233 245 252
1.03668 -2.72883 1.68522 230 232 246
1.03519 -2.74510 1.69127 220 224 238
1.02734 -2.75616 1.69715 211 214 230
1.02254 -2.76248 1.71659 243 252 254
1.02632 -2.77298 1.70327 198 198 221
1.02151 -2.77932 1.72276 236 250 252
1.02006 -2.78547 1.70924 180 186 209
1.01524 -2.79182 1.72875 230 240 247
1.00488 -2.79781 1.70140 157 166 175
1.00400 -2.82554 1.72734 157 169 196
1.00884 -2.81916 1.70774 156 166 172
0.99880 -2.82855 1.71360 157 165 174
0.98875 -2.83794 1.71947 157 165 175
0.99767 -2.83815 1.73337 155 165 189
0.98240 -2.85057 1.72549 158 167 172
0.98635 -2.84645 1.73918 158 166 178
0.97803 -2.85737 1.74514 149 150 147
0.98026 -2.87767 1.75163 118 107 96
0.97097 -2.88783 1.75757 95 82 73
0.95563 -2.90030 1.74965 95 87 81
0.97107 -2.92507 1.77052 101 94 86
0.96580 -2.92812 1.75661 99 90 84
0.97707 -2.94929 1.77740 109 101 94
1.01145 -3.01898 1.79280 127 116 110
1.00606 -3.02210 1.77857 119 109 101
1.03020 -3.05578 1.80078 132 119 114
1.02514 -3.06245 1.82128 138 126 112
1.01970 -3.06559 1.80691 135 123 113
1.04353 -3.20901 1.85072 136 121 101
1.04874 -3.20215 1.82965 135 122 109
1.02390 -3.21044 1.85629 99 84 81
1.01096 -3.21836 1.86239 40 23 54
1.00924 -3.23740 1.86946 70 71 71
1.01099 -3.26002 1.87689 109 102 101
1.00232 -3.27232 1.88341 128 120 104
0.99710 -3.27921 1.90457 138 124 110
0.99148 -3.28246 1.88974 135 125 113
0.61575 -4.05339 2.25530 107 104 107
0.62133 -4.04603 2.23268 111 99 90
0.60584 -4.06666 2.26248 104 114 124
0.58822 -4.08098 2.25339 111 124 139
0.24194 -4.33220 2.44893 23 21 20
0.23047 -4.34292 2.45563 24 22 33
0.21347 -4.34363 2.46027 53 57 54
0.18444 -4.32234 2.46034 112 121 107
0.16699 -4.32178 2.46465 110 98 105
0.14996 -4.32182 2.46906 114 110 101
0.13281 -4.33576 2.46021 128 124 102
0.07178 -4.26984 2.47114 130 116 92
0.07712 -4.26282 2.44954 125 119 102
0.06605 -4.27316 2.45600 128 119 102
0.05497 -4.28351 2.46246 135 123 105
0.03411 -4.22958 2.46684 135 120 96
0.01751 -4.24307 2.45826 137 122 102
0.00196 -4.19912 2.46453 136 119 91
-0.01448 -4.21248 2.45604 134 120 99
-0.03200 -4.16454 2.46125 133 118 92
-0.04826 -4.17776 2.45286 127 118 99
-0.05662 -4.14746 2.46166 128 116 95
-0.07613 -4.14000 2.46410 128 113 102
-0.12028 -4.17601 2.48804 157 161 172
-0.12538 -4.18273 2.50869 129 121 121
-0.49109 -3.69506 2.41624 159 149 142
-0.49548 -3.70084 2.43400 167 158 148
-0.50020 -3.70357 2.42155 164 158 152
-0.50491 -3.70630 2.40910 159 150 146
3.16364 -1.92585 0.83702 201 208 220
3.12491 -1.92796 0.84785 177 185 204
3.10671 -1.94276 0.83845 161 172 188
3.07954 -1.94291 0.86485 166 176 193
3.03945 -1.95947 0.88103 185 208 223
3.03328 -1.96304 0.86475 171 189 210
3.02395 -1.96930 0.88847 137 147 171
3.00589 -1.98398 0.87915 100 92 104
3.01362 -1.98098 0.89520 93 97 120
3.00566 -1.99353 0.90161 101 111 119
3.00232 -2.00780 0.90741 165 172 156
2.99693 -2.02136 0.91351 151 154 159
2.97880 -2.03610 0.90414 125 113 128
2.67847 -2.13064 1.03433 83 87 97
2.68407 -2.12328 1.01169 77 85 97
2.67246 -2.13412 1.01846 77 83 91
2.66085 -2.14496 1.02523 77 79 87
2.65777 -2.13766 1.04216 79 85 93
2.64018 -2.15196 1.03308 72 78 88
2.61716 -2.15186 1.05766 71 82 109
2.73058 -2.21641 1.05037 136 149 176
2.71259 -2.23103 1.04108 165 176 178
2.76595 -2.26436 1.05771 79 78 102
2.76484 -2.28035 1.06352 66 81 115
2.84050 -2.33048 1.06111 126 133 149
2.85033 -2.35178 1.06590 147 153 165
2.83804 -2.36326 1.07307 151 158 161
2.83167 -2.36695 1.05627 150 154 161
2.96551 -2.49122 1.08403 159 163 184
2.97164 -2.48314 1.05919 153 157 174
2.95891 -2.49503 1.06662 155 156 174
2.95393 -2.50365 1.09134 163 175 184
2.94604 -2.51784 1.09830 180 187 198
2.93893 -2.53242 1.10520 191 198 213
2.93851 -2.55025 1.11146 205 213 215
2.94720 -2.57256 1.11691 216 223 231
2.96277 -2.59836 1.12176 229 233 239
2.96181 -2.61629 1.12820 236 238 243
2.94215 -2.63227 1.11805 236 238 244
2.61121 -2.92263 1.32549 173 177 194
2.63081 -2.90670 1.33561 235 238 239
2.62412 -2.91057 1.31796 232 238 238
2.61743 -2.91444 1.30030 222 220 223
2.61790 -2.91876 1.34315 205 211 219
2.60499 -2.93082 1.35069 193 200 208
2.59577 -2.93319 1.33317 157 169 187
2.58955 -2.94138 1.35835 192 198 201
2.57618 -2.94912 1.32305 140 154 174
2.61113 -2.96217 1.33917 175 185 196
2.59807 -2.97425 1.34675 184 190 197
2.58846 -2.98843 1.35416 187 191 189
2.56874 -3.00446 1.34397 149 156 148
1.30726 -2.56850 1.54330 156 144 132
1.31212 -2.56209 1.52359 157 139 120
1.27660 -2.56321 1.54946 189 189 188
1.26160 -2.56900 1.55538 240 249 251
1.24688 -2.57495 1.56128 252 251 249
1.23168 -2.58730 1.55343 253 254 253
1.23459 -2.58263 1.56713 250 249 247
1.22010 -2.58867 1.57300 240 239 239
1.20364 -2.59321 1.57886 224 227 226
1.17196 -2.60301 1.59051 219 225 231
1.16101 -2.61152 1.59631 233 240 239
1.14831 -2.61869 1.60210 245 251 253
1.14353 -2.62499 1.62146 253 254 254
1.13441 -2.62491 1.60787 248 253 254
1.12963 -2.63119 1.62721 254 254 254
1.11858 -2.62959 1.61362 247 253 254
1.11381 -2.63587 1.63292 254 254 254
1.10593 -2.63669 1.61937 244 253 254
1.10117 -2.64297 1.63866 253 254 254
1.09438 -2.64462 1.62513 238 252 254
1.08962 -2.65089 1.64440 253 254 254
1.08464 -2.65396 1.63089 234 246 251
1.07554 -2.66380 1.63667 232 235 248
1.06957 -2.67616 1.64249 225 228 243
1.06422 -2.68905 1.64834 207 216 229
1.05433 -2.69832 1.65412 195 202 219
1.04563 -2.70856 1.65993 184 189 211
1.03812 -2.71979 1.66577 173 186 204
1.03154 -2.73181 1.67164 166 178 200
1.01646 -2.74406 1.66386 155 165 176
1.02421 -2.74325 1.67750 162 171 196
1.00913 -2.75551 1.66971 156 166 178
1.01970 -2.75708 1.68346 159 169 193
1.00459 -2.76936 1.67565 158 167 179
1.01610 -2.77172 1.68946 158 167 189
1.00095 -2.78403 1.68164 159 168 179
1.01580 -2.78925 1.69559 158 165 182
1.00062 -2.80160 1.68775 159 168 177
0.97639 -2.86355 1.73154 152 157 151
0.98125 -2.85715 1.71188 159 169 171
0.97944 -2.88462 1.73802 122 115 104
0.97201 -2.89647 1.74405 96 85 76
0.95665 -2.90897 1.73612 95 87 75
0.98450 -2.96398 1.76412 105 95 91
0.98945 -2.95746 1.74409 98 89 82
0.97918 -2.96705 1.75008 101 91 87
1.00980 -3.00625 1.77212 111 101 98
1.05062 -3.10284 1.79484 129 119 105
1.04550 -3.10958 1.81558 137 126 109
1.03999 -3.11277 1.80105 132 124 104
1.04105 -3.21528 1.83619 135 122 100
1.04625 -3.20842 1.81509 136 124 114
1.02300 -3.21827 1.84193 110 94 79
1.01040 -3.22655 1.84807 33 18 31
1.00623 -3.24320 1.85492 72 72 68
1.00178 -3.25966 1.86176 102 92 95
0.99767 -3.27655 1.86867 121 114 99
0.98665 -3.28651 1.87498 132 124 108
0.98143 -3.29339 1.89615 138 126 117
0.97581 -3.29665 1.88132 136 126 114
0.97019 -3.29990 1.86648 135 126 107
0.60713 -4.05311 2.23883 110 107 112
0.59718 -4.06631 2.24598 109 123 130
0.57959 -4.08061 2.23690 120 136 152
0.23440 -4.33278 2.43268 19 25 36
0.23992 -4.32550 2.41032 26 22 29
0.22846 -4.33621 2.41700 23 29 32
0.21700 -4.34692 2.42369 12 16 31
0.22293 -4.34348 2.43937 13 18 40
0.20309 -4.33901 2.44300 68 75 63
0.18117 -4.33050 2.44578 118 121 119
0.16507 -4.33244 2.45064 123 105 117
0.14785 -4.34644 2.44175 132 125 113
0.14684 -4.33027 2.45465 126 119 109
0.12967 -4.34423 2.44579 131 126 106
-0.08728 -4.13204 2.44724 128 114 105
-0.08219 -4.12533 2.42663 133 119 98
-0.10805 -4.15250 2.45973 146 154 166
-0.11799 -4.16362 2.46616 155 164 178
-0.13612 -4.18954 2.47985 168 172 175
-0.14122 -4.19626 2.50050 95 75 72
-0.14670 -4.19943 2.48602 134 109 102
3.18737 -1.92426 0.81086 208 214 222
3.20573 -1.90934 0.82034 209 214 224
3.19946 -1.91297 0.80380 208 213 223
3.19320 -1.91659 0.78727 209 213 220
3.16782 -1.93302 0.81901 191 200 213
3.11693 -1.93095 0.83171 164 174 193
3.07489 -1.94702 0.84830 169 182 201
3.05074 -1.95387 0.85701 191 207 225
3.03265 -1.96858 0.84767 150 160 185
3.03466 -1.97892 0.86983 114 123 146
3.00581 -1.99940 0.88445 128 129 129
2.98770 -2.01412 0.87511 183 202 198
3.00677 -2.01529 0.88964 178 196 182
2.99616 -2.02695 0.89643 156 160 160
2.97801 -2.04170 0.88706 135 121 130
2.60750 -2.15375 1.04230 60 71 98
2.61306 -2.14643 1.01980 69 74 84
2.60153 -2.15720 1.02653 66 67 83
2.67034 -2.19662 1.04043 109 113 134
2.71531 -2.24848 1.04635 97 106 131
2.73115 -2.27183 1.05017 93 104 103
2.73321 -2.28922 1.05559 109 103 119
2.84314 -2.35509 1.04918 143 153 165
2.82448 -2.37026 1.03955 151 154 162
2.96731 -2.51684 1.07188 157 164 178
2.97347 -2.50873 1.04693 153 157 171
2.94541 -2.52448 1.08026 172 181 199
2.94538 -2.54247 1.08643 183 189 200
2.94325 -2.55954 1.09284 197 203 213
2.95396 -2.58290 1.09802 210 217 226
2.96165 -2.60495 1.10355 220 226 235
2.95972 -2.62243 1.11005 230 235 242
2.54604 -2.89188 1.31139 138 127 145
2.53628 -2.90558 1.31865 109 115 135
2.58091 -2.97183 1.32959 166 177 193
2.57557 -2.98857 1.33673 178 188 187
2.55587 -3.00458 1.32656 163 170 158
1.29928 -2.56957 1.52954 154 138 123
1.30414 -2.56316 1.50985 158 140 121
1.27059 -2.56563 1.53575 177 175 173
1.25346 -2.56988 1.54172 234 243 246
1.23663 -2.57426 1.54766 252 254 254
1.20852 -2.58694 1.55941 249 252 250
1.19432 -2.59310 1.56527 239 246 242
1.17740 -2.59720 1.57113 227 233 229
1.16461 -2.60433 1.57694 208 219 223
1.15328 -2.61254 1.58274 202 213 222
1.14321 -2.62169 1.58853 208 219 241
1.13224 -2.63016 1.59432 213 221 240
1.12597 -2.64225 1.60012 212 215 236
1.11824 -2.65324 1.60592 200 205 227
1.11462 -2.66748 1.61175 183 194 219
1.10425 -2.67645 1.61756 173 188 209
1.08368 -2.69452 1.62917 164 180 203
1.06857 -2.70680 1.62137 149 160 174
1.07206 -2.70248 1.63496 159 176 191
1.05696 -2.71475 1.62716 151 162 172
1.05666 -2.70734 1.64068 157 170 184
1.04158 -2.71960 1.63290 149 159 169
1.04471 -2.71498 1.64645 154 165 181
1.02965 -2.72722 1.63867 152 161 170
1.03593 -2.72519 1.65226 154 165 174
1.02086 -2.73744 1.64448 152 161 170
1.02687 -2.73518 1.65807 154 165 176
1.01179 -2.74743 1.65029 155 166 172
0.97663 -2.87139 1.71798 154 160 154
0.98149 -2.86499 1.69829 157 168 177
0.98331 -2.89577 1.72457 124 119 104
0.97760 -2.90923 1.73068 97 86 69
0.96218 -2.92176 1.72272 93 87 78
1.02124 -3.02487 1.75880 105 97 92
1.02628 -3.01825 1.73843 99 91 84
1.01584 -3.02800 1.74453 101 94 87
1.00540 -3.03775 1.75062 105 97 88
1.03214 -3.05442 1.76605 112 104 94
1.05482 -3.11515 1.78088 120 113 99
1.06425 -3.14413 1.78833 114 114 106
1.05908 -3.15093 1.80925 135 127 105
1.06837 -3.16829 1.79552 123 121 104
1.06317 -3.17512 1.81654 135 126 105
1.05759 -3.17835 1.80181 129 120 105
1.04097 -3.22393 1.82180 136 122 100
1.04619 -3.21706 1.80067 135 124 110
1.02527 -3.22925 1.82776 120 104 82
1.00913 -3.23406 1.83366 33 17 26
1.00509 -3.25089 1.84049 79 80 58
1.00682 -3.27361 1.84782 108 95 95
0.99033 -3.28701 1.83931 122 109 98
0.99578 -3.28358 1.85415 119 108 95
0.97930 -3.29698 1.84563 126 115 100
0.98492 -3.29373 1.86048 129 120 99
0.96844 -3.30713 1.85197 133 123 107
0.61494 -4.04896 2.21674 112 100 91
0.63254 -4.03465 2.22582 113 99 83
0.62653 -4.03813 2.20997 113 98 83
0.62053 -4.04160 2.19411 114 98 78
0.60232 -4.05831 2.22327 113 114 116
0.58473 -4.07261 2.21418 132 152 165
0.58767 -4.06468 2.22931 116 132 142
0.57009 -4.07896 2.22024 135 155 169
0.19747 -4.34297 2.42749 82 91 74
0.20298 -4.33572 2.40520 14 17 29
0.18071 -4.34387 2.43221 126 125 120
0.16342 -4.35793 2.42328 136 126 120
0.16617 -4.34871 2.43770 131 121 118
0.14890 -4.36275 2.42878 135 125 115
-0.09967 -4.12154 2.42994 131 117 105
-0.11402 -4.12378 2.43448 136 128 133
-0.11948 -4.14371 2.44275 141 144 162
-0.13547 -4.15671 2.43449 145 148 158
-0.12838 -4.15687 2.44960 142 147 164
-0.14438 -4.16988 2.44134 142 145 152
-0.13536 -4.17398 2.45730 142 150 167
-0.14390 -4.18800 2.46436 149 154 166
-0.15531 -4.19613 2.47015 147 135 132
-0.16041 -4.20283 2.49077 51 25 28
-0.16588 -4.20600 2.47632 78 46 44
-0.54393 -3.66109 2.38927 158 149 144
-0.53961 -3.65541 2.37178 147 131 120
-0.53929 -3.65841 2.40152 165 160 144
-0.54825 -3.66678 2.40675 169 162 144
-0.56589 -3.64010 2.38786 168 160 152
-0.57018 -3.64574 2.40520 168 160 149
-0.57478 -3.64840 2.39305 168 161 159
3.18484 -1.92915 0.79376 201 210 221
3.19067 -1.92147 0.77015 207 213 219
3.17857 -1.93278 0.77721 194 204 218
3.15407 -1.93407 0.80362 180 192 207
3.13576 -1.94895 0.79417 165 170 183
3.11324 -1.93541 0.81495 165 172 185
3.09761 -1.94535 0.82248 164 170 186
3.07346 -1.95227 0.83127 178 186 207
3.04874 -1.95892 0.84011 192 211 226
3.03845 -1.98609 0.85208 101 104 130
3.02574 -1.99699 0.85916 104 100 118
3.00673 -2.00558 0.86714 157 150 160
2.99603 -2.03279 0.87923 154 161 157
2.98499 -2.06004 0.89143 123 134 152
2.97921 -2.06765 0.91485 92 96 121
2.97299 -2.07125 0.89843 69 83 122
2.96677 -2.07484 0.88202 75 65 116
2.67270 -2.14022 1.00181 77 80 92
2.68432 -2.12937 0.99503 82 86 97
2.66108 -2.15108 1.00860 75 76 86
2.60579 -2.17481 1.03138 71 69 100
2.67954 -2.22284 1.02806 150 167 163
2.67675 -2.23780 1.03388 132 140 151
2.71897 -2.27275 1.03452 120 103 93
2.73745 -2.29748 1.03800 84 72 109
2.82810 -2.35488 1.03336 136 151 165
2.97100 -2.52553 1.05329 156 160 176
2.97717 -2.51740 1.02830 152 157 169
2.96723 -2.54179 1.05982 163 171 187
2.95131 -2.55230 1.06763 177 185 186
2.93520 -2.56270 1.07545 188 199 206
2.93709 -2.58181 1.08144 204 211 221
2.95265 -2.60770 1.08610 214 220 228
2.94913 -2.62441 1.09271 226 230 232
2.94909 -2.64291 1.09901 235 237 242
2.94283 -2.65115 1.12434 243 244 246
2.93610 -2.65504 1.10658 242 243 246
2.56763 -2.85411 1.27231 248 249 252
2.58694 -2.83841 1.28229 252 253 252
2.58035 -2.84223 1.26489 252 254 254
2.57422 -2.85030 1.28971 252 252 251
2.56150 -2.86219 1.29714 252 252 251
2.55056 -2.86346 1.28003 246 248 245
2.55563 -2.88582 1.28628 196 196 204
2.51196 -2.87939 1.29572 132 120 123
2.49925 -2.91069 1.30974 101 113 131
2.47995 -2.92638 1.29977 97 112 130
2.55534 -2.98421 1.31978 159 173 184
1.29384 -2.57244 1.51575 154 136 121
1.29870 -2.56604 1.49606 160 141 120
1.27222 -2.57356 1.52188 169 162 158
1.24520 -2.57064 1.52809 220 226 227
1.22841 -2.57503 1.53405 235 240 251
1.21392 -2.58105 1.53995 232 232 248
1.19717 -2.58535 1.54587 227 226 246
1.17896 -2.58849 1.55178 217 219 237
1.16862 -2.59745 1.55758 207 208 217
1.16701 -2.61300 1.56329 178 183 192
1.15927 -2.62398 1.56908 144 155 168
1.15133 -2.63482 1.57488 139 151 177
1.14482 -2.64679 1.58068 148 161 190
1.13688 -2.65769 1.58650 155 165 191
1.12173 -2.67000 1.57867 150 158 170
1.12699 -2.66708 1.59232 156 162 187
1.11184 -2.67939 1.58450 153 161 168
1.11900 -2.67797 1.59815 152 161 182
1.10786 -2.68638 1.60397 151 162 173
1.09271 -2.69870 1.59615 154 164 173
1.09528 -2.69363 1.60978 150 161 174
1.08014 -2.70594 1.60196 158 166 171
1.08269 -2.70085 1.61559 151 162 175
1.06756 -2.71315 1.60778 156 166 174
0.98420 -2.88578 1.70463 155 164 162
0.98909 -2.87935 1.68486 157 169 178
0.98772 -2.90745 1.71106 127 124 110
0.99007 -2.92823 1.71749 96 89 75
0.97456 -2.94084 1.70948 92 88 81
1.05181 -3.10076 1.75967 109 100 86
1.05694 -3.09402 1.73893 100 93 85
1.05875 -3.12726 1.76682 101 93 85
1.06338 -3.15179 1.77392 63 68 88
1.05708 -3.16607 1.78045 83 89 87
1.06413 -3.19324 1.78781 118 114 102
1.05891 -3.20011 1.80891 131 121 114
1.05331 -3.20335 1.79412 128 119 109
1.03764 -3.22941 1.80715 134 123 104
1.04286 -3.22253 1.78600 134 123 113
1.03202 -3.23266 1.79233 134 124 105
1.02586 -3.23861 1.81340 129 111 86
1.00752 -3.24126 1.81919 36 17 19
1.00234 -3.25699 1.82591 82 80 50
1.00280 -3.27849 1.83309 116 109 99
0.60453 -4.04610 2.19990 114 103 91
0.61010 -4.03875 2.17732 112 97 81
0.58609 -4.04698 2.20511 122 130 132
0.56857 -4.06123 2.19606 141 165 182
0.19020 -4.34391 2.41139 96 105 89
0.19570 -4.33667 2.38912 24 26 37
0.18128 -4.35918 2.41895 132 128 118
0.16393 -4.37328 2.40999 139 128 124
-0.09719 -4.10976 2.40835 138 123 100
-0.08123 -4.09679 2.41659 137 123 99
-0.08667 -4.09994 2.40222 139 128 101
-0.09212 -4.10309 2.38784 141 127 110
-0.10264 -4.11292 2.39397 140 128 112
-0.11406 -4.10698 2.41190 135 116 109
-0.12657 -4.11272 2.41718 140 133 141
-0.13120 -4.13427 2.42573 145 147 159
-0.14714 -4.14722 2.41750 147 150 160
-0.15102 -4.18778 2.44919 141 143 156
-0.14593 -4.18107 2.42857 142 146 156
-0.15649 -4.19094 2.43474 140 141 156
-0.16706 -4.20081 2.44091 139 140 154
-0.16044 -4.20003 2.45586 142 139 148
-0.16825 -4.21568 2.46325 121 105 97
-0.17335 -4.22240 2.48391 28 11 22
-0.17883 -4.22557 2.46943 65 39 33
-0.57221 -3.63889 2.37485 159 150 150
-0.58855 -3.63013 2.37623 166 160 158
-0.59280 -3.63574 2.39346 168 159 155
-0.59738 -3.63839 2.38138 168 160 156
3.15115 -1.93883 0.78662 173 183 202
3.13283 -1.95372 0.77716 160 170 185
3.09485 -1.95014 0.80557 167 170 189
3.07665 -1.96494 0.79617 187 201 213
3.07141 -1.95731 0.81429 182 192 214
3.05139 -1.96563 0.82248 177 199 226
3.04407 -1.97845 0.82877 126 137 170
3.04530 -1.99438 0.83380 92 92 120
3.02710 -2.00918 0.82440 140 129 134
3.03053 -2.00457 0.84121 109 110 128
3.00525 -2.02647 0.85538 183 197 197
3.00353 -2.05722 0.86620 137 124 134
2.99299 -2.06903 0.87301 122 122 149
2.97472 -2.08388 0.86358 84 68 109
2.65076 -2.13700 0.98795 75 72 90
2.62973 -2.14382 0.99590 69 71 83
2.60045 -2.14705 1.00486 62 69 81
2.59278 -2.15946 1.01110 57 62 76
2.58685 -2.17266 1.01714 43 46 84
2.65302 -2.21744 1.01443 119 135 154
2.66785 -2.24011 1.01808 148 162 172
2.64994 -2.25467 1.00883 126 115 120
2.69673 -2.26920 1.02011 126 103 96
2.70482 -2.28926 1.02469 86 109 130
2.75548 -2.32866 1.02434 122 127 147
2.80887 -2.36974 1.02382 147 157 164
2.80296 -2.37752 1.04775 149 154 165
2.79660 -2.38119 1.03098 148 155 162
2.79025 -2.38487 1.01421 150 154 157
2.97615 -2.53493 1.03448 153 158 168
2.98234 -2.52679 1.00943 150 155 164
2.96950 -2.53878 1.01692 149 155 165
2.96631 -2.54836 1.04165 160 166 178
2.93900 -2.55343 1.05070 171 179 182
2.92515 -2.56490 1.05829 180 191 202
2.92305 -2.58208 1.06464 196 204 216
2.93143 -2.60446 1.06993 209 217 224
2.93640 -2.62532 1.07562 221 226 228
2.94109 -2.64617 1.08138 230 235 240
2.92870 -2.65860 1.08890 238 239 244
2.92244 -2.66684 1.11423 246 248 250
2.92201 -2.67390 1.09585 242 243 248
2.91575 -2.68215 1.12121 252 253 254
2.91406 -2.68862 1.10294 245 249 251
2.90779 -2.69687 1.12833 253 254 254
2.89431 -2.70467 1.09274 225 221 230
2.90081 -2.70065 1.11056 245 248 251
2.89454 -2.70890 1.13595 253 253 254
2.88106 -2.71670 1.10036 224 223 231
2.87007 -2.70366 1.11984 242 246 248
2.86382 -2.71189 1.14514 253 253 253
2.54357 -2.84775 1.25618 230 239 246
2.52923 -2.85862 1.26370 212 219 228
2.54002 -2.88432 1.26946 143 129 164
2.52068 -2.90004 1.25947 112 107 110
2.47702 -2.86630 1.28033 117 108 120
2.44022 -2.86356 1.28930 98 89 85
2.43105 -2.87730 1.29639 83 86 85
1.29259 -2.57832 1.50184 154 137 120
1.29745 -2.57191 1.48213 161 142 122
1.28735 -2.58134 1.48803 157 140 120
1.27964 -2.58570 1.50781 162 151 147
1.24242 -2.57539 1.51435 192 196 199
1.22906 -2.58229 1.52027 188 200 222
1.21740 -2.59042 1.52614 177 183 213
1.20004 -2.59429 1.53211 177 184 215
1.18490 -2.60660 1.52429 164 175 186
1.18526 -2.60001 1.53801 175 182 206
1.17014 -2.61230 1.53021 165 176 184
1.17585 -2.60973 1.54382 173 178 191
1.16457 -2.61804 1.54965 163 167 172
1.15664 -2.62889 1.55544 139 143 144
1.14803 -2.63924 1.56124 120 126 132
1.13850 -2.64888 1.56705 124 136 155
1.13224 -2.66109 1.57285 140 153 168
1.10609 -2.69208 1.59031 147 158 154
0.98738 -2.89632 1.69104 156 166 165
0.99228 -2.88988 1.67122 157 168 178
0.99236 -2.91938 1.69747 129 129 116
0.99308 -2.93879 1.70381 96 92 82
0.97753 -2.95143 1.69578 95 90 88
1.05445 -3.11160 1.74552 101 92 79
1.05958 -3.10483 1.72472 97 90 84
1.06309 -3.13980 1.75269 88 78 71
1.06583 -3.16263 1.75965 43 48 66
1.05310 -3.17082 1.76583 47 58 59
1.06091 -3.19879 1.77315 103 101 99
1.05665 -3.21527 1.77985 124 118 111
1.04018 -3.22866 1.77135 130 123 112
1.02416 -3.24573 1.79884 132 114 91
1.02939 -3.23885 1.77768 134 127 107
1.01778 -3.26032 1.80547 37 16 39
1.00059 -3.26411 1.81137 81 77 65
1.00043 -3.28504 1.81847 123 120 105
0.98869 -3.29432 1.82475 127 114 101
0.97781 -3.30448 1.83110 125 114 103
0.97218 -3.30774 1.81623 126 116 101
0.60128 -4.05353 2.18467 114 107 100
0.60686 -4.04617 2.16206 112 98 87
0.57176 -4.03831 2.18748 128 143 151
0.55428 -4.05252 2.17846 141 165 186
1.19560 -5.26071 2.43147 133 158 178
1.21798 -5.24251 2.44303 139 150 162
1.21034 -5.24693 2.42287 130 143 165
1.20270 -5.25135 2.40271 110 122 153
1.18849 -5.27006 2.46024 144 167 187
1.18085 -5.27448 2.44008 133 156 180
0.19283 -4.36298 2.39875 103 110 104
0.19835 -4.35571 2.37639 42 47 55
0.17544 -4.37712 2.38977 141 128 118
0.18077 -4.37257 2.40522 138 129 118
0.16338 -4.38670 2.39624 139 127 122
-0.13168 -4.08587 2.39267 140 119 117
-0.12667 -4.07926 2.37235 141 126 112
-0.14305 -4.09369 2.39837 145 139 152
-0.15886 -4.10654 2.39021 154 152 169
-0.14604 -4.11844 2.40750 150 150 164
-0.16190 -4.13133 2.39931 151 152 165
-0.17641 -4.21322 2.44760 140 137 140
-0.17132 -4.20651 2.42698 141 142 157
-0.18189 -4.21639 2.43315 137 140 153
-0.18488 -4.22754 2.45470 117 103 89
-0.18998 -4.23426 2.47535 23 12 25
-0.19547 -4.23743 2.46088 64 40 28
-0.57179 -3.65296 2.36521 152 135 125
-0.56750 -3.64731 2.34783 146 132 113
-0.57641 -3.65563 2.35303 149 131 118
-0.59325 -3.63249 2.36408 159 150 148
-0.60742 -3.62839 2.36651 164 161 165
-0.61166 -3.63398 2.38369 169 159 154
-0.61622 -3.63662 2.37165 169 162 160
3.18317 -1.94012 0.75895 186 196 205
3.17689 -1.94375 0.74237 177 184 198
3.14352 -1.94197 0.77034 164 176 191
3.09067 -1.95445 0.78886 171 179 194
3.04345 -1.96859 0.80641 158 175 200
3.06651 -1.99232 0.80807 109 117 141
3.04826 -2.00716 0.79864 107 110 121
3.03710 -1.99725 0.81771 101 93 102
3.00848 -2.04927 0.84285 141 144 151
2.99021 -2.06411 0.83342 132 125 133
3.00523 -2.06382 0.84859 136 126 137
2.98694 -2.07869 0.83915 111 116 130
2.63836 -2.13778 0.97294 68 68 80
2.62484 -2.14775 0.97995 53 58 85
2.60273 -2.15403 0.98805 45 60 80
2.58807 -2.16347 0.99518 52 52 68
2.58297 -2.17704 1.00110 55 46 66
2.56544 -2.19128 0.99205 107 118 125
2.61564 -2.20722 1.00230 95 89 97
2.64962 -2.23829 1.00345 135 139 149
2.75186 -2.31674 1.00188 127 143 153
2.70041 -2.31021 1.01367 105 77 137
2.79907 -2.37184 1.00746 142 159 162
2.78047 -2.38697 0.99785 148 153 149
2.94832 -2.54680 1.02535 154 159 173
2.95449 -2.53867 1.00034 146 150 161
2.92847 -2.55540 1.03361 163 170 180
2.90788 -2.56359 1.04194 172 185 190
2.88788 -2.57201 1.05019 186 198 199
2.87997 -2.58632 1.05711 202 208 214
2.87888 -2.60404 1.06333 211 217 224
2.89353 -2.62970 1.06792 216 225 228
2.87662 -2.63970 1.07585 219 226 232
2.85498 -2.64728 1.08426 223 226 234
2.44980 -2.74436 1.22673 205 223 239
2.38169 -2.72375 1.23835 175 204 226
2.45973 -2.78750 1.23844 151 175 199
2.48063 -2.83767 1.24952 120 112 171
2.42742 -2.82530 1.25984 99 76 109
2.43828 -2.87005 1.27184 100 98 91
2.42690 -2.88248 1.27908 83 78 74
2.40707 -2.88977 1.28690 78 85 86
2.39454 -2.90147 1.29421 103 112 131
2.38805 -2.90522 1.27708 102 95 102
1.28642 -2.59742 1.49365 159 146 140
1.29130 -2.59099 1.47389 159 141 123
1.24352 -2.58298 1.50048 176 176 178
1.22829 -2.59535 1.49262 185 194 190
1.22872 -2.58885 1.50646 174 187 195
1.21838 -2.59797 1.51231 158 168 183
1.20318 -2.61032 1.50446 166 177 183
1.20144 -2.60216 1.51832 159 172 187
1.18627 -2.61450 1.51048 167 178 185
1.16025 -2.62166 1.53602 165 175 178
1.16505 -2.61534 1.51658 166 178 185
1.15509 -2.62464 1.52240 166 177 183
1.15121 -2.63167 1.54182 159 165 161
1.14399 -2.64309 1.54759 135 140 141
1.13478 -2.65300 1.55340 126 132 145
1.12808 -2.66487 1.55919 141 152 161
1.12012 -2.67578 1.56499 159 173 174
1.11127 -2.68602 1.57082 158 165 167
1.10374 -2.69732 1.57663 130 135 142
1.09257 -2.70573 1.58248 152 165 173
1.08257 -2.71507 1.58831 163 172 178
1.07739 -2.71806 1.57464 164 174 178
0.99533 -2.91116 1.67750 158 166 166
1.00025 -2.90469 1.65759 158 169 175
0.99623 -2.93067 1.68377 131 131 122
0.99614 -2.94943 1.69005 99 94 90
0.98055 -2.96210 1.68200 97 90 84
1.05490 -3.12042 1.73120 96 88 76
1.06004 -3.11364 1.71037 96 88 82
1.04937 -3.12362 1.71660 93 87 74
1.06155 -3.14682 1.73821 89 79 63
1.06116 -3.16673 1.74497 55 52 51
1.04922 -3.17567 1.75119 40 36 50
1.04763 -3.19461 1.75795 90 87 91
1.05040 -3.21792 1.76498 116 113 108
1.02989 -3.26025 1.78469 129 116 94
1.01622 -3.26765 1.79087 35 15 54
1.00529 -3.27775 1.79722 81 81 80
1.00063 -3.29422 1.80398 129 129 112
0.98882 -3.30347 1.81028 133 122 107
0.97228 -3.31691 1.80174 131 119 105
0.58273 -4.03886 2.16617 114 109 109
0.58829 -4.03154 2.14367 113 98 86
0.56098 -4.03476 2.17071 130 147 160
0.54354 -4.04893 2.16170 125 147 174
1.20288 -5.32528 2.42735 103 120 148
1.19572 -5.33473 2.45637 130 151 182
0.19441 -4.38021 2.38565 113 121 112
0.17696 -4.39440 2.37664 140 128 124
-0.14389 -4.07540 2.37574 141 126 118
-0.13889 -4.06881 2.35548 142 128 110
-0.15351 -4.08663 2.38210 147 144 157
-0.19504 -4.22079 2.43819 137 138 141
-0.18995 -4.21409 2.41759 141 142 153
-0.21070 -4.21972 2.44208 122 109 105
-0.21577 -4.22640 2.46263 26 12 14
-0.22123 -4.22956 2.44823 75 61 53
-0.29026 -4.17628 2.44918 29 32 61
-0.27459 -4.16355 2.45727 44 40 53
-0.27994 -4.16664 2.44316 18 11 15
-0.28528 -4.16973 2.42905 75 75 23
-0.28491 -4.17319 2.46329 98 101 109
-0.30057 -4.18592 2.45521 84 95 114
-0.59312 -3.64596 2.35434 152 134 128
-0.58885 -3.64034 2.33705 147 129 116
-0.59771 -3.64862 2.34222 149 130 119
-0.61551 -3.62285 2.35270 157 151 145
3.19766 -1.93536 0.73389 199 204 213
3.21610 -1.92037 0.74341 206 209 217
3.20981 -1.92401 0.72680 207 209 217
3.20351 -1.92765 0.71019 206 209 215
3.17922 -1.95035 0.72437 168 177 196
3.14233 -1.94733 0.75303 163 169 181
3.13608 -1.95095 0.73652 164 171 182
3.12948 -1.95834 0.76020 163 169 182
3.08902 -1.95965 0.77173 177 187 203
3.05557 -1.96327 0.78211 181 200 217
3.03742 -1.97802 0.77273 120 126 152
3.07612 -1.98605 0.78401 139 152 173
3.05785 -2.00090 0.77458 95 97 116
3.07387 -2.00082 0.78952 97 106 124
3.05557 -2.01570 0.78007 118 121 135
3.02478 -2.01420 0.80741 165 164 162
3.00657 -2.02900 0.79801 196 201 211
3.02523 -2.03000 0.81252 195 202 211
3.01174 -2.04069 0.81976 178 181 192
3.01139 -2.05631 0.82503 136 134 152
2.99309 -2.07118 0.81558 124 115 127
2.64228 -2.14544 0.95579 69 40 44
2.64165 -2.16095 0.96110 64 29 39
2.61327 -2.16459 0.97009 65 50 48
2.60551 -2.17706 0.97635 88 75 96
2.67189 -2.27074 0.98915 105 108 128
2.72148 -2.30950 0.98838 150 154 152
2.70324 -2.32433 0.97896 127 139 138
2.68297 -2.30871 0.99868 112 93 109
2.66482 -2.32346 0.98931 106 101 107
2.78491 -2.37195 0.99166 134 145 133
2.92409 -2.54223 1.00986 148 151 165
2.93025 -2.53413 0.98493 142 146 151
2.90519 -2.55122 1.01802 156 164 171
2.88353 -2.55881 1.02647 165 173 184
2.86355 -2.56717 1.03472 176 186 190
2.82913 -2.56836 1.04456 182 191 199
2.80938 -2.57667 1.05273 188 193 206
2.81577 -2.59801 1.05804 194 195 210
2.79650 -2.61367 1.04809 232 235 236
2.83209 -2.62448 1.06233 200 203 213
2.79589 -2.62452 1.07227 210 211 221
2.77293 -2.64953 1.08685 237 239 243
2.75363 -2.66522 1.07688 249 252 253
2.43056 -2.66726 1.18663 198 225 238
2.40770 -2.67262 1.19468 171 191 225
2.39910 -2.68598 1.20146 148 152 214
2.39617 -2.70259 1.20776 121 113 182
2.41890 -2.73399 1.21193 94 85 149
2.40152 -2.74251 1.21951 40 56 115
2.42427 -2.79312 1.23003 25 24 60
2.39639 -2.79555 1.23848 45 40 70
2.41842 -2.82752 1.24302 87 84 90
2.43235 -2.85493 1.24827 114 109 106
2.43022 -2.87288 1.25480 107 105 95
2.40395 -2.87626 1.26313 82 77 72
2.38866 -2.88623 1.27062 72 68 75
2.36969 -2.90165 1.26083 112 101 92
1.28953 -2.60653 1.47952 160 143 137
1.29442 -2.60008 1.45971 160 141 121
1.24577 -2.59143 1.48653 176 170 170
1.21956 -2.60569 1.49844 169 176 178
1.20433 -2.61807 1.49057 165 177 182
1.14901 -2.63693 1.52813 164 173 175
1.15382 -2.63060 1.50867 165 176 181
1.14385 -2.63992 1.51449 165 174 178
1.14040 -2.64729 1.53393 152 157 156
1.13179 -2.65768 1.53972 132 134 139
1.11664 -2.66999 1.53190 123 130 131
1.12380 -2.66856 1.54552 129 139 149
1.11920 -2.68214 1.55128 150 167 172
1.11023 -2.69230 1.55710 159 166 175
1.10484 -2.70533 1.56290 126 126 144
1.09370 -2.71379 1.56875 152 162 175
1.07849 -2.72615 1.56090 162 174 175
1.00212 -2.92503 1.66381 159 168 165
1.00705 -2.91853 1.64383 159 170 175
0.99659 -2.93885 1.66990 133 135 128
0.99588 -2.95710 1.67614 102 97 91
0.98026 -2.96979 1.66807 99 89 80
1.05796 -3.15192 1.72361 89 82 60
1.06314 -3.14510 1.70265 94 87 73
1.05654 -3.17088 1.73028 67 58 50
1.04467 -3.17989 1.73652 32 25 56
1.04727 -3.20293 1.74343 80 80 74
1.04490 -3.22128 1.75016 106 100 98
1.04454 -3.24172 1.75702 127 119 114
1.03634 -3.25454 1.76352 134 125 117
1.02867 -3.26792 1.77005 114 101 90
1.00885 -3.26916 1.77590 40 14 39
1.00854 -3.28998 1.78288 86 86 86
0.99878 -3.30134 1.78932 131 131 117
0.98222 -3.31481 1.78076 135 131 117
0.98787 -3.31154 1.79568 137 128 116
0.97130 -3.32500 1.78713 133 123 107
0.56673 -4.02777 2.14834 113 110 111
0.57227 -4.02048 2.12592 113 97 87
0.54992 -4.03074 2.15393 123 140 156
0.53251 -4.04489 2.14494 96 113 139
1.19987 -5.33711 2.40815 82 92 112
0.19463 -4.36319 2.36146 62 69 70
0.21204 -4.34904 2.37045 25 25 34
0.20609 -4.35247 2.35477 16 23 39
0.20015 -4.35591 2.33908 12 19 30
0.19774 -4.40077 2.37305 123 126 119
0.18022 -4.41501 2.36400 139 127 122
-0.15493 -4.06718 2.35934 139 127 117
-0.14994 -4.06061 2.33914 143 132 115
-0.16331 -4.08083 2.36616 147 146 157
-0.17244 -4.09302 2.37270 153 154 172
-0.18280 -4.10271 2.37875 152 153 168
-0.18818 -4.10582 2.36457 156 160 172
-0.19685 -4.23176 2.42533 137 141 148
-0.19175 -4.22504 2.40469 146 146 156
-0.21428 -4.22690 2.42850 132 131 141
-0.22944 -4.22673 2.43261 132 124 124
-0.23451 -4.23340 2.45312 40 23 18
-0.23996 -4.23655 2.43874 118 107 85
-0.30793 -4.15201 2.42940 42 46 13
-0.30299 -4.14550 2.40940 130 129 97
-0.31324 -4.15508 2.41538 115 104 74
-0.31768 -4.16269 2.43561 38 35 47
-0.32262 -4.16920 2.45561 130 130 113
-0.32793 -4.17227 2.44159 92 92 102
-0.33324 -4.17534 2.42757 84 92 111
-0.61811 -3.63002 2.34166 149 134 131
-0.61387 -3.62444 2.32451 146 130 113
-0.62266 -3.63266 2.32964 147 131 120
3.18371 -1.93639 0.71855 192 199 211
3.11601 -1.95944 0.74487 170 177 192
3.12181 -1.95179 0.72134 165 171 182
3.06749 -1.95785 0.75778 181 196 216
3.04931 -1.97262 0.74840 146 163 183
3.06006 -1.97065 0.76404 165 182 211
3.04187 -1.98543 0.75465 103 110 134
3.03990 -2.02563 0.78767 180 190 186
3.03366 -2.02924 0.77120 189 201 206
3.01117 -2.04641 0.80245 176 180 191
3.00981 -2.06167 0.80784 137 135 151
2.99150 -2.07656 0.79838 105 87 121
3.07025 -2.26509 0.85785 100 105 115
3.07629 -2.25714 0.83341 93 96 109
2.71585 -2.19875 0.93425 205 188 174
2.71748 -2.21559 0.93933 198 210 165
2.66469 -2.20887 0.95174 162 171 150
2.59402 -2.19404 0.96645 122 122 125
2.60914 -2.21667 0.96969 87 75 93
2.59303 -2.22559 0.97708 55 56 80
2.64478 -2.26490 0.97565 89 102 120
2.69908 -2.30580 0.97403 143 148 145
2.89587 -2.53570 0.99497 140 144 152
2.90200 -2.52762 0.97015 141 142 146
2.88928 -2.53951 0.97758 133 141 143
2.89525 -2.55343 1.00096 147 153 159
2.88572 -2.56691 1.00803 158 156 171
2.85370 -2.56939 1.01771 165 168 180
2.81924 -2.57051 1.02762 176 185 197
2.78400 -2.57109 1.03757 189 195 204
2.39495 -2.61858 1.16093 191 187 213
2.42066 -2.65078 1.16437 121 103 171
2.40551 -2.66042 1.17174 77 71 137
2.39219 -2.67107 1.17892 39 37 116
2.38309 -2.68411 1.18572 25 19 72
2.41190 -2.71883 1.18913 23 13 50
2.39898 -2.72987 1.19634 30 20 45
2.41808 -2.77816 1.20690 58 40 40
2.40465 -2.78907 1.21420 76 52 36
2.42921 -2.82246 1.21835 96 76 50
2.43618 -2.84567 1.22404 124 115 99
2.42221 -2.85648 1.23146 127 124 110
2.41841 -2.87342 1.23807 115 113 100
2.38643 -2.87328 1.24688 81 75 74
2.37008 -2.88255 1.25445 73 65 71
2.35116 -2.89793 1.24468 119 104 77
1.30605 -2.62544 1.46481 158 141 131
1.31098 -2.61895 1.44487 160 143 121
1.26906 -2.61535 1.47174 171 163 161
1.23214 -2.60504 1.47859 186 193 190
1.22654 -2.61775 1.48431 169 177 178
1.21125 -2.63018 1.47642 164 177 178
1.13974 -2.65378 1.52018 163 169 168
1.14456 -2.64744 1.50069 164 175 178
1.13457 -2.65677 1.50652 164 173 176
1.13592 -2.66792 1.52588 148 150 146
1.12057 -2.69031 1.53748 128 143 155
1.11538 -2.69332 1.52377 125 131 134
1.10861 -2.69813 1.54336 152 163 178
1.10488 -2.71253 1.54912 138 148 160
1.09361 -2.72091 1.55499 154 166 178
1.00846 -2.93856 1.65001 161 170 165
1.01341 -2.93204 1.62995 158 170 175
1.00190 -2.95153 1.65608 134 134 128
0.99719 -2.96623 1.66221 104 96 89
0.98154 -2.97895 1.65413 100 88 79
1.05747 -3.15998 1.70910 89 85 61
1.06265 -3.15315 1.68811 95 89 77
1.05498 -3.17797 1.71570 72 64 46
1.03860 -3.19128 1.70724 32 24 29
1.04349 -3.18737 1.72196 31 24 37
1.03677 -3.20140 1.72843 76 75 61
1.04545 -3.23058 1.73560 99 96 99
1.04305 -3.24907 1.74234 120 112 112
1.03646 -3.26353 1.74891 129 122 117
1.02867 -3.27684 1.75543 119 107 93
1.01207 -3.28133 1.76150 85 52 36
1.00503 -3.29542 1.76808 100 91 76
1.00464 -3.31636 1.77506 127 124 114
0.98801 -3.32987 1.76647 129 122 107
0.54855 -4.01343 2.13017 107 101 102
0.55407 -4.00617 2.10786 112 97 88
0.54263 -4.01686 2.11453 103 96 94
0.54295 -4.03267 2.13804 102 113 130
0.52555 -4.04681 2.12905 84 96 109
1.19816 -5.35103 2.38922 80 88 97
1.17551 -5.36945 2.37752 72 74 84
0.20335 -4.39354 2.35055 74 85 83
0.20891 -4.38622 2.32803 12 17 24
0.19906 -4.41772 2.35967 126 127 121
0.18148 -4.43201 2.35060 136 128 118
-0.16388 -4.06306 2.34381 138 129 119
-0.15890 -4.05651 2.32365 143 134 122
-0.17427 -4.07261 2.34982 150 153 152
-0.18082 -4.08997 2.35734 157 163 176
-0.20500 -4.22921 2.40973 141 144 152
-0.22103 -4.24225 2.40145 143 145 154
-0.23914 -4.22064 2.41637 131 132 147
-0.25507 -4.23358 2.40815 136 139 145
-0.25558 -4.21740 2.41986 131 136 127
-0.63898 -3.62314 2.33103 149 134 129
-0.63476 -3.61759 2.31396 146 132 118
-0.64351 -3.62576 2.31907 147 132 122
3.18942 -1.92865 0.69491 202 207 212
3.20784 -1.91369 0.70441 204 207 216
3.20155 -1.91732 0.68783 202 206 212
3.19527 -1.92096 0.67124 203 205 210
3.17637 -1.93966 0.70214 184 189 204
3.15796 -1.95463 0.69264 163 167 182
3.15398 -1.94745 0.71094 164 170 189
3.13561 -1.96239 0.70145 167 173 190
3.11333 -1.96430 0.72779 179 189 200
3.06088 -1.96129 0.74148 183 205 217
3.04271 -1.97606 0.73210 130 140 159
3.05322 -2.00509 0.75787 102 97 119
3.03495 -2.01994 0.74843 172 171 167
3.04699 -2.01846 0.76396 147 139 152
3.03443 -2.04526 0.77619 194 199 207
3.01209 -2.05270 0.78486 175 181 190
3.00844 -2.06713 0.79058 135 132 151
3.07322 -2.27275 0.83935 97 102 115
3.07927 -2.26478 0.81486 91 93 106
3.05417 -2.28823 0.82951 100 105 119
2.73503 -2.19700 0.90930 167 208 179
2.74074 -2.18949 0.88618 102 111 112
2.70972 -2.20230 0.91810 180 144 221
2.65449 -2.19455 0.93103 106 101 146
2.63672 -2.20900 0.92185 54 53 76
2.63368 -2.20152 0.93912 48 51 92
2.61594 -2.21594 0.92996 62 59 80
2.61500 -2.20937 0.94689 53 56 90
2.59728 -2.22376 0.93775 65 63 75
