ply
format ascii 1.0
element face 0
property list uchar int vertex_indices
element vertex 1322
property float x
property float y
property float z
property uchar diffuse_red
property uchar diffuse_green
property uchar diffuse_blue
end_header
0.95995 -3.51558 1.74951 133 118 92
0.95491 -3.51791 1.73766 129 113 88
2.94071 -1.58735 0.46547 194 190 189
2.95392 -1.57843 0.47140 193 192 190
2.94928 -1.58058 0.46050 192 190 188
2.94535 -1.58520 0.47638 193 191 191
2.93679 -1.59198 0.48135 192 191 192
2.93435 -1.59522 0.46999 195 191 190
2.93041 -1.59985 0.48588 190 190 189
2.93108 -1.60466 0.47388 194 191 189
2.92714 -1.60930 0.48980 191 189 188
2.91055 -1.61653 0.48454 201 198 192
2.90661 -1.62116 0.50044 191 189 183
2.89733 -1.62545 0.47860 218 208 208
3.27247 -2.10513 0.49893 186 184 178
3.27713 -2.09963 0.48009 183 183 182
3.26697 -2.10767 0.48600 184 185 181
3.25680 -2.11571 0.49190 184 184 183
3.20303 -2.20596 0.55258 127 130 133
3.13145 -2.17485 0.56873 145 147 162
3.03129 -2.12483 0.58945 183 185 194
3.01674 -2.12952 0.59592 203 210 211
2.99817 -2.14569 0.60714 155 161 160
2.97954 -2.14762 0.61425 131 142 152
3.03387 -2.41001 0.67121 135 144 142
3.04990 -2.39918 0.67841 137 146 147
3.04427 -2.40178 0.66517 140 149 151
3.03950 -2.40740 0.68446 136 144 143
3.02910 -2.41563 0.69050 134 141 142
3.01783 -2.42083 0.66401 127 127 131
2.75099 -2.30743 0.74094 151 157 155
2.75546 -2.30217 0.72289 148 156 157
2.74572 -2.30986 0.72855 154 163 155
2.74648 -2.31913 0.74592 129 134 135
2.74865 -2.33605 0.75006 108 109 99
2.76409 -2.36340 0.75256 67 61 58
2.72675 -2.47608 0.79835 87 76 59
2.72131 -2.47859 0.78557 77 65 63
2.71127 -2.48653 0.79141 89 76 56
2.71281 -2.48078 0.80462 107 94 57
2.69019 -2.47820 0.81182 103 94 53
2.66860 -2.47634 0.81888 95 83 47
2.65102 -2.47775 0.82547 97 84 55
2.63211 -2.47794 0.83217 117 116 105
2.63682 -2.49828 0.83641 140 143 140
2.63935 -2.51689 0.84092 160 162 160
2.64078 -2.53469 0.84557 187 192 190
2.63297 -2.54455 0.85118 194 195 197
2.62869 -2.55753 0.85645 182 180 190
2.61320 -2.56799 0.84949 177 177 175
2.62430 -2.57049 0.86175 178 179 186
2.60878 -2.58097 0.85478 182 182 176
2.61710 -2.58100 0.86733 181 183 184
2.60156 -2.59149 0.86035 186 183 177
2.60851 -2.59030 0.87304 186 186 186
2.59614 -2.59621 0.87911 189 191 192
2.58553 -2.60370 0.88501 188 190 191
2.57814 -2.61411 0.89062 182 182 177
2.56259 -2.62461 0.88365 172 172 163
2.56992 -2.62381 0.89632 178 177 171
2.55437 -2.63431 0.88934 172 173 165
2.54403 -2.63443 0.90851 176 175 167
2.53858 -2.63695 0.89569 172 173 164
2.53177 -2.64034 0.91453 165 157 141
2.52193 -2.64851 0.92036 131 115 88
2.52717 -2.67101 0.92504 111 89 58
2.51681 -2.67877 0.93093 105 93 66
2.50121 -2.68930 0.92393 114 103 82
2.44748 -2.71818 0.96673 124 107 68
2.43454 -2.72329 0.97277 131 115 70
2.41901 -2.73378 0.96579 145 126 92
2.42278 -2.72955 0.97872 136 120 74
2.41240 -2.73720 0.98458 133 113 62
2.40044 -2.74322 0.99053 124 90 68
2.40631 -2.76756 0.99553 150 126 116
2.39790 -2.77733 1.00132 166 143 144
2.38229 -2.78787 0.99431 161 132 98
2.38479 -2.78223 1.00735 165 141 133
2.36919 -2.79276 1.00035 161 131 88
2.37311 -2.78858 1.01330 162 135 103
2.35589 -2.78906 1.01949 141 111 67
2.34035 -2.79956 1.01251 132 109 73
2.34228 -2.79329 1.02550 122 102 71
2.33117 -2.80013 1.03139 135 118 90
2.32035 -2.80728 1.03726 161 140 97
2.30484 -2.81775 1.03030 169 146 94
2.23243 -2.88189 1.08981 165 144 96
2.24796 -2.87141 1.09678 176 147 91
2.24251 -2.87393 1.08396 172 146 93
2.21402 -2.88024 1.09580 129 115 77
2.21518 -2.90117 1.10146 67 65 42
2.19964 -2.91166 1.09449 15 9 16
2.21890 -2.92526 1.10714 20 21 18
2.20327 -2.93581 1.10012 13 13 14
2.17665 -2.97554 1.13657 37 41 27
2.18132 -2.97005 1.11771 43 41 31
2.16892 -2.98656 1.14248 98 113 81
2.18403 -3.02558 1.14848 142 145 97
2.15865 -3.01511 1.15437 72 74 64
2.14728 -3.02177 1.16030 50 42 36
2.13705 -3.02985 1.16624 48 47 46
2.13152 -3.03241 1.15323 46 47 45
1.59390 -2.57412 1.22510 53 57 50
1.59775 -2.56958 1.20951 35 30 27
1.59954 -2.60011 1.23065 131 131 103
1.58649 -2.60892 1.22479 155 136 115
1.37091 -2.73968 1.35150 152 131 115
1.37476 -2.73515 1.33595 148 123 100
1.36042 -2.74281 1.35609 183 181 166
1.34751 -2.75152 1.35030 211 214 203
1.33322 -2.71796 1.35845 209 215 200
1.32046 -2.72658 1.35272 212 210 200
1.23999 -2.68107 1.38054 207 209 198
1.25240 -2.67269 1.38611 210 212 202
1.24804 -2.67471 1.37586 210 211 202
1.24368 -2.67672 1.36561 210 209 200
1.23097 -2.68574 1.38506 192 191 186
1.23289 -2.70980 1.39136 164 166 163
1.22041 -2.71823 1.38576 159 166 160
1.15434 -2.82299 1.45180 159 164 156
1.15811 -2.81855 1.43659 158 165 159
1.14990 -2.82504 1.44135 157 165 161
1.13965 -2.83936 1.46171 152 164 157
1.12699 -2.84790 1.45602 140 144 137
1.13285 -2.84868 1.46680 153 159 152
1.12018 -2.85724 1.46111 142 143 145
1.05939 -2.93264 1.51697 149 151 160
1.07214 -2.92403 1.52270 159 165 162
1.06766 -2.92610 1.51217 159 167 163
1.04663 -2.94126 1.51125 119 123 119
1.05462 -2.94684 1.52277 129 132 131
1.04595 -2.95258 1.52748 130 136 133
1.03316 -2.96121 1.52174 132 143 133
1.04365 -2.97244 1.53404 133 136 131
1.03080 -2.98111 1.52828 138 148 142
1.03861 -2.98640 1.53986 137 144 143
1.02574 -2.99509 1.53408 143 149 147
1.07252 -3.39840 1.64738 128 123 102
1.08678 -3.38878 1.65379 123 115 99
1.08177 -3.39109 1.64201 122 114 103
1.07752 -3.39609 1.65916 129 122 101
1.06827 -3.40340 1.66453 134 125 105
1.06873 -3.41941 1.65480 130 128 109
1.06447 -3.42442 1.67202 143 128 107
1.06596 -3.44320 1.66268 130 131 114
1.06167 -3.44824 1.67997 147 131 115
1.05874 -3.45596 1.66892 136 132 120
1.05445 -3.46101 1.68624 150 133 114
1.05029 -3.46568 1.67470 141 131 117
1.04600 -3.47073 1.69204 152 135 119
1.04063 -3.47226 1.68001 140 130 110
1.02994 -3.47617 1.68490 137 125 105
1.02023 -3.48256 1.69017 136 112 96
0.99588 -3.48208 1.69859 136 97 94
0.98478 -3.48453 1.70320 135 106 125
0.97487 -3.49016 1.70832 150 138 119
0.96777 -3.50355 1.71470 147 129 64
0.96166 -3.51981 1.72156 131 109 64
0.95490 -3.53441 1.72817 124 106 86
0.95062 -3.53945 1.74548 128 112 91
0.94556 -3.54179 1.73359 125 109 92
3.00078 -1.56615 0.42496 195 194 187
3.01407 -1.55717 0.43093 192 192 191
3.00941 -1.55933 0.41996 191 190 188
3.00474 -1.56149 0.40898 208 203 201
3.00545 -1.56399 0.43594 193 191 191
2.99683 -1.57081 0.44095 193 191 191
2.97929 -1.56673 0.43274 199 198 189
2.97535 -1.57137 0.44867 192 190 189
2.97114 -1.57374 0.43764 202 199 196
2.96720 -1.57838 0.45356 192 190 189
2.95790 -1.58268 0.43169 219 211 215
2.96151 -1.58002 0.44285 205 202 203
2.93710 -1.59000 0.45435 216 211 208
2.93274 -1.59888 0.45845 217 209 207
2.91951 -1.60781 0.45251 221 212 209
2.92667 -1.60693 0.46290 216 208 204
2.91343 -1.61587 0.45696 222 213 209
2.91774 -1.61354 0.46796 217 210 205
2.90450 -1.62248 0.46202 222 212 208
3.04323 -2.13843 0.57404 161 167 191
3.00315 -2.12659 0.58484 195 207 212
2.98808 -2.13677 0.57807 202 209 213
2.99374 -2.13456 0.59045 206 212 211
2.98165 -2.14077 0.59652 190 195 180
2.93816 -2.14024 0.61177 63 40 119
3.04690 -2.42625 0.65527 128 133 136
2.75834 -2.33476 0.73122 137 141 142
2.76283 -2.32946 0.71304 159 162 158
2.76712 -2.35691 0.73446 113 112 102
2.77556 -2.37898 0.73780 71 65 59
2.76908 -2.38953 0.74312 52 49 52
2.76452 -2.39490 0.76154 53 50 47
2.75914 -2.39739 0.74889 56 51 47
2.75377 -2.39987 0.73625 62 51 50
2.73534 -2.47392 0.77927 72 60 52
2.74539 -2.46598 0.77343 72 61 43
2.71984 -2.48439 0.77231 87 76 60
2.69218 -2.48689 0.79827 78 70 47
2.69678 -2.48148 0.77971 86 76 56
2.68676 -2.48940 0.78553 83 73 48
2.67675 -2.49731 0.79134 84 71 44
2.68291 -2.49543 0.80400 69 58 31
2.65423 -2.48752 0.81189 70 59 43
2.63235 -2.48519 0.81897 105 107 104
2.64196 -2.50981 0.82262 137 141 143
2.64191 -2.52628 0.82736 157 157 154
2.63765 -2.53920 0.83258 178 177 179
2.62219 -2.54964 0.82564 174 172 173
2.63287 -2.55173 0.83786 182 178 188
2.61738 -2.56219 0.83091 171 169 167
2.62795 -2.56419 0.84318 176 173 176
2.59811 -2.60545 0.86558 183 178 174
2.60274 -2.60000 0.84686 182 180 169
2.58253 -2.61597 0.85859 172 171 160
2.58874 -2.61411 0.87138 177 173 168
2.57316 -2.62463 0.86439 168 167 161
2.57961 -2.62299 0.87716 173 171 164
2.56403 -2.63351 0.87016 166 166 163
2.53291 -2.64906 0.90117 167 163 150
2.51662 -2.65115 0.90754 145 132 103
2.52156 -2.67342 0.91217 114 94 55
2.51310 -2.68300 0.91792 105 96 74
2.47372 -2.71612 0.94136 119 106 76
2.48933 -2.70558 0.94837 119 97 70
2.48385 -2.70811 0.93548 118 111 87
2.47921 -2.71358 0.95425 121 100 69
2.46055 -2.72110 0.94745 115 98 78
2.44614 -2.72481 0.95362 123 104 80
2.43526 -2.73202 0.95954 141 127 87
2.41970 -2.74253 0.95255 151 123 84
2.41402 -2.74692 0.97133 143 117 71
2.40856 -2.74945 0.95848 152 123 70
2.39847 -2.75743 0.96435 154 122 68
2.40485 -2.75584 0.97714 142 110 69
2.38929 -2.76635 0.97015 156 126 72
2.40092 -2.77019 0.98264 147 115 86
2.38532 -2.78072 0.97564 160 134 81
2.39329 -2.78078 0.98838 154 125 97
2.37767 -2.79132 0.98137 163 136 89
2.35099 -2.79218 1.00663 156 128 73
2.35561 -2.78673 0.98794 161 132 85
2.32478 -2.80164 1.01862 129 113 83
2.31399 -2.80881 1.02450 152 136 92
2.23328 -2.87215 1.07124 162 138 79
2.24879 -2.86168 1.07820 171 143 88
2.24334 -2.86420 1.06540 169 148 95
2.21161 -2.86676 1.07737 126 99 57
2.23688 -2.91545 1.08238 65 52 38
2.21790 -2.91321 1.08846 24 20 16
2.16702 -2.97309 1.12365 36 45 35
2.17168 -2.96761 1.10482 45 42 33
2.19495 -3.02758 1.12938 115 135 130
2.13457 -2.97425 1.13547 179 192 148
2.13926 -3.00053 1.14135 71 86 67
2.14182 -3.02443 1.14729 46 37 28
1.59832 -2.58852 1.21475 57 58 57
1.60219 -2.58396 1.19909 38 30 26
1.60101 -2.61058 1.22012 134 132 111
1.58791 -2.61942 1.21424 155 135 115
1.37094 -2.74932 1.34137 161 144 126
1.34671 -2.72963 1.34430 195 194 180
1.33388 -2.73830 1.33854 211 212 202
1.23977 -2.69035 1.37091 205 205 194
1.24347 -2.68599 1.35594 208 208 201
1.23487 -2.70235 1.37608 185 184 178
1.23527 -2.72387 1.38211 162 164 159
1.22273 -2.73234 1.37648 162 167 163
1.14806 -2.84407 1.44746 150 157 153
1.13536 -2.85265 1.44176 133 145 142
1.13862 -2.84821 1.45199 140 147 137
1.11223 -2.88768 1.47265 146 149 151
1.12498 -2.87907 1.47838 143 150 149
1.12051 -2.88114 1.46785 143 146 143
1.11671 -2.88561 1.48318 145 148 152
1.10844 -2.89215 1.48799 148 152 154
1.09948 -2.89629 1.46693 162 170 163
1.10506 -2.89649 1.47772 152 154 161
1.10126 -2.90096 1.49307 152 156 148
1.09230 -2.90510 1.47199 161 172 167
1.06381 -2.92952 1.50180 162 168 161
1.07657 -2.92091 1.50753 159 167 163
1.07209 -2.92298 1.49699 160 167 165
1.06761 -2.92505 1.48645 162 169 168
1.05875 -2.94306 1.50747 132 136 133
1.04558 -2.96376 1.51807 124 132 131
1.04107 -2.96584 1.50748 127 135 126
1.03275 -2.97242 1.51232 130 138 131
1.09013 -3.36631 1.61773 107 100 91
1.10434 -3.35672 1.62411 109 101 90
1.09935 -3.35902 1.61238 104 97 87
1.09512 -3.36400 1.62946 112 106 97
1.08590 -3.37129 1.63482 117 110 106
1.08520 -3.38410 1.62458 110 107 95
1.07961 -3.40045 1.63124 114 112 98
1.07489 -3.41912 1.63827 108 109 103
1.06833 -3.43336 1.64468 85 77 80
1.06200 -3.44831 1.65121 70 58 74
1.05348 -3.45780 1.65694 92 78 72
1.04481 -3.46693 1.66263 115 92 75
1.03473 -3.47242 1.66778 123 93 84
1.02426 -3.47687 1.67276 122 101 92
1.01507 -3.48464 1.67824 134 114 111
1.00305 -3.48483 1.68255 161 152 123
0.99640 -3.49942 1.68909 189 186 164
0.98581 -3.50338 1.69398 211 212 200
0.97142 -3.51309 1.68752 225 225 223
0.97611 -3.50974 1.69924 222 221 195
0.96770 -3.51967 1.70506 214 201 143
0.95764 -3.52501 1.71015 165 138 66
0.95214 -3.54326 1.71733 127 104 64
0.94634 -3.56081 1.72442 121 105 87
0.94203 -3.56588 1.74181 126 110 89
0.93695 -3.56823 1.72987 123 108 89
2.99217 -1.56641 0.41486 222 219 208
2.99613 -1.56175 0.39889 215 209 211
2.97890 -1.57537 0.40890 235 232 228
2.97078 -1.56701 0.42266 227 225 213
2.95785 -1.57167 0.42859 222 216 213
2.94464 -1.58058 0.42266 222 213 215
2.94233 -1.58601 0.43819 220 214 218
2.93769 -1.58816 0.42728 223 215 220
2.92911 -1.59493 0.43226 229 225 225
2.92853 -1.60125 0.44743 224 216 214
2.86950 -1.62679 0.47572 216 204 207
2.87804 -1.62004 0.47076 221 209 206
2.87413 -1.62465 0.48659 215 205 208
2.86559 -1.63140 0.49155 211 201 205
2.85086 -1.62825 0.48279 206 197 209
2.83933 -1.63339 0.48835 205 203 213
2.83174 -1.64059 0.49311 209 214 220
2.82204 -1.64668 0.49829 209 213 216
2.81814 -1.65128 0.51405 214 201 210
2.81366 -1.65347 0.50320 196 195 202
2.80976 -1.65806 0.51896 214 206 212
2.80515 -1.66019 0.50814 203 199 207
3.34606 -2.24903 0.48226 160 164 151
3.36238 -2.23801 0.48958 171 172 166
3.35665 -2.24066 0.47611 171 169 163
3.35092 -2.24331 0.46263 169 169 165
3.35179 -2.24638 0.49573 162 165 161
3.27088 -2.21694 0.49997 141 130 113
3.25118 -2.21930 0.50766 135 117 106
3.23519 -2.23009 0.50048 132 110 88
3.14999 -2.18430 0.53382 122 103 101
3.02431 -2.13211 0.56383 140 154 167
3.00660 -2.13473 0.57089 186 192 205
2.98308 -2.14765 0.58294 206 211 198
2.95757 -2.14495 0.59127 150 154 127
2.91839 -2.13296 0.60184 42 34 68
2.92980 -2.15477 0.60396 128 142 159
2.92534 -2.16002 0.62198 188 198 195
2.92008 -2.16246 0.60961 182 198 195
2.91482 -2.16489 0.59724 166 189 187
2.99580 -2.41134 0.65319 131 135 139
2.99105 -2.41693 0.67238 126 133 139
2.98544 -2.41952 0.65920 138 149 143
2.97984 -2.42212 0.64603 146 152 152
2.76181 -2.34399 0.71753 144 147 149
2.76632 -2.33868 0.69930 160 166 162
2.77630 -2.37066 0.71992 116 112 105
2.77973 -2.38892 0.72388 77 71 61
2.77115 -2.39788 0.72948 61 52 54
2.75580 -2.40825 0.72259 68 54 53
2.74068 -2.46909 0.76054 83 68 43
2.75618 -2.45862 0.76750 68 59 42
2.74529 -2.46365 0.74190 85 75 53
2.73524 -2.47161 0.74774 91 76 49
2.72518 -2.47956 0.75358 90 76 50
2.62602 -2.48685 0.80647 106 96 70
2.60768 -2.48742 0.81317 128 119 111
2.62786 -2.52129 0.81558 151 141 142
2.63421 -2.54344 0.81960 170 165 165
2.61874 -2.55389 0.81265 175 175 168
2.59698 -2.61193 0.85229 178 176 165
2.60162 -2.60646 0.83354 168 169 161
2.54139 -2.64722 0.88213 164 167 164
2.55149 -2.63924 0.87626 165 168 164
2.52946 -2.65348 0.88815 163 165 155
2.50527 -2.64806 0.89524 154 147 111
2.51932 -2.67904 0.89902 114 100 51
2.51357 -2.69127 0.90454 92 84 66
2.50367 -2.69953 0.91041 95 92 79
2.49902 -2.70501 0.92921 118 107 89
2.49458 -2.70858 0.91622 99 100 94
2.48419 -2.71636 0.92213 86 99 86
2.47233 -2.72270 0.92816 72 72 57
2.46188 -2.73041 0.93407 69 60 64
2.44633 -2.73301 0.94035 109 91 75
2.43483 -2.73962 0.94633 146 127 85
2.41924 -2.75015 0.93933 153 125 77
2.34271 -2.79171 0.99395 158 130 79
2.34733 -2.78627 0.97528 160 134 87
2.33726 -2.79423 0.98113 159 135 86
2.32613 -2.79272 1.00015 133 110 80
2.31064 -2.80317 0.99319 149 124 94
2.31305 -2.79740 1.00614 129 110 89
2.30179 -2.80400 1.01203 144 124 98
2.29533 -2.81583 1.01769 161 141 101
2.29072 -2.82126 1.03631 174 147 93
2.28528 -2.82377 1.02352 170 148 100
2.27606 -2.83263 1.02932 172 149 90
2.28150 -2.83011 1.04211 174 147 90
2.27145 -2.83806 1.04795 174 145 89
2.26576 -2.84030 1.03517 170 144 85
2.26116 -2.84573 1.05379 172 144 90
2.25622 -2.84881 1.04098 167 140 93
2.25161 -2.85424 1.05961 170 145 95
2.24355 -2.85379 1.04692 163 138 102
2.23322 -2.86140 1.05276 157 136 95
2.21916 -2.86474 1.05872 143 117 61
2.21188 -2.87582 1.06446 103 72 28
2.19641 -2.88627 1.05751 105 89 34
2.23243 -2.91921 1.06943 52 40 16
2.21677 -2.92978 1.06240 90 74 34
2.21961 -2.92413 1.07540 33 24 10
2.20635 -2.92849 1.08137 27 12 10
2.19073 -2.93904 1.07435 73 49 25
2.19629 -2.93659 1.08725 24 13 8
2.19164 -2.94206 1.10603 25 27 24
2.18067 -2.94713 1.08024 69 48 22
2.18953 -2.94861 1.09307 32 24 18
2.18487 -2.95410 1.11188 37 40 28
2.17780 -2.95474 1.09899 43 37 27
2.14071 -2.95035 1.11097 38 50 40
2.17121 -3.00795 1.11643 114 139 143
2.11807 -2.96320 1.12269 183 196 154
2.13191 -3.00080 1.12842 63 85 58
2.10993 -2.99407 1.13435 38 34 19
2.09982 -3.00206 1.14022 44 47 40
2.09518 -3.00753 1.15896 46 51 50
2.08971 -3.01006 1.14609 46 51 49
2.08423 -3.01259 1.13322 46 49 46
1.61311 -2.58064 1.19426 53 47 34
1.62615 -2.57183 1.20011 60 59 48
1.62157 -2.57395 1.18934 62 59 45
1.60015 -2.59946 1.20421 60 58 60
1.60212 -2.62063 1.20951 136 132 117
1.58899 -2.62950 1.20362 154 134 109
1.37901 -2.75172 1.32625 148 120 97
1.39201 -2.74295 1.33208 158 135 105
1.38288 -2.74717 1.31063 152 127 98
1.36996 -2.75736 1.33108 168 154 134
1.35698 -2.76613 1.32525 209 211 193
1.35226 -2.74852 1.33488 202 205 187
1.33935 -2.75724 1.32908 211 210 198
1.23988 -2.70026 1.36127 197 199 191
1.23518 -2.71269 1.36647 171 174 175
1.23238 -2.72862 1.37199 160 162 164
1.15589 -2.84756 1.43300 150 157 151
1.16415 -2.84103 1.42820 158 164 157
1.14790 -2.85464 1.43785 140 142 142
1.13035 -2.86565 1.44724 141 149 149
1.11761 -2.87425 1.44152 157 170 160
1.12199 -2.87200 1.45201 149 153 157
1.10926 -2.88059 1.44630 161 167 161
1.11568 -2.88250 1.45724 154 161 157
1.10293 -2.89110 1.45152 160 167 161
1.10775 -2.88975 1.46212 159 166 159
1.09500 -2.89836 1.45640 163 169 163
1.06688 -2.94794 1.49320 165 168 162
1.07070 -2.94344 1.47777 161 170 170
1.05657 -2.95020 1.49752 139 140 136
1.05225 -2.96554 1.50341 126 130 120
1.03940 -2.97422 1.49764 128 132 129
1.10544 -3.35851 1.59589 95 92 74
1.09121 -3.36812 1.58951 82 64 44
1.09834 -3.37097 1.60196 96 91 73
1.09019 -3.38092 1.60769 96 90 78
1.08281 -3.39286 1.61370 96 90 84
1.07307 -3.39900 1.61892 98 78 78
1.07144 -3.42541 1.62699 66 49 43
1.06544 -3.44114 1.63359 40 22 21
1.05474 -3.44505 1.63851 41 30 32
1.04842 -3.46014 1.64505 86 86 89
1.04005 -3.47006 1.65085 143 147 131
1.03161 -3.47984 1.65663 178 179 161
1.01718 -3.48958 1.65015 198 199 193
1.02195 -3.48645 1.66195 197 197 169
1.00753 -3.49619 1.65547 200 202 201
1.01136 -3.49056 1.66689 210 208 180
0.99695 -3.50029 1.66042 203 205 206
1.00128 -3.49598 1.67202 210 208 188
0.98688 -3.50570 1.66556 208 209 209
0.99092 -3.50061 1.67703 215 218 204
0.98064 -3.50540 1.68206 222 224 222
0.96626 -3.51511 1.67560 223 226 224
0.96167 -3.51928 1.69276 226 223 206
0.95662 -3.52162 1.68089 224 226 222
0.95584 -3.53651 1.69972 211 197 143
0.94986 -3.55351 1.70667 163 137 65
0.94485 -3.57349 1.71413 127 103 58
0.93644 -3.58383 1.72006 121 103 77
0.93212 -3.58892 1.73752 123 109 86
0.92702 -3.59127 1.72553 122 107 84
0.92192 -3.59363 1.71354 121 102 78
2.98074 -1.56529 0.40541 229 225 222
2.98468 -1.56064 0.38947 216 213 218
2.95145 -1.57295 0.41807 227 220 220
2.92107 -1.60198 0.43712 223 218 218
2.91337 -1.60920 0.44191 216 213 214
2.89941 -1.61323 0.44806 214 212 213
2.88153 -1.61521 0.45503 211 211 209
2.87177 -1.62132 0.46025 207 206 204
2.85130 -1.62185 0.46775 198 192 197
2.81965 -1.62755 0.48071 172 171 197
2.80846 -1.63279 0.48620 169 169 191
2.80345 -1.64132 0.49039 161 155 182
2.77942 -1.63962 0.49854 146 141 174
2.78251 -1.65253 0.50105 174 166 192
2.77864 -1.65709 0.51672 213 205 209
2.77406 -1.65921 0.50596 206 200 211
2.76949 -1.66132 0.49520 193 194 204
3.35089 -2.25827 0.46684 161 164 152
3.35576 -2.25253 0.44716 168 167 166
3.27167 -2.22357 0.48556 148 128 104
3.24671 -2.22261 0.49425 140 119 94
3.23071 -2.23341 0.48707 137 118 90
3.13861 -2.18306 0.52198 123 103 84
3.11308 -2.18113 0.53060 104 94 83
3.05333 -2.15685 0.54524 134 132 125
2.99990 -2.13627 0.55866 167 177 189
2.98915 -2.14340 0.56452 198 209 214
2.97405 -2.15359 0.55774 195 203 209
2.97907 -2.15095 0.57026 202 209 206
2.95981 -2.15239 0.57758 195 196 173
2.92562 -2.14373 0.58742 85 91 86
2.91592 -2.15139 0.59305 84 83 90
2.90098 -2.16148 0.58635 122 157 166
2.77078 -2.35751 0.70298 149 151 151
2.77531 -2.35217 0.68467 161 169 165
2.78963 -2.38770 0.70468 118 115 106
2.77958 -2.39553 0.71048 84 84 69
2.76589 -2.40048 0.71678 69 59 62
2.75054 -2.41085 0.70989 77 65 62
2.68492 -2.51133 0.77695 82 75 45
2.69497 -2.50338 0.77111 82 72 47
2.67275 -2.51748 0.78304 89 84 55
2.61810 -2.50352 0.79875 97 92 83
2.57495 -2.48247 0.80835 120 115 121
2.63180 -2.54861 0.80648 161 162 163
2.59447 -2.61716 0.83911 165 167 162
2.58595 -2.62663 0.84483 163 163 163
2.57557 -2.63442 0.85074 160 164 162
2.56513 -2.64214 0.85665 156 163 162
2.54789 -2.64351 0.86322 150 159 161
2.53637 -2.65017 0.86923 140 147 153
2.51604 -2.64847 0.87605 128 136 138
2.52211 -2.67180 0.88042 112 113 94
2.52501 -2.69229 0.88512 81 64 29
2.50873 -2.69444 0.89157 57 40 22
2.49702 -2.70094 0.89760 52 43 38
2.48317 -2.70533 0.90380 55 49 54
2.47013 -2.71047 0.90992 39 40 44
2.44682 -2.70539 0.91687 24 16 15
2.44893 -2.72550 0.92175 24 19 28
2.44932 -2.74405 0.92681 91 79 64
2.43431 -2.74716 0.93308 144 128 84
2.41869 -2.75771 0.92607 153 125 72
2.32008 -2.79457 0.98739 153 127 90
2.29374 -2.80366 0.99940 149 125 98
2.28787 -2.81613 1.00500 156 134 101
2.27614 -2.82221 1.01092 158 138 95
2.26662 -2.83071 1.01672 153 132 79
2.25649 -2.83853 1.02255 148 123 69
2.24281 -2.84237 1.02854 144 117 72
2.23176 -2.84912 1.03440 139 111 75
2.22082 -2.85598 1.04026 133 105 73
2.20539 -2.86640 1.03333 125 95 52
2.21082 -2.86391 1.04607 128 99 57
2.19539 -2.87433 1.03914 131 102 52
2.20138 -2.87249 1.05187 120 92 42
2.17038 -2.95496 1.08613 63 47 22
2.14982 -2.95034 1.09222 56 50 25
2.13025 -2.94676 1.09824 50 59 41
2.12638 -2.96229 1.10398 117 140 141
2.10491 -2.95618 1.10998 180 191 147
2.11269 -2.98626 1.11562 68 85 57
2.10146 -2.99285 1.12150 37 27 15
2.08683 -2.99511 1.12739 41 42 34
2.07129 -3.00560 1.12042 49 46 35
1.61503 -2.59160 1.18364 52 46 32
1.60307 -2.59355 1.18848 42 32 27
1.59983 -2.60746 1.19354 69 66 62
1.60259 -2.62982 1.19882 138 134 115
1.58942 -2.63872 1.19291 151 134 106
1.37834 -2.76026 1.31593 149 121 102
1.38221 -2.75569 1.30027 149 124 99
1.36859 -2.76477 1.32070 178 166 149
1.35558 -2.77356 1.31485 211 214 201
1.25407 -2.71426 1.34765 204 205 200
1.26663 -2.70577 1.35329 209 209 202
1.26222 -2.70781 1.34292 208 209 203
1.25780 -2.70985 1.33254 207 209 198
1.23946 -2.70930 1.35151 181 182 181
1.23310 -2.71885 1.35647 143 148 159
1.22683 -2.72861 1.36146 142 149 158
1.21429 -2.73708 1.35583 145 148 145
1.22249 -2.74191 1.36675 157 164 156
1.21875 -2.74631 1.38187 162 169 156
1.21433 -2.74835 1.37148 158 168 153
1.16691 -2.85724 1.41905 151 157 153
1.17971 -2.84860 1.42479 159 164 159
1.17522 -2.85068 1.41422 158 164 161
1.15546 -2.85760 1.42326 139 142 137
1.14695 -2.86371 1.42803 142 143 145
1.13746 -2.86785 1.43260 149 154 149
1.12470 -2.87647 1.42687 161 170 165
1.12945 -2.87494 1.43746 154 166 154
1.11669 -2.88356 1.43173 160 170 164
1.06542 -2.95664 1.48337 164 172 162
1.06925 -2.95214 1.46790 162 169 169
1.05766 -2.96451 1.48836 143 147 137
1.04479 -2.97319 1.48259 130 136 139
1.05366 -2.98072 1.49434 129 134 128
1.04075 -2.98943 1.48855 131 137 139
1.04176 -3.05653 1.51988 139 144 135
1.05488 -3.04767 1.52577 134 143 135
1.05027 -3.04980 1.51493 134 141 135
1.04567 -3.05193 1.50410 137 141 136
1.04637 -3.05440 1.53071 144 150 139
1.02864 -3.06538 1.51399 96 84 91
1.10042 -3.36077 1.58414 80 71 62
1.08398 -3.38030 1.59552 84 65 46
1.07766 -3.39484 1.60187 88 69 51
1.07032 -3.40694 1.60790 94 93 76
1.06417 -3.42215 1.61437 116 122 86
1.05943 -3.44104 1.62137 131 141 107
1.05144 -3.45184 1.62727 154 165 126
1.04269 -3.46074 1.63291 184 193 168
1.02829 -3.47046 1.62644 200 207 204
1.03404 -3.46993 1.63859 196 200 184
1.02496 -3.47803 1.64412 197 199 191
1.01055 -3.48776 1.63765 198 196 196
0.97600 -3.50887 1.67035 217 218 220
0.98028 -3.50383 1.65305 206 208 208
0.96161 -3.51858 1.66389 220 223 222
0.94822 -3.53161 1.68671 224 222 203
0.95250 -3.52657 1.66941 224 226 225
0.94109 -3.54531 1.69311 210 196 143
0.94006 -3.57671 1.70228 163 138 67
0.93351 -3.59250 1.70906 128 105 55
3.05756 -1.55149 0.36058 189 179 179
3.06626 -1.54462 0.35553 182 166 170
3.05358 -1.55619 0.37670 219 212 201
3.04887 -1.55837 0.36563 215 209 206
2.97946 -1.56907 0.39370 226 226 228
2.96340 -1.57223 0.40038 226 231 231
2.94065 -1.58305 0.41161 210 211 216
2.93278 -1.59017 0.41643 209 206 216
2.92398 -1.59683 0.42146 208 205 221
2.92055 -1.60620 0.42530 195 191 211
2.89717 -1.60547 0.43355 178 178 196
2.86858 -1.60196 0.44291 170 163 188
2.82449 -1.59032 0.45563 157 148 172
2.80135 -1.58931 0.46371 140 141 159
2.78847 -1.59800 0.45793 110 112 126
2.73800 -1.57798 0.48348 124 124 147
2.72531 -1.58654 0.47778 111 114 128
2.71753 -1.57800 0.49088 121 123 151
2.71529 -1.58766 0.49437 120 121 147
2.70997 -1.59571 0.49853 115 113 139
2.70449 -1.60368 0.50272 108 104 132
2.70827 -1.61673 0.50497 124 112 148
2.77816 -1.68889 0.49971 189 181 169
2.78668 -1.68215 0.49476 214 205 207
2.78207 -1.68429 0.48391 209 205 212
2.77425 -1.69349 0.51551 125 117 73
2.76963 -1.69563 0.50466 114 99 71
2.76502 -1.69776 0.49381 114 92 92
3.33213 -2.25278 0.45577 163 165 154
3.33699 -2.24707 0.43616 169 167 168
3.26613 -2.22624 0.47228 156 139 111
3.23970 -2.22433 0.48130 147 129 98
3.12910 -2.18301 0.50984 127 101 81
3.06221 -2.16861 0.53003 132 115 108
2.98314 -2.13122 0.54825 148 158 166
2.98284 -2.14519 0.55223 184 195 204
2.95819 -2.15728 0.56450 196 202 199
2.91789 -2.14448 0.57552 170 171 146
2.91774 -2.15860 0.57949 64 56 63
2.77638 -2.36848 0.68880 154 164 157
2.78093 -2.36312 0.67042 164 172 169
2.79398 -2.39781 0.69057 121 122 113
2.77907 -2.40187 0.69708 93 89 82
2.76612 -2.40741 0.70331 81 69 70
2.71510 -2.51096 0.75047 91 85 68
2.73068 -2.50044 0.75746 89 79 58
2.72521 -2.50297 0.74460 89 83 64
2.72057 -2.50843 0.76333 87 75 58
2.69915 -2.51402 0.75708 73 66 43
2.68754 -2.52070 0.76313 59 53 32
2.67884 -2.52986 0.76882 62 53 43
2.66772 -2.53695 0.77481 67 52 45
2.64015 -2.52976 0.78278 58 46 37
2.64925 -2.55438 0.78632 83 70 68
2.64374 -2.56638 0.79164 144 146 144
2.64069 -2.58060 0.79668 174 177 167
2.63604 -2.58607 0.81546 170 164 158
2.63056 -2.58861 0.80257 170 166 154
2.61646 -2.61018 0.81365 164 166 162
2.63211 -2.59962 0.82067 167 163 160
2.62661 -2.60216 0.80775 164 166 159
2.62196 -2.60764 0.82657 169 165 161
2.60833 -2.62004 0.81932 160 161 162
2.59964 -2.62942 0.82506 147 149 157
2.59813 -2.64541 0.83004 135 139 143
2.59147 -2.65674 0.83559 124 132 130
2.58386 -2.66722 0.84125 107 118 125
2.56975 -2.67165 0.84758 95 96 120
2.55702 -2.67734 0.85376 79 70 99
2.54769 -2.68621 0.85960 60 48 67
2.53254 -2.68954 0.86600 52 35 43
2.51768 -2.69309 0.87235 48 26 23
2.50324 -2.69698 0.87865 57 39 12
2.48889 -2.70091 0.88493 50 35 14
2.47698 -2.70717 0.89097 57 44 28
2.46761 -2.71592 0.89679 70 59 21
2.45207 -2.71855 0.90314 74 55 11
2.44441 -2.72899 0.90880 71 50 21
2.44678 -2.74957 0.91365 94 72 54
2.43448 -2.75543 0.91972 137 124 82
2.41883 -2.76600 0.91270 151 128 71
2.35888 -2.78813 0.95613 157 132 84
2.37445 -2.77762 0.96312 159 130 75
2.36898 -2.78015 0.95026 158 131 73
2.36435 -2.78561 0.96898 160 133 85
2.34235 -2.78929 0.96242 157 133 93
2.32840 -2.79311 0.96853 154 133 92
2.31096 -2.79313 0.97484 151 130 89
2.29709 -2.79689 0.98090 145 124 81
2.28556 -2.80317 0.98681 140 119 78
2.27760 -2.81334 0.99250 137 113 76
2.26604 -2.81956 0.99841 132 108 66
2.25061 -2.82998 0.99148 119 97 48
2.25892 -2.83069 1.00407 127 101 52
2.24347 -2.84112 0.99713 123 96 43
2.24894 -2.83867 1.00989 123 95 42
2.23349 -2.84910 1.00295 123 96 40
2.23913 -2.84684 1.01570 120 92 35
2.22367 -2.85727 1.00877 123 95 42
2.22598 -2.85121 1.02167 120 92 39
2.21054 -2.86164 1.01474 124 95 46
2.21556 -2.85867 1.02751 122 93 49
2.20013 -2.86909 1.02058 124 95 48
2.16777 -2.88124 1.05105 136 109 61
2.17235 -2.87585 1.03255 128 99 58
2.16237 -2.88374 1.03834 128 100 58
2.15239 -2.89163 1.04414 127 100 47
2.15455 -2.88530 1.05695 131 104 54
2.13918 -2.89568 1.05006 127 102 42
2.14268 -2.89092 1.06280 125 100 49
2.12733 -2.90129 1.05591 130 102 48
2.13268 -2.91864 1.07410 105 82 30
2.11782 -2.92065 1.08003 98 80 27
2.10456 -2.92453 1.08590 93 85 52
2.11185 -2.95364 1.09134 126 137 125
2.08201 -2.93704 1.09753 177 187 146
2.07326 -2.94642 1.10329 104 108 81
2.08757 -2.98479 1.10876 63 47 22
2.06743 -2.97999 1.11471 52 52 24
1.61756 -2.60345 1.17296 47 44 39
1.60887 -2.60994 1.17790 42 35 33
1.60787 -2.62709 1.18302 78 76 63
1.60221 -2.63788 1.18805 140 136 113
1.58901 -2.64679 1.18213 149 133 108
1.38103 -2.77442 1.30589 155 130 117
1.38492 -2.76983 1.29016 149 124 100
1.36795 -2.78325 1.30002 193 194 184
1.36181 -2.76319 1.30973 188 180 170
1.34882 -2.77197 1.30389 208 212 205
1.25737 -2.72988 1.33825 195 197 185
1.24058 -2.72110 1.34189 159 158 152
1.23901 -2.73931 1.34751 123 125 124
1.23253 -2.74885 1.35249 125 127 127
1.21991 -2.75737 1.34683 142 138 140
1.17717 -2.86530 1.40480 151 158 159
1.19002 -2.85662 1.41058 160 165 162
1.18551 -2.85871 1.39996 158 166 163
1.16560 -2.86556 1.40906 139 140 146
1.15496 -2.86756 1.41346 143 142 141
1.14675 -2.87433 1.41830 151 158 150
1.13394 -2.88297 1.41255 160 169 173
1.13765 -2.87931 1.42298 161 165 168
1.12485 -2.88795 1.41723 161 170 174
1.06485 -2.96734 1.47371 164 171 163
1.06869 -2.96282 1.45820 163 169 167
1.06032 -2.96943 1.46306 165 171 161
1.06002 -2.98172 1.47945 144 147 145
1.04709 -2.99045 1.47364 139 140 143
1.05137 -3.09127 1.51295 132 133 127
1.04672 -3.09342 1.50200 113 114 107
1.10307 -3.35200 1.56655 75 64 55
1.10730 -3.34702 1.54946 79 91 95
1.09542 -3.36308 1.57239 73 74 68
1.08822 -3.37530 1.57839 83 95 63
1.08036 -3.38603 1.58420 101 112 89
1.07062 -3.39214 1.58942 122 135 120
1.06446 -3.40716 1.59581 142 158 142
1.05927 -3.42480 1.60258 160 177 167
1.05159 -3.43627 1.60854 173 190 183
1.03724 -3.44595 1.60210 177 196 206
1.04430 -3.44882 1.61465 183 198 190
1.02993 -3.45852 1.60820 188 203 211
1.03644 -3.45998 1.62059 191 204 202
1.02205 -3.46969 1.61413 198 208 210
1.01884 -3.47756 1.63183 201 204 199
1.01378 -3.47989 1.61994 199 207 207
0.97111 -3.51165 1.65854 213 214 216
0.97539 -3.50661 1.64124 204 205 206
0.94337 -3.53453 1.67491 225 226 221
0.94765 -3.52949 1.65761 222 226 225
0.93832 -3.53687 1.66303 226 228 224
0.92898 -3.54425 1.66845 226 226 221
0.93414 -3.54222 1.68038 225 221 203
0.92667 -3.55500 1.68663 210 194 146
0.92646 -3.58918 1.69618 163 135 75
0.91766 -3.59846 1.70194 128 103 61
0.91334 -3.60355 1.71941 122 105 84
0.90824 -3.60591 1.70741 122 102 78
3.07208 -1.54077 0.33898 212 210 208
3.08549 -1.53172 0.34500 217 213 212
3.08078 -1.53389 0.33393 218 217 218
3.07679 -1.53859 0.35006 206 197 195
3.07300 -1.55213 0.34177 202 197 190
3.06613 -1.55991 0.34639 204 205 198
3.04937 -1.56300 0.35335 207 212 213
3.04537 -1.56771 0.36949 217 211 213
3.02770 -1.56372 0.36143 205 207 212
3.02372 -1.56840 0.37751 213 208 213
2.96966 -1.56873 0.38394 195 196 219
2.94677 -1.56852 0.39221 184 183 209
2.92226 -1.56742 0.40083 164 160 186
2.90845 -1.57151 0.40699 149 148 170
2.89372 -1.57512 0.41334 138 141 165
2.83689 -1.55750 0.42920 133 134 168
2.78488 -1.55270 0.44682 124 126 155
2.77215 -1.56129 0.44110 112 116 131
2.76706 -1.55431 0.45375 122 121 149
2.75437 -1.56288 0.44805 114 116 126
2.74400 -1.56390 0.46477 110 112 131
2.73134 -1.57245 0.45908 114 119 127
2.70231 -1.58515 0.48577 111 114 127
2.70606 -1.58072 0.47059 111 115 122
2.69787 -1.58720 0.47535 110 110 114
2.69758 -1.59349 0.48978 111 113 124
2.70117 -1.60636 0.49200 98 98 111
2.73222 -1.63430 0.48836 71 72 112
2.79249 -1.67859 0.47856 171 173 184
2.76878 -1.68837 0.48987 198 191 182
3.27116 -2.23559 0.45698 162 143 118
3.23588 -2.22806 0.46776 156 137 105
3.21988 -2.23886 0.46058 165 149 107
3.21309 -2.22832 0.47613 149 126 92
3.08900 -2.17763 0.50741 131 106 98
3.06789 -2.17834 0.51529 144 124 105
3.00304 -2.15021 0.53119 147 140 132
2.97363 -2.14505 0.54048 163 173 181
2.95818 -2.14901 0.54719 187 200 207
2.94313 -2.15917 0.54044 186 190 195
2.94763 -2.15620 0.55301 191 195 201
2.93246 -2.16027 0.55964 194 192 179
2.92577 -2.17005 0.56476 86 103 91
2.78749 -2.38378 0.67370 158 166 160
2.79441 -2.40489 0.67696 115 113 111
2.77896 -2.41533 0.67003 108 107 101
2.77914 -2.40868 0.68356 100 97 84
2.76075 -2.40994 0.69060 94 83 61
2.75357 -2.42006 0.69599 85 71 51
2.74899 -2.42546 0.71451 78 72 67
2.74358 -2.42796 0.70179 79 66 50
2.72203 -2.44247 0.71362 66 61 48
2.73742 -2.43208 0.72053 77 73 56
2.73201 -2.43458 0.70782 70 62 50
2.72743 -2.43997 0.72632 79 74 49
2.71745 -2.44786 0.73212 84 75 50
2.71960 -2.45656 0.71836 73 69 48
2.71501 -2.46196 0.73691 88 77 47
2.70959 -2.46447 0.72417 83 77 46
2.70889 -2.48011 0.72872 81 74 49
2.71432 -2.47759 0.74150 88 78 52
2.71044 -2.49773 0.73298 84 85 75
2.70754 -2.51173 0.73788 101 108 94
2.70428 -2.52551 0.74284 72 67 45
2.70368 -2.54163 0.74748 36 21 13
2.69352 -2.54966 0.75338 36 17 21
2.67416 -2.54974 0.76045 63 39 30
2.66122 -2.55531 0.76669 80 64 26
2.64606 -2.55889 0.77319 106 84 42
2.62674 -2.55875 0.78019 154 143 121
2.63437 -2.58240 0.78389 176 180 169
2.62349 -2.58973 0.78986 163 165 160
2.62221 -2.60568 0.79470 141 151 148
2.63202 -2.63175 0.79828 123 138 139
2.62808 -2.64555 0.80349 109 110 131
2.61804 -2.65384 0.80942 86 77 105
2.60224 -2.66451 0.80233 41 22 20
2.60503 -2.65941 0.81568 70 59 70
2.59666 -2.66923 0.82142 54 40 43
2.58354 -2.67464 0.82769 34 22 33
2.57113 -2.68070 0.83386 28 15 33
2.55757 -2.68562 0.84015 36 21 32
2.54211 -2.68871 0.84662 58 37 40
2.53187 -2.69673 0.85255 81 63 60
2.50841 -2.69200 0.85979 105 104 81
2.50218 -2.70382 0.86530 132 127 57
2.49579 -2.71555 0.87084 123 106 43
2.48719 -2.72514 0.87661 122 96 46
2.48170 -2.73784 0.88209 140 118 46
2.47046 -2.74486 0.88810 142 112 42
2.45696 -2.74961 0.89432 134 97 37
2.44539 -2.75626 0.90036 102 73 50
2.43502 -2.76411 0.90628 128 113 76
2.38347 -2.78498 0.93077 147 129 79
2.39909 -2.77443 0.93779 155 126 72
2.39361 -2.77697 0.92488 151 123 81
2.38896 -2.78244 0.94367 156 131 65
2.36836 -2.78777 0.93704 144 122 70
2.35431 -2.79161 0.94321 140 116 73
2.33750 -2.79245 0.94956 136 112 79
2.32549 -2.79835 0.95555 134 107 76
2.30755 -2.79782 0.96193 115 94 68
2.29133 -2.79904 0.96817 96 78 55
2.28064 -2.80622 0.97403 88 71 45
2.27852 -2.82283 0.97936 88 75 41
2.26957 -2.83199 0.98512 104 89 46
2.25408 -2.84245 0.97817 118 98 52
2.10332 -2.91206 1.06760 134 106 45
2.09794 -2.91455 1.05495 127 97 32
2.09122 -2.91727 1.07344 134 110 67
2.08992 -2.93578 1.07899 132 124 93
2.07682 -2.93977 1.08485 165 174 137
2.05948 -2.93841 1.09079 153 151 124
2.04879 -2.94529 1.09657 129 123 70
2.03969 -2.95419 1.10232 117 120 55
2.01020 -2.93703 1.10835 85 71 37
2.00568 -2.94235 1.12660 47 48 46
2.00036 -2.94481 1.11407 54 45 39
1.62904 -2.60915 1.15724 62 61 48
1.63296 -2.60453 1.14139 72 68 51
1.61951 -2.61457 1.16219 41 43 45
1.61123 -2.62168 1.16716 39 37 39
1.60846 -2.63648 1.17222 88 84 65
1.60158 -2.64562 1.17723 142 138 113
1.58835 -2.65455 1.17130 150 133 111
1.38178 -2.78543 1.29558 160 144 128
1.36866 -2.79429 1.28969 200 201 179
1.27035 -2.74162 1.32414 206 206 193
1.28305 -2.73304 1.32985 207 208 200
1.27859 -2.73511 1.31936 208 208 198
1.27413 -2.73717 1.30887 208 208 198
1.25809 -2.74104 1.32845 189 189 172
1.24079 -2.73137 1.33210 165 162 148
1.23601 -2.74392 1.33728 160 156 140
1.22339 -2.75245 1.33161 158 150 137
1.22629 -2.74764 1.34183 150 145 134
1.18763 -2.87366 1.39045 152 160 154
1.20054 -2.86494 1.39625 159 166 161
1.19601 -2.86704 1.38559 161 168 158
1.17652 -2.87494 1.39485 141 144 147
1.16525 -2.87582 1.39920 144 143 152
1.15462 -2.87790 1.40363 153 160 156
1.14178 -2.88657 1.39787 159 172 168
1.14541 -2.88273 1.40831 157 171 164
1.13257 -2.89140 1.40255 160 171 170
1.06296 -3.00034 1.47057 150 152 150
1.06683 -2.99579 1.45494 162 171 167
1.09034 -3.33568 1.55253 88 107 113
1.08220 -3.34544 1.55817 101 123 129
1.07405 -3.35519 1.56381 112 133 136
1.06912 -3.37295 1.57048 121 145 152
1.06512 -3.39323 1.57749 131 159 170
1.05968 -3.41010 1.58409 141 169 179
1.05193 -3.42129 1.58998 155 180 189
1.04533 -3.43547 1.59628 169 188 202
1.00297 -3.48334 1.62482 199 203 205
1.00725 -3.47830 1.60753 205 214 217
0.99869 -3.48838 1.64211 198 198 201
0.99364 -3.49071 1.63024 199 201 204
0.96549 -3.51240 1.64643 208 210 215
0.96977 -3.50736 1.62914 201 203 205
0.96044 -3.51474 1.63456 203 205 212
0.95680 -3.52158 1.65211 215 217 220
0.91924 -3.55043 1.67370 225 223 207
0.92352 -3.54539 1.65640 225 225 224
0.91418 -3.55277 1.66182 225 225 221
0.91085 -3.56060 1.67954 207 195 153
0.90595 -3.58118 1.68696 164 141 84
0.90090 -3.60156 1.69439 131 106 54
0.89658 -3.60664 1.71183 121 103 81
0.89149 -3.60899 1.69985 119 99 72
3.10653 -1.51741 0.30664 213 216 219
3.11996 -1.50834 0.31266 217 210 211
3.11524 -1.51052 0.30158 216 217 221
3.11053 -1.51270 0.29049 184 182 201
3.11125 -1.51523 0.31772 218 211 212
3.10254 -1.52212 0.32278 218 213 214
3.10239 -1.52637 0.31058 209 213 216
3.09839 -1.53109 0.32675 218 215 218
3.08119 -1.53843 0.32162 199 199 215
3.07185 -1.54503 0.32683 192 191 210
3.06661 -1.55354 0.33106 181 183 191
3.04672 -1.55517 0.33879 171 172 180
3.02342 -1.55511 0.34732 161 159 176
2.90626 -1.52078 0.38097 136 140 163
2.89534 -1.52620 0.38643 131 136 165
2.87594 -1.52746 0.39389 130 133 164
2.86306 -1.53616 0.38810 113 114 128
2.85917 -1.52994 0.40070 126 124 156
2.84632 -1.53861 0.39494 113 114 126
2.83705 -1.54040 0.41165 114 113 133
2.82422 -1.54906 0.40589 116 119 124
2.81167 -1.53843 0.42042 112 114 129
2.79891 -1.54704 0.41469 116 120 126
2.80493 -1.54575 0.42487 111 113 132
2.79217 -1.55436 0.41914 114 119 125
2.79063 -1.54923 0.43106 112 114 134
2.77790 -1.55783 0.42534 112 118 125
2.69514 -1.59662 0.47890 116 108 112
2.69422 -1.60707 0.48207 107 93 104
2.72963 -1.63744 0.47732 55 47 98
2.72389 -1.64548 0.48160 158 156 170
2.76240 -1.67807 0.47632 207 203 210
2.75054 -1.68289 0.48197 205 198 189
2.83797 -1.74349 0.46634 127 115 115
2.83397 -1.74821 0.48254 59 42 50
2.82923 -1.75040 0.47142 70 60 59
3.29804 -2.24384 0.43328 165 162 157
3.30286 -2.23816 0.41379 170 172 169
3.26223 -2.23613 0.44432 164 153 124
3.23167 -2.23156 0.45428 163 149 115
3.12870 -2.19487 0.48209 163 139 97
3.11307 -2.20543 0.47507 171 139 99
3.05526 -2.17612 0.50392 170 140 95
3.02052 -2.16770 0.51438 153 140 110
2.95781 -2.15473 0.53385 175 182 193
2.94020 -2.17151 0.54485 189 192 190
2.89377 -2.16858 0.56108 63 57 49
2.92199 -2.20240 0.55990 88 113 146
2.91749 -2.20770 0.57810 163 179 186
2.79466 -2.38041 0.65481 170 177 170
2.81004 -2.37003 0.66172 161 168 168
2.80464 -2.37252 0.64902 167 174 171
2.78926 -2.38291 0.64211 174 180 182
2.78975 -2.39225 0.65982 160 166 157
2.78468 -2.40402 0.66487 117 109 109
2.76925 -2.41444 0.65794 116 110 96
2.76813 -2.42261 0.67597 111 110 96
2.75172 -2.42542 0.68275 96 82 50
2.74104 -2.43277 0.68866 84 73 41
2.72707 -2.43745 0.69504 66 57 46
2.71377 -2.44264 0.70132 47 39 48
2.71084 -2.45631 0.70610 55 47 53
2.70631 -2.46874 0.71113 72 70 48
2.69920 -2.47907 0.71654 70 71 54
2.70236 -2.49805 0.72052 81 77 75
2.68684 -2.50853 0.71356 140 155 130
2.69749 -2.51040 0.72565 125 137 115
2.69383 -2.52383 0.73063 118 120 97
2.69169 -2.53862 0.73543 91 62 30
2.67813 -2.54370 0.74177 99 65 12
2.66885 -2.55243 0.74754 116 91 18
2.65800 -2.55980 0.75352 113 95 24
2.64269 -2.56326 0.76007 132 106 58
2.62712 -2.57378 0.75307 171 136 89
2.61809 -2.55845 0.76778 164 139 108
2.61872 -2.57590 0.77228 164 146 136
2.61001 -2.58511 0.77797 127 103 111
2.63881 -2.62811 0.77906 76 58 61
2.63471 -2.64176 0.78427 38 32 39
2.62716 -2.65234 0.78990 30 18 35
2.61482 -2.65855 0.79610 34 18 27
2.59063 -2.67135 0.80844 56 28 14
2.57800 -2.67721 0.81466 72 37 13
2.56424 -2.68198 0.82099 81 54 23
2.54879 -2.68510 0.82750 93 77 50
2.53306 -2.68789 0.83403 130 120 100
2.52777 -2.70064 0.83942 158 158 133
2.50858 -2.70001 0.84629 177 181 155
2.49930 -2.70892 0.85210 185 185 149
2.49103 -2.71883 0.85782 174 163 122
2.48411 -2.73009 0.86341 147 120 64
2.47727 -2.74148 0.86900 161 135 76
2.46710 -2.74958 0.87492 166 133 71
2.45620 -2.75694 0.88091 156 118 52
2.44148 -2.76043 0.88725 113 91 55
2.43189 -2.76909 0.89311 118 94 64
2.41887 -2.77423 0.89928 140 122 68
2.41420 -2.77973 0.91814 156 128 80
2.40406 -2.77748 0.90559 144 120 80
2.39408 -2.78571 0.91148 135 103 74
2.37842 -2.79628 0.90445 119 90 43
2.38098 -2.79066 0.91762 127 100 55
2.36534 -2.80123 0.91060 120 91 29
2.36606 -2.79365 0.92390 119 92 36
2.35044 -2.80419 0.91689 121 93 42
2.35036 -2.79576 0.93023 116 90 44
2.33478 -2.80628 0.92323 119 94 54
2.33318 -2.79619 0.93664 115 90 54
2.32291 -2.80396 0.94251 116 92 55
2.29697 -2.79476 0.94953 79 62 44
2.28152 -2.80519 0.94260 52 39 25
2.28659 -2.80229 0.95537 60 43 36
2.27115 -2.81272 0.94844 58 47 18
2.27927 -2.81317 0.96101 54 36 20
2.26904 -2.83996 0.97201 89 78 40
2.12484 -2.88746 1.03775 129 105 36
2.13477 -2.87961 1.03198 127 99 41
2.11548 -2.89600 1.04349 131 103 45
2.10898 -2.90802 1.04913 127 96 37
2.08822 -2.92268 1.06072 128 99 48
2.07889 -2.93130 1.06647 126 99 61
2.05891 -2.92666 1.07254 149 147 113
2.04541 -2.92997 1.07838 161 161 132
2.03016 -2.94026 1.07154 148 147 122
2.03451 -2.93651 1.08415 167 169 126
2.02164 -2.94053 1.08996 178 178 122
2.02159 -2.96093 1.09550 126 105 66
1.97556 -2.92215 1.10187 63 45 28
1.96478 -2.92854 1.10755 52 52 43
1.96030 -2.93381 1.12563 62 65 53
1.95502 -2.93625 1.11322 62 65 52
1.63107 -2.62037 1.14637 63 62 48
1.63501 -2.61574 1.13047 74 71 51
1.61784 -2.62930 1.14044 38 40 40
1.62249 -2.62716 1.15136 39 42 44
1.61391 -2.63394 1.15634 38 39 43
1.60969 -2.64680 1.16137 95 89 70
1.60154 -2.65423 1.16637 145 137 113
1.58828 -2.66319 1.16042 152 133 109
1.39023 -2.78836 1.28018 147 120 93
1.40338 -2.77947 1.28608 159 135 106
1.39414 -2.78375 1.26436 158 132 105
1.39172 -2.81183 1.28600 165 153 124
1.37848 -2.82077 1.28006 206 210 181
1.27428 -2.75846 1.31458 204 203 191
1.27808 -2.75398 1.29922 206 207 197
1.25125 -2.73886 1.31771 184 181 167
1.24203 -2.74355 1.32236 170 162 152
1.23624 -2.75437 1.32742 169 166 149
1.22358 -2.76292 1.32173 152 149 136
1.19857 -2.88283 1.37604 155 165 152
1.21154 -2.87407 1.38186 160 167 163
1.20698 -2.87617 1.37115 161 170 167
1.18809 -2.88548 1.38059 144 148 141
1.17684 -2.88655 1.38501 140 147 147
1.16506 -2.88648 1.38931 151 162 154
1.15216 -2.89519 1.38352 160 170 167
1.15473 -2.88919 1.39383 157 170 164
1.14184 -2.89789 1.38804 162 171 172
1.06767 -3.02301 1.46201 154 162 154
1.07156 -3.01842 1.44626 160 169 170
1.06323 -3.03879 1.46791 141 141 139
1.05932 -3.04340 1.48370 135 142 141
1.05471 -3.04553 1.47286 135 139 140
1.05010 -3.04766 1.46202 141 143 141
1.05594 -3.10087 1.48740 135 143 139
1.06925 -3.09189 1.49338 136 143 143
1.06458 -3.09405 1.48239 136 142 143
1.05990 -3.09621 1.47140 143 146 143
1.04731 -3.10770 1.49242 100 109 117
1.08487 -3.22226 1.50969 80 91 104
1.08003 -3.22450 1.49833 75 94 117
1.08077 -3.22709 1.52625 63 64 76
1.07594 -3.22932 1.51488 77 98 109
1.08976 -3.31928 1.53419 86 112 129
1.10385 -3.30977 1.54051 69 77 84
1.09890 -3.31206 1.52888 80 105 119
1.08258 -3.33124 1.54006 93 119 142
1.07507 -3.34246 1.54586 102 128 153
1.06871 -3.35660 1.55202 111 135 164
1.06370 -3.37419 1.55862 120 146 172
1.05864 -3.39185 1.56526 130 157 182
1.05324 -3.40881 1.57184 140 168 191
1.04588 -3.42100 1.57784 150 178 196
1.03891 -3.43425 1.58398 164 187 204
1.03167 -3.44692 1.59007 175 195 212
1.02236 -3.45427 1.59547 186 203 216
0.99627 -3.48124 1.61235 209 216 215
1.00054 -3.47620 1.59508 209 218 221
0.99122 -3.48357 1.60049 214 221 219
0.98598 -3.48597 1.61740 208 211 208
0.98171 -3.49100 1.63466 201 205 201
0.97667 -3.49333 1.62281 203 205 203
0.94345 -3.53425 1.64607 216 218 217
0.93411 -3.54163 1.65150 222 225 224
0.90310 -3.55496 1.66648 222 221 205
0.90737 -3.54992 1.64921 223 224 223
0.89805 -3.55729 1.65462 223 224 219
0.89318 -3.56054 1.67163 211 199 151
0.88682 -3.57683 1.67837 167 142 79
0.87875 -3.58804 1.68437 129 102 59
0.87446 -3.59309 1.70169 118 101 85
0.86940 -3.59543 1.68980 119 98 77
3.00331 -1.47498 0.31996 171 169 188
3.00719 -1.47041 0.30428 131 129 158
2.97553 -1.47285 0.32964 157 160 176
2.97160 -1.48156 0.33342 146 151 167
2.95894 -1.48626 0.33935 139 141 169
2.93361 -1.48502 0.34837 133 135 167
2.92071 -1.49373 0.34258 111 117 128
2.92604 -1.49201 0.35304 125 131 151
2.91314 -1.50072 0.34725 115 116 127
2.90997 -1.49499 0.35977 123 123 142
2.89710 -1.50368 0.35399 114 116 126
2.91240 -1.50672 0.36201 119 115 136
2.89949 -1.51543 0.35621 114 119 121
2.88984 -1.51716 0.37313 111 116 125
2.87695 -1.52586 0.36735 117 121 125
2.87796 -1.52206 0.37883 111 115 128
2.86509 -1.53076 0.37305 115 120 125
2.86218 -1.52504 0.38545 112 115 129
2.84934 -1.53371 0.37968 112 118 125
2.69672 -1.56935 0.45838 117 106 111
2.70488 -1.56290 0.45365 113 109 117
2.70114 -1.56731 0.46876 113 118 127
2.68483 -1.57380 0.46396 119 108 114
2.68189 -1.58304 0.46752 125 117 132
2.65648 -1.58015 0.47613 151 142 146
2.72319 -1.63848 0.46713 70 63 121
2.68728 -1.62984 0.47807 151 142 155
2.75414 -1.67815 0.46633 203 198 209
2.74045 -1.68193 0.47239 205 195 195
2.74716 -1.69716 0.47400 162 137 140
2.79156 -1.73390 0.46745 130 73 85
2.78292 -1.74073 0.47247 221 201 182
2.77823 -1.74290 0.46147 222 203 181
3.28513 -2.24191 0.42134 165 163 164
3.28994 -2.23624 0.40189 172 173 170
3.23297 -2.22375 0.43573 134 116 127
3.21225 -2.22533 0.44380 121 99 94
3.19068 -2.22628 0.45201 160 131 81
3.17479 -2.23701 0.44488 182 158 119
3.13279 -2.20362 0.46731 173 149 107
3.11712 -2.21420 0.46027 175 143 102
3.03936 -2.18616 0.49712 151 121 118
3.01046 -2.18148 0.50653 138 129 134
2.96902 -2.16822 0.51827 153 160 170
2.94394 -2.16572 0.52686 174 187 193
2.93419 -2.17348 0.53253 178 186 191
2.93041 -2.18530 0.53710 175 173 172
2.90454 -2.18201 0.54576 67 61 111
2.91204 -2.20165 0.54826 115 133 132
2.91867 -2.22084 0.55095 114 125 127
2.90348 -2.23110 0.54413 134 141 123
2.86260 -2.33029 0.60095 150 164 164
2.87800 -2.31990 0.60787 147 158 152
2.87259 -2.32240 0.59515 153 160 156
2.86801 -2.32780 0.61367 149 157 157
2.85802 -2.33569 0.61947 149 157 161
2.84097 -2.32949 0.60872 147 160 171
2.83640 -2.33486 0.62717 152 159 163
2.82678 -2.33417 0.61521 149 165 172
2.82222 -2.33953 0.63363 156 162 165
2.81222 -2.33852 0.62175 149 168 172
2.80766 -2.34388 0.64015 162 165 168
2.80774 -2.35051 0.62662 152 172 175
2.80318 -2.35588 0.64504 165 168 172
2.80433 -2.36339 0.63132 152 175 180
2.79974 -2.37541 0.63624 164 178 182
2.78871 -2.39818 0.64640 177 182 170
2.77453 -2.40280 0.65288 137 142 125
2.75711 -2.42065 0.66409 135 138 119
2.74767 -2.42901 0.66981 106 94 62
2.73694 -2.43634 0.67573 89 81 61
2.72192 -2.44016 0.68230 71 70 58
2.71661 -2.45188 0.68740 40 34 34
2.70033 -2.45461 0.69414 41 25 41
2.69248 -2.46427 0.69962 69 64 41
2.70179 -2.48828 0.70261 89 97 86
2.70232 -2.50512 0.70693 117 121 114
2.68560 -2.52400 0.71816 115 115 114
2.68385 -2.53915 0.72286 92 69 47
2.67306 -2.54658 0.72883 130 102 49
2.64295 -2.53723 0.73744 166 135 62
2.63039 -2.54299 0.74362 174 138 65
2.62033 -2.55093 0.74946 174 140 80
2.60716 -2.57299 0.76023 154 118 87
2.64080 -2.62016 0.76045 112 72 55
2.63834 -2.63526 0.76540 80 38 19
2.62841 -2.64365 0.77131 79 45 11
2.61658 -2.65032 0.77746 89 61 13
2.60259 -2.65496 0.78387 100 72 20
2.59348 -2.66410 0.78968 109 79 33
2.58423 -2.67311 0.79550 118 87 33
2.57174 -2.67910 0.80172 129 97 29
2.55092 -2.67718 0.80889 137 107 49
2.53722 -2.68190 0.81521 143 116 77
2.52915 -2.69197 0.82088 160 144 122
2.51617 -2.69734 0.82711 182 182 169
2.50275 -2.70224 0.83338 189 193 187
2.49146 -2.70919 0.83940 204 212 210
2.48341 -2.71930 0.84508 203 200 188
2.47750 -2.73156 0.85055 169 159 128
2.46180 -2.74217 0.84350 172 146 94
2.46838 -2.74068 0.85636 172 144 80
2.45267 -2.75128 0.84930 178 151 97
2.45992 -2.75047 0.86210 178 147 84
2.45061 -2.75943 0.86794 162 128 77
2.43768 -2.76472 0.87413 137 106 60
2.42228 -2.76745 0.88054 106 66 31
2.41438 -2.77783 0.88623 117 97 53
2.39869 -2.78843 0.87919 122 95 45
2.40149 -2.78307 0.89240 118 91 57
2.38581 -2.79365 0.88536 123 94 51
2.39080 -2.79057 0.89835 116 90 60
2.37513 -2.80115 0.89131 122 92 46
2.31436 -2.80314 0.92993 118 92 51
2.31897 -2.79770 0.91127 121 94 54
2.29092 -2.79659 0.93682 63 42 26
2.27548 -2.80702 0.92989 64 52 20
2.26988 -2.83033 0.95363 55 45 17
2.27449 -2.82490 0.93499 67 54 22
2.26907 -2.84858 0.95882 86 75 39
2.25957 -2.85722 0.96463 117 96 50
2.25494 -2.86267 0.98334 124 97 48
2.24947 -2.86520 0.97050 124 95 44
2.24401 -2.86772 0.95765 122 95 42
2.12271 -2.87412 1.01967 128 101 46
2.13798 -2.86382 1.02652 128 100 56
2.13262 -2.86629 1.01392 126 98 51
2.12726 -2.86877 1.00131 126 97 47
