ply
format ascii 1.0
element face 0
property list uchar int vertex_indices
element vertex 1369
property float x
property float y
property float z
property uchar diffuse_red
property uchar diffuse_green
property uchar diffuse_blue
end_header
0.58110 -4.34552 1.66651 45 42 41
0.56271 -4.36004 1.65790 34 38 35
0.74833 -5.12901 1.81286 38 44 43
0.76940 -5.11236 1.82272 36 42 41
0.76211 -5.11692 1.80437 34 43 37
0.75562 -5.12445 1.83121 38 43 44
0.73812 -5.14913 1.82213 45 49 48
0.73242 -5.17960 1.83247 50 56 53
0.71776 -5.18989 1.84080 55 59 59
0.70381 -5.20181 1.84930 57 64 62
0.69664 -5.22945 1.85944 58 65 62
0.68991 -5.25839 1.86975 61 64 67
0.66861 -5.27521 1.85978 77 78 84
0.68654 -5.29553 1.88099 65 66 71
0.66514 -5.31243 1.87098 78 78 84
0.36886 -4.83061 1.87727 53 48 50
0.34839 -4.82172 1.88267 24 19 17
0.32921 -4.83686 1.87369 26 20 14
0.31142 -4.85640 1.90603 61 63 56
-0.06648 -4.50013 1.95433 86 59 45
-0.07594 -4.51538 1.96202 50 46 37
-0.09267 -4.50848 1.96654 81 92 74
2.22741 -1.59083 0.28641 133 112 91
2.27861 -1.62629 0.27619 82 63 67
2.23714 -1.64616 0.29734 77 65 54
2.24681 -1.63769 0.29139 83 67 61
2.22236 -1.65784 0.29042 50 40 39
2.22697 -1.65441 0.30342 58 53 45
2.20974 -1.65938 0.31134 57 48 45
2.19385 -1.66493 0.31890 74 62 53
2.18932 -1.67019 0.33765 83 65 64
2.18422 -1.67338 0.32483 82 66 59
2.17912 -1.67656 0.31201 83 67 57
3.03022 -2.26703 0.15795 76 71 62
3.01163 -2.28171 0.14925 63 48 41
2.97962 -2.25787 0.17491 68 51 42
2.96119 -2.27243 0.16628 65 49 40
2.65654 -2.36893 0.32812 96 79 74
2.66207 -2.36253 0.30529 103 84 68
2.64177 -2.37744 0.33604 47 42 96
2.62526 -2.38489 0.34434 48 61 114
2.60214 -2.38839 0.35413 56 80 141
2.58428 -2.40249 0.34577 18 22 113
2.60455 -2.40704 0.35814 23 27 98
2.59442 -2.41827 0.36500 20 24 104
2.57650 -2.43242 0.35661 28 29 123
2.58247 -2.42840 0.37226 27 30 119
2.56454 -2.44255 0.36387 26 29 116
2.53529 -2.54039 0.42001 18 28 106
2.55342 -2.52607 0.42849 15 25 102
2.54715 -2.52999 0.41271 17 26 102
2.52803 -2.55374 0.42632 21 36 127
2.50989 -2.56807 0.41783 27 40 142
2.52358 -2.58712 0.43688 38 38 104
2.52054 -2.60342 0.44236 48 36 56
2.52613 -2.62549 0.44606 64 47 42
2.53893 -2.65252 0.44832 79 66 42
2.54796 -2.67726 0.45141 89 76 46
2.55327 -2.69967 0.45532 97 82 50
2.54753 -2.70632 0.47904 109 87 48
2.54109 -2.71035 0.46281 105 86 51
2.47485 -2.99925 0.56473 118 92 40
2.48080 -2.99236 0.54016 111 91 49
2.47475 -3.01992 0.57024 89 68 26
2.47068 -3.03764 0.57650 66 37 17
2.45470 -3.04621 0.58489 97 76 43
2.44470 -3.05942 0.59222 117 92 48
2.43873 -3.06634 0.61692 120 91 47
2.43202 -3.07054 0.60003 119 93 51
2.41111 -3.07514 0.60926 118 95 59
2.41781 -3.07095 0.62611 120 92 50
2.40515 -3.08205 0.63390 122 92 51
2.38610 -3.07639 0.61917 116 96 55
2.37056 -3.08510 0.62744 112 91 46
2.35417 -3.09310 0.63584 106 85 38
2.32317 -3.11044 0.65231 98 83 52
2.31725 -3.11731 0.67680 106 88 46
2.31059 -3.12147 0.66005 98 85 59
2.19091 -3.17135 0.71912 87 81 70
2.18643 -3.21115 0.73138 87 79 58
2.19378 -3.23968 0.73612 84 66 58
2.18926 -3.25791 0.74269 87 64 73
2.14279 -3.23877 0.75542 108 100 103
2.03396 -3.16317 0.77709 149 144 141
2.00510 -3.15879 0.78699 171 162 136
1.98858 -3.16545 0.79508 150 135 93
1.82222 -3.05552 0.82970 48 43 66
1.71870 -2.98035 0.84945 107 104 90
1.69360 -2.97741 0.85829 141 127 114
1.67635 -2.99104 0.85021 144 123 101
1.14320 -2.88774 1.04543 149 167 192
1.14800 -2.88217 1.02557 139 141 164
1.13780 -2.89112 1.03184 128 136 168
1.12760 -2.90006 1.03812 118 140 181
1.11488 -2.87679 1.05338 177 202 229
1.10810 -2.88938 1.05931 202 222 249
1.09781 -2.89813 1.06557 197 211 241
1.08902 -2.90854 1.07170 177 191 225
1.08093 -2.94021 1.08319 143 156 197
1.07203 -2.95064 1.08936 124 145 187
1.06395 -2.96203 1.09547 115 137 175
1.05229 -2.96929 1.10187 108 130 174
1.04524 -2.98193 1.10792 105 124 163
1.04344 -3.00078 1.11360 103 119 160
1.03635 -3.01350 1.11969 101 113 149
1.03245 -3.05142 1.13123 97 89 108
1.01158 -3.04776 1.13825 100 104 120
0.99979 -3.05495 1.14468 101 107 124
0.99231 -3.06739 1.15084 101 99 119
0.98648 -3.08191 1.15692 104 99 114
0.97450 -3.08889 1.16335 105 101 112
0.96449 -3.09828 1.16968 106 97 112
0.94231 -3.11436 1.18244 110 106 125
0.93686 -3.11777 1.16873 117 112 126
0.92996 -3.12078 1.18887 112 117 128
0.92034 -3.13065 1.19517 115 128 137
0.90460 -3.14308 1.18781 122 134 141
0.77867 -3.43084 1.32898 103 123 143
0.79492 -3.41800 1.33659 102 121 140
0.78930 -3.42152 1.32244 104 125 142
0.78430 -3.42732 1.34313 101 121 139
0.77367 -3.43663 1.34967 100 119 138
0.77053 -3.44386 1.33555 101 121 141
0.76552 -3.44967 1.35626 98 117 137
0.76179 -3.45605 1.34213 95 115 138
0.75678 -3.46186 1.36285 97 115 136
0.75158 -3.46604 1.34869 92 111 137
0.74656 -3.47185 1.36942 95 113 136
0.74629 -3.48356 1.35536 91 111 137
0.74126 -3.48939 1.37613 93 112 139
0.74279 -3.50397 1.36211 90 112 139
0.73775 -3.50981 1.38294 93 111 140
0.73986 -3.52541 1.36891 90 112 141
0.73480 -3.53128 1.38982 90 111 140
0.72912 -3.53483 1.37552 90 112 140
0.68905 -3.60399 1.40919 75 100 120
0.68905 -3.63109 1.41638 55 60 75
0.67995 -3.64350 1.42315 35 31 33
0.66334 -3.65661 1.41537 37 39 39
0.75938 -3.94910 1.47368 34 28 36
0.76483 -3.94279 1.45115 27 27 26
0.74168 -3.96308 1.46539 42 41 49
0.75534 -3.97229 1.48137 45 42 43
0.74899 -3.99165 1.48893 53 54 55
0.74442 -4.01425 1.49667 62 57 71
0.73424 -4.02713 1.50398 56 52 54
0.72874 -4.03350 1.52672 60 57 56
0.71638 -4.04123 1.49562 44 45 42
0.70967 -4.10848 1.53495 56 60 45
0.71522 -4.10205 1.51199 50 57 53
0.69993 -4.12260 1.54242 69 74 66
0.68188 -4.13686 1.53397 71 68 66
0.69180 -4.13974 1.55008 74 65 66
0.68507 -4.15963 1.55792 71 65 70
0.67719 -4.17746 1.56567 72 75 65
0.65148 -4.22772 1.58884 75 73 70
0.64177 -4.24248 1.59646 70 73 61
0.62353 -4.25689 1.58792 64 64 56
0.63300 -4.25911 1.60423 61 54 53
0.61473 -4.27354 1.59568 68 67 59
0.62585 -4.27905 1.61225 60 53 45
0.60754 -4.29351 1.60368 67 67 55
0.61908 -4.29988 1.62037 61 63 58
0.59886 -4.32857 1.63571 72 72 52
0.59309 -4.35183 1.64409 58 52 49
0.58086 -4.36204 1.65148 41 38 41
0.56242 -4.37660 1.64285 30 33 34
0.74124 -5.09135 1.78324 42 50 36
0.76219 -5.07480 1.79305 35 42 41
0.75494 -5.07933 1.77481 39 46 38
0.74769 -5.08387 1.75657 42 49 41
0.73274 -5.11501 1.79277 48 53 45
0.72384 -5.13796 1.80226 56 61 52
0.71677 -5.16524 1.81220 63 68 60
0.69566 -5.18191 1.80232 78 82 85
0.70205 -5.17525 1.82049 68 72 70
0.68095 -5.19192 1.81061 79 81 81
0.68704 -5.18453 1.82870 68 74 73
0.66595 -5.20119 1.81883 74 78 75
0.67823 -5.20824 1.83835 67 74 71
0.65710 -5.22493 1.82846 74 79 77
0.67177 -5.23768 1.84863 72 75 75
0.65057 -5.25442 1.83870 75 82 87
0.36740 -4.84788 1.86198 38 31 37
0.34810 -4.86313 1.85295 18 22 20
0.34352 -4.83035 1.86649 22 19 15
0.31623 -4.84671 1.88128 34 34 22
0.30262 -4.85489 1.88866 77 82 61
-0.07539 -4.49489 1.93813 110 79 65
-0.07832 -4.52999 1.94855 58 37 42
-0.09543 -4.52196 1.95298 56 60 60
2.21806 -1.56701 0.26829 158 144 111
2.21784 -1.57942 0.27163 169 153 109
2.22990 -1.59734 0.27167 115 98 74
2.24790 -1.61806 0.27015 75 63 56
2.24742 -1.63063 0.27362 70 65 57
2.23462 -1.63767 0.28041 68 63 50
2.21986 -1.64933 0.27350 50 42 48
3.01773 -2.26794 0.14329 64 55 51
2.99917 -2.28261 0.13460 56 42 43
2.65234 -2.37398 0.31204 83 71 69
2.63440 -2.38815 0.30364 24 26 84
2.63907 -2.38337 0.31962 33 31 88
2.62316 -2.39119 0.32781 28 43 106
2.60524 -2.40534 0.31942 19 25 113
2.60992 -2.40055 0.33537 18 30 117
2.59200 -2.41470 0.32698 22 27 118
2.58877 -2.42247 0.34927 22 30 118
2.58256 -2.42635 0.33366 22 28 118
2.57084 -2.43663 0.34088 25 26 117
2.54894 -2.53906 0.39516 23 30 113
2.56710 -2.52471 0.40367 19 23 103
2.55453 -2.53257 0.37204 28 33 117
2.53856 -2.55043 0.40215 24 34 125
2.52039 -2.56477 0.39364 24 40 147
2.53444 -2.56585 0.40778 23 39 139
2.51624 -2.58023 0.39926 26 40 151
2.51980 -2.59272 0.42046 32 37 119
2.52084 -2.61173 0.42504 36 30 58
2.50254 -2.62618 0.41647 36 27 56
2.51881 -2.62882 0.43029 49 36 43
2.52960 -2.65456 0.43287 66 55 40
2.53661 -2.67795 0.43630 79 67 42
2.54948 -2.70550 0.43854 89 75 49
2.54962 -2.72459 0.44349 98 82 53
2.54386 -2.73127 0.46729 107 87 52
2.53739 -2.73531 0.45101 104 86 54
2.50438 -3.03108 0.54120 113 91 43
2.51038 -3.02414 0.51641 112 90 48
2.49765 -3.03530 0.52425 111 91 51
2.48179 -3.03467 0.55086 98 79 31
2.50068 -3.07025 0.55289 63 34 18
2.47066 -3.06806 0.56390 84 72 27
2.45456 -3.07661 0.57235 101 88 41
2.43633 -3.08344 0.58117 99 81 49
2.41775 -3.08994 0.59004 92 76 43
2.40425 -3.10043 0.59799 81 68 37
2.38656 -3.10754 0.60668 71 56 39
2.36061 -3.10790 0.61679 77 66 44
2.34238 -3.11442 0.62553 88 81 59
2.32973 -3.12546 0.63330 93 84 72
2.30592 -3.12728 0.64297 90 84 73
2.29999 -3.13414 0.66747 98 87 60
2.29451 -3.13929 0.65051 89 83 74
2.28858 -3.14616 0.67502 98 86 60
2.28275 -3.15102 0.65812 90 82 76
2.27682 -3.15789 0.68264 94 85 61
2.26852 -3.16068 0.66614 87 83 80
2.26259 -3.16755 0.69065 92 83 66
2.25015 -3.16680 0.67484 88 85 86
2.24423 -3.17366 0.69930 92 80 70
2.24398 -3.18330 0.68154 93 90 91
2.22417 -3.18811 0.69044 98 98 93
2.20737 -3.19547 0.69885 105 105 93
2.19576 -3.20729 0.70642 109 105 85
2.18360 -3.21865 0.71409 99 92 57
2.20361 -3.25844 0.71679 66 52 32
2.20711 -3.28393 0.72211 32 21 33
2.17893 -3.28123 0.73228 50 56 56
2.04227 -3.18053 0.75864 112 125 104
2.01781 -3.18018 0.76799 143 151 116
1.99914 -3.19493 0.75925 78 80 76
1.97183 -3.16002 0.78045 133 128 81
1.72684 -2.99728 0.83236 102 98 82
1.72082 -3.00105 0.81721 95 90 79
1.70751 -2.99980 0.84048 141 125 108
1.69015 -3.01351 0.83235 144 123 98
1.11582 -2.90726 1.04455 120 147 194
1.12063 -2.90170 1.02470 107 123 156
1.10062 -2.91061 1.05130 114 139 187
1.09556 -2.92528 1.05709 107 132 174
1.09058 -2.94013 1.06290 101 124 160
1.07194 -2.96011 1.07532 96 112 151
1.06433 -2.97209 1.08140 98 111 137
1.05394 -2.98087 1.08771 98 97 120
1.04512 -2.99150 1.09389 95 81 102
1.03837 -3.00459 1.09992 97 75 101
1.04403 -3.03245 1.10504 99 88 112
1.03304 -3.04068 1.11143 102 94 113
1.01727 -3.05313 1.10405 108 73 87
1.01574 -3.06279 1.12390 107 95 106
0.99995 -3.07526 1.11651 112 93 114
1.00490 -3.07122 1.13029 109 99 113
0.99217 -3.07731 1.13679 108 89 99
0.98508 -3.09034 1.14294 107 75 87
0.97602 -3.10096 1.14922 106 73 95
0.95771 -3.10002 1.15604 109 91 115
0.94375 -3.10444 1.16258 114 109 126
0.92531 -3.12519 1.17513 119 118 132
0.92024 -3.14095 1.18121 121 131 141
0.90447 -3.15340 1.17383 127 137 146
0.82836 -3.36640 1.27570 116 131 148
0.84456 -3.35361 1.28328 113 127 144
0.83895 -3.35711 1.26918 119 131 148
0.83397 -3.36289 1.28980 112 127 143
0.82338 -3.37218 1.29631 111 126 141
0.81724 -3.37491 1.28222 112 130 146
0.81226 -3.38069 1.30283 114 125 140
0.80675 -3.38433 1.28873 111 127 142
0.80177 -3.39011 1.30934 111 124 144
0.79582 -3.39311 1.29525 105 121 141
0.79084 -3.39889 1.31586 109 125 142
0.79037 -3.40994 1.30176 98 115 138
0.78263 -3.42349 1.30829 89 108 132
0.77476 -3.43691 1.31484 84 98 129
0.77241 -3.45866 1.32145 77 89 123
0.77021 -3.48082 1.32810 68 82 114
0.76169 -3.49356 1.33472 67 80 112
0.75547 -3.50986 1.34139 71 83 116
0.75305 -3.53212 1.34816 72 81 118
0.73562 -3.53122 1.35464 74 90 129
0.72957 -3.54800 1.36137 83 108 141
0.72450 -3.55388 1.38234 90 111 138
0.71880 -3.55744 1.36800 89 112 136
0.69687 -3.60250 1.38826 84 111 133
0.71341 -3.58944 1.39601 85 110 136
0.70769 -3.59302 1.38161 86 112 137
0.70196 -3.59660 1.36721 88 113 138
0.68594 -3.61181 1.39492 74 96 113
0.68734 -3.64129 1.40210 52 53 69
0.68394 -3.66315 1.40913 37 37 40
0.75106 -3.94915 1.45813 37 34 42
0.73338 -3.96311 1.44985 40 39 50
0.74391 -3.99738 1.47352 45 43 40
0.73775 -4.00123 1.45802 43 37 38
0.72611 -4.01144 1.46518 43 39 47
0.73853 -4.01863 1.48116 48 47 54
0.72068 -4.03273 1.47280 40 38 43
0.72852 -4.03182 1.48847 46 45 45
0.71066 -4.04592 1.48011 43 41 42
0.70880 -4.12222 1.51975 62 67 53
0.71436 -4.11576 1.49674 51 55 57
0.70254 -4.12613 1.50402 57 62 60
0.69771 -4.13393 1.52710 67 72 62
0.67963 -4.14821 1.51864 62 67 69
0.68626 -4.17750 1.54293 66 63 62
0.67615 -4.19128 1.55044 62 64 59
0.66620 -4.20541 1.55798 64 63 63
0.65738 -4.22178 1.56566 68 67 64
0.64587 -4.23303 1.57305 77 79 66
0.63815 -4.25167 1.58091 73 78 56
0.60693 -4.32683 1.61264 68 66 62
0.59951 -4.34675 1.62072 63 60 45
0.59287 -4.36838 1.62894 50 44 38
0.58078 -4.37898 1.63639 36 32 35
0.56229 -4.39359 1.62773 25 28 26
0.72353 -5.07259 1.76293 50 56 43
0.71631 -5.07710 1.74477 47 56 54
0.70267 -5.08906 1.75317 53 58 55
0.71800 -5.10277 1.77297 57 61 51
0.71140 -5.13083 1.78287 63 70 57
0.69989 -5.14796 1.79179 69 77 71
0.37816 -4.85306 1.83871 62 54 60
0.36300 -4.85783 1.84581 25 23 31
0.34368 -4.87310 1.83676 19 23 22
0.32892 -4.85734 1.85883 21 20 19
0.31704 -4.87018 1.86678 47 46 32
0.30606 -4.88542 1.87500 98 98 70
0.28680 -4.90063 1.86599 132 120 99
0.29373 -4.89715 1.88283 130 120 95
0.27446 -4.91236 1.87382 131 118 99
-0.08635 -4.52743 1.93267 86 57 43
2.15644 -1.53304 0.26805 103 86 72
2.16083 -1.52795 0.24990 64 52 36
2.14218 -1.54430 0.26137 160 139 116
2.23662 -1.60575 0.25571 98 83 68
2.23289 -1.61680 0.26002 65 56 48
2.21819 -1.62840 0.25314 47 33 44
2.23587 -1.63092 0.26252 53 51 47
2.22718 -1.63980 0.26819 48 46 44
2.21442 -1.65973 0.27831 60 50 48
2.19964 -1.67140 0.27139 86 69 58
2.19804 -1.66507 0.28605 80 65 51
2.18329 -1.67672 0.27915 86 66 64
3.07947 -2.28998 0.10530 47 36 50
3.03712 -2.28526 0.12053 52 37 48
2.65885 -2.36815 0.28896 86 76 78
2.67680 -2.35397 0.29736 102 81 67
2.67059 -2.35786 0.28173 93 78 75
2.66438 -2.36174 0.26611 70 63 98
2.65098 -2.38070 0.29527 50 52 77
2.63301 -2.39489 0.28686 20 27 99
2.62939 -2.40243 0.30928 21 32 108
2.62317 -2.40632 0.29363 19 28 112
2.61141 -2.41663 0.30086 19 27 114
2.53987 -2.54120 0.37998 25 33 124
2.54546 -2.53473 0.35687 28 33 121
2.53359 -2.54513 0.36417 24 34 130
2.52172 -2.55554 0.37148 24 36 141
2.52840 -2.55187 0.38719 25 36 136
2.51025 -2.56620 0.37869 24 39 151
2.50875 -2.59356 0.40562 31 41 134
2.51436 -2.58706 0.38242 26 40 156
2.52609 -2.62335 0.40659 32 27 72
2.50774 -2.63784 0.39799 26 23 68
2.52333 -2.65862 0.41679 51 41 42
2.53050 -2.68217 0.42010 68 55 39
2.54793 -2.71287 0.42126 81 64 45
2.55397 -2.73603 0.42492 89 74 48
2.56420 -2.76226 0.42773 97 81 54
2.55839 -2.76899 0.45173 107 86 56
2.55187 -2.77307 0.43532 103 83 57
2.51295 -3.06809 0.52679 105 86 39
2.51899 -3.06109 0.50183 112 92 50
2.51380 -3.08994 0.53211 69 42 33
2.50382 -3.10347 0.53949 55 44 25
2.50106 -3.12271 0.54554 45 40 23
2.50976 -3.15114 0.54952 39 33 27
2.49423 -3.16047 0.55797 33 28 21
2.47489 -3.16672 0.56710 26 22 17
2.45571 -3.17303 0.57619 21 16 28
2.41890 -3.16493 0.58839 49 42 44
2.34868 -3.12922 0.60643 81 78 74
2.33726 -3.14136 0.61401 94 91 92
2.31645 -3.14571 0.62322 99 96 97
2.27483 -3.15413 0.64157 115 109 100
2.23972 -3.16775 0.65874 130 130 120
2.23070 -3.18179 0.66588 137 139 133
2.27302 -3.24020 0.66455 145 147 140
2.26765 -3.25778 0.67119 151 151 141
2.26046 -3.27387 0.67814 156 153 136
2.24629 -3.28387 0.68624 145 138 102
2.18587 -3.25284 0.70169 92 83 50
2.20691 -3.29397 0.70415 27 19 19
2.18663 -3.29837 0.71317 15 20 24
2.16938 -3.30541 0.72169 45 60 56
2.01362 -3.18629 0.75139 71 85 81
1.72036 -3.02131 0.82263 138 125 105
1.72574 -3.01508 0.80041 87 82 67
1.70290 -3.03510 0.81446 146 123 101
1.11294 -2.91342 1.03073 104 123 155
1.11774 -2.90786 1.01086 109 124 149
1.10754 -2.91680 1.01714 112 128 148
1.09833 -2.91744 1.03744 99 120 150
1.09105 -2.92966 1.04343 97 117 142
1.08441 -2.94264 1.04937 96 115 132
1.06700 -2.96403 1.06167 103 113 136
1.05818 -2.97462 1.06784 104 81 113
1.04910 -2.98493 1.07403 106 91 101
1.04049 -2.99581 1.08019 108 103 103
1.03656 -3.01226 1.08598 109 99 104
1.03755 -3.03465 1.09139 107 81 98
1.02905 -3.04586 1.09759 107 82 101
1.01138 -3.06755 1.11007 110 87 105
0.98733 -3.08149 1.12302 112 89 101
0.98187 -3.08490 1.10929 117 97 107
0.97156 -3.09395 1.11564 118 101 106
0.98088 -3.09532 1.12911 111 75 79
0.96508 -3.10780 1.12171 120 111 109
0.97291 -3.10733 1.13531 110 73 82
0.96211 -3.11581 1.14170 111 84 95
0.94112 -3.11140 1.14872 115 95 108
0.92699 -3.11554 1.15528 120 107 128
0.92487 -3.13502 1.16114 123 123 142
0.90909 -3.14747 1.15376 132 138 147
0.92111 -3.15253 1.16714 126 134 145
0.90530 -3.16502 1.15973 132 139 151
0.85466 -3.34224 1.24205 119 133 145
0.84968 -3.34802 1.26266 118 132 148
0.84586 -3.35405 1.24853 112 121 144
0.83475 -3.36261 1.25506 106 114 138
0.82307 -3.37035 1.26160 95 107 132
0.81427 -3.38221 1.26809 86 100 123
0.80956 -3.40007 1.27454 78 91 113
0.80692 -3.42107 1.28100 70 84 109
0.80855 -3.44854 1.28748 61 72 103
0.80250 -3.46487 1.29405 50 60 94
0.79717 -3.48237 1.30065 41 46 88
0.79257 -3.50107 1.30728 33 37 84
0.78729 -3.51890 1.31394 33 37 83
0.78261 -3.53775 1.32064 35 38 84
0.77762 -3.55626 1.32737 33 37 84
0.77003 -3.57086 1.33410 30 34 87
0.76452 -3.58879 1.34088 38 51 104
0.72867 -3.55911 1.34713 68 94 127
0.72108 -3.57364 1.35384 90 114 137
0.71599 -3.57953 1.37487 88 112 138
0.71027 -3.58311 1.36049 90 114 140
0.70455 -3.58669 1.34610 93 115 140
0.69519 -3.61263 1.37399 87 110 130
0.70029 -3.60671 1.35289 90 113 137
0.68494 -3.62309 1.38067 75 93 104
0.68128 -3.64439 1.38761 47 49 61
0.66466 -3.65753 1.37983 47 44 58
0.68449 -3.67724 1.39486 39 36 50
0.68157 -3.70020 1.40194 38 38 45
0.67640 -3.70619 1.42331 41 36 38
0.67059 -3.70983 1.40870 40 37 40
0.66478 -3.71346 1.39408 44 45 40
0.74859 -3.95929 1.44295 41 42 42
0.73088 -3.97327 1.43466 43 44 51
0.68616 -4.19309 1.52771 56 57 58
0.69177 -4.18658 1.50451 56 59 65
0.66793 -4.20748 1.51918 44 43 41
0.67834 -4.21130 1.53546 49 49 51
0.66008 -4.22572 1.52692 46 47 53
0.65755 -4.23818 1.55050 52 51 58
0.64603 -4.24952 1.55791 60 62 56
0.63577 -4.26332 1.56547 60 62 51
0.61747 -4.27778 1.55690 39 46 39
0.62801 -4.28210 1.57334 54 58 51
0.60967 -4.29658 1.56476 42 44 47
0.61749 -4.33005 1.58984 56 49 40
0.61111 -4.33405 1.57378 47 43 44
0.59904 -4.34462 1.58120 45 43 39
0.61110 -4.35206 1.59802 52 47 46
0.60277 -4.37033 1.60598 48 44 41
0.59410 -4.38801 1.61392 40 37 32
0.57555 -4.40267 1.60524 27 30 22
0.57791 -4.39027 1.62080 29 29 28
0.55939 -4.40490 1.61213 23 27 18
0.69501 -4.98760 1.72989 38 49 48
0.71556 -4.97137 1.73951 36 45 38
0.70844 -4.97582 1.72162 32 44 41
0.68847 -5.09976 1.76145 49 55 52
0.69490 -5.09232 1.73490 47 54 54
0.68126 -5.10428 1.74330 43 51 51
0.66762 -5.11623 1.75169 45 47 46
0.67868 -5.12053 1.77063 52 54 58
0.66805 -5.13954 1.77968 67 67 74
0.64714 -5.15606 1.76989 67 72 73
0.38510 -4.84860 1.81433 89 86 83
0.40446 -4.83331 1.82339 95 99 90
0.39776 -4.83750 1.80654 97 105 96
0.39106 -4.84169 1.78968 89 94 93
0.37548 -4.86736 1.82292 50 40 45
0.35609 -4.88268 1.81384 19 19 21
0.35664 -4.86284 1.82907 20 19 24
0.33731 -4.87810 1.82002 19 22 23
0.32722 -4.87431 1.84347 23 24 23
0.31814 -4.89456 1.85224 61 62 50
0.30774 -4.91154 1.86067 115 110 84
0.28840 -4.92682 1.85162 133 118 98
2.20870 -1.59872 0.24926 86 69 59
2.22465 -1.61856 0.24810 59 44 43
2.21914 -1.64165 0.25616 51 39 46
2.20796 -1.64939 0.26251 70 55 51
2.19323 -1.66103 0.25562 86 69 58
2.20630 -1.66154 0.26627 83 68 50
2.19154 -1.67319 0.25935 85 67 62
3.02251 -2.28509 0.10639 44 32 43
3.02824 -2.27844 0.08267 34 29 34
3.01606 -2.28912 0.09017 39 31 34
2.99879 -2.28977 0.11687 50 39 40
2.99307 -2.29641 0.14054 61 47 40
2.98663 -2.30043 0.12435 56 44 40
2.98020 -2.30446 0.10817 52 41 38
2.67503 -2.38507 0.26790 58 57 100
2.68059 -2.37863 0.24493 49 49 122
2.65436 -2.39021 0.27731 23 34 93
2.63635 -2.40443 0.26888 20 24 106
2.51241 -2.60407 0.38753 34 44 143
2.51803 -2.59755 0.36428 26 40 154
2.52084 -2.62805 0.39036 31 28 86
2.52782 -2.66992 0.39834 37 29 43
2.52142 -2.67392 0.38224 29 22 47
2.53205 -2.69157 0.40222 56 43 30
2.53894 -2.71518 0.40556 71 55 37
2.55203 -2.74321 0.40761 81 66 39
2.56323 -2.77018 0.41013 90 72 50
2.57028 -2.79448 0.41358 97 79 56
2.56444 -2.80125 0.43772 106 86 58
2.55788 -2.80535 0.42121 101 85 56
2.52990 -3.09069 0.50513 109 89 36
2.53597 -3.08365 0.48002 112 90 46
2.52087 -3.10500 0.51232 83 58 37
2.53433 -3.13699 0.51523 44 24 30
2.52381 -3.15032 0.52276 17 7 11
2.50393 -3.16602 0.51346 11 3 4
2.51348 -3.16384 0.53026 8 4 8
2.49359 -3.17954 0.52095 7 4 6
2.49321 -3.16943 0.53962 5 4 9
2.47335 -3.18511 0.53032 5 5 8
2.47216 -3.17432 0.54910 4 4 8
2.45229 -3.18008 0.55835 2 3 19
2.41773 -3.17378 0.57026 41 35 46
2.35154 -3.14127 0.58784 98 100 93
2.38662 -3.19189 0.58706 130 133 124
2.37697 -3.20582 0.59440 143 143 139
2.37371 -3.22514 0.60061 151 151 145
2.36465 -3.23967 0.60787 160 159 147
2.34974 -3.24928 0.61617 169 168 154
2.33002 -3.26485 0.60693 187 189 187
2.32657 -3.25181 0.62588 174 175 163
2.30900 -3.25903 0.63460 176 178 170
2.28962 -3.26464 0.64361 176 178 172
2.27182 -3.27154 0.65235 176 177 171
2.25223 -3.28701 0.64318 177 180 179
2.25972 -3.28339 0.66011 176 177 169
2.25214 -3.29925 0.66713 170 169 150
2.21116 -3.28546 0.67964 125 115 92
2.20330 -3.30099 0.68668 49 32 28
2.18259 -3.30499 0.69581 9 3 8
2.16313 -3.32036 0.68670 5 3 10
2.16304 -3.30996 0.70473 7 11 21
2.13935 -3.31106 0.71428 16 19 42
2.11502 -3.31144 0.72389 28 30 59
2.09572 -3.32669 0.71485 44 49 54
1.73173 -3.04152 0.80483 134 124 106
1.71418 -3.05538 0.79661 145 124 102
1.09473 -2.92284 1.02369 110 118 136
1.09140 -2.93953 1.02926 107 96 117
1.08335 -2.95097 1.03534 106 99 125
1.07465 -2.96170 1.04148 107 100 128
1.05900 -2.97406 1.03416 114 98 89
1.06509 -2.97145 1.04772 109 105 122
1.05433 -2.97982 1.05407 109 69 103
1.05228 -2.99837 1.05962 115 113 123
1.03657 -3.01077 1.05226 123 131 138
1.05406 -3.02157 1.06485 119 130 131
1.03829 -3.03403 1.05746 123 125 140
1.04654 -3.03393 1.07095 118 128 134
1.03454 -3.04098 1.07745 114 98 107
1.02561 -3.05169 1.08369 114 89 97
1.01491 -3.06030 1.09007 112 77 85
0.99912 -3.07277 1.08268 125 117 115
1.00804 -3.07356 1.09615 111 85 95
0.99224 -3.08605 1.08875 127 120 117
1.00213 -3.08805 1.10217 114 90 102
0.98629 -3.10055 1.09476 127 126 127
0.93540 -3.13665 1.14070 127 126 137
0.91959 -3.14913 1.13330 133 143 148
0.92689 -3.14807 1.14695 130 135 146
0.90750 -3.25972 1.18309 127 143 143
0.92359 -3.24701 1.19062 127 140 143
0.91802 -3.25049 1.17661 130 143 144
0.91306 -3.25623 1.19710 126 140 141
0.90254 -3.26546 1.20358 126 139 142
0.89978 -3.27274 1.18944 125 142 141
0.89482 -3.27849 1.20995 125 139 145
0.88925 -3.28197 1.19592 121 137 141
0.85722 -3.35725 1.22770 82 93 114
0.85500 -3.37848 1.23400 70 76 103
0.84751 -3.39236 1.24048 61 63 102
0.84343 -3.41121 1.24689 48 57 98
0.83866 -3.42918 1.25336 43 52 96
0.82545 -3.43497 1.26001 46 57 90
0.81805 -3.44925 1.26655 47 59 84
0.80969 -3.46217 1.27313 41 51 74
0.80288 -3.47745 1.27970 32 37 68
0.78642 -3.49045 1.27200 25 26 60
0.79480 -3.49092 1.28630 24 25 63
0.77833 -3.50393 1.27859 24 27 59
0.78832 -3.50686 1.29291 21 22 62
0.77182 -3.51989 1.28519 29 31 62
0.78252 -3.52393 1.29955 26 26 67
0.76598 -3.53699 1.29181 30 29 61
0.77731 -3.54201 1.30621 27 26 69
0.77341 -3.56223 1.31291 21 22 65
0.76605 -3.57722 1.31962 13 16 67
0.75534 -3.58705 1.32633 23 35 85
0.72977 -3.57343 1.33285 64 89 119
0.72360 -3.59031 1.33958 92 117 140
0.70701 -3.60340 1.33182 96 117 140
0.69550 -3.62603 1.35971 87 109 126
0.70061 -3.62010 1.33856 92 115 135
0.68702 -3.63947 1.36646 74 91 98
0.68209 -3.65881 1.37333 51 50 55
0.66541 -3.67198 1.36553 49 48 51
0.68114 -3.71284 1.38752 50 51 56
0.66431 -3.72613 1.37964 45 42 38
0.76302 -3.96843 1.42085 32 36 34
0.76849 -3.96209 1.39822 27 32 23
0.74524 -3.98247 1.41253 45 47 42
0.68988 -4.21595 1.51276 50 47 50
0.69552 -4.20942 1.48945 61 58 62
0.67158 -4.23041 1.50419 53 46 40
0.64993 -4.27337 1.54307 43 47 47
0.65558 -4.26681 1.51968 46 47 43
0.64357 -4.27734 1.52708 42 47 39
0.63155 -4.28788 1.53447 46 47 39
0.64287 -4.29362 1.55101 45 46 44
0.62445 -4.30816 1.54239 42 47 35
0.60569 -4.39335 1.59106 40 39 36
0.58708 -4.40805 1.58235 34 33 30
0.59371 -4.40441 1.59858 34 34 31
0.57510 -4.41910 1.58987 29 31 23
0.71802 -4.89397 1.67513 24 30 28
0.73836 -4.87791 1.68466 28 33 33
0.73132 -4.88231 1.66695 22 26 24
0.72429 -4.88671 1.64924 22 24 24
0.71098 -4.89838 1.65743 20 25 24
0.71176 -4.90123 1.70103 32 39 37
0.68273 -5.02240 1.72178 41 51 55
0.64846 -5.11537 1.75897 56 57 57
0.65486 -5.10795 1.73248 54 63 48
0.64126 -5.11988 1.74085 59 64 55
0.62765 -5.13180 1.74923 64 65 70
0.37650 -4.89108 1.80801 37 32 39
0.35703 -4.90646 1.79890 21 22 18
0.32380 -4.88692 1.82756 34 34 30
0.31557 -4.90952 1.83656 80 82 64
0.30567 -4.92794 1.84514 123 117 91
0.28628 -4.94326 1.83607 133 116 94
-0.10911 -4.45736 1.88708 142 126 98
-0.10388 -4.45130 1.86547 142 126 107
-0.11498 -4.46104 1.87230 142 126 107
2.18635 -1.59412 0.24142 86 68 63
2.19430 -1.61032 0.24238 70 53 54
2.19840 -1.62489 0.24445 68 49 57
2.18376 -1.63645 0.23760 84 68 62
2.20030 -1.63855 0.24715 75 63 54
2.18562 -1.65014 0.24028 85 67 61
2.20001 -1.65126 0.25048 83 69 55
2.18529 -1.66289 0.24359 85 68 59
2.67176 -2.39071 0.25146 42 46 115
2.67732 -2.38426 0.22847 46 52 130
2.65177 -2.39625 0.26074 23 29 99
2.63375 -2.41049 0.25230 20 23 109
2.50976 -2.61045 0.37079 38 46 150
2.51539 -2.60392 0.34752 26 41 153
2.50343 -2.61441 0.35488 40 45 156
2.51345 -2.63133 0.37462 33 32 104
2.52838 -2.65988 0.37595 24 21 73
2.54102 -2.70603 0.38263 44 33 28
2.53457 -2.71007 0.36640 35 26 36
2.54435 -2.72732 0.38670 59 46 32
2.54843 -2.74927 0.39064 73 58 32
2.55719 -2.77460 0.39359 83 64 44
2.56576 -2.80001 0.39663 90 71 49
2.57917 -2.82900 0.39867 94 79 49
2.57329 -2.83582 0.42297 105 86 59
2.57470 -2.84561 0.40463 100 83 52
2.56881 -2.85243 0.42898 107 86 55
2.56219 -2.85657 0.41233 105 83 54
2.55557 -2.86071 0.39567 100 79 52
2.55568 -3.12025 0.48151 109 88 35
2.56180 -3.11316 0.45620 112 89 54
2.54000 -3.12955 0.49003 97 75 31
2.54771 -3.15721 0.49398 56 34 31
2.53433 -3.16840 0.50208 23 9 11
2.46371 -3.19920 0.53769 3 4 17
2.46982 -3.19211 0.51239 5 5 8
2.43610 -3.19864 0.54842 37 36 51
2.39287 -3.18505 0.56201 121 131 126
2.40443 -3.21655 0.56542 169 177 167
2.38466 -3.23216 0.55616 188 191 191
2.39506 -3.23085 0.57272 180 183 176
2.37527 -3.24648 0.56346 187 189 186
2.38134 -3.24155 0.58083 182 184 179
2.36759 -3.25220 0.58894 185 186 182
2.34670 -3.25676 0.59832 187 188 186
2.30751 -3.26786 0.61656 185 187 184
2.28711 -3.27259 0.62579 182 185 180
2.26977 -3.27992 0.63447 180 181 178
2.24993 -3.30755 0.64927 174 177 171
2.22852 -3.31117 0.65862 144 134 124
2.21086 -3.31806 0.66732 73 49 47
2.17426 -3.30776 0.67913 16 4 5
2.15481 -3.32312 0.67003 7 3 5
2.14000 -3.32199 0.69622 5 3 19
2.13329 -3.32619 0.67933 7 4 8
2.12781 -3.33357 0.70395 16 15 37
2.10840 -3.34889 0.69487 42 43 40
1.73409 -3.05331 0.78824 130 122 107
1.71650 -3.06721 0.78000 142 124 104
1.47892 -3.18359 0.92167 155 136 118
1.49625 -3.16991 0.92979 152 131 112
1.49025 -3.17366 0.91470 151 131 111
1.48426 -3.17741 0.89962 150 129 110
1.47359 -3.18977 0.94373 165 154 149
1.46759 -3.19352 0.92865 165 156 146
1.10444 -2.92276 1.00329 113 130 148
1.11465 -2.91380 0.99701 111 125 149
1.10925 -2.91718 0.98341 119 131 154
1.09477 -2.93233 1.00952 113 114 129
1.09286 -2.95072 1.01492 110 81 100
1.08383 -2.96109 1.02110 110 85 110
1.07480 -2.97148 1.02728 111 79 105
1.04966 -2.98408 1.04037 115 80 71
1.05953 -3.01666 1.04471 120 122 128
1.03408 -3.05038 1.06326 122 116 122
0.96222 -3.13664 1.11335 132 141 144
0.96711 -3.13097 1.09314 134 143 150
0.94889 -3.14198 1.11996 132 143 146
0.92077 -3.17316 1.13891 132 142 149
0.91810 -3.19236 1.14481 130 140 149
0.91319 -3.19804 1.16509 132 140 151
0.91612 -3.21262 1.15071 125 136 146
0.91120 -3.21832 1.17106 133 142 147
0.91448 -3.23348 1.15663 119 131 142
0.91020 -3.25097 1.16273 110 125 139
0.90492 -3.26723 1.16892 101 115 136
0.90651 -3.29290 1.17478 92 104 130
0.90303 -3.31189 1.18095 83 96 116
0.89676 -3.32716 1.18728 76 83 110
0.89116 -3.34346 1.19360 58 67 110
0.88342 -3.35687 1.20004 47 56 102
0.87405 -3.39250 1.21273 34 37 80
0.85766 -3.40545 1.20505 13 15 58
0.86963 -3.41087 1.21911 26 31 65
0.85319 -3.42385 1.21142 19 18 62
0.86071 -3.42291 1.22567 26 26 69
0.85178 -3.43498 1.23224 25 28 69
0.83990 -3.44280 1.23889 27 34 78
0.82795 -3.45048 1.24554 34 46 79
0.76723 -3.56517 1.29843 24 23 58
0.77235 -3.55924 1.27727 28 23 61
0.76148 -3.56877 1.28396 22 21 55
0.75818 -3.57754 1.30513 14 15 59
0.74869 -3.58927 1.31183 27 38 83
0.73365 -3.59222 1.31850 72 94 125
0.72827 -3.61051 1.32524 96 120 144
0.71161 -3.62366 1.31744 99 119 138
0.69564 -3.63923 1.34535 86 109 123
0.69399 -3.66398 1.35225 71 86 92
0.67892 -3.66672 1.35888 51 45 46
0.66223 -3.67991 1.35106 44 43 43
0.71385 -4.21078 1.48258 61 59 53
0.73220 -4.19628 1.49117 53 56 52
0.72585 -4.20025 1.47519 53 54 41
0.72020 -4.20680 1.49856 56 56 48
0.68887 -4.23000 1.49727 54 46 49
0.61567 -4.39535 1.56788 45 45 42
0.62786 -4.38466 1.56038 50 50 53
0.60572 -4.41063 1.57566 38 38 35
0.65325 -4.97647 1.69990 37 44 44
0.64826 -5.00721 1.70963 43 50 50
0.63486 -5.01896 1.71788 49 59 52
0.62777 -5.02339 1.70003 48 53 49
0.37412 -4.90636 1.79214 28 23 31
0.35461 -4.92177 1.78301 22 21 15
0.32223 -4.90444 1.81210 45 48 41
0.32122 -4.94619 1.82304 100 97 75
0.30173 -4.96159 1.81392 130 117 93
0.30925 -4.95941 1.83110 129 118 93
0.28975 -4.97481 1.82197 131 114 94
2.16023 -1.58777 0.23478 88 69 68
2.14579 -1.59918 0.22802 84 71 75
2.15899 -1.59977 0.23826 83 71 67
2.14452 -1.61120 0.23149 84 67 73
2.18201 -1.62289 0.23491 83 70 65
2.16741 -1.63442 0.22807 84 64 68
2.66796 -2.39605 0.23513 37 42 119
2.64989 -2.41032 0.22667 18 25 115
2.64982 -2.40268 0.24398 23 29 107
2.63178 -2.41693 0.23553 16 27 116
2.56200 -2.56122 0.31838 26 31 125
2.58027 -2.54678 0.32693 24 28 110
2.57395 -2.55074 0.31102 24 27 112
2.56763 -2.55470 0.29511 23 28 114
2.56832 -2.55726 0.33429 26 32 123
2.54849 -2.57069 0.32610 25 37 142
2.54286 -2.57721 0.34936 25 37 147
2.53654 -2.58117 0.33345 25 38 155
2.53022 -2.58512 0.31755 27 42 158
2.49809 -2.62930 0.36071 34 37 123
2.50373 -2.62276 0.33740 40 46 155
2.52774 -2.66775 0.35855 28 24 75
2.53383 -2.69064 0.36185 27 21 55
2.51525 -2.70531 0.35315 28 21 40
2.54861 -2.73873 0.36799 49 38 29
2.55942 -2.76539 0.37036 63 50 27
2.56289 -2.78719 0.37442 75 57 34
2.56811 -2.81034 0.37813 83 63 41
2.57565 -2.83530 0.38137 88 70 40
2.57024 -2.85128 0.38750 94 77 47
2.55110 -2.86639 0.37854 96 75 52
2.56433 -3.13663 0.46106 108 87 42
2.57047 -3.12951 0.43567 112 88 59
2.55742 -3.14095 0.44369 109 86 49
2.55325 -3.14961 0.46869 104 82 28
2.55719 -3.17445 0.47333 69 53 29
2.54488 -3.18657 0.48124 30 15 15
2.47571 -3.21890 0.51674 4 4 14
2.48186 -3.21177 0.49133 5 5 6
2.44661 -3.21717 0.52785 24 30 48
2.38608 -3.18930 0.54491 118 137 146
2.40044 -3.22320 0.54767 177 189 191
2.38066 -3.23883 0.53841 186 191 194
2.36294 -3.25834 0.57131 188 186 172
2.34302 -3.26373 0.58056 189 183 162
2.31790 -3.26456 0.59073 187 181 151
2.29791 -3.26970 0.59994 184 177 133
2.28395 -3.28001 0.60805 179 170 116
2.26450 -3.28549 0.61713 177 168 120
2.26135 -3.30528 0.62332 178 175 152
2.24168 -3.32082 0.61411 182 185 172
2.25005 -3.31795 0.63096 178 180 175
2.24995 -3.34065 0.63667 157 149 139
2.23177 -3.34722 0.64552 89 71 66
2.18802 -3.33055 0.65871 23 11 12
2.12754 -3.34373 0.68599 17 13 19
2.13353 -3.33679 0.66124 8 4 5
2.10810 -3.35908 0.67689 41 38 35
1.74161 -3.07004 0.77075 127 119 111
1.74705 -3.06373 0.74826 66 60 67
1.72394 -3.08399 0.76248 140 124 105
1.49302 -3.20886 0.90399 153 136 117
1.49839 -3.20264 0.88179 150 128 108
1.46514 -3.20110 0.91311 164 157 145
1.45980 -3.20729 0.93519 157 160 167
1.45380 -3.21104 0.92009 158 160 165
1.44779 -3.21479 0.90499 160 161 162
1.10160 -2.92902 0.98940 118 133 148
1.10641 -2.92344 0.96949 123 136 155
1.09619 -2.93240 0.97579 124 136 149
1.09420 -2.94118 0.99537 118 114 126
1.08511 -2.95145 1.00154 116 81 90
1.08196 -2.96855 1.00705 117 85 97
1.07027 -2.97591 1.01353 119 86 98
1.06550 -2.99128 1.01926 122 116 94
1.05077 -2.99511 1.02605 121 104 74
1.05750 -3.02411 1.03062 122 113 117
1.05436 -3.04168 1.03625 125 124 134
1.04390 -3.05065 1.04264 129 125 138
1.02806 -3.06316 1.03522 137 141 150
1.02875 -3.07554 1.05486 132 138 141
1.01846 -3.08476 1.06124 133 140 145
1.00258 -3.09729 1.05381 131 142 148
0.95673 -3.14008 1.09953 131 141 150
0.94205 -3.14369 1.10625 125 137 147
0.93446 -3.15635 1.11242 118 131 142
0.92850 -3.17117 1.11849 110 123 140
0.92557 -3.19003 1.12435 103 114 139
0.94098 -3.23310 1.12899 94 104 130
0.94415 -3.26045 1.13456 82 97 117
0.93973 -3.27797 1.14068 68 86 111
0.93374 -3.31716 1.15284 45 59 101
0.91740 -3.33006 1.14520 18 16 63
0.92520 -3.32943 1.15929 38 44 97
0.91695 -3.34215 1.16574 34 39 82
0.90249 -3.34634 1.17252 33 31 72
0.89448 -3.35943 1.17896 22 23 77
0.88457 -3.36990 1.18551 20 21 62
0.87710 -3.38383 1.19195 15 17 63
0.84823 -3.44165 1.21783 22 23 60
0.83812 -3.45207 1.22444 27 31 64
0.82164 -3.46508 1.21672 28 24 53
0.82579 -3.45923 1.23112 29 34 63
0.80932 -3.47224 1.22341 23 25 57
0.81388 -3.46700 1.23778 28 34 64
0.79742 -3.48000 1.23007 20 25 57
0.80365 -3.47723 1.24439 26 29 63
0.78718 -3.49023 1.23668 20 23 53
0.79734 -3.49336 1.25092 23 25 58
0.78085 -3.50639 1.24319 22 25 55
0.75260 -3.58142 1.29064 12 16 55
0.74785 -3.60063 1.29732 32 44 84
0.73537 -3.60771 1.30403 81 102 130
0.72951 -3.62534 1.31076 99 122 145
0.71281 -3.63853 1.30294 104 122 139
0.70969 -3.64778 1.32422 96 117 132
0.69945 -3.65852 1.33096 87 109 121
0.69462 -3.67817 1.33778 67 78 87
0.67725 -3.67715 1.34442 43 37 36
0.66052 -3.69036 1.33659 46 42 47
0.75420 -3.95192 1.38247 38 38 28
0.77192 -3.93793 1.39077 35 36 27
0.76579 -3.94176 1.37534 37 36 22
0.73649 -3.96591 1.37418 46 47 38
0.72561 -4.21558 1.45962 54 54 43
0.74402 -4.20104 1.46823 50 51 43
0.73765 -4.20503 1.45221 47 47 40
0.71526 -4.22929 1.46714 66 68 65
0.70069 -4.23508 1.47437 68 63 63
0.68813 -4.24463 1.48173 59 56 54
0.68413 -4.27055 1.48979 57 50 47
0.67845 -4.27714 1.51329 50 49 51
0.67206 -4.28114 1.49722 49 48 47
0.66567 -4.28513 1.48115 47 46 44
0.64442 -4.36458 1.52901 53 48 41
0.65660 -4.35390 1.52151 49 46 36
0.63868 -4.37123 1.55273 46 48 46
0.63860 -4.38805 1.53717 56 52 45
0.62630 -4.39858 1.54468 58 53 47
0.61872 -4.41876 1.55272 51 45 40
0.60483 -4.42611 1.56006 40 34 34
0.59279 -4.43725 1.56762 32 30 28
0.58056 -4.44797 1.57515 27 29 22
0.67219 -4.87401 1.64513 16 21 24
0.67840 -4.86681 1.61944 13 15 11
0.66521 -4.87837 1.62756 12 15 14
0.66398 -4.89659 1.65402 24 27 34
0.62881 -4.98341 1.68964 42 45 44
0.33898 -4.92550 1.79014 22 24 24
0.32344 -4.92933 1.79726 60 63 54
0.32003 -4.96509 1.80754 112 108 85
0.30049 -4.98053 1.79839 129 115 91
2.12865 -1.56649 0.22680 106 86 82
2.13306 -1.56138 0.20860 139 115 102
2.11435 -1.57778 0.22011 83 71 72
2.14444 -1.58603 0.22532 84 69 71
2.13004 -1.59740 0.21858 84 70 78
2.75213 -2.04004 0.09457 40 13 31
2.74681 -2.04620 0.11654 34 17 18
2.74084 -2.04993 0.10152 32 16 17
2.73487 -2.05367 0.08649 31 14 16
2.95329 -2.32215 0.08378 48 34 36
2.94757 -2.32879 0.10744 57 42 37
2.94114 -2.33281 0.09126 53 39 35
2.73547 -2.39093 0.18772 62 55 129
2.75370 -2.37654 0.19625 64 53 94
2.74178 -2.38699 0.20359 61 51 113
2.72916 -2.39488 0.17185 62 68 133
2.72986 -2.39744 0.21092 45 51 128
2.72355 -2.40138 0.19505 55 54 133
2.69135 -2.40001 0.20757 43 51 128
2.67321 -2.41433 0.19908 24 30 123
2.67103 -2.40544 0.21703 30 34 121
2.65292 -2.41974 0.20855 19 27 121
2.56318 -2.56999 0.30066 27 33 128
2.54923 -2.57922 0.30850 29 40 146
2.53093 -2.59367 0.29993 30 45 154
2.49065 -2.63252 0.34503 36 43 135
2.49628 -2.62599 0.32173 40 47 155
2.52124 -2.67168 0.34247 29 30 83
2.52927 -2.69593 0.34524 27 22 62
2.51068 -2.71061 0.33654 20 17 44
2.54775 -2.74665 0.35036 40 30 30
2.55956 -2.77409 0.35241 54 44 27
2.56376 -2.79645 0.35625 67 52 28
2.57242 -2.82210 0.35911 77 58 35
2.57485 -2.84354 0.36343 84 64 33
2.57280 -2.86195 0.36878 90 69 47
2.56178 -3.20990 0.45895 39 22 19
2.55040 -3.22290 0.46670 13 5 8
2.53023 -3.23883 0.45726 8 5 5
2.48919 -3.23989 0.49533 6 4 7
2.49537 -3.23273 0.46979 6 6 7
2.48225 -3.24423 0.47786 9 5 6
2.46538 -3.24259 0.50550 10 17 37
2.39085 -3.20314 0.52554 99 122 136
2.39092 -3.22525 0.53096 169 185 191
2.37115 -3.24086 0.52171 185 191 195
2.36865 -3.25095 0.54619 186 188 180
2.36303 -3.26853 0.55277 188 179 133
2.36138 -3.28959 0.55862 189 170 90
2.33642 -3.29068 0.56885 189 167 68
2.33235 -3.30976 0.57518 182 162 49
2.31248 -3.32544 0.56588 171 150 19
2.31793 -3.31990 0.58344 173 154 40
2.30575 -3.33200 0.59128 173 154 53
2.26523 -3.31901 0.60426 178 170 114
2.24759 -3.34894 0.61869 165 164 151
2.23226 -3.35810 0.62706 100 94 85
2.19151 -3.34411 0.63989 31 23 22
2.16641 -3.34411 0.64991 11 3 3
2.14686 -3.35955 0.64076 8 4 6
1.50992 -3.23728 0.88573 152 135 116
1.51533 -3.23101 0.86336 150 128 106
1.47357 -3.22046 0.89610 164 157 142
1.45614 -3.23422 0.88794 162 164 157
1.10588 -2.96395 0.97969 125 125 133
1.11073 -2.95833 0.95964 127 140 152
1.10043 -2.96736 0.96598 131 140 147
1.08387 -2.95962 0.98741 125 104 110
1.07743 -2.97299 0.99328 126 109 116
1.08608 -3.00388 0.99744 129 122 125
1.07026 -3.01637 0.99004 137 145 153
1.07789 -3.01546 1.00357 131 139 132
1.07142 -3.02909 1.00951 130 133 121
1.06667 -3.04481 1.01528 129 128 127
1.05079 -3.05736 1.00784 135 147 146
1.05746 -3.05532 1.02155 132 134 136
1.04453 -3.06140 1.02821 137 138 143
1.01399 -3.08944 1.04732 134 146 154
0.99101 -3.17157 1.07674 103 113 138
0.96817 -3.16507 1.08426 95 106 128
0.97021 -3.19025 1.08965 84 97 116
0.96756 -3.20960 1.09548 71 83 109
0.96434 -3.22834 1.10138 58 69 107
0.96814 -3.25640 1.10678 46 54 102
0.95189 -3.26923 1.09918 16 17 67
0.96422 -3.27455 1.11282 38 44 96
0.95738 -3.28896 1.11910 30 41 85
0.95310 -3.30684 1.12522 24 36 77
0.94319 -3.31729 1.13175 18 27 68
0.91085 -3.34509 1.15152 20 16 62
0.89712 -3.35027 1.15828 25 24 58
0.88786 -3.36162 1.16478 24 30 57
0.87100 -3.38676 1.17771 27 34 62
0.86459 -3.40227 1.18409 26 33 62
0.85826 -3.41798 1.19049 24 28 51
0.85074 -3.43208 1.19696 25 24 58
0.83344 -3.45713 1.21005 30 23 53
0.77769 -3.55365 1.25610 31 38 69
0.79432 -3.54052 1.26389 20 24 57
0.78344 -3.55005 1.27058 24 25 62
0.77194 -3.55724 1.24163 33 40 69
0.76940 -3.56718 1.26275 34 35 67
0.76028 -3.57947 1.26942 26 27 54
0.74919 -3.58871 1.27613 15 21 52
0.75287 -3.62134 1.28270 37 53 82
0.73819 -3.62502 1.28947 90 112 132
0.72146 -3.63823 1.28163 112 129 146
0.73178 -3.64189 1.29619 105 126 145
0.71502 -3.65513 1.28834 109 125 140
0.71331 -3.66674 1.30969 100 120 134
0.70525 -3.68116 1.31646 90 110 120
0.69706 -3.69544 1.32325 68 74 82
0.67832 -3.69219 1.32994 47 36 38
0.66154 -3.70544 1.32208 52 44 50
0.73156 -4.20953 1.43620 50 47 48
0.74997 -4.19499 1.44482 45 44 42
0.74360 -4.19898 1.42879 46 42 43
0.72071 -4.22230 1.44368 59 59 56
0.71115 -4.23752 1.45125 74 76 73
0.69271 -4.25209 1.44262 78 76 66
0.69941 -4.24869 1.45869 75 72 65
0.68770 -4.25993 1.46614 64 66 55
0.68558 -4.28961 1.47430 57 55 48
0.65989 -4.37726 1.50616 48 47 38
0.67861 -4.36248 1.51492 43 45 32
0.67213 -4.36653 1.49863 41 43 33
0.66566 -4.37058 1.48234 45 46 41
0.65342 -4.38131 1.48987 48 50 40
0.65305 -4.39877 1.51420 59 56 46
0.63430 -4.41358 1.50542 60 62 55
0.64483 -4.41767 1.52214 62 59 50
0.62604 -4.43251 1.51334 65 65 63
0.63257 -4.42850 1.52970 66 62 53
0.61989 -4.43848 1.53723 59 56 43
0.60866 -4.45142 1.54490 42 34 34
0.59419 -4.45766 1.55222 28 23 24
0.57541 -4.47249 1.54343 19 16 12
0.58184 -4.46828 1.55977 21 21 16
0.57606 -4.47499 1.58367 28 26 22
0.56956 -4.47905 1.56733 21 21 19
0.56306 -4.48311 1.55098 21 21 16
0.64893 -4.88311 1.63523 16 20 21
0.65514 -4.87592 1.60958 13 15 10
0.64196 -4.88747 1.61769 13 17 11
0.64326 -4.91143 1.64448 22 28 28
0.63437 -4.93279 1.65329 28 34 38
0.62857 -4.96134 1.66265 34 40 39
0.62602 -4.99760 1.67260 41 48 42
0.61143 -5.00646 1.68061 49 54 52
0.60514 -5.01374 1.70660 54 57 46
0.59102 -5.02258 1.67106 55 59 60
0.60891 -5.04341 1.69073 55 60 57
0.60260 -5.05073 1.71684 58 60 55
0.58840 -5.05961 1.68112 69 71 68
0.40259 -4.97779 1.75694 36 31 38
0.38279 -4.99342 1.74767 23 23 20
0.33309 -4.93195 1.77339 31 35 28
0.32533 -4.95621 1.78247 77 82 61
0.31847 -4.98311 1.79184 120 114 87
0.29887 -4.99859 1.78267 130 113 86
2.11459 -1.56549 0.21702 94 77 80
2.10033 -1.57675 0.21034 83 72 72
2.81285 -2.04548 0.05315 74 56 52
2.81822 -2.03926 0.03096 80 62 64
2.80417 -2.05680 0.05940 58 38 44
2.79551 -2.06816 0.06564 40 17 32
2.92002 -2.31183 0.07491 42 29 30
2.92570 -2.30524 0.05139 29 19 27
2.90456 -2.32061 0.08325 47 36 31
2.89888 -2.32720 0.10675 56 42 31
2.89249 -2.33119 0.09068 51 39 31
2.75327 -2.39141 0.16131 48 46 126
2.77155 -2.37698 0.16987 53 46 97
2.76523 -2.38093 0.15395 42 40 113
2.75890 -2.38489 0.13804 38 41 119
2.71244 -2.40254 0.18043 49 51 131
2.69376 -2.40901 0.18952 32 42 127
2.67558 -2.42337 0.18101 24 31 126
2.57579 -2.56792 0.27563 25 32 115
2.59413 -2.55344 0.28421 27 30 110
2.58778 -2.55741 0.26825 26 30 105
2.56641 -2.58012 0.28237 30 37 131
2.54806 -2.59462 0.27378 35 45 147
2.55296 -2.58970 0.29011 32 43 148
2.53462 -2.60419 0.28152 32 46 151
2.48320 -2.63574 0.32936 38 47 142
2.48884 -2.62921 0.30606 35 46 157
2.50590 -2.66965 0.32849 30 33 93
2.52062 -2.69845 0.32958 25 21 68
2.53539 -2.74668 0.33538 32 24 31
2.52890 -2.75074 0.31906 24 19 31
2.55184 -2.77736 0.33624 48 38 28
2.55959 -2.80223 0.33918 60 48 25
2.57077 -2.82970 0.34137 72 54 31
2.57623 -2.85335 0.34493 80 59 31
2.57626 -2.87330 0.34977 87 63 43
2.57113 -2.88966 0.35582 91 71 50
2.56520 -2.89654 0.38034 100 78 48
2.55854 -2.90071 0.36357 96 78 48
2.55187 -2.90488 0.34680 93 73 49
2.56908 -3.20356 0.43306 97 79 35
2.57529 -3.19637 0.40738 105 88 42
2.57476 -3.23020 0.43725 47 27 24
2.56299 -3.24299 0.44510 15 7 10
2.54272 -3.25899 0.43562 10 5 6
2.47440 -3.26009 0.48488 6 9 27
2.48059 -3.25292 0.45930 10 7 5
2.41921 -3.23665 0.50136 86 104 118
2.39122 -3.23551 0.51233 162 178 184
2.36623 -3.25900 0.52810 186 189 177
2.36696 -3.28203 0.53341 186 175 113
2.36282 -3.30104 0.53970 188 164 41
2.34593 -3.30912 0.54846 189 163 16
2.32603 -3.32484 0.53914 177 155 10
2.32968 -3.31772 0.55709 182 159 13
2.30979 -3.33343 0.54778 166 144 21
2.29748 -3.33506 0.57425 171 152 37
2.27105 -3.33450 0.58474 180 171 98
2.25283 -3.34113 0.59368 185 188 168
2.25053 -3.36202 0.59969 168 171 159
2.23368 -3.36985 0.60837 112 108 92
2.19692 -3.35948 0.62062 45 37 24
2.17698 -3.36426 0.62980 13 5 3
2.15734 -3.37976 0.62061 7 5 6
2.15210 -3.38752 0.64547 16 9 13
2.13926 -3.39878 0.65337 39 32 33
1.74383 -3.09149 0.73754 118 110 98
1.75543 -3.08132 0.73040 61 54 58
1.74929 -3.08516 0.71495 58 54 58
1.73222 -3.10167 0.74468 139 123 103
1.52010 -3.25860 0.86816 151 132 112
1.52554 -3.25230 0.84568 149 128 103
1.48330 -3.24133 0.87875 162 156 137
1.46578 -3.25516 0.87055 166 165 160
1.08931 -2.97546 0.97242 133 136 142
1.09416 -2.96984 0.95237 135 145 152
1.08386 -2.97886 0.95871 137 147 152
1.07357 -2.98789 0.96505 138 147 153
1.09195 -2.99939 0.97719 134 139 144
1.07613 -3.01189 0.96978 139 146 154
1.09590 -3.02506 0.98185 136 145 149
1.07999 -3.03762 0.97440 141 146 156
1.07931 -3.04826 0.99416 137 147 152
1.07238 -3.06152 1.00018 136 149 147
1.04836 -3.07602 1.01336 132 139 147
1.03743 -3.08455 1.01983 123 132 150
1.02656 -3.09312 1.02629 114 126 148
1.01403 -3.09967 1.03292 105 115 142
1.02194 -3.13140 1.03746 95 106 132
1.00680 -3.13480 1.04438 83 98 125
1.00457 -3.15427 1.05001 70 85 115
1.00107 -3.17229 1.05581 56 68 107
1.00239 -3.19653 1.06118 45 53 99
0.99786 -3.21351 1.06713 38 46 87
0.99119 -3.25090 1.07891 29 36 74
0.97490 -3.26377 1.07129 24 20 65
0.98466 -3.26562 1.08512 22 29 72
0.96854 -3.26783 1.09214 15 22 67
0.95046 -3.29078 1.10500 18 19 70
0.94609 -3.30858 1.11109 25 25 71
0.93834 -3.32192 1.11745 32 38 71
0.92198 -3.33485 1.10979 64 81 87
0.92054 -3.34562 1.13037 51 54 77
0.91128 -3.35702 1.13687 53 55 78
0.90292 -3.36971 1.14332 58 68 76
0.89486 -3.38285 1.14976 57 65 62
0.89254 -3.40413 1.15588 66 72 80
0.88133 -3.41299 1.16254 64 69 80
0.87473 -3.42840 1.16894 63 70 74
0.86706 -3.44237 1.17543 62 69 68
0.85929 -3.45625 1.18193 63 65 78
0.83534 -3.47187 1.19536 57 47 68
0.82188 -3.47743 1.20212 42 35 53
0.81191 -3.48816 1.20874 27 24 53
0.80111 -3.49763 1.21539 18 22 55
0.77116 -3.58248 1.24808 33 36 64
0.77630 -3.57652 1.22683 23 23 58
0.76539 -3.58609 1.23355 25 24 56
0.75447 -3.59566 1.24027 23 23 51
0.76083 -3.59298 1.25479 26 29 51
0.75027 -3.60311 1.26151 17 26 53
0.75239 -3.63342 1.26803 42 61 84
0.73716 -3.63624 1.27484 98 119 134
0.72039 -3.64948 1.26699 117 131 146
0.71214 -3.67796 1.29506 105 122 137
0.71732 -3.67196 1.27364 113 128 143
0.70365 -3.69176 1.30182 95 112 121
0.70250 -3.71778 1.30862 68 74 77
0.68796 -3.72165 1.31541 54 38 43
0.67107 -3.73499 1.30751 47 42 44
0.75112 -4.22857 1.41341 52 43 46
0.76964 -4.21395 1.42208 39 41 38
0.76323 -4.21796 1.40596 42 42 43
0.73261 -4.24320 1.40474 60 53 54
0.73370 -4.22931 1.42060 55 48 53
0.72204 -4.24071 1.42806 62 56 59
0.71466 -4.26016 1.43576 76 74 67
0.69614 -4.27478 1.42709 76 78 70
0.68822 -4.27714 1.45052 71 69 60
0.68317 -4.30135 1.45845 66 63 51
0.67175 -4.31338 1.46597 52 49 48
0.66604 -4.32000 1.48960 38 41 38
0.66450 -4.33359 1.47380 44 46 44
0.64590 -4.34828 1.46510 52 51 42
0.65038 -4.41048 1.49820 57 59 45
0.65616 -4.40378 1.47428 48 47 35
0.61919 -4.45446 1.52144 59 63 50
0.62499 -4.44774 1.49746 61 59 59
0.61101 -4.47381 1.52944 42 36 36
0.59585 -4.47875 1.53674 26 18 21
0.57700 -4.49364 1.52791 24 21 15
0.61398 -4.86579 1.62366 16 23 19
0.62015 -4.85864 1.59818 15 17 10
0.60706 -4.87012 1.60623 18 22 16
0.59397 -4.88159 1.61429 23 27 23
0.61352 -4.90585 1.63360 22 27 27
0.59339 -4.92175 1.62417 23 27 20
0.61451 -4.94970 1.64387 24 31 27
0.39628 -4.98345 1.73982 32 27 33
0.37648 -4.99908 1.73055 25 23 19
0.35775 -4.97340 1.75286 20 19 21
0.33485 -4.95841 1.75842 44 48 35
0.32869 -4.98716 1.76790 97 100 69
0.30904 -5.00267 1.75870 129 116 90
0.31594 -4.99868 1.77583 127 116 88
0.29630 -5.01420 1.76663 129 111 84
2.81988 -2.05563 0.03423 74 56 59
2.82526 -2.04939 0.01197 81 59 66
2.80599 -2.06445 0.04196 61 42 47
2.79276 -2.07356 0.04951 44 23 31
2.77684 -2.08133 0.05782 33 13 16
2.77147 -2.08756 0.08003 30 14 12
2.76543 -2.09134 0.06484 30 11 13
2.75940 -2.09511 0.04965 29 10 19
2.90339 -2.31034 0.06165 34 24 25
2.90906 -2.30377 0.03818 19 14 22
2.88883 -2.31956 0.06975 41 31 28
2.87201 -2.32753 0.07847 45 35 32
2.86635 -2.33409 0.10190 55 41 34
2.85998 -2.33808 0.08588 49 37 38
2.74618 -2.39493 0.14560 43 45 125
2.75181 -2.38841 0.12233 33 38 119
2.73986 -2.39889 0.12969 33 38 120
2.72972 -2.40280 0.15415 47 59 129
2.70585 -2.40631 0.16466 37 42 128
2.68736 -2.41289 0.17372 24 36 127
2.64935 -2.42526 0.19208 24 28 118
2.64377 -2.43173 0.21515 17 30 119
2.63123 -2.43957 0.18360 22 17 101
2.63376 -2.43341 0.20035 19 26 111
2.62192 -2.44378 0.20763 15 22 101
2.58632 -2.45725 0.22528 21 22 100
2.59813 -2.44690 0.21801 19 22 91
2.59257 -2.45334 0.24099 22 23 99
2.58077 -2.46369 0.24826 21 25 98
2.58277 -2.47268 0.23042 22 23 101
2.57720 -2.47914 0.25345 24 26 99
2.58179 -2.48978 0.23493 28 31 92
2.57621 -2.49625 0.25801 26 27 102
2.59044 -2.51299 0.23700 61 52 74
2.58483 -2.51949 0.26020 29 27 104
2.59331 -2.53273 0.24059 62 40 80
2.58135 -2.54321 0.24795 36 22 77
2.58071 -2.56091 0.25246 26 28 99
2.57308 -2.57422 0.25875 29 33 117
2.56403 -2.58666 0.26540 35 41 135
2.54566 -2.60116 0.25680 36 46 147
2.47661 -2.63952 0.31349 40 48 151
2.48225 -2.63299 0.29019 31 43 157
2.47028 -2.64349 0.29755 39 46 158
2.47548 -2.65736 0.31823 33 35 108
2.50214 -2.69425 0.31631 25 22 74
2.51108 -2.71933 0.31872 18 17 48
2.49246 -2.73403 0.31000 18 16 42
2.54452 -2.78090 0.31998 38 30 30
2.53799 -2.78499 0.30354 28 21 38
2.56029 -2.81143 0.32094 52 41 23
2.57423 -2.84094 0.32239 65 48 25
2.58164 -2.86605 0.32542 75 53 30
2.58291 -2.88697 0.32994 82 60 38
2.58080 -2.90559 0.33527 87 67 49
2.57941 -3.22170 0.41181 101 84 32
2.58564 -3.21447 0.38603 107 87 45
2.57134 -3.25977 0.42422 22 11 14
2.48581 -3.27964 0.46361 6 7 21
2.49202 -3.27244 0.43792 12 9 3
2.44309 -3.26659 0.47777 74 84 100
2.40149 -3.25416 0.49161 154 169 176
2.37696 -3.25583 0.50194 186 192 195
2.36655 -3.26939 0.50941 188 190 180
