ply
format ascii 1.0
element face 0
property list uchar int vertex_indices
element vertex 1363
property float x
property float y
property float z
property uchar diffuse_red
property uchar diffuse_green
property uchar diffuse_blue
end_header
-0.39163 -4.24341 3.58045 74 75 93
-0.40704 -4.25079 3.56673 87 88 88
-0.42123 -4.23625 3.57606 79 83 90
-0.43598 -4.23198 3.57360 58 57 95
-0.45129 -4.23931 3.55997 44 58 96
-0.46530 -4.22292 3.56846 45 58 90
-0.47972 -4.22109 3.56700 24 36 90
-0.50939 -4.19519 3.55502 178 209 225
-0.52282 -4.21200 3.56115 191 207 217
-0.53793 -4.21923 3.54770 189 209 230
-0.55056 -4.22651 3.56564 193 205 210
-0.56568 -4.23375 3.55218 197 209 232
-0.56397 -4.24899 3.57408 193 200 209
-0.57799 -4.25332 3.57513 191 198 205
-0.59220 -4.24970 3.57295 185 192 187
-0.60637 -4.24486 3.57028 177 185 187
-0.62052 -4.23719 3.56647 176 186 192
-0.63470 -4.22251 3.55981 176 184 187
-0.64853 -4.22548 3.56032 163 168 155
-0.66232 -4.23256 3.56250 129 126 122
-0.67618 -4.22505 3.55877 83 76 97
-0.68994 -4.22873 3.55957 57 65 99
-0.70487 -4.23588 3.54628 54 64 94
-0.94025 -4.14597 3.51352 109 116 131
-0.92597 -4.13914 3.52623 111 116 140
-0.92710 -4.14050 3.51196 108 113 134
-0.92822 -4.14186 3.49768 111 114 131
-0.95388 -4.15935 3.51825 93 98 107
-0.96559 -4.14161 3.51048 47 42 50
-0.97832 -4.14131 3.50972 15 12 22
-0.99253 -4.14812 3.49707 7 11 12
1.79892 -2.44723 2.94980 70 64 82
1.80933 -2.44367 2.93610 66 53 62
1.78657 -2.45314 2.93880 79 76 93
1.78949 -2.45394 2.95204 77 79 89
1.78249 -2.46320 2.95541 53 51 64
1.78548 -2.48284 2.96344 21 19 37
1.77303 -2.48880 2.95236 10 12 26
1.77745 -2.49119 2.96641 14 18 36
1.76838 -2.49851 2.96890 13 15 35
1.75984 -2.50643 2.97167 12 11 33
1.75369 -2.51691 2.97558 22 18 41
1.76947 -2.55092 2.99000 52 50 72
1.75781 -2.55578 2.99138 73 78 98
1.82318 -2.71767 3.05955 44 48 73
1.83337 -2.74792 3.07219 32 35 58
1.81994 -2.75436 3.06023 17 14 27
1.83239 -2.76592 3.07937 24 23 38
1.82206 -2.77349 3.08191 16 16 30
1.77652 -2.77953 3.08212 27 22 35
1.76054 -2.78053 3.08174 28 26 32
1.74709 -2.78697 3.06977 35 36 50
1.75115 -2.78920 3.08477 29 27 44
1.73768 -2.79564 3.07278 35 36 54
1.73079 -2.80482 3.09005 34 33 47
1.72972 -2.80610 3.07657 39 38 58
1.71730 -2.81127 3.07804 36 37 58
1.72059 -2.81266 3.09270 33 35 54
1.70709 -2.81912 3.08068 33 37 57
1.69996 -2.82817 3.09793 34 38 56
1.68758 -2.83345 3.09945 22 24 35
1.67619 -2.83735 3.11444 15 19 27
1.67512 -2.83864 3.10092 12 17 26
1.67406 -2.83993 3.08741 14 17 19
1.63114 -2.82518 3.09338 19 20 50
1.64244 -2.82131 3.07851 17 21 34
1.63008 -2.82645 3.07998 20 23 49
1.62003 -2.83189 3.09554 33 40 64
1.61279 -2.84353 3.09986 39 51 84
1.60660 -2.85661 3.10481 57 52 74
1.60207 -2.87195 3.11075 80 91 110
1.59096 -2.87889 3.11300 73 67 81
1.26862 -3.55517 3.36884 46 38 26
1.28160 -3.55072 3.35175 52 44 44
1.25798 -3.56772 3.37337 29 19 12
1.24253 -3.57512 3.35962 15 7 9
0.42826 -3.14936 3.16511 31 41 63
0.43904 -3.14567 3.15091 31 38 46
0.42010 -3.16486 3.17094 78 98 113
0.41177 -3.18009 3.17665 112 131 154
0.39889 -3.18626 3.16517 113 128 149
-0.29002 -4.24045 3.56826 125 128 173
-0.30363 -4.25410 3.57308 92 88 140
-0.31920 -4.26156 3.55922 50 48 89
-0.31917 -4.24632 3.56920 51 54 87
-0.33469 -4.25376 3.55539 47 55 93
-0.36428 -4.23545 3.56265 47 57 92
-0.34886 -4.22806 3.57637 48 58 93
-0.35008 -4.22953 3.56096 44 58 91
-0.35130 -4.23100 3.54555 43 56 90
-0.36550 -4.23691 3.54724 45 55 91
-0.37912 -4.23275 3.56084 62 76 97
-0.39413 -4.22668 3.55768 89 97 88
-0.40947 -4.23403 3.54402 81 83 87
-0.42281 -4.23194 3.55839 80 86 95
-0.43748 -4.22862 3.55635 59 60 98
-0.45277 -4.23594 3.54274 47 59 89
-0.46669 -4.22098 3.55186 46 58 89
-0.46789 -4.22243 3.53665 48 58 93
-0.48127 -4.21565 3.54902 29 42 83
-0.49586 -4.20847 3.54543 45 90 153
-0.51078 -4.19188 3.53804 132 183 232
-0.52437 -4.20462 3.54249 180 209 230
-0.57946 -4.24493 3.55600 198 208 232
-0.56671 -4.24057 3.53922 190 204 230
-0.58065 -4.24637 3.54087 191 202 228
-0.59460 -4.25218 3.54253 193 202 225
-0.59352 -4.24597 3.55574 197 206 220
-0.60864 -4.25321 3.54227 186 202 229
-0.62173 -4.23762 3.55102 190 205 224
-0.63594 -4.21996 3.54323 186 196 212
-0.64984 -4.21575 3.54087 174 184 190
-0.66366 -4.21368 3.53937 167 170 169
-0.67740 -4.21801 3.54044 126 121 117
-0.69112 -4.22918 3.54425 75 76 93
-0.84186 -4.27762 3.55638 51 74 112
-0.82699 -4.27049 3.56962 49 60 106
-0.82816 -4.27191 3.55476 52 64 99
-0.82933 -4.27333 3.53989 56 65 96
-0.85439 -4.28191 3.57287 83 102 135
-0.85506 -4.26939 3.55244 98 132 163
-0.86808 -4.25865 3.54749 137 151 169
-0.88242 -4.28175 3.55607 127 127 132
-0.94237 -4.16461 3.50613 111 114 116
-0.95426 -4.14835 3.49903 69 76 69
-0.96730 -4.15213 3.49991 25 23 26
-0.98156 -4.15896 3.48721 6 9 22
-0.98010 -4.15269 3.49951 11 8 12
-0.99435 -4.15951 3.48683 7 10 19
1.80100 -2.45150 2.93883 69 60 76
1.81141 -2.44793 2.92512 69 53 59
1.78282 -2.46572 2.94363 59 56 76
1.78804 -2.48769 2.95262 19 17 37
1.76943 -2.50184 2.95737 13 11 19
1.76260 -2.51157 2.96093 21 13 18
1.75009 -2.51757 2.94978 46 51 51
1.76220 -2.52820 2.96752 31 26 37
1.76530 -2.54873 2.97584 50 54 69
1.75265 -2.55479 2.96458 38 41 60
1.77944 -2.58136 2.98949 63 73 85
1.76767 -2.58626 2.99088 58 65 79
1.81198 -2.67061 3.02653 31 38 59
1.82512 -2.66432 3.03823 70 78 103
1.82409 -2.66557 3.02510 43 51 66
1.79885 -2.67691 3.01484 17 16 27
1.82949 -2.72712 3.04984 21 19 45
1.81613 -2.73352 3.03795 14 14 29
1.83549 -2.75276 3.06032 16 14 35
1.79546 -2.78439 3.07103 22 23 40
1.78195 -2.79086 3.05900 24 28 47
1.77819 -2.78398 3.07005 30 28 45
1.76471 -2.79043 3.05805 32 35 45
1.76448 -2.78765 3.07086 33 35 41
1.75101 -2.79410 3.05887 38 37 52
1.69933 -2.82999 3.08464 35 38 54
1.68379 -2.83141 3.08448 21 23 34
1.67029 -2.83788 3.07245 15 16 24
1.62066 -2.83531 3.08305 21 25 56
1.60809 -2.84020 3.08441 23 27 56
1.60271 -2.85428 3.08976 31 26 53
1.60568 -2.87925 3.09983 79 93 105
1.59490 -2.88667 3.10228 82 72 86
1.58567 -2.89616 3.10562 74 59 63
1.57422 -2.90007 3.12069 72 57 60
1.57315 -2.90137 3.10710 74 56 61
1.57208 -2.90266 3.09352 74 56 63
1.27275 -3.56654 3.35763 47 40 33
1.28577 -3.56209 3.34049 55 45 44
1.26141 -3.57790 3.36161 33 21 16
0.42954 -3.15717 3.15504 29 43 68
0.44034 -3.15347 3.14082 30 37 51
0.42190 -3.17427 3.16149 77 101 127
0.41334 -3.18893 3.16692 111 132 156
0.40042 -3.19512 3.15542 115 125 149
-0.27757 -4.22934 3.54836 156 160 172
-0.26206 -4.22191 3.56218 128 145 168
-0.26451 -4.22487 3.53116 162 171 187
-0.29230 -4.23065 3.54819 119 108 151
-0.30613 -4.24157 3.55188 68 48 116
-0.38102 -4.22486 3.54171 55 68 96
-0.36809 -4.22043 3.52469 45 54 91
-0.39569 -4.22326 3.54039 79 92 88
-0.42455 -4.22516 3.53978 86 89 86
-0.42575 -4.22662 3.52450 92 96 84
-0.43907 -4.22368 3.53851 59 62 95
-0.45434 -4.23099 3.52492 48 60 86
-0.48314 -4.20354 3.52842 42 57 90
-0.47040 -4.19917 3.51164 46 59 94
-0.48434 -4.20498 3.51329 46 60 98
-0.49828 -4.21078 3.51495 37 56 96
-0.49765 -4.19725 3.52523 20 52 109
-0.51302 -4.16921 3.51335 58 118 177
-0.52572 -4.20198 3.52579 150 197 230
-0.53972 -4.20438 3.52609 185 207 232
-0.55359 -4.21016 3.52774 191 210 232
-0.55478 -4.21159 3.51269 189 206 232
-0.63723 -4.21322 3.52501 186 202 224
-0.62465 -4.20891 3.50845 185 198 231
-0.63841 -4.21464 3.51008 188 202 226
-0.65115 -4.20522 3.52118 185 196 214
-0.66494 -4.20176 3.51915 178 186 201
-0.67865 -4.20493 3.51977 167 166 161
-0.69234 -4.20314 3.51841 119 110 105
-0.70601 -4.21505 3.52251 67 67 83
-0.71852 -4.21934 3.53897 51 66 97
-0.71969 -4.22075 3.52413 51 63 93
-0.84231 -4.25709 3.53282 40 60 107
-0.85560 -4.25341 3.53073 76 112 151
-0.86876 -4.24782 3.52788 125 152 173
-0.89482 -4.23531 3.52168 130 131 136
-0.90947 -4.24233 3.50864 125 126 140
-0.90710 -4.21598 3.51341 123 123 137
-0.92167 -4.22296 3.50044 122 123 132
-0.93212 -4.19388 3.50344 117 119 130
-0.94446 -4.18267 3.49840 108 105 111
-0.95709 -4.17770 3.49583 57 55 56
-0.96926 -4.16673 3.49089 15 16 28
-0.98357 -4.17358 3.47815 9 10 19
1.80204 -2.45473 2.92737 71 56 67
1.81247 -2.45116 2.91365 69 55 58
1.79303 -2.46192 2.92980 80 72 91
1.78517 -2.47033 2.93275 62 64 87
1.78843 -2.49030 2.94078 26 26 48
1.78141 -2.49975 2.94419 22 19 34
1.76891 -2.50574 2.93306 48 55 67
1.77441 -2.50930 2.94763 32 34 44
1.77508 -2.52699 2.95464 42 46 48
1.77505 -2.56144 2.96822 41 51 58
1.78402 -2.60631 2.98632 27 29 42
1.78300 -2.60754 2.97346 18 16 26
1.77115 -2.61248 2.97486 21 21 26
1.81747 -2.77326 3.05368 27 25 43
1.72224 -2.81977 3.06768 36 37 57
1.73470 -2.81458 3.06620 40 40 67
1.70811 -2.82293 3.06828 30 28 51
1.69626 -2.82884 3.07007 35 29 41
1.68274 -2.83270 3.07098 21 18 30
1.66923 -2.83917 3.05895 11 12 22
1.63659 -2.83721 3.07065 21 21 33
1.64793 -2.83333 3.05573 11 13 21
1.62313 -2.84365 3.05867 11 11 14
1.62592 -2.84455 3.07306 14 17 33
1.61245 -2.85100 3.06107 10 7 20
1.61332 -2.84947 3.07442 12 10 33
1.60651 -2.86179 3.07897 12 15 43
1.61145 -2.88936 3.09007 75 83 104
1.59898 -2.89465 3.09159 85 76 94
1.58830 -2.90229 3.09411 77 58 59
1.57468 -2.90880 3.08199 73 58 61
1.27498 -3.57442 3.34486 50 42 33
1.28803 -3.56996 3.32770 56 48 44
1.26383 -3.58619 3.34899 35 24 18
1.25150 -3.59583 3.35223 14 9 12
1.23843 -3.60030 3.36945 10 8 11
1.23720 -3.60178 3.35393 12 9 10
1.23598 -3.60326 3.33841 18 13 10
0.87142 -3.35903 3.24153 37 33 44
0.85884 -3.36548 3.24350 34 30 34
0.84691 -3.36956 3.25920 26 30 36
0.84579 -3.37091 3.24505 28 28 33
0.84467 -3.37226 3.23089 31 28 34
0.43063 -3.16446 3.14471 29 41 64
0.44146 -3.16076 3.13046 32 36 40
0.42575 -3.18966 3.15442 82 104 127
0.41506 -3.19825 3.15732 114 130 154
0.40211 -3.20445 3.14579 114 127 150
-0.27941 -4.22455 3.53036 166 164 165
-0.29490 -4.23197 3.51656 83 63 91
-0.29330 -4.23459 3.53368 102 84 109
-0.30880 -4.24201 3.51987 52 38 73
-0.30820 -4.23363 3.53262 48 33 81
-0.32369 -4.24104 3.51884 51 52 89
-0.38292 -4.21684 3.52259 47 59 96
-0.37002 -4.21242 3.50561 42 55 91
-0.38413 -4.21830 3.50728 42 55 92
-0.39774 -4.21257 3.52024 55 69 91
-0.41237 -4.21014 3.51861 63 74 89
-0.44100 -4.21305 3.51845 61 66 88
-0.45622 -4.22034 3.50490 48 58 90
-0.51408 -4.17342 3.49949 21 60 117
-0.50147 -4.16910 3.48288 48 57 98
-0.52799 -4.17638 3.50003 92 144 189
-0.54184 -4.18049 3.50101 169 203 231
-0.65249 -4.19101 3.50012 188 202 220
-0.63999 -4.18673 3.48366 189 203 229
-0.65366 -4.19242 3.48528 190 203 225
-0.66621 -4.19052 3.49930 183 196 214
-0.67988 -4.19205 3.49928 180 188 198
-0.69352 -4.19816 3.50107 166 160 156
-0.70715 -4.20080 3.50149 111 99 96
-0.72074 -4.19828 3.49987 62 62 79
-0.73317 -4.20253 3.51625 50 66 98
-0.73434 -4.20394 3.50149 48 61 92
-0.81581 -4.23251 3.50904 75 81 90
-0.80106 -4.22545 3.52217 76 82 89
-0.80223 -4.22685 3.50743 70 84 88
-0.81698 -4.23392 3.49429 76 83 96
-0.84275 -4.23686 3.50953 43 62 102
-0.85604 -4.23482 3.50811 49 81 116
-0.86915 -4.22966 3.50548 92 121 146
-0.88280 -4.23854 3.50836 123 134 153
-0.93317 -4.19368 3.48837 121 120 127
-0.94531 -4.17899 3.48203 101 93 105
-0.95900 -4.19186 3.48648 50 37 52
-0.97124 -4.18136 3.48178 15 10 25
-0.98559 -4.18823 3.46900 14 11 19
1.80331 -2.45819 2.91599 70 54 59
1.81374 -2.45462 2.90226 69 56 60
1.80233 -2.45937 2.90361 68 53 61
1.79511 -2.46622 2.91877 79 69 78
1.78270 -2.47216 2.90773 82 84 95
1.78488 -2.47222 2.92066 76 78 90
1.78137 -2.48519 2.92558 55 59 69
1.78119 -2.50174 2.93204 48 50 57
1.77621 -2.53044 2.94303 42 49 62
1.76647 -2.53726 2.94526 33 35 42
1.75387 -2.54329 2.93404 17 19 30
1.76353 -2.55138 2.95065 22 25 35
1.76824 -2.57389 2.95966 19 15 33
1.73447 -2.81687 3.05312 30 29 61
1.74800 -2.81040 3.06516 36 37 60
1.74693 -2.81169 3.05164 29 29 57
1.72423 -2.82473 3.05573 26 27 52
1.71030 -2.82816 3.05646 20 17 41
1.69790 -2.83342 3.05797 19 14 29
1.68437 -2.83990 3.04592 7 9 12
1.68509 -2.83818 3.05926 13 12 24
1.67156 -2.84466 3.04722 9 7 13
1.64465 -2.84993 3.06207 14 12 17
1.65603 -2.84603 3.04709 9 7 20
1.64359 -2.85121 3.04856 11 8 16
1.63114 -2.85640 3.05004 17 10 16
1.61036 -2.86937 3.06815 8 12 34
1.62175 -2.86547 3.05315 12 7 22
1.61567 -2.89747 3.07937 70 79 91
1.60203 -2.90400 3.06723 81 94 104
1.60177 -2.90096 3.08012 84 86 104
1.59140 -2.90904 3.08282 74 59 56
1.57776 -2.91557 3.07068 71 57 55
1.27774 -3.58328 3.33245 53 43 32
1.29081 -3.57881 3.31525 57 50 45
1.26535 -3.59280 3.33562 40 26 19
1.25300 -3.60245 3.33885 20 11 13
1.23745 -3.60990 3.32501 21 12 12
0.88326 -3.35476 3.22575 30 27 47
0.89519 -3.35068 3.21005 24 25 31
0.88215 -3.35611 3.21160 27 26 43
0.85729 -3.36587 3.22895 39 34 49
0.84313 -3.37265 3.21634 29 28 36
0.43154 -3.17123 3.13411 29 39 52
0.44238 -3.16751 3.11984 35 36 43
0.42450 -3.19023 3.14123 84 102 122
0.41536 -3.20338 3.14596 111 129 154
0.40240 -3.20959 3.13442 112 127 147
-0.28109 -4.22126 3.51299 139 141 152
-0.26806 -4.21680 3.49583 96 108 119
-0.28231 -4.22273 3.49752 103 106 123
-0.29657 -4.22867 3.49921 72 55 98
-0.40088 -4.18629 3.49404 44 56 90
-0.38809 -4.18191 3.47720 40 54 88
-0.40208 -4.18773 3.47886 39 55 86
-0.41490 -4.19169 3.49553 48 63 89
-0.42812 -4.20966 3.50197 88 94 80
-0.44294 -4.20212 3.49837 62 71 76
-0.45812 -4.20939 3.48486 44 56 92
-0.51625 -4.15188 3.47550 36 50 100
-0.50370 -4.14758 3.45898 46 55 97
-0.51743 -4.15330 3.46061 45 55 95
-0.52979 -4.16231 3.47898 42 80 131
-0.54487 -4.13107 3.46611 120 171 212
-0.55749 -4.16692 3.47956 176 201 235
-0.57003 -4.17122 3.49607 189 204 229
-0.57121 -4.17264 3.48119 191 207 229
-0.66745 -4.18166 3.48047 192 203 224
-0.65500 -4.17740 3.46408 190 205 231
-0.66862 -4.18307 3.46569 193 204 232
-0.68111 -4.17717 3.47811 187 196 216
-0.69471 -4.17473 3.47656 184 187 194
-0.70829 -4.19059 3.48216 158 149 144
-0.72186 -4.19213 3.48216 102 88 83
-0.73534 -4.18640 3.47933 61 61 80
-0.74772 -4.19064 3.49563 48 62 99
-0.74888 -4.19204 3.48093 49 60 93
-0.80261 -4.19626 3.48022 58 75 98
-0.78797 -4.18925 3.49325 48 64 97
-0.78913 -4.19065 3.47862 48 63 98
-0.79028 -4.19204 3.46398 49 61 97
-0.82949 -4.20440 3.48221 68 69 95
-0.84412 -4.21140 3.46918 51 63 97
-0.85631 -4.21194 3.48397 38 65 103
-0.87044 -4.23430 3.49209 77 104 134
-0.88315 -4.22109 3.48636 121 132 153
-0.89612 -4.21618 3.48387 132 133 148
-0.90871 -4.20478 3.47886 130 130 140
-0.92175 -4.20396 3.47797 128 125 131
-0.93453 -4.19906 3.47549 121 118 120
-0.94618 -4.17595 3.46594 91 77 88
-0.95982 -4.18813 3.47010 41 26 40
-0.97322 -4.19597 3.47258 15 9 17
1.79868 -2.47207 2.90837 74 65 75
1.80914 -2.46849 2.89460 68 53 66
1.78155 -2.48759 2.91365 67 69 85
1.78540 -2.50836 2.92186 44 44 61
1.77286 -2.51436 2.91071 28 23 42
1.77931 -2.51891 2.92569 33 33 49
1.76676 -2.52493 2.91451 25 25 36
1.77508 -2.53149 2.93038 24 23 38
1.76248 -2.53753 2.91916 20 24 40
1.76838 -2.54155 2.93399 19 16 33
1.75576 -2.54760 2.92275 19 25 38
1.76931 -2.57733 2.94788 21 25 29
1.76830 -2.57855 2.93514 20 30 38
1.75656 -2.58344 2.93653 30 37 44
1.80391 -2.74367 3.01376 22 18 36
1.80286 -2.74494 3.00039 15 10 28
1.79054 -2.75007 3.00185 17 13 42
1.80175 -2.76036 3.02013 31 29 51
1.79839 -2.77583 3.02598 22 20 36
1.78491 -2.78228 3.01398 22 17 46
1.77404 -2.78671 3.02915 20 21 47
1.77510 -2.78543 3.04262 22 25 47
1.76269 -2.79060 3.04409 31 32 49
1.76909 -2.80062 3.03432 32 33 51
1.75770 -2.80452 3.04931 35 35 51
1.75789 -2.80728 3.03643 38 37 49
1.74737 -2.81476 3.03887 26 24 45
1.73678 -2.82220 3.04130 19 15 46
1.72323 -2.82868 3.02924 11 8 23
1.72580 -2.82919 3.04354 16 13 37
1.71225 -2.83568 3.03148 9 6 20
1.71174 -2.83248 3.04422 12 9 26
1.69819 -2.83896 3.03216 6 6 13
1.69999 -2.83856 3.04607 8 7 16
1.68644 -2.84505 3.03401 6 9 9
1.61248 -2.87474 3.05635 8 10 34
1.62389 -2.87084 3.04133 10 8 25
1.61769 -2.90277 3.06742 64 69 66
1.60403 -2.90931 3.05527 80 94 112
1.59614 -2.91796 3.07239 69 62 67
1.58247 -2.92451 3.06022 70 60 56
1.27939 -3.59011 3.31913 55 45 33
1.29248 -3.58563 3.30191 61 51 45
1.26790 -3.60135 3.32300 43 30 15
1.25503 -3.61010 3.32583 21 11 9
1.23946 -3.61755 3.31197 13 10 12
0.86787 -3.35882 3.21204 33 31 49
0.87978 -3.35474 3.19635 25 27 39
0.86675 -3.36017 3.19790 26 25 36
0.85372 -3.36559 3.19945 25 27 36
0.43220 -3.17730 3.12319 33 39 61
0.44306 -3.17358 3.10889 32 36 45
0.42694 -3.20157 3.13236 88 106 126
0.41529 -3.20742 3.13413 110 126 152
0.40231 -3.21364 3.12258 112 127 149
-0.41696 -4.17998 3.47522 40 57 85
-0.43038 -4.19419 3.48015 61 74 76
-0.44510 -4.18731 3.47686 50 64 74
-0.53186 -4.14094 3.45521 29 52 101
-0.51937 -4.13666 3.43876 40 53 91
-0.53303 -4.14235 3.44038 37 53 88
-0.54519 -4.15602 3.46048 51 103 158
-0.55916 -4.15343 3.45888 139 183 230
-0.57254 -4.16889 3.46430 186 208 231
-0.58506 -4.17318 3.48079 191 204 231
-0.58624 -4.17460 3.46592 192 207 233
-0.68230 -4.17343 3.46138 191 202 224
-0.69587 -4.17142 3.46002 188 196 209
-0.70940 -4.16961 3.45874 183 185 192
-0.72291 -4.17304 3.45949 154 145 143
-0.73641 -4.17757 3.46068 98 88 93
-0.74973 -4.16732 3.45614 58 63 86
-0.76204 -4.17154 3.47234 49 61 100
-0.76319 -4.17293 3.45774 50 61 97
-0.76434 -4.17432 3.44313 46 59 97
-0.80307 -4.16927 3.45462 50 65 101
-0.79082 -4.16507 3.43849 46 61 96
-0.80422 -4.17065 3.44008 48 63 96
-0.81656 -4.17809 3.45746 67 79 104
-0.83111 -4.18506 3.44450 52 63 99
-0.83003 -4.18600 3.45995 63 70 100
-0.84460 -4.19297 3.44698 49 63 98
-0.85675 -4.19417 3.46197 39 61 101
-0.85790 -4.19556 3.44743 40 61 101
-0.87073 -4.21420 3.46913 65 90 132
-0.88340 -4.20174 3.46377 117 134 161
-0.89652 -4.20132 3.46305 140 144 156
-0.90957 -4.20027 3.46208 136 135 144
-0.92277 -4.20296 3.46256 133 129 134
-0.93534 -4.19450 3.45875 118 112 108
-0.94728 -4.17664 3.45133 76 70 61
-0.96186 -4.20419 3.46137 28 25 27
-0.97550 -4.21498 3.46497 20 13 24
-0.98995 -4.22190 3.45210 36 38 48
1.80359 -2.47929 2.89852 69 61 79
1.81408 -2.47570 2.88471 68 54 63
1.79529 -2.48734 2.90126 78 80 97
1.78596 -2.49437 2.90357 65 67 87
1.79290 -2.51844 2.91309 36 32 61
1.80109 -2.78144 3.01432 20 15 41
1.77753 -2.79330 3.01790 32 31 57
1.77092 -2.80530 3.02223 42 51 64
1.75852 -2.81057 3.02375 46 50 62
1.74872 -2.81892 3.02655 27 24 39
1.73517 -2.82541 3.01449 9 8 22
1.73757 -2.82570 3.02869 15 10 33
1.67605 -2.85283 3.03656 11 11 11
1.66375 -2.85827 3.03815 16 18 16
1.65019 -2.86476 3.02607 23 27 34
1.65319 -2.86590 3.04064 17 13 21
1.61792 -2.88439 3.04628 10 11 37
1.62937 -2.88047 3.03122 8 11 22
1.62217 -2.91125 3.05676 54 56 62
1.60032 -2.92615 3.06158 74 63 79
1.28003 -3.59506 3.30501 58 51 33
1.29313 -3.59058 3.28777 65 54 50
1.26702 -3.60350 3.30771 45 37 17
1.25360 -3.61119 3.31011 22 8 17
1.23803 -3.61865 3.29625 14 12 14
0.43244 -3.18214 3.11174 31 37 70
0.44331 -3.17842 3.09743 32 36 45
0.42727 -3.20676 3.12097 89 105 135
0.41564 -3.21272 3.12278 110 125 158
0.40264 -3.21894 3.11122 114 126 148
-0.40719 -4.13246 3.44176 34 49 83
-0.40837 -4.13388 3.42679 30 37 74
-0.42218 -4.13963 3.42842 26 39 73
-0.42022 -4.14996 3.44794 32 50 83
-0.43525 -4.15715 3.43456 29 38 79
-0.44770 -4.16481 3.45251 33 50 82
-0.46227 -4.15762 3.44915 37 50 89
-0.47490 -4.16194 3.46577 43 55 94
-0.49179 -4.13039 3.43749 39 50 89
-0.50619 -4.12020 3.43299 40 52 90
-0.54737 -4.12925 3.43476 19 51 105
-0.56050 -4.14950 3.44199 79 130 182
-0.60112 -4.18127 3.45251 190 209 234
-0.61365 -4.18556 3.46900 193 206 231
-0.61492 -4.18215 3.45228 190 209 233
-0.62743 -4.18644 3.46875 191 204 232
-0.62864 -4.18505 3.45283 190 205 232
-0.64115 -4.18933 3.46929 191 204 234
-0.64247 -4.17939 3.45009 188 206 234
-0.65624 -4.17168 3.44656 186 206 234
-0.66986 -4.17327 3.44661 187 207 235
-0.68348 -4.16942 3.44458 187 206 233
-0.69703 -4.16804 3.44349 186 204 226
-0.71055 -4.16967 3.44356 181 196 217
-0.72404 -4.16990 3.44309 168 178 186
-0.73725 -4.14482 3.43293 120 117 126
-0.75060 -4.14560 3.43268 65 67 94
-0.87050 -4.18127 3.44143 46 73 120
-0.85830 -4.17710 3.42537 45 59 94
-0.88405 -4.19162 3.44484 106 137 168
-0.89701 -4.18853 3.44312 148 162 177
-0.91071 -4.20165 3.44759 144 142 153
-0.92408 -4.20748 3.44928 137 132 139
-0.93646 -4.19554 3.44419 113 102 103
-0.94984 -4.20232 3.44624 57 48 43
-0.96362 -4.21569 3.45080 16 16 17
-0.97708 -4.22330 3.45317 26 26 32
1.80588 -2.48384 2.88747 68 56 69
1.81638 -2.48024 2.87365 68 55 55
1.79947 -2.49387 2.89103 77 73 86
1.78865 -2.49938 2.89270 73 77 89
1.78920 -2.51680 2.89934 50 48 66
1.79030 -2.53497 2.90629 36 32 47
1.77867 -2.53981 2.90767 25 29 42
1.78668 -2.60072 2.93114 16 22 39
1.79851 -2.59580 2.92973 15 21 35
1.79750 -2.59702 2.91689 13 15 27
1.78918 -2.62126 2.93904 26 29 48
1.77830 -2.62498 2.95337 40 41 50
1.77728 -2.62621 2.94045 38 39 56
1.80774 -2.75294 2.98982 25 12 38
1.79433 -2.75936 2.97789 37 39 55
1.81282 -2.77796 2.99953 27 23 53
1.79565 -2.79721 3.00617 38 44 63
1.77499 -2.79287 3.00370 44 44 51
1.77345 -2.81081 3.01046 36 37 50
1.76154 -2.81668 3.01221 27 26 50
1.74798 -2.82317 3.00015 10 7 29
1.75302 -2.82660 3.01565 15 13 33
1.72856 -2.83768 3.01889 12 8 23
1.71726 -2.84436 3.02098 15 7 27
1.70475 -2.84957 3.02246 10 8 19
1.69485 -2.85800 3.02527 11 14 15
1.68396 -2.86526 3.02760 18 21 17
1.67035 -2.87177 3.01548 31 28 40
1.67261 -2.87195 3.02969 26 29 24
1.64594 -2.88040 3.03185 16 21 38
1.63233 -2.88692 3.01973 9 11 13
1.61879 -2.88817 3.03372 11 9 26
1.61511 -2.90482 3.03991 35 39 52
1.61544 -2.92687 3.04830 79 91 109
1.60362 -2.93321 3.05024 79 69 81
1.27931 -3.59748 3.28984 62 57 40
1.29241 -3.59299 3.27259 67 56 52
1.26709 -3.60741 3.29313 48 44 25
1.25318 -3.61421 3.29517 25 10 24
1.23760 -3.62167 3.28130 14 13 18
0.43233 -3.18601 3.09988 32 39 67
0.44321 -3.18229 3.08555 31 37 39
0.42723 -3.21089 3.10913 91 106 135
0.41552 -3.21665 3.11085 112 128 156
0.40251 -3.22287 3.09928 113 126 146
-0.39447 -4.12958 3.42570 25 37 76
-0.37948 -4.12240 3.43904 35 49 91
-0.38066 -4.12383 3.42406 24 37 80
-0.38185 -4.12526 3.40908 16 29 68
-0.46388 -4.15134 3.43122 33 37 74
-0.46506 -4.15277 3.41626 48 40 52
-0.47885 -4.15851 3.41790 40 36 63
-0.47824 -4.14603 3.42863 32 37 80
-0.49316 -4.15318 3.41535 27 31 70
-0.49309 -4.12908 3.42160 31 39 81
-0.50794 -4.13619 3.40839 19 33 69
-0.50755 -4.11740 3.41659 29 43 81
-0.52137 -4.11826 3.41637 29 44 83
-0.53504 -4.12225 3.41734 31 46 83
-0.54875 -4.12461 3.41770 23 42 86
-0.56195 -4.14218 3.42385 28 60 117
-0.57532 -4.15660 3.42880 95 134 185
-0.60410 -4.10265 3.40716 145 168 214
-0.63060 -4.13760 3.41939 147 166 211
-0.64407 -4.14668 3.42230 147 168 216
-0.65744 -4.16978 3.43055 145 167 217
-0.67101 -4.17786 3.43308 145 166 215
-0.68466 -4.16324 3.42699 145 164 215
-0.69819 -4.16307 3.42639 142 162 209
-0.71168 -4.16073 3.42496 130 152 196
-0.72506 -4.14965 3.42022 112 132 168
-0.73853 -4.15981 3.42355 78 81 120
-0.75150 -4.12727 3.41067 48 53 95
-0.76472 -4.12632 3.40978 40 53 93
-0.77688 -4.13048 3.42580 45 60 100
-0.77819 -4.14067 3.41470 38 57 94
-0.79116 -4.12980 3.41006 39 59 91
-0.80423 -4.12677 3.40839 42 60 90
-0.81751 -4.13327 3.41033 43 60 93
-0.83095 -4.14475 3.41416 45 59 95
-0.84423 -4.15027 3.41573 46 59 95
-0.87087 -4.16354 3.41972 33 55 107
-0.88476 -4.18290 3.42653 86 118 163
-0.89800 -4.18671 3.42745 148 166 187
-0.91141 -4.19402 3.42970 151 151 162
-0.92482 -4.20118 3.43189 136 132 139
-0.93772 -4.19910 3.43058 102 89 96
-0.95101 -4.20424 3.43201 44 29 35
-0.96484 -4.21821 3.43677 13 8 17
-0.97931 -4.22514 3.42388 7 11 14
-0.97857 -4.23000 3.44071 16 15 24
1.80973 -2.48999 2.87706 67 54 57
1.82025 -2.48639 2.86321 68 55 52
1.80566 -2.50248 2.88161 76 68 83
1.79313 -2.50848 2.87045 81 81 103
1.79751 -2.51081 2.88444 80 81 97
1.78905 -2.51888 2.88715 60 57 71
1.79932 -2.54673 2.89803 34 31 43
1.78980 -2.55388 2.90036 17 22 35
1.77711 -2.55995 2.88906 13 13 20
1.78959 -2.57101 2.90680 12 17 27
1.77685 -2.57711 2.89545 16 11 19
1.80911 -2.79568 2.99213 31 36 60
1.79183 -2.79532 2.99133 28 33 58
1.77831 -2.80179 2.97930 14 6 22
1.78258 -2.80424 2.99434 26 22 34
1.77779 -2.81844 2.99950 16 12 26
1.76451 -2.82275 3.00062 10 8 29
1.74236 -2.83659 3.00498 9 11 26
1.72844 -2.84012 3.00578 20 21 43
1.71743 -2.84715 3.00801 31 30 53
1.70600 -2.85370 3.01004 16 11 32
1.69239 -2.86021 2.99793 23 16 30
1.68392 -2.86782 3.01451 22 26 31
1.66116 -2.88121 3.01868 20 25 35
1.64753 -2.88773 3.00655 11 11 23
1.64801 -2.88567 3.01986 14 17 31
1.63438 -2.89220 3.00773 11 9 20
1.62183 -2.89475 3.02228 11 9 17
1.62076 -2.89605 3.00867 11 9 27
1.61039 -2.90141 3.02435 22 23 40
1.61863 -2.93375 3.03684 78 90 100
1.60798 -2.94167 3.03942 82 73 78
1.59675 -2.94886 3.04169 72 60 60
1.58298 -2.95545 3.02943 72 58 56
1.27839 -3.59954 3.27452 67 56 44
1.29150 -3.59506 3.25727 71 56 55
1.26519 -3.60764 3.27707 52 44 32
1.25395 -3.61949 3.28110 27 14 29
1.23835 -3.62695 3.26722 19 17 22
0.43230 -3.19012 3.08809 30 37 61
0.44320 -3.18640 3.07375 29 40 42
0.42696 -3.21434 3.09700 93 109 138
0.41498 -3.21933 3.09842 112 128 154
0.40197 -3.22556 3.08684 114 125 145
-0.39640 -4.12057 3.40676 21 27 65
-0.38381 -4.11626 3.39019 17 25 61
-0.41183 -4.10205 3.39920 46 44 62
-0.42670 -4.10917 3.38597 64 58 65
-0.43798 -4.13351 3.41005 41 45 69
-0.52282 -4.11283 3.39903 20 33 69
-0.51041 -4.10858 3.38268 22 31 62
-0.52399 -4.11424 3.38429 24 29 59
-0.53757 -4.11989 3.38590 26 28 65
-0.53658 -4.11397 3.39893 23 34 72
-0.55130 -4.12102 3.38582 23 30 65
-0.55052 -4.10892 3.39650 20 33 74
-0.56521 -4.11595 3.38342 20 29 63
-0.56398 -4.11661 3.39888 10 26 80
-0.57754 -4.12162 3.40025 26 46 105
-0.59076 -4.13941 3.40644 50 64 136
-0.60444 -4.14063 3.40638 56 65 138
-0.61805 -4.14364 3.40699 61 65 143
-0.63170 -4.14289 3.40619 61 69 144
-0.64531 -4.14227 3.40543 59 67 147
-0.65880 -4.14975 3.40773 57 67 145
-0.67233 -4.15375 3.40873 58 63 142
-0.68700 -4.16078 3.39567 16 20 78
-0.68585 -4.15595 3.40903 58 59 140
-0.69935 -4.15073 3.40656 53 59 136
-0.71279 -4.15049 3.40595 45 56 128
-0.72590 -4.10479 3.38825 27 40 109
-0.74033 -4.11170 3.37541 22 29 74
-0.73907 -4.09845 3.38536 18 30 90
-0.75237 -4.10799 3.38844 23 37 84
-0.76559 -4.11116 3.38913 30 42 82
-0.77883 -4.11569 3.39033 28 44 81
-0.79321 -4.12257 3.37752 32 36 66
-0.79194 -4.11497 3.38956 30 46 81
-0.80630 -4.12184 3.37677 29 28 57
-0.80497 -4.11285 3.38826 30 46 75
-0.81931 -4.11971 3.37550 34 36 66
-0.81797 -4.11108 3.38710 35 46 81
-0.83229 -4.11793 3.37436 38 37 71
-0.83139 -4.12409 3.39149 38 47 86
-0.84470 -4.13240 3.39411 43 47 84
-0.85787 -4.13665 3.39520 49 48 83
-0.88482 -4.15968 3.40284 89 101 159
-0.89904 -4.18594 3.41219 149 167 190
-0.91242 -4.19271 3.41423 152 155 157
-0.92552 -4.19419 3.41428 128 121 128
-0.93960 -4.21353 3.42103 85 74 84
-0.95251 -4.21178 3.41988 34 24 31
-0.96698 -4.21870 3.40700 9 8 13
-0.96619 -4.22304 3.42359 10 7 13
-0.98068 -4.22997 3.41070 6 11 8
-0.99322 -4.23924 3.42866 7 13 15
-0.99437 -4.24062 3.41417 6 14 12
-1.00773 -4.24619 3.41575 10 17 17
1.81295 -2.49551 2.86634 64 53 59
1.82349 -2.49190 2.85246 69 55 54
1.81155 -2.51079 2.87199 71 65 86
1.79898 -2.51681 2.86080 79 80 98
1.79918 -2.53174 2.87935 65 63 78
1.80745 -2.55757 2.88929 34 30 44
1.79837 -2.56526 2.89182 18 17 30
1.79731 -2.61689 2.91104 17 11 28
1.80725 -2.64565 2.92213 24 22 50
1.82083 -2.67873 2.93496 39 42 61
1.80767 -2.68503 2.92325 37 44 62
1.83871 -2.75462 2.96392 48 52 65
1.83751 -2.81118 2.98497 24 23 45
1.83643 -2.81248 2.97133 14 6 31
1.82402 -2.81535 2.98603 15 14 42
1.80962 -2.81845 2.98666 13 10 37
1.77950 -2.82301 2.98725 16 8 15
1.76318 -2.82373 2.98692 20 15 27
1.75351 -2.83231 2.98977 23 20 35
1.74135 -2.83796 2.99143 18 19 27
1.72775 -2.84447 2.97933 32 26 27
1.72755 -2.84164 2.99229 23 25 42
1.71397 -2.84814 2.98020 32 23 44
1.71587 -2.84786 2.99418 30 29 53
1.70619 -2.85654 2.99707 19 11 35
1.69258 -2.86306 2.98495 15 11 23
1.67684 -2.88252 3.00568 21 15 40
1.68834 -2.87858 2.99054 16 10 24
1.67576 -2.88382 2.99203 17 10 31
1.66318 -2.88906 2.99352 15 11 25
1.66456 -2.88813 3.00732 12 12 29
1.65090 -2.89467 2.99516 14 13 20
1.61331 -2.90789 3.01281 12 15 33
1.62481 -2.90395 2.99767 10 8 24
1.62109 -2.93967 3.02495 72 84 95
1.61111 -2.94851 3.02788 82 77 83
1.59963 -2.95542 3.03003 74 61 54
1.58583 -2.96203 3.01775 71 56 57
1.27841 -3.60336 3.25989 73 57 50
1.29153 -3.59887 3.24263 75 58 55
1.26540 -3.61184 3.26257 59 47 40
1.25426 -3.62390 3.26666 29 17 33
1.23865 -3.63137 3.25277 15 15 17
0.43259 -3.19516 3.07663 29 43 63
0.44350 -3.19142 3.06227 28 38 41
0.42719 -3.21929 3.08543 92 110 135
0.41520 -3.22428 3.08685 111 126 151
0.40218 -3.23052 3.07526 110 126 153
-0.39791 -4.11737 3.39009 28 26 57
-0.38533 -4.11307 3.37353 18 23 56
-0.41365 -4.09394 3.38077 65 59 53
-0.59236 -4.12349 3.38523 17 19 72
-0.60596 -4.12560 3.38552 15 18 74
-0.61915 -4.14806 3.39341 16 18 74
-0.63387 -4.15511 3.38031 28 32 57
-0.63268 -4.15570 3.39577 14 19 73
-0.64741 -4.16275 3.38265 25 35 60
-0.64626 -4.16002 3.39688 13 22 74
-0.66011 -4.13458 3.38688 12 23 71
-0.67369 -4.11991 3.38091 15 21 79
-0.70047 -4.08630 3.36740 15 21 75
-0.71363 -4.06683 3.35966 15 23 83
-0.72683 -4.07503 3.36223 20 25 81
-0.74114 -4.08189 3.34948 28 30 67
-0.75331 -4.09409 3.36836 20 31 68
-0.76765 -4.10095 3.35559 16 24 51
-0.76648 -4.09724 3.36906 21 29 63
-0.77959 -4.09794 3.36883 22 30 66
-0.84533 -4.11943 3.37444 49 33 61
-0.85963 -4.12628 3.36171 92 29 39
-0.85882 -4.13329 3.37911 72 37 61
-0.87214 -4.14178 3.38179 77 29 78
-0.88530 -4.14635 3.38301 93 72 134
-0.90004 -4.18433 3.39663 137 146 175
-0.91332 -4.18930 3.39800 135 135 128
-0.92633 -4.18945 3.39758 105 96 89
-0.94174 -4.23274 3.41316 64 54 58
-0.95424 -4.22309 3.40910 23 14 23
-0.96874 -4.23003 3.39619 9 10 12
1.82624 -2.51140 2.85976 67 54 63
1.83684 -2.50777 2.84581 70 55 52
1.82525 -2.51259 2.84718 72 54 59
1.81757 -2.51925 2.86236 70 61 84
1.80575 -2.54088 2.86993 70 72 83
1.81346 -2.56620 2.87956 43 37 57
1.80846 -2.57826 2.88384 24 16 38
1.79567 -2.58439 2.87245 39 39 48
1.80758 -2.59484 2.88993 20 13 29
1.79474 -2.60099 2.87849 39 41 46
1.80829 -2.61328 2.89676 26 19 32
1.79538 -2.61946 2.88527 38 39 57
1.81608 -2.65765 2.91343 37 40 59
1.81832 -2.67836 2.92116 45 47 59
1.87196 -2.81375 2.97306 22 21 38
1.85664 -2.81593 2.97332 15 12 38
1.83074 -2.82562 2.97599 13 6 28
1.81253 -2.82436 2.97488 20 10 24
1.79352 -2.82208 2.97337 29 21 31
1.78249 -2.82907 2.97557 38 39 37
1.75893 -2.84134 2.97927 43 48 50
1.74271 -2.84218 2.97901 35 31 32
1.70853 -2.86203 2.98514 20 11 33
1.61649 -2.91470 3.00135 10 12 32
1.62800 -2.91075 2.98619 9 8 23
1.62623 -2.94912 3.01441 65 74 95
1.61242 -2.95573 3.00212 80 90 105
1.61372 -2.95469 3.01602 81 86 96
1.60235 -2.96178 3.01824 72 60 52
1.58853 -2.96840 3.00594 72 56 53
1.27879 -3.60783 3.24549 74 59 54
1.29191 -3.60334 3.22821 77 61 57
1.27756 -3.60932 3.22991 76 62 64
1.26444 -3.61381 3.24719 65 49 47
1.25440 -3.62800 3.25208 23 16 33
1.23878 -3.63548 3.23818 13 16 10
0.43325 -3.20127 3.06555 30 45 60
0.44417 -3.19753 3.05117 33 40 44
0.42763 -3.22483 3.07405 93 113 139
0.41459 -3.23107 3.06244 110 126 143
0.41562 -3.22983 3.07548 111 125 149
0.40258 -3.23607 3.06387 107 126 149
-0.39917 -4.11769 3.37475 34 28 50
-0.41410 -4.12484 3.36146 45 40 38
-0.41438 -4.10184 3.36836 62 60 44
-0.42924 -4.10895 3.35513 43 34 46
-0.42800 -4.10851 3.37034 63 55 55
-0.44286 -4.11563 3.35712 44 34 52
-0.44225 -4.10501 3.36855 63 56 57
-0.45708 -4.11210 3.35535 41 34 52
-0.45567 -4.11484 3.37170 56 56 63
-0.47051 -4.12194 3.35849 41 41 45
-0.59348 -4.12668 3.37123 44 41 67
-0.60816 -4.13371 3.35816 51 49 61
-0.60716 -4.12509 3.37016 44 40 65
-0.62032 -4.14915 3.37858 38 37 65
-0.63504 -4.15620 3.36548 27 35 60
-0.67491 -4.10775 3.36137 35 40 72
-0.68941 -4.11469 3.34846 43 52 78
-0.70158 -4.06068 3.34304 36 35 58
-0.71471 -4.05491 3.34045 35 36 71
-0.72784 -4.05973 3.34177 36 35 73
-0.75420 -4.07763 3.34745 18 27 60
-0.75533 -4.07899 3.33318 19 28 59
-0.76848 -4.08447 3.33474 14 24 53
-0.78043 -4.08449 3.34906 36 37 53
-0.79352 -4.08754 3.34973 63 55 57
-0.80778 -4.09437 3.33703 59 48 65
-0.80654 -4.08853 3.34963 51 37 64
-0.83232 -4.08505 3.34744 55 55 68
-0.84635 -4.11781 3.35905 71 34 44
-0.87345 -4.14751 3.36906 97 22 45
-0.88606 -4.13925 3.36557 97 49 74
-0.90069 -4.17528 3.37836 130 126 135
-0.91383 -4.17834 3.37903 115 110 92
-0.93005 -4.23903 3.40088 73 67 52
-0.94332 -4.24172 3.40140 43 38 41
-0.95589 -4.23293 3.39771 17 11 18
-0.97042 -4.23988 3.38478 10 10 9
1.82526 -2.52946 2.85335 73 56 72
1.83591 -2.52581 2.83933 72 54 56
1.81762 -2.53849 2.85640 79 76 90
1.80495 -2.54455 2.84512 78 84 97
1.80916 -2.54671 2.85912 76 81 91
1.81150 -2.56640 2.86640 57 56 75
1.81186 -2.58417 2.87292 43 39 60
1.86629 -2.80987 2.95732 17 8 28
1.85409 -2.81556 2.95899 20 12 24
1.85034 -2.83093 2.96448 29 21 33
1.83418 -2.83213 2.96438 36 34 45
1.81877 -2.83415 2.96460 44 44 52
1.80566 -2.83882 2.96586 52 54 64
1.79198 -2.84537 2.95368 65 68 84
1.78946 -2.83984 2.96569 57 64 70
1.77580 -2.84638 2.95352 63 65 85
1.75610 -2.84055 2.96482 54 58 66
1.74158 -2.84340 2.96538 45 41 49
1.73007 -2.84986 2.96735 38 32 36
1.71943 -2.85740 2.96975 34 27 44
1.70963 -2.86598 2.97256 24 18 38
1.69860 -2.87311 2.97480 21 17 28
1.69108 -2.88463 2.97876 25 20 29
1.68337 -2.89599 2.98265 29 22 35
1.67232 -2.90324 2.98493 25 21 32
1.65993 -2.90881 2.98655 19 19 28
1.64838 -2.91276 3.00176 12 11 21
1.64729 -2.91407 2.98805 13 14 25
1.62313 -2.92603 2.99161 10 12 39
1.63469 -2.92207 2.97639 10 7 23
1.62876 -2.95516 3.00246 58 58 84
1.61493 -2.96179 2.99014 79 94 104
1.60584 -2.96917 3.00681 74 59 54
1.59199 -2.97580 2.99448 71 57 55
1.26406 -3.61690 3.23223 67 54 60
1.27719 -3.61241 3.21495 78 64 58
1.25541 -3.63375 3.23811 23 19 32
1.23977 -3.64124 3.22419 16 18 17
0.43490 -3.21028 3.05552 30 47 66
0.44585 -3.20653 3.04112 34 40 46
0.42830 -3.23108 3.06291 92 117 138
0.41524 -3.23734 3.05129 109 126 145
-0.38208 -4.17420 3.38059 21 20 47
-0.36693 -4.16695 3.39408 17 26 54
-0.36813 -4.16839 3.37894 15 21 53
-0.39750 -4.15922 3.37459 30 22 38
-0.55326 -4.13463 3.36035 52 49 41
-0.53849 -4.12756 3.37349 42 44 59
-0.53966 -4.12897 3.35873 44 51 43
-0.55209 -4.13323 3.37510 45 46 55
-0.58089 -4.13028 3.35782 46 48 50
-0.64890 -4.13642 3.35777 26 37 63
-0.65005 -4.13781 3.34315 25 32 54
-0.66268 -4.10627 3.34628 41 53 79
-0.67719 -4.11322 3.33336 40 42 85
-0.70269 -4.04309 3.32182 48 55 74
-0.69070 -4.03899 3.30604 36 40 84
-0.70381 -4.04445 3.30759 43 47 83
-0.71692 -4.04991 3.30915 42 50 84
-0.71573 -4.03083 3.31689 46 57 79
-0.72880 -4.03916 3.31950 50 51 69
-0.74184 -4.04171 3.31999 37 37 62
-0.78114 -4.06501 3.32719 42 50 45
-0.76918 -4.06091 3.31145 20 21 54
-0.79418 -4.06874 3.32812 73 65 51
-0.81982 -4.06260 3.32501 52 63 86
-0.83247 -4.05651 3.32235 67 74 86
-0.84703 -4.10633 3.34009 80 55 61
-0.86049 -4.12072 3.34490 87 35 43
-0.87432 -4.14256 3.35242 86 26 32
-0.90121 -4.16381 3.35929 141 143 136
-0.91490 -4.17843 3.36417 120 113 93
-0.93163 -4.24841 3.38921 65 58 44
-0.94455 -4.24447 3.38733 36 31 34
-0.95785 -4.24791 3.38814 18 10 11
-0.97243 -4.25489 3.37517 9 10 10
1.83311 -2.53983 2.84432 71 52 59
1.84379 -2.53618 2.83025 71 54 59
1.83210 -2.54104 2.83164 69 51 56
1.82677 -2.55029 2.84791 75 70 82
1.81405 -2.55638 2.83659 79 83 93
1.81523 -2.57263 2.85563 63 65 83
1.81311 -2.58780 2.86105 44 47 71
1.80028 -2.59394 2.84964 15 11 36
1.81187 -2.60406 2.86690 35 40 55
1.80001 -2.60900 2.86831 28 31 39
1.79899 -2.61023 2.85544 17 7 27
1.86245 -2.78869 2.93542 33 26 43
1.87456 -2.82175 2.94779 41 37 50
1.87342 -2.84009 2.95439 50 47 53
1.86205 -2.84690 2.95649 54 55 62
1.84826 -2.85350 2.94422 69 70 85
1.84827 -2.85095 2.95751 59 63 73
1.83449 -2.85754 2.94524 69 70 88
1.82573 -2.84479 2.95456 62 67 80
1.81200 -2.85137 2.94234 70 69 87
1.80690 -2.84283 2.95324 65 68 84
1.79320 -2.84938 2.94105 68 69 83
1.75485 -2.84164 2.95113 60 59 78
1.76632 -2.83772 2.93603 68 66 81
1.75378 -2.84294 2.93752 64 62 84
1.73892 -2.84279 2.95103 54 51 68
1.72735 -2.84916 2.95297 48 45 58
1.71894 -2.85941 2.95641 44 41 55
1.71027 -2.86940 2.95975 39 36 49
1.70203 -2.87998 2.96332 36 35 45
1.69579 -2.89314 2.96788 38 35 48
1.68884 -2.90551 2.97214 40 35 50
1.67660 -2.91132 2.97385 32 30 42
1.66488 -2.91779 2.97582 23 22 34
1.65279 -2.92380 2.97760 16 11 27
1.63903 -2.93038 2.96536 12 7 18
1.62893 -2.93626 2.98135 9 10 33
1.63359 -2.96423 2.99163 45 49 66
1.60999 -2.97745 2.99566 73 62 68
1.26599 -3.62436 3.21892 70 57 52
1.27914 -3.61986 3.20161 80 66 63
1.25904 -3.64452 3.22600 26 22 31
1.24337 -3.65202 3.21204 18 21 22
0.43590 -3.21740 3.04473 32 49 69
0.44686 -3.21365 3.03030 32 39 43
0.42947 -3.23882 3.05228 93 118 144
0.41639 -3.24508 3.04064 111 126 153
-0.33757 -4.20397 3.37719 17 21 35
-0.32226 -4.19664 3.39082 32 37 56
-0.32347 -4.19810 3.37552 34 36 41
-0.33636 -4.20251 3.39249 18 24 49
-0.35047 -4.20838 3.39416 14 21 49
-0.35213 -4.20416 3.37679 15 17 32
-0.36800 -4.18696 3.37005 16 23 52
-0.38440 -4.16047 3.35992 57 53 59
-0.39877 -4.15955 3.35912 67 58 61
-0.41595 -4.11619 3.34286 64 54 62
-0.43008 -4.11553 3.34217 61 48 60
-0.53952 -4.16513 3.35661 45 38 44
-0.55419 -4.14273 3.34802 40 33 38
-0.58210 -4.12981 3.34244 27 33 49
-0.59590 -4.12526 3.34035 32 33 44
-0.72987 -4.03371 3.30286 46 48 67
-0.74287 -4.03525 3.30300 36 33 59
-0.75605 -4.05136 3.30841 21 24 57
-0.78221 -4.06393 3.31212 28 32 52
-0.79531 -4.07070 3.31415 35 39 61
-0.80832 -4.07379 3.31485 44 42 73
-0.82098 -4.06529 3.31137 54 64 102
-0.83512 -4.07206 3.29878 67 84 135
-0.83337 -4.05152 3.30598 69 79 107
-0.84736 -4.08570 3.31791 80 75 87
-0.86111 -4.10902 3.32591 80 61 66
-0.87531 -4.14059 3.33689 75 56 65
-0.88943 -4.16667 3.34588 111 115 139
-0.91666 -4.19194 3.35416 117 110 94
-0.93328 -4.25903 3.37793 51 43 38
-0.94793 -4.26604 3.36489 16 14 33
-0.94634 -4.25714 3.37682 23 20 36
-0.96096 -4.26414 3.36381 10 9 15
-0.96038 -4.27216 3.38181 12 11 15
-0.97503 -4.27918 3.36877 9 12 11
1.83396 -2.56007 2.83852 72 65 75
1.84471 -2.55639 2.82438 70 54 56
1.82121 -2.56618 2.82716 81 79 89
1.82430 -2.58451 2.84699 58 56 74
1.82781 -2.60576 2.85472 25 21 48
1.81490 -2.61194 2.84323 25 14 36
1.86618 -2.85419 2.94501 66 68 85
1.85236 -2.86081 2.93271 69 71 89
1.73817 -2.84448 2.93759 60 59 83
1.74963 -2.84055 2.92251 62 64 86
1.73710 -2.84577 2.92400 59 61 88
1.72457 -2.85099 2.92548 57 61 85
1.72959 -2.85447 2.94091 57 58 79
1.71597 -2.86099 2.92879 56 58 75
1.72241 -2.86625 2.94492 55 56 69
1.70876 -2.87279 2.93277 54 55 69
1.71384 -2.87641 2.94830 52 52 62
1.70017 -2.88296 2.93612 50 51 64
1.70726 -2.88910 2.95265 47 47 59
1.69355 -2.89566 2.94044 45 46 60
1.70069 -2.90190 2.95704 44 43 57
1.68695 -2.90848 2.94480 42 41 60
1.68972 -2.90929 2.95935 42 38 55
1.67923 -2.91732 2.96191 34 33 45
1.66824 -2.92475 2.96424 26 23 34
1.65654 -2.93131 2.96623 18 11 26
1.63166 -2.94254 2.96949 10 9 16
1.62753 -2.95905 2.97529 28 38 48
1.62635 -2.97961 2.98263 79 95 104
1.61349 -2.98488 2.98412 79 66 79
1.60236 -2.99245 2.98650 71 58 61
1.59064 -2.99646 3.00192 74 58 59
1.58954 -2.99779 2.98802 72 56 60
1.58844 -2.99911 2.97411 70 55 61
1.26954 -3.63488 3.20670 72 60 60
1.28272 -3.63037 3.18935 81 66 62
1.26308 -3.65608 3.21411 30 26 32
1.24736 -3.66360 3.20011 22 20 23
0.44043 -3.23487 3.03771 33 48 65
0.45145 -3.23110 3.02320 31 39 44
0.43048 -3.24609 3.04143 95 120 148
0.41737 -3.25237 3.02976 110 122 150
-0.32553 -4.18982 3.35669 35 35 25
-0.31025 -4.18250 3.37029 59 57 72
-0.31146 -4.18396 3.35503 75 70 75
-0.31266 -4.18541 3.33976 86 83 89
-0.33924 -4.19991 3.35989 18 22 27
-0.35377 -4.20031 3.35959 17 14 20
-0.36874 -4.19433 3.35698 26 45 70
-0.38417 -4.18109 3.35176 117 134 128
-0.39881 -4.17736 3.34997 142 143 143
-0.41325 -4.17558 3.34889 139 138 137
-0.42467 -4.22055 3.36467 135 124 123
-0.47145 -4.43043 3.43852 121 108 109
-0.45806 -4.42585 3.42089 165 167 177
-0.47270 -4.43195 3.42263 162 165 171
-0.48734 -4.43804 3.42437 159 164 164
-0.55504 -4.15370 3.33668 89 87 83
-0.58315 -4.13556 3.32931 74 74 83
-0.59690 -4.13314 3.32802 72 71 69
-0.65154 -4.10949 3.31785 63 58 76
-0.69184 -4.02988 3.28806 54 43 87
-0.70486 -3.99636 3.27563 54 40 85
-0.71784 -4.00737 3.27918 53 40 81
-0.73083 -4.01545 3.28168 49 39 69
-0.74385 -4.02405 3.28436 46 36 66
-0.75699 -4.04031 3.28979 43 35 62
-0.77020 -4.05606 3.29504 39 29 56
-0.78309 -4.05359 3.29376 37 31 65
-0.79604 -4.05554 3.29406 43 35 77
-0.80899 -4.05818 3.29460 60 53 89
-0.82205 -4.06506 3.29667 65 72 117
-0.84826 -4.08074 3.30149 75 87 120
-0.86240 -4.08751 3.28889 65 90 129
-0.86181 -4.09963 3.30785 75 83 100
-0.87601 -4.10643 3.29521 67 85 120
-0.87607 -4.13319 3.31945 71 75 96
-0.89089 -4.17534 3.33411 95 101 142
-0.90318 -4.16043 3.32838 128 129 173
-0.91873 -4.21148 3.34622 94 87 96
-0.93464 -4.26413 3.36461 36 33 40
-0.94930 -4.27115 3.35157 11 10 20
1.83707 -2.56559 2.82742 72 62 70
1.84783 -2.56190 2.81325 71 55 54
1.82845 -2.59121 2.83627 61 56 71
1.82602 -2.60618 2.84151 27 17 40
1.68571 -2.92819 2.95177 35 35 45
1.67247 -2.93284 2.95303 26 25 35
1.65858 -2.93663 2.95397 16 12 27
1.63393 -2.94823 2.95737 10 7 18
1.62188 -2.95439 2.95920 25 23 39
1.63879 -2.99881 2.97547 76 83 97
1.62113 -2.99783 2.97461 80 72 80
1.61053 -3.00619 2.97727 69 58 70
1.59656 -3.01288 2.96483 72 55 58
1.27578 -3.65053 3.19630 70 60 55
1.28901 -3.64600 3.17888 78 68 65
1.26712 -3.66765 3.20213 36 28 35
0.44363 -3.24848 3.02915 36 51 63
0.43206 -3.25507 3.03115 96 119 147
0.41893 -3.26136 3.01945 110 122 147
-0.32754 -4.18202 3.33812 33 33 28
-0.34278 -4.18932 3.32455 13 20 34
-0.34134 -4.19065 3.34078 16 24 31
-0.35539 -4.19650 3.34245 12 10 30
-0.37241 -4.16370 3.33030 47 68 112
-0.38470 -4.19165 3.33987 144 178 192
-0.39726 -4.21800 3.34885 169 177 201
-0.41168 -4.21852 3.34862 166 172 194
-0.42472 -4.24028 3.35596 166 175 193
-0.55547 -4.17699 3.32966 150 151 154
-0.56975 -4.16427 3.32472 146 149 146
-0.59732 -4.16539 3.32431 144 140 144
-0.65313 -4.06975 3.28871 134 130 134
-0.66658 -4.04966 3.28118 130 125 129
-0.67985 -4.03266 3.27476 128 122 126
-0.69294 -4.04566 3.27899 124 119 121
-0.70605 -4.04142 3.27710 120 117 118
-0.73212 -4.03873 3.27538 112 106 109
-0.74512 -4.03932 3.27521 106 102 103
-0.75782 -4.02140 3.26847 101 98 96
-0.77128 -4.05557 3.28022 90 85 92
-0.78431 -4.05998 3.28140 80 77 92
-0.79711 -4.05487 3.27921 80 75 89
-0.81001 -4.05602 3.27924 84 80 93
-0.82319 -4.06741 3.28290 69 73 116
-0.83596 -4.06521 3.28174 53 73 133
-0.85007 -4.07196 3.26918 25 57 131
-0.84948 -4.08500 3.28838 57 83 131
-0.86364 -4.09178 3.27577 27 62 129
-0.89267 -4.19077 3.32468 78 88 119
-0.90598 -4.19627 3.32624 98 93 118
-0.92213 -4.25672 3.34724 74 69 77
-0.93642 -4.27693 3.35400 29 30 37
-0.95111 -4.28397 3.34092 9 7 16
1.83968 -2.57059 2.81608 72 58 65
1.85045 -2.56690 2.80189 71 55 54
1.83331 -2.58121 2.81964 81 73 88
1.82704 -2.59201 2.82326 74 68 88
1.82621 -2.60869 2.82910 54 46 69
1.82406 -2.62411 2.83446 52 47 66
1.81314 -2.62785 2.84883 34 26 38
1.83230 -2.65092 2.84412 56 59 67
1.82130 -2.65468 2.85860 42 37 51
1.81924 -2.65717 2.83249 67 68 83
1.70378 -2.93231 2.93948 41 41 58
1.71653 -2.92699 2.93797 45 46 59
1.68805 -2.93386 2.93959 34 34 46
1.67413 -2.93766 2.94054 29 22 37
1.66118 -2.94268 2.94194 22 12 28
1.64858 -2.94815 2.94352 22 12 41
1.64876 -2.97027 2.95130 32 29 58
1.63486 -2.97693 2.93892 74 73 87
1.65961 -3.00664 2.96439 53 56 78
1.64110 -3.00465 2.96317 80 85 104
1.62590 -3.00696 2.96356 78 76 81
1.61190 -3.01366 2.95111 72 58 66
1.61390 -3.01353 2.96554 71 57 74
1.59990 -3.02023 2.95308 74 56 58
1.28234 -3.66681 3.18602 69 62 60
1.29563 -3.66227 3.16853 80 68 63
1.27068 -3.67835 3.18975 46 31 36
1.25553 -3.68324 3.19105 26 17 21
1.24223 -3.68780 3.20856 20 20 22
1.24098 -3.68930 3.19277 21 16 18
1.23973 -3.69080 3.17699 21 17 13
0.45659 -3.25016 3.01656 33 41 46
0.46974 -3.24386 3.02827 34 40 54
0.46870 -3.24512 3.01513 35 39 50
0.46766 -3.24637 3.00198 34 40 46
0.44447 -3.25521 3.01800 43 59 68
0.43384 -3.26464 3.02102 96 123 148
0.42067 -3.27095 3.00930 109 122 145
-0.30980 -4.23208 3.34050 88 92 97
-0.29436 -4.22469 3.35424 97 95 104
-0.29558 -4.22616 3.33881 87 94 107
-0.29680 -4.22763 3.32338 92 95 109
-0.32915 -4.17874 3.32121 30 26 34
-0.35720 -4.19042 3.32454 8 12 43
-0.37412 -4.15836 3.31279 62 91 141
-0.38590 -4.19310 3.32468 138 173 201
-0.39847 -4.21945 3.33359 154 168 198
-0.41397 -4.20359 3.32759 146 156 195
-0.42628 -4.23611 3.33868 145 161 200
-0.44099 -4.23132 3.33659 146 162 193
-0.45223 -4.28691 3.35582 155 167 193
-0.65416 -4.08119 3.27787 163 172 183
-0.66858 -4.08810 3.26503 165 177 202
-0.66754 -4.07454 3.27516 161 170 180
-0.68192 -4.08143 3.26236 165 177 206
-0.68089 -4.05431 3.26768 159 167 180
-0.69518 -4.06115 3.25496 165 177 208
-0.69407 -4.04119 3.26270 158 165 175
-0.70830 -4.04800 3.25003 164 177 208
-0.70716 -4.03952 3.26175 155 162 173
-0.72137 -4.04632 3.24910 164 178 206
-0.72021 -4.03734 3.26062 153 158 168
-0.73438 -4.04413 3.24800 163 178 204
-0.73309 -4.02234 3.25499 150 155 163
-0.74600 -4.02059 3.25401 145 152 157
-0.75891 -4.02193 3.25412 142 148 149
-0.77183 -4.02512 3.25489 125 127 135
-0.78540 -4.05971 3.26667 99 99 108
-0.79956 -4.06649 3.25407 74 83 100
-0.79819 -4.05480 3.26459 78 81 95
-0.81118 -4.05949 3.26588 61 68 99
-0.82531 -4.06625 3.25331 40 53 126
-0.82431 -4.06869 3.26875 42 54 119
-0.83844 -4.07546 3.25616 28 51 131
-0.83704 -4.06551 3.26728 26 51 131
-0.85114 -4.07226 3.25472 27 53 127
-0.87836 -4.13666 3.29115 31 67 126
-0.86632 -4.13254 3.27530 24 55 126
-0.89343 -4.18381 3.30730 62 92 119
-0.90618 -4.17827 3.30500 103 118 115
-0.92189 -4.23117 3.32316 80 85 71
-0.93797 -4.28547 3.34181 26 25 24
-0.95269 -4.29252 3.32871 13 7 16
1.84181 -2.57511 2.80452 70 55 63
1.85260 -2.57141 2.79031 68 56 57
1.84080 -2.57633 2.79171 66 55 61
1.83485 -2.58513 2.80782 77 68 83
1.82523 -2.59238 2.81010 82 79 96
1.81713 -2.60131 2.81299 74 74 90
1.80427 -2.60747 2.80154 72 73 93
1.81714 -2.61900 2.81915 68 72 84
1.80421 -2.62519 2.80764 69 69 91
1.75713 -2.93762 2.92846 50 50 66
1.77107 -2.93094 2.94087 53 57 75
1.76887 -2.93360 2.91301 51 49 69
1.75823 -2.93629 2.94239 54 53 69
1.74539 -2.94164 2.94392 49 49 63
1.74429 -2.94296 2.92998 45 45 58
1.71958 -2.93349 2.92604 46 41 52
1.70620 -2.93805 2.92727 45 35 54
1.69404 -2.94415 2.92907 43 33 60
1.68017 -2.95079 2.91672 75 71 76
1.69722 -2.96983 2.93809 51 40 68
1.68660 -3.00009 2.94835 71 67 87
1.67173 -3.00297 2.94896 73 75 88
1.64430 -3.01167 2.95127 78 72 94
1.64319 -3.01301 2.93724 73 59 71
1.63026 -3.01839 2.93877 73 58 61
1.62887 -3.01373 2.95158 75 66 74
1.61486 -3.02044 2.93910 73 58 59
1.28505 -3.67582 3.17296 73 65 60
1.29836 -3.67126 3.15544 82 68 64
1.27145 -3.68371 3.17535 50 36 43
1.25843 -3.69277 3.17816 26 17 24
1.24261 -3.70035 3.16408 27 21 13
0.45690 -3.25533 3.00482 30 39 44
0.46799 -3.25153 2.99021 35 40 52
0.44489 -3.26074 3.00638 46 60 76
0.43572 -3.27455 3.01095 97 125 146
0.42251 -3.28088 2.99919 107 121 149
-0.27295 -4.32146 3.35667 143 146 148
-0.28875 -4.32902 3.34261 95 89 112
-0.31004 -4.24442 3.32888 90 97 98
-0.33049 -4.17859 3.30543 28 22 38
-0.34486 -4.18020 3.30561 10 14 34
-0.35886 -4.18603 3.30727 6 10 41
-0.37531 -4.15977 3.29770 61 93 137
-0.38915 -4.16641 3.29964 112 145 175
-0.40304 -4.17227 3.30132 118 139 170
-0.41741 -4.17098 3.30049 115 134 177
-0.43121 -4.17801 3.30258 116 134 177
-0.44235 -4.23006 3.32040 120 136 174
-0.62713 -4.16683 3.29353 163 175 210
-0.74722 -4.03096 3.24308 161 176 199
-0.76011 -4.02924 3.24214 160 170 188
-0.77332 -4.04705 3.24799 122 125 146
-0.78642 -4.05651 3.25094 90 91 108
-0.80056 -4.06328 3.23834 69 83 97
-0.87928 -4.13311 3.27515 27 60 121
-0.88040 -4.13447 3.26089 38 56 115
-0.89355 -4.13994 3.26245 48 64 92
-0.89388 -4.17028 3.28771 50 79 110
-0.90804 -4.19445 3.29575 84 107 112
-0.92271 -4.22626 3.30643 68 77 68
-0.93942 -4.29210 3.32891 25 20 17
-0.95416 -4.29915 3.31579 16 9 19
1.83588 -2.58850 2.79579 71 66 77
1.84670 -2.58480 2.78154 67 55 65
1.82344 -2.59279 2.79695 80 80 99
1.81060 -2.59894 2.78552 80 80 108
1.81911 -2.60574 2.80131 78 79 101
1.80623 -2.61191 2.78984 72 72 98
1.75509 -2.95907 2.92144 47 45 69
1.74108 -2.96578 2.90897 75 69 86
1.74704 -2.97050 2.92518 57 51 74
1.73300 -2.97722 2.91268 72 71 92
1.73895 -2.98199 2.92893 63 62 81
1.72423 -2.98513 2.92965 69 69 87
1.69962 -2.99756 2.93332 72 67 73
1.68514 -3.00098 2.93414 72 61 76
1.67109 -3.00771 2.92163 67 49 58
1.67108 -3.00491 2.93514 71 57 69
1.65704 -3.01164 2.92264 70 53 67
