ply
format ascii 1.0
element face 0
property list uchar int vertex_indices
element vertex 1335
property float x
property float y
property float z
property uchar diffuse_red
property uchar diffuse_green
property uchar diffuse_blue
end_header
0.95603 -3.12230 1.17957 117 115 135
0.94269 -3.13017 1.16687 123 115 135
0.94463 -3.13022 1.18057 120 127 135
0.93358 -3.13869 1.18149 124 133 150
0.92616 -3.15263 1.18156 128 141 162
0.91329 -3.15848 1.18290 131 144 164
0.91276 -3.16053 1.16881 136 148 166
0.90484 -3.24875 1.17803 134 150 168
0.91851 -3.24069 1.19104 134 145 166
0.91797 -3.24279 1.17667 137 150 174
0.90418 -3.27424 1.17643 112 123 156
0.92565 -3.33495 1.16952 86 87 141
0.91169 -3.34319 1.15623 31 37 92
0.92557 -3.36225 1.16772 47 57 106
0.91132 -3.36716 1.16931 34 40 85
0.90202 -3.38008 1.16969 33 34 81
0.89656 -3.39933 1.16915 42 46 95
0.89192 -3.42015 1.16839 67 76 114
0.88831 -3.44290 1.16736 82 89 113
0.87406 -3.45130 1.15380 93 100 120
0.88279 -3.46274 1.16678 89 95 119
0.86849 -3.47117 1.15317 93 100 117
0.87426 -3.47774 1.16693 96 110 123
0.86502 -3.49166 1.16724 105 118 136
0.85065 -3.50014 1.15357 105 115 147
0.85551 -3.50527 1.16761 107 114 138
0.84112 -3.51376 1.15391 102 115 144
0.84658 -3.51999 1.16783 105 115 140
0.83689 -3.53352 1.16823 110 123 144
0.83038 -3.55276 1.16783 121 131 147
0.82059 -3.56640 1.16823 116 124 138
0.82019 -3.59690 1.16626 102 110 129
0.81427 -3.61787 1.16566 88 93 119
0.80787 -3.63824 1.16517 66 66 99
0.80079 -3.65760 1.16483 38 42 68
0.78717 -3.66179 1.18186 29 38 73
0.78659 -3.66406 1.16631 26 34 60
0.77214 -3.70314 1.16565 24 28 70
0.78586 -3.69892 1.14851 29 34 61
0.76662 -3.72623 1.16486 56 70 116
0.77429 -3.77476 1.16060 122 140 166
0.73666 -3.80616 1.16356 138 147 159
0.75062 -3.80186 1.14611 141 149 168
0.72658 -3.82163 1.16389 122 127 129
0.75571 -3.91536 1.15376 72 71 73
0.74018 -3.92452 1.13898 60 56 46
0.83284 -4.34827 1.11468 45 48 59
0.84848 -4.34346 1.09514 37 43 48
0.78611 -4.41868 1.11627 45 47 39
0.80188 -4.41383 1.09655 48 51 54
0.77051 -4.42805 1.11774 35 38 35
0.76516 -4.46052 1.11630 54 64 60
0.76225 -4.49899 1.11413 73 81 86
0.75234 -4.52201 1.11393 88 97 98
0.73494 -4.53228 1.09737 97 104 109
0.74244 -4.54539 1.11371 100 109 109
0.72498 -4.55569 1.09709 102 110 111
0.57297 -4.61705 1.13166 108 117 115
0.58972 -4.60943 1.12992 115 118 108
0.58904 -4.61211 1.11158 116 118 121
0.55553 -4.62734 1.11506 123 135 131
0.55576 -4.62347 1.13354 120 132 130
0.53832 -4.63376 1.11694 119 118 125
0.53912 -4.63138 1.13524 117 122 129
0.52169 -4.64167 1.11864 106 103 117
0.50864 -4.65467 1.13778 112 119 120
0.50795 -4.65735 1.11941 116 129 133
0.49117 -4.66498 1.12116 124 130 134
-0.22951 -4.90290 1.22021 100 98 95
-0.21231 -4.89276 1.23658 99 101 97
-0.21299 -4.89539 1.21850 103 100 98
-0.21367 -4.89803 1.20041 101 102 100
-0.22883 -4.90027 1.23829 99 98 91
-0.24534 -4.90778 1.24001 93 94 96
-0.24830 -4.89936 1.22296 99 98 91
-0.26410 -4.90422 1.24272 90 95 99
-0.26478 -4.90685 1.22467 89 94 89
-0.43695 -4.83489 1.25252 90 90 88
-0.45364 -4.84474 1.23663 81 87 88
-0.46865 -4.85172 1.25565 70 83 86
-0.46931 -4.85428 1.23809 82 86 89
-0.48411 -4.86264 1.25700 104 108 100
-0.49519 -4.90153 1.25590 92 67 66
-0.51012 -4.91682 1.25689 48 31 29
-0.51928 -4.97084 1.25453 33 26 30
-0.54570 -5.02912 1.25420 39 34 37
-0.55635 -5.07802 1.25238 58 59 74
-0.57363 -5.08822 1.23593 86 91 79
-0.57210 -5.09176 1.25358 78 87 76
-0.58940 -5.10197 1.23711 90 89 79
2.44605 -2.61968 0.99875 134 135 140
2.45884 -2.61575 0.98277 144 150 161
2.43662 -2.62868 0.99940 125 119 116
2.42272 -2.63688 0.98617 116 101 100
2.42616 -2.63692 1.00024 117 108 105
2.40474 -2.65311 1.00202 117 97 89
2.38998 -2.65813 1.00367 121 103 91
2.38045 -2.66718 1.00433 126 112 92
2.37083 -2.67619 1.00501 132 117 95
2.35329 -2.71235 1.00486 148 131 102
2.36622 -2.70837 0.98870 141 120 89
2.35273 -2.71451 0.99010 146 120 95
2.35695 -2.73209 1.00299 164 143 125
2.34284 -2.74042 0.98957 170 140 91
2.34779 -2.74176 1.00356 166 139 121
2.33367 -2.75009 0.99012 169 140 93
2.34666 -2.75791 1.00259 165 136 105
2.33249 -2.76627 0.98910 166 137 105
2.34596 -2.77453 1.00153 168 138 112
2.30910 -2.83175 1.00253 171 148 119
2.28808 -2.83196 1.00537 165 139 104
2.28074 -2.86155 1.00430 134 100 73
2.26634 -2.87004 0.99059 131 105 74
2.12544 -2.87220 1.02460 141 110 74
2.13910 -2.86599 1.02318 139 109 76
2.13854 -2.86817 1.00823 138 109 74
2.10812 -2.87512 1.02674 154 133 102
2.10715 -2.89272 1.02565 182 169 138
2.10087 -2.90565 1.02560 189 178 143
2.08659 -2.91408 1.01200 201 195 175
2.07780 -2.90337 1.02888 193 185 148
2.06355 -2.91178 1.01532 203 199 179
2.08709 -2.93063 1.02573 200 190 154
2.07274 -2.93909 1.01207 205 199 183
2.08388 -2.94664 1.02505 204 196 171
2.03936 -2.94345 1.03130 204 194 175
2.02060 -2.94500 1.03373 206 194 169
1.99255 -2.93772 1.03804 208 193 161
1.98349 -2.94832 1.03853 180 169 130
1.96549 -2.95042 1.04082 91 94 64
1.95126 -2.95882 1.02727 66 56 47
1.34699 -2.91586 1.12702 147 135 143
1.35920 -2.91210 1.11176 155 139 138
1.34647 -2.91789 1.11308 154 138 142
1.33501 -2.92252 1.12818 154 145 160
1.32175 -2.93034 1.11556 149 138 167
1.31733 -2.92247 1.13057 157 148 177
1.30410 -2.93027 1.11798 145 141 170
1.29397 -2.91556 1.13422 155 163 191
1.27107 -2.90904 1.13778 161 194 229
1.08260 -2.95132 1.16037 242 251 252
1.07490 -2.96332 1.16057 246 248 247
1.06319 -2.97006 1.16169 221 226 234
1.05624 -2.98319 1.16172 191 199 224
1.04464 -2.99016 1.16280 181 202 236
1.03784 -3.00367 1.16278 186 219 251
1.02578 -3.00738 1.17785 186 220 249
1.02930 -3.01491 1.16316 192 223 249
1.02279 -3.02904 1.16306 189 220 238
1.02292 -3.05250 1.16140 170 187 210
1.01145 -3.06000 1.16244 133 138 177
1.00433 -3.07365 1.16245 109 122 162
0.99441 -3.08344 1.16311 109 121 155
0.98451 -3.09332 1.16377 113 119 148
0.97520 -3.10411 1.16428 113 106 134
0.96455 -3.11303 1.16510 113 88 131
0.95701 -3.12654 1.16518 124 125 149
0.93519 -3.14391 1.16692 126 123 142
0.92181 -3.15180 1.15419 137 151 169
0.92973 -3.16081 1.16649 132 146 166
0.91630 -3.16873 1.15371 138 151 171
0.91093 -3.20885 1.16569 140 153 168
0.92448 -3.20086 1.17858 134 147 165
0.92394 -3.20294 1.16434 139 152 166
0.91146 -3.20678 1.17993 137 148 170
0.90981 -3.23312 1.16415 127 141 166
0.93758 -3.30258 1.15555 99 112 141
0.93826 -3.33059 1.15351 58 78 106
0.93123 -3.34677 1.15333 40 48 104
0.91332 -3.37342 1.15390 35 42 87
0.90509 -3.38809 1.15400 66 75 107
0.89803 -3.40481 1.15379 79 92 111
0.89780 -3.43290 1.15187 86 99 124
0.89412 -3.45564 1.15078 88 101 122
0.86850 -3.50074 1.15111 98 108 134
0.83599 -3.53517 1.15312 109 119 146
0.82984 -3.55503 1.15257 119 130 151
0.82002 -3.56863 1.15295 116 126 145
0.81841 -3.59699 1.15119 104 115 136
0.81269 -3.61834 1.15048 99 107 125
0.80560 -3.63745 1.15011 93 95 107
0.80594 -3.67035 1.14778 62 68 81
0.80220 -3.69618 1.14648 34 42 66
0.78137 -3.72382 1.14738 20 27 65
0.77879 -3.75266 1.14572 48 62 108
0.78045 -3.78998 1.14290 114 132 160
0.74389 -3.82382 1.14549 140 148 162
0.72988 -3.83166 1.14685 126 131 135
0.75661 -3.92076 1.13702 79 80 76
0.74108 -3.92993 1.12223 58 47 41
0.83390 -4.35455 1.09634 42 44 53
0.82209 -4.37164 1.09675 44 50 55
0.80854 -4.38513 1.09765 43 49 57
0.78618 -4.42296 1.09804 51 48 51
0.77557 -4.44347 1.09805 51 53 50
0.77292 -4.48213 1.09572 67 76 74
0.76273 -4.50428 1.09556 85 95 91
0.74538 -4.51452 1.07904 100 108 102
0.74989 -4.52065 1.09616 96 105 101
0.73251 -4.53090 1.07961 100 106 109
-0.11426 -4.85428 1.18999 119 109 114
-0.09774 -4.84677 1.18828 126 121 116
-0.11358 -4.85164 1.20808 120 113 105
-0.11494 -4.85692 1.17191 116 116 105
-0.13010 -4.85915 1.20979 117 115 97
-0.13078 -4.86179 1.19171 109 98 93
-0.23439 -4.88546 1.20410 106 110 109
-0.21861 -4.88061 1.18438 106 104 107
-0.23506 -4.88809 1.18608 109 109 107
-0.25327 -4.88115 1.20695 112 110 105
-0.27094 -4.88240 1.20926 102 104 95
-0.28666 -4.88724 1.22891 92 96 98
-0.28733 -4.88985 1.21096 94 100 91
-0.28800 -4.89247 1.19301 93 98 100
-0.48000 -4.89493 1.23671 81 87 93
-0.46451 -4.89017 1.21735 89 89 97
-0.48066 -4.89751 1.21903 91 91 91
-0.49229 -4.92679 1.23616 78 77 82
-0.51059 -4.92066 1.23906 63 46 59
-0.52517 -4.93874 1.23978 54 50 47
-0.53031 -5.02154 1.23471 58 63 62
-0.54309 -5.05462 1.23414 66 79 77
-0.55861 -5.06940 1.23521 82 84 86
-0.57585 -5.07958 1.21880 90 94 85
2.44580 -2.62204 0.98409 135 137 138
2.45859 -2.61810 0.96811 132 120 123
2.43191 -2.63023 0.97088 125 108 104
2.44223 -2.63542 0.98361 124 109 109
2.42831 -2.64364 0.97035 124 108 98
2.42171 -2.65230 0.98519 117 103 94
2.41051 -2.66007 0.98615 124 107 95
2.39656 -2.66830 0.97287 131 118 100
2.40209 -2.66998 0.98658 129 113 94
2.39118 -2.67802 0.98749 134 120 95
2.38506 -2.68980 0.98747 140 124 99
2.37105 -2.69807 0.97414 155 133 105
2.37324 -2.69720 0.98855 144 126 97
2.35923 -2.70547 0.97521 157 131 89
2.36001 -2.73713 0.98745 160 131 99
2.35945 -2.73929 0.97260 162 136 102
2.34589 -2.74546 0.97401 165 138 96
2.32846 -2.78026 0.98863 155 130 111
2.34155 -2.77624 0.97227 166 137 107
2.32790 -2.78244 0.97369 167 141 120
2.31828 -2.78931 0.98937 150 128 105
2.31143 -2.80112 0.98944 157 138 111
2.11972 -2.86979 1.01069 140 109 77
2.13279 -2.86577 0.99435 136 107 76
2.11916 -2.87196 0.99577 137 106 77
2.09559 -2.86660 1.01423 155 130 110
2.09301 -2.88269 1.01341 192 183 167
2.07694 -2.88668 1.01532 204 202 182
2.06275 -2.89505 1.00182 187 168 163
2.06435 -2.95035 1.01240 202 194 184
2.03755 -2.94449 1.01650 201 195 181
2.02077 -2.94788 1.01855 201 197 173
1.99198 -2.93990 1.02308 200 191 166
1.98077 -2.94845 1.02399 195 179 155
1.97419 -2.96146 1.02394 148 136 99
1.34344 -2.93508 1.11224 151 140 153
1.35569 -2.93131 1.09693 157 138 135
1.33013 -2.94293 1.09958 154 153 166
1.23639 -2.91164 1.12861 161 202 253
1.22383 -2.91735 1.12991 159 205 254
1.22331 -2.91936 1.11616 160 202 254
1.10099 -2.93414 1.14551 187 182 225
1.11395 -2.92649 1.15785 182 215 249
1.11344 -2.92848 1.14422 191 174 211
1.09671 -2.95044 1.14491 197 207 241
1.07951 -2.94993 1.14730 225 236 251
1.06606 -2.95431 1.14883 243 251 253
1.05493 -2.96173 1.14981 241 247 249
1.04680 -2.97322 1.15009 217 232 242
1.03910 -2.98537 1.15025 194 223 244
1.03306 -2.99987 1.15003 191 225 248
1.02879 -3.01693 1.14937 181 206 228
1.03083 -3.04286 1.14720 146 160 198
1.02061 -3.05204 1.14793 114 125 176
1.01494 -3.06764 1.14757 108 119 159
1.00379 -3.07566 1.14851 110 115 144
0.99906 -3.09282 1.14791 110 92 128
0.98636 -3.09876 1.14921 110 71 121
0.97391 -3.10504 1.15046 112 77 106
0.96086 -3.11048 1.15185 110 59 101
0.95702 -3.12938 1.15100 122 94 119
0.94833 -3.14133 1.15132 128 115 154
0.93495 -3.14923 1.13858 140 151 169
0.94152 -3.15616 1.15117 133 141 164
0.91890 -3.19816 1.15121 135 150 163
0.92167 -3.22821 1.14864 110 128 143
0.95045 -3.29880 1.13955 75 89 123
0.93658 -3.30699 1.12635 30 43 90
0.94550 -3.31789 1.13884 47 59 109
0.93702 -3.33166 1.13900 37 40 84
0.93032 -3.34834 1.13870 39 36 86
0.92361 -3.36519 1.13839 50 66 103
0.91251 -3.37517 1.13918 77 95 109
0.90685 -3.39400 1.13859 81 91 111
0.90002 -3.41113 1.13827 65 65 85
0.88960 -3.42252 1.13887 54 55 86
0.87783 -3.43176 1.13981 55 59 93
0.88879 -3.47903 1.13486 85 95 124
0.88114 -3.49562 1.13470 99 108 128
0.87076 -3.50774 1.13524 100 106 133
0.86001 -3.51933 1.13587 106 113 143
0.84975 -3.53185 1.13636 106 117 139
0.83899 -3.54360 1.13698 107 123 142
0.83035 -3.55916 1.13703 101 112 139
0.84005 -3.60731 1.13219 92 97 110
0.83068 -3.62216 1.13239 84 88 99
0.81987 -3.63454 1.13297 84 91 111
0.81070 -3.65000 1.13310 91 101 117
0.80052 -3.66377 1.13349 88 96 107
0.80294 -3.70092 1.13045 60 61 75
0.79902 -3.72679 1.12910 34 35 50
0.78403 -3.73563 1.11484 24 28 59
0.78681 -3.73744 1.13000 19 28 58
0.77592 -3.75066 1.13052 41 53 100
0.78411 -3.80044 1.12578 103 117 151
0.77308 -3.81393 1.12630 138 151 172
0.75786 -3.82291 1.11182 142 149 165
0.75014 -3.83959 1.12757 140 149 163
0.73553 -3.84636 1.12908 129 135 140
0.75867 -3.92847 1.11993 87 85 77
0.74311 -3.93765 1.10512 59 46 45
0.84856 -4.34765 1.07707 35 41 49
0.86554 -4.33763 1.09323 36 39 47
0.86487 -4.34023 1.07538 37 41 51
0.86420 -4.34284 1.05752 39 37 43
0.83158 -4.35767 1.06091 29 34 40
0.83424 -4.35930 1.07818 36 40 44
0.81724 -4.36933 1.06201 30 33 40
0.82237 -4.37628 1.07857 33 41 39
0.80831 -4.38871 1.07959 28 37 40
0.79718 -4.40764 1.07974 46 48 62
0.78748 -4.42994 1.07944 62 65 62
0.77916 -4.45561 1.07871 70 73 72
0.77135 -4.48279 1.07780 81 83 86
0.75888 -4.49975 1.07827 92 101 93
-0.27476 -4.86944 1.19288 99 99 105
-0.29177 -4.87948 1.17668 93 98 98
-0.49019 -4.94703 1.21673 87 88 87
-0.47458 -4.94222 1.19721 98 93 92
-0.49086 -4.94963 1.19890 94 91 91
-0.50217 -4.98251 1.21578 81 83 75
-0.51921 -4.99256 1.19956 85 89 84
-0.51593 -5.00733 1.21586 76 86 68
-0.53303 -5.01742 1.19958 88 90 94
-0.52813 -5.04361 1.21489 79 85 80
-0.54398 -5.05581 1.21617 82 88 92
-0.56018 -5.06568 1.21767 96 100 98
2.42609 -2.65818 0.96955 127 111 100
2.43895 -2.65423 0.95348 129 113 97
2.41213 -2.66642 0.95626 134 118 106
2.41360 -2.66498 0.97077 131 114 107
2.39888 -2.68653 0.97116 137 122 101
2.39456 -2.69976 0.97075 149 131 118
2.38052 -2.70805 0.95738 160 130 97
2.31119 -2.78614 0.97572 166 141 113
2.30516 -2.79861 0.97560 155 129 97
2.29146 -2.80479 0.97703 132 111 84
2.08839 -2.86282 1.00072 141 115 86
2.10139 -2.85882 0.98446 136 106 75
2.09950 -2.89121 0.99702 165 151 135
2.09586 -2.90651 0.99636 189 183 177
2.09119 -2.93983 0.99447 188 175 172
2.08475 -2.95290 0.99437 188 177 178
2.06406 -2.95281 0.99724 184 174 166
2.04258 -2.95191 1.00028 178 168 159
2.01291 -2.96241 1.00359 175 166 144
2.00069 -2.97013 1.00469 172 158 152
1.98304 -2.97266 1.00694 157 144 128
1.94700 -2.95743 1.01309 81 85 71
1.93390 -2.96146 1.02946 81 87 85
1.93334 -2.96364 1.01451 75 68 70
1.93278 -2.96582 0.99956 81 60 53
1.22843 -2.90458 1.11658 161 197 250
1.24044 -2.90088 1.10156 149 140 179
1.11956 -2.93900 1.12903 175 178 215
1.13255 -2.93133 1.14139 185 183 217
1.13204 -2.93332 1.12773 169 176 230
1.13153 -2.93532 1.11407 157 181 236
1.11905 -2.94099 1.11536 163 182 228
1.09879 -2.93393 1.13229 191 156 200
1.08613 -2.93930 1.13363 189 166 213
1.07519 -2.94693 1.13456 194 212 239
1.06299 -2.95290 1.13580 214 231 247
1.05217 -2.96073 1.13670 212 228 247
1.04135 -2.96859 1.13760 197 224 246
1.03455 -2.98191 1.13753 187 217 235
1.02620 -2.99324 1.13782 163 182 208
1.03260 -3.02488 1.13452 125 136 175
1.02742 -3.04089 1.13402 102 102 146
1.01424 -3.04867 1.12148 111 76 128
1.02112 -3.05551 1.13378 103 90 133
1.01237 -3.06681 1.13413 113 113 138
0.99914 -3.07462 1.12153 119 107 137
1.00307 -3.07741 1.13461 115 103 136
0.98981 -3.08524 1.12199 122 104 131
0.99694 -3.09260 1.13431 118 96 121
0.98577 -3.10070 1.13524 117 80 94
0.97445 -3.10863 1.13620 121 82 82
0.97359 -3.13179 1.13456 126 119 138
0.96976 -3.15087 1.13363 132 129 145
0.95632 -3.15880 1.12084 143 153 177
0.95728 -3.15737 1.13487 139 143 167
0.93797 -3.17887 1.13590 137 151 167
0.92978 -3.19195 1.13604 126 136 164
0.95006 -3.24847 1.12893 99 105 139
0.95521 -3.28257 1.12562 55 70 106
0.94832 -3.29848 1.12537 37 51 98
0.93611 -3.33323 1.12441 40 47 84
0.92779 -3.34737 1.12449 70 85 107
0.92277 -3.36689 1.12370 72 91 107
0.91350 -3.37981 1.12400 68 76 93
0.90489 -3.39389 1.12412 51 61 86
0.89822 -3.41127 1.12372 40 45 69
0.88659 -3.42066 1.12461 42 38 64
0.87778 -3.43478 1.12476 48 51 83
0.89529 -3.49305 1.11790 87 99 131
0.88090 -3.50155 1.10420 112 119 140
0.88602 -3.50700 1.11812 109 114 138
0.87359 -3.51572 1.11918 108 114 139
0.86097 -3.52416 1.12028 108 121 148
0.85361 -3.54172 1.11996 97 103 138
0.85906 -3.58177 1.11616 81 85 117
0.85270 -3.60163 1.11553 60 61 105
0.84392 -3.61744 1.11554 47 47 83
0.82921 -3.62611 1.10154 33 37 67
0.83703 -3.63677 1.11502 41 45 73
0.82227 -3.64548 1.10098 31 37 57
0.83126 -3.65836 1.11418 43 50 78
0.82317 -3.67596 1.11396 57 63 89
0.81310 -3.69014 1.11427 83 91 109
0.79821 -3.69892 1.10010 83 95 109
0.80240 -3.70329 1.11475 79 87 96
0.78421 -3.76980 1.11221 35 43 91
0.78999 -3.81515 1.10796 91 102 141
0.78121 -3.83311 1.10781 136 150 173
0.76593 -3.84212 1.09326 141 148 164
0.75684 -3.85626 1.10942 140 150 160
0.75624 -3.85861 1.09330 140 149 160
0.74321 -3.86509 1.11063 133 140 144
0.74943 -3.91364 1.10608 97 94 88
0.73394 -3.92278 1.09133 64 64 60
0.84297 -4.33987 1.06069 28 32 37
0.85857 -4.33507 1.04119 30 29 37
0.84230 -4.34246 1.04287 22 26 32
0.80888 -4.39402 1.06129 36 45 39
0.79906 -4.41586 1.06098 55 59 66
0.79082 -4.44146 1.06017 71 79 72
0.77876 -4.45888 1.06052 81 86 83
0.76812 -4.47969 1.06041 89 89 93
0.75450 -4.49400 1.06120 96 100 101
0.73721 -4.50421 1.04474 107 113 116
0.73964 -4.50557 1.06238 103 107 112
0.72233 -4.51579 1.04590 107 115 113
-0.26231 -4.84895 1.17493 105 100 99
-0.24668 -4.84414 1.15540 110 115 115
-0.26297 -4.85155 1.15709 104 105 108
-0.50099 -4.99716 1.19669 87 88 88
-0.48526 -4.99232 1.17702 92 95 95
-0.50167 -4.99978 1.17872 86 94 86
-0.51808 -5.00724 1.18043 85 90 84
-0.54609 -5.04841 1.19903 86 91 89
-0.54677 -5.05105 1.18096 82 79 80
-0.56445 -5.04266 1.20201 89 100 92
-0.58158 -5.05277 1.18570 87 87 92
-0.58251 -5.03835 1.20484 81 91 82
-0.59826 -5.04320 1.22452 92 88 80
-0.59893 -5.04582 1.20654 87 87 71
2.43307 -2.66605 0.95336 131 117 100
2.44596 -2.66208 0.93725 131 118 108
2.41635 -2.68608 0.95411 118 111 101
2.41008 -2.69777 0.95406 126 114 101
2.40435 -2.70995 0.95390 151 127 101
2.39027 -2.71827 0.94049 157 132 98
2.33812 -2.77609 0.95791 164 139 104
2.35232 -2.76771 0.97143 166 138 95
2.35176 -2.76989 0.95650 167 137 95
2.31508 -2.77463 0.96125 159 130 111
2.30082 -2.78028 0.96280 139 113 97
2.30003 -2.79702 0.96158 111 94 77
2.28582 -2.80540 0.94806 71 57 55
2.29781 -2.81271 0.96065 90 75 63
2.29496 -2.82797 0.95983 82 63 62
2.11950 -2.89336 0.97919 134 107 76
2.13262 -2.88932 0.96278 135 105 80
2.11893 -2.89555 0.96420 137 109 76
2.10716 -2.90081 0.98033 141 120 113
2.08959 -2.90352 0.98257 177 159 163
2.08472 -2.91779 0.98212 196 186 184
2.08982 -2.94130 0.97954 187 181 171
2.08888 -2.95945 0.97823 168 159 157
2.07691 -2.96748 0.97927 159 150 148
2.06809 -2.97849 0.97963 147 134 137
2.02396 -2.97560 0.98603 153 144 132
2.00648 -2.97838 0.98825 156 144 138
1.98793 -2.98009 0.99071 156 143 136
1.96878 -2.98116 0.99331 137 127 101
1.20645 -2.90130 1.10628 163 198 246
1.21842 -2.89762 1.09132 146 141 181
1.20594 -2.90330 1.09262 154 177 229
1.19448 -2.90499 1.12124 155 202 254
1.19397 -2.90698 1.10758 161 203 250
1.09374 -2.93003 1.11977 185 164 206
1.08174 -2.93621 1.12096 193 171 218
1.07355 -2.94743 1.12121 192 212 245
1.06665 -2.96042 1.12115 195 229 250
1.05692 -2.96974 1.12177 194 226 245
1.04429 -2.97522 1.12310 177 197 226
1.03518 -2.98545 1.12357 142 152 194
1.04282 -3.01860 1.11987 110 124 170
1.03167 -3.02632 1.12081 108 122 160
1.02628 -3.04207 1.12032 110 102 144
1.01169 -3.06862 1.12025 117 106 129
0.98789 -3.10653 1.12057 123 100 124
0.98560 -3.12754 1.11923 128 112 130
0.97221 -3.13543 1.10649 141 151 170
0.98261 -3.14775 1.11804 135 143 168
0.97094 -3.15543 1.11906 139 148 171
0.95299 -3.17893 1.11971 135 147 164
0.95288 -3.20412 1.11773 115 123 143
0.96368 -3.24608 1.11289 78 83 122
0.95976 -3.26617 1.11184 52 51 98
0.95247 -3.28130 1.11166 41 41 88
0.94608 -3.29798 1.11123 43 39 83
0.94390 -3.32138 1.10968 50 60 99
0.93630 -3.33653 1.10954 80 93 114
0.92872 -3.35186 1.10938 79 95 112
0.92246 -3.36943 1.10887 56 62 86
0.91538 -3.38587 1.10855 50 59 79
0.90129 -3.39418 1.09515 51 54 86
0.90646 -3.39949 1.10872 43 51 78
0.90024 -3.41765 1.10815 41 45 72
0.88760 -3.42542 1.10930 43 40 68
0.88150 -3.44406 1.10867 58 67 95
0.89854 -3.50164 1.10172 96 112 135
0.87465 -3.52071 1.10355 105 117 142
0.86488 -3.53406 1.10386 99 104 129
0.87141 -3.57569 1.09964 65 66 101
0.85680 -3.58431 1.08574 37 38 76
0.86306 -3.59198 1.09952 48 44 88
0.84842 -3.60063 1.08557 36 40 76
0.85505 -3.60903 1.09928 40 38 83
0.84036 -3.61770 1.08530 36 41 73
0.84673 -3.62570 1.09913 37 36 76
0.83200 -3.63439 1.08511 36 41 66
0.82033 -3.67415 1.09897 36 39 64
0.83400 -3.66994 1.08189 33 41 58
0.82424 -3.71392 1.09527 60 67 90
0.80664 -3.74779 1.09505 62 67 86
0.80732 -3.78283 1.09217 30 31 64
0.79509 -3.79388 1.09301 31 36 81
0.79381 -3.82594 1.09064 75 86 130
0.78598 -3.84581 1.09016 130 146 174
0.77065 -3.85485 1.07557 140 150 167
0.74849 -3.87910 1.09276 135 144 149
0.76265 -3.87474 1.07506 139 149 165
0.74956 -3.91749 1.08957 108 112 107
0.82883 -4.35583 1.04370 28 32 44
0.81788 -4.37475 1.04373 38 39 52
0.80568 -4.39115 1.04413 52 61 53
0.79976 -4.42149 1.04256 68 71 73
0.78832 -4.44006 1.04268 79 83 85
0.77577 -4.45637 1.04314 86 87 96
0.76432 -4.47531 1.04324 96 97 103
0.75065 -4.48943 1.04403 104 107 110
0.73338 -4.49961 1.02760 110 117 117
-0.23217 -4.82836 1.15462 111 110 105
-0.21591 -4.82096 1.15294 107 109 107
-0.23150 -4.82576 1.17243 110 98 95
-0.23284 -4.83095 1.13682 118 120 113
-0.56751 -5.02814 1.18568 85 87 91
-0.56819 -5.03076 1.16772 85 88 94
-0.58459 -5.03822 1.16943 88 94 99
-0.60640 -4.99733 1.19357 94 88 85
-0.62199 -5.00213 1.21306 85 86 84
-0.62333 -5.00732 1.17745 87 86 91
2.43433 -2.66957 0.93828 129 121 112
2.43053 -2.68306 0.93770 115 111 105
2.41650 -2.69134 0.92434 56 49 40
2.44504 -2.71072 0.93337 75 78 78
2.43277 -2.71791 0.93451 92 84 79
2.41411 -2.72014 0.93696 139 120 93
2.36669 -2.76735 0.93977 163 136 107
2.38089 -2.75896 0.95329 161 132 97
2.38033 -2.76114 0.93835 163 133 102
2.36725 -2.76517 0.95471 165 134 94
2.35513 -2.77524 0.94075 160 133 99
2.35223 -2.79016 0.93993 145 117 89
2.33613 -2.79442 0.94185 135 106 85
2.33105 -2.80770 0.94147 109 86 66
2.31820 -2.81466 0.94271 77 63 55
2.30392 -2.82308 0.92912 76 71 60
2.29464 -2.83037 0.94475 77 64 61
2.29408 -2.83256 0.92971 78 73 64
2.28034 -2.83881 0.93114 78 70 66
2.27840 -2.83451 0.94670 82 67 70
2.26636 -2.84217 0.94777 104 88 67
2.25743 -2.85250 0.94818 126 105 67
2.24424 -2.85656 0.96466 133 104 78
2.24368 -2.85875 0.94961 132 103 73
2.24312 -2.86095 0.93455 129 103 74
2.09727 -2.91319 0.96581 156 133 134
2.11460 -2.94778 0.96050 193 186 189
2.10033 -2.95368 0.96203 202 194 183
2.09107 -2.96420 0.96247 181 172 159
2.07660 -2.96994 0.96404 165 153 146
2.06829 -2.98143 0.96427 151 141 136
2.04395 -2.97788 0.96800 152 138 120
2.02365 -2.97805 0.97086 157 152 123
2.00539 -2.98008 0.97327 165 148 124
1.99278 -2.98748 0.97444 164 145 130
1.97333 -2.98829 0.97712 164 151 113
1.95085 -2.98609 0.98049 105 104 68
1.93768 -2.99014 0.99695 93 88 75
1.93711 -2.99233 0.98191 75 62 60
1.93655 -2.99453 0.96688 66 47 44
1.17958 -2.89181 1.09729 160 200 246
1.19148 -2.88815 1.08242 149 146 193
1.16767 -2.89547 1.11217 162 205 251
1.16716 -2.89746 1.09858 164 205 248
1.15539 -2.90390 1.09971 176 188 239
1.15590 -2.90192 1.11331 173 189 238
1.14348 -2.90756 1.11460 175 174 221
1.13588 -2.90059 1.10275 182 165 225
1.12401 -2.90424 1.11758 166 181 224
1.12910 -2.91333 1.10265 179 170 223
1.11833 -2.92107 1.10354 175 180 225
1.10505 -2.92560 1.10504 184 165 209
1.09134 -2.92956 1.10665 197 166 211
1.07747 -2.93329 1.10830 207 205 238
1.07157 -2.94747 1.10797 208 234 249
1.06229 -2.95730 1.10847 191 218 234
1.04710 -2.95931 1.11045 155 173 206
1.05872 -2.99730 1.10567 120 132 181
1.04564 -3.00502 1.09322 110 95 141
1.05116 -3.00979 1.10570 109 116 160
1.04425 -3.02326 1.10557 109 101 127
1.03348 -3.03154 1.10641 112 93 115
1.02762 -3.04665 1.10599 114 92 123
1.01812 -3.05683 1.10649 114 89 109
1.00865 -3.06710 1.10698 114 84 105
1.00176 -3.08110 1.10680 118 85 128
0.99948 -3.10180 1.10541 125 98 129
0.99768 -3.12340 1.10388 132 129 149
0.98430 -3.13129 1.09114 145 153 176
0.99261 -3.14049 1.10319 138 145 164
0.97063 -3.15783 1.10486 139 151 169
0.96384 -3.17277 1.10459 128 136 161
0.96922 -3.20599 1.10108 97 105 130
0.97144 -3.23487 1.09839 57 71 102
0.95775 -3.24295 1.08535 33 40 91
0.96571 -3.25207 1.09778 40 40 97
0.95699 -3.26490 1.09795 40 38 88
0.95114 -3.28223 1.09734 48 38 89
0.94722 -3.30271 1.09621 66 66 88
0.94174 -3.32100 1.09547 75 98 123
0.93450 -3.33670 1.09520 77 87 108
0.93078 -3.35815 1.09395 59 62 92
0.91677 -3.36642 1.08061 37 45 65
0.92530 -3.37701 1.09317 37 47 69
0.91758 -3.39248 1.09298 43 52 69
0.90201 -3.42363 1.09261 49 52 79
0.90146 -3.42581 1.07771 47 54 87
0.89259 -3.43674 1.09286 45 44 82
0.90950 -3.49370 1.08577 78 86 115
0.89510 -3.50220 1.07206 103 119 141
0.90073 -3.50848 1.08579 106 118 143
0.88930 -3.51889 1.08654 111 119 138
0.87754 -3.52881 1.08739 82 97 119
0.87855 -3.56071 1.08461 60 63 90
0.86398 -3.56931 1.07074 33 37 72
0.87124 -3.57864 1.08416 42 41 74
0.85663 -3.58726 1.07025 33 41 70
0.82182 -3.68020 1.08276 31 38 64
0.83550 -3.67599 1.06566 34 41 64
0.82360 -3.71613 1.07954 48 55 81
0.81773 -3.73840 1.07854 80 90 104
0.80271 -3.74388 1.08021 70 76 99
0.81516 -3.80103 1.07373 34 37 68
0.79889 -3.80455 1.07574 23 30 67
0.79827 -3.83797 1.07306 57 72 115
0.79198 -3.86091 1.07206 123 141 166
0.77660 -3.86998 1.05742 139 152 167
0.75257 -3.89077 1.07516 137 147 154
0.76677 -3.88640 1.05742 139 149 164
0.75180 -3.92558 1.07240 116 122 118
0.77705 -4.01342 1.06157 62 67 66
0.76248 -4.01790 1.07979 53 58 65
0.76185 -4.02033 1.06315 46 51 63
0.82704 -4.31423 1.02967 26 28 37
0.84320 -4.30688 1.02799 25 24 32
0.84254 -4.30946 1.01030 27 26 33
0.82257 -4.34653 1.02763 36 37 47
0.81426 -4.37100 1.02679 47 50 57
0.80310 -4.38962 1.02683 59 64 65
0.79526 -4.41574 1.02578 74 73 82
0.78501 -4.43687 1.02548 87 90 89
0.77361 -4.45567 1.02554 93 96 103
0.76082 -4.47159 1.02603 104 111 109
0.74361 -4.48175 1.00964 114 122 119
0.74627 -4.48363 1.02710 112 120 119
0.72903 -4.49380 1.01069 114 116 117
2.47331 -2.65277 0.91954 120 112 109
2.48731 -2.64451 0.93286 123 106 100
2.48676 -2.64666 0.91814 121 109 98
2.48621 -2.64881 0.90342 127 118 97
2.47387 -2.65063 0.93425 124 111 103
2.46042 -2.65674 0.93565 128 117 103
2.46305 -2.66128 0.92027 121 116 110
2.45130 -2.66868 0.92132 120 118 114
2.45001 -2.68407 0.92018 106 87 97
2.45842 -2.70698 0.91701 73 56 64
2.43052 -2.71877 0.91999 85 69 64
2.42052 -2.72773 0.92065 132 114 95
2.40888 -2.73544 0.92165 156 133 101
2.39584 -2.73946 0.93795 160 131 90
2.39528 -2.74163 0.92306 164 133 98
2.37956 -2.76316 0.92346 159 136 98
2.39377 -2.75477 0.93698 161 132 91
2.39321 -2.75695 0.92204 163 136 94
2.35683 -2.77924 0.92532 133 103 79
2.34261 -2.78763 0.91178 131 105 66
2.35604 -2.79589 0.92401 130 101 76
2.34176 -2.80431 0.91042 134 106 64
2.33547 -2.79653 0.92689 133 105 71
2.32929 -2.80891 0.92671 105 85 69
2.31490 -2.81458 0.92828 76 67 64
2.30063 -2.82301 0.91469 80 68 55
2.27013 -2.84803 0.93180 95 84 71
2.25874 -2.85629 0.93272 117 101 75
2.10550 -2.90469 0.95045 136 106 77
2.11863 -2.90065 0.93404 136 107 73
2.10493 -2.90688 0.93546 138 109 70
2.09513 -2.91394 0.95114 140 114 100
2.10658 -2.94317 0.94700 172 153 148
2.10679 -2.96236 0.94532 202 193 188
2.09236 -2.97087 0.93158 194 187 179
2.09985 -2.97507 0.94522 197 184 170
2.08538 -2.98360 0.93145 174 166 165
2.08983 -2.98499 0.94580 171 158 153
2.07624 -2.99162 0.94717 172 165 145
2.05684 -2.99278 0.94985 170 156 140
2.04238 -3.00131 0.93608 195 188 161
2.03440 -2.99099 0.95320 175 169 140
2.01998 -2.99950 0.93947 195 187 163
2.02102 -2.99774 0.95454 180 171 140
2.01062 -3.00736 0.95520 186 173 150
1.99194 -3.00902 0.95772 188 174 148
1.96795 -3.00546 0.96145 157 146 116
1.95358 -3.01395 0.94777 101 102 63
1.68561 -2.84177 1.01582 153 140 133
1.69855 -2.83589 1.01448 119 111 124
1.68614 -2.83970 1.02999 157 140 130
1.67320 -2.84559 1.03133 158 135 132
1.67267 -2.84765 1.01717 156 136 131
1.67214 -2.84972 1.00300 156 137 128
1.17214 -2.88523 1.08543 158 183 235
1.18401 -2.88158 1.07059 144 133 167
1.14332 -2.89139 1.08902 182 210 247
1.13288 -2.89942 1.08982 194 190 231
1.12422 -2.90976 1.09017 202 169 212
1.11491 -2.91933 1.09068 205 168 208
1.10220 -2.92456 1.09204 208 191 221
1.08170 -2.91968 1.09539 213 225 237
1.07656 -2.93474 1.09483 207 233 240
1.06567 -2.94236 1.09573 177 191 216
1.06817 -2.96778 1.09320 132 143 180
1.06727 -2.98893 1.09151 110 124 162
1.05421 -2.99663 1.07908 114 95 131
1.05952 -3.00108 1.09157 108 106 149
1.04417 -3.02587 1.09164 115 103 137
1.03276 -3.03328 1.09263 116 96 126
1.02293 -3.04290 1.09321 115 81 116
1.01325 -3.05279 1.09374 117 88 87
1.00515 -3.06495 1.09386 118 88 87
1.01277 -3.09947 1.08981 128 130 156
0.99945 -3.10733 1.07713 143 154 169
1.00555 -3.11324 1.08966 136 140 160
0.99726 -3.12560 1.08978 141 148 168
0.98140 -3.15165 1.08981 137 146 170
0.98468 -3.18131 1.08680 111 121 152
0.98573 -3.20803 1.08435 76 85 127
0.98623 -3.23424 1.08203 53 59 95
0.97253 -3.24233 1.06899 37 45 84
0.97594 -3.24455 1.08262 39 48 88
0.95575 -3.26593 1.08367 47 33 98
0.95496 -3.29105 1.08163 66 69 102
0.94990 -3.30984 1.08074 91 102 105
0.94124 -3.32322 1.08083 75 91 121
0.93903 -3.34684 1.07911 57 64 82
0.92504 -3.35509 1.06580 41 43 73
0.93059 -3.36087 1.07912 45 46 75
0.91658 -3.36914 1.06577 43 44 67
0.92039 -3.40005 1.07721 40 47 67
0.91983 -3.40221 1.06236 41 47 66
0.90626 -3.40838 1.06377 42 50 82
0.91284 -3.41599 1.07692 46 51 88
0.89701 -3.44714 1.07651 51 50 96
0.90796 -3.49430 1.07090 86 93 120
0.88542 -3.51551 1.07230 91 97 124
0.89343 -3.55908 1.06742 56 64 89
0.87886 -3.56768 1.05354 35 39 70
0.88361 -3.57263 1.06766 38 40 72
0.86901 -3.58124 1.05375 33 41 69
0.82375 -3.68706 1.06639 33 40 68
0.82813 -3.72782 1.06226 51 61 85
0.81312 -3.73668 1.04798 84 90 101
0.82232 -3.75031 1.06116 81 88 101
0.80707 -3.75544 1.06290 71 76 97
0.82170 -3.81681 1.05555 38 43 72
0.80745 -3.82428 1.05694 21 28 63
0.79651 -3.83810 1.05732 45 60 101
0.79860 -3.87724 1.05366 116 135 155
0.76041 -3.90989 1.05631 138 148 155
0.77466 -3.90550 1.03850 139 148 161
0.75650 -3.93858 1.05441 119 124 121
0.78222 -4.02754 1.04310 56 54 63
0.79133 -4.08413 1.03695 37 37 47
0.77654 -4.08868 1.05543 38 39 49
0.77527 -4.09361 1.02166 27 33 37
0.81583 -4.29450 1.01540 32 31 43
0.81741 -4.33951 1.01131 41 43 52
0.81024 -4.36639 1.01003 52 55 63
0.80040 -4.38782 1.00959 66 67 74
0.79393 -4.41692 1.00802 82 83 88
0.78502 -4.44102 1.00722 99 100 94
0.77162 -4.45538 1.00791 102 105 103
0.75444 -4.46551 0.99156 106 112 111
0.75743 -4.46809 1.00884 108 115 105
0.74023 -4.47824 0.99248 112 116 114
-0.38831 -4.85329 1.13943 98 99 92
-0.37220 -4.84596 1.13776 97 102 97
-0.37286 -4.84853 1.12012 93 99 110
-0.38765 -4.85072 1.15707 90 83 83
-0.40377 -4.85804 1.15874 96 97 96
-0.40443 -4.86061 1.14110 97 98 96
2.48762 -2.66605 0.90168 106 95 95
2.50056 -2.66206 0.88551 121 109 101
2.50129 -2.69264 0.89734 93 80 83
2.48747 -2.69864 0.89880 81 68 66
2.47216 -2.70352 0.90058 74 52 45
2.45775 -2.70906 0.90217 90 65 32
2.43869 -2.71102 0.90474 113 90 31
2.43058 -2.72141 0.90499 125 99 52
2.42328 -2.73249 0.90505 142 119 90
2.41012 -2.73902 0.90637 157 136 106
2.39648 -2.74519 0.90779 161 139 106
2.39035 -2.75731 0.90759 153 130 76
2.37616 -2.76569 0.89408 127 105 70
2.37779 -2.76436 0.90878 138 112 73
2.36359 -2.77274 0.89526 128 107 64
2.36781 -2.77350 0.90941 129 103 75
2.35359 -2.78189 0.89588 130 108 63
2.32591 -2.82633 0.91075 100 78 51
2.29432 -2.83543 0.91450 81 74 73
2.28280 -2.84354 0.91544 83 71 68
2.27043 -2.85096 0.91656 80 66 56
2.25929 -2.85943 0.91741 96 82 64
2.24887 -2.86855 0.91811 121 102 71
2.23566 -2.87261 0.93462 131 103 69
2.23509 -2.87481 0.91954 129 105 63
2.23452 -2.87701 0.90445 127 105 80
2.10039 -2.92143 0.93482 136 108 83
2.11356 -2.91738 0.91836 135 107 71
2.09983 -2.92362 0.91979 134 106 74
2.11257 -2.97041 0.92870 183 172 168
2.08885 -3.00620 0.92894 189 183 170
2.08828 -3.00843 0.91365 180 178 159
2.07738 -3.01491 0.92982 194 192 171
2.01425 -3.01361 0.93904 198 187 157
1.99698 -3.01665 0.94127 197 185 155
1.97549 -3.01555 0.94446 186 178 139
1.69879 -2.85769 0.99844 141 135 132
1.15120 -2.88278 1.07522 169 195 242
1.13406 -2.88236 1.07773 196 221 250
1.12342 -2.89008 1.07858 216 235 247
1.10885 -2.89281 1.08044 225 238 241
1.09384 -2.89494 1.08241 231 239 239
1.08779 -2.90859 1.08207 224 240 242
1.08281 -2.92376 1.08144 194 210 227
1.07910 -2.94072 1.08047 143 157 199
1.08152 -2.96591 1.07787 109 125 178
1.07490 -2.97938 1.07763 106 122 161
1.06662 -2.99075 1.07781 110 110 142
1.05144 -3.01559 1.07779 121 115 146
1.03832 -3.02332 1.06531 131 141 159
1.04650 -3.03179 1.07706 126 134 160
1.03822 -3.04352 1.07721 126 127 151
1.02833 -3.05312 1.07778 125 112 143
1.02667 -3.07427 1.07614 131 126 128
1.02531 -3.09607 1.07440 135 132 133
1.01417 -3.10424 1.07528 139 149 167
0.99581 -3.12632 1.07596 141 153 167
0.99115 -3.14404 1.07505 129 135 159
1.00292 -3.18590 1.06963 93 99 131
1.00723 -3.21733 1.06621 52 69 106
0.99355 -3.22540 1.05319 37 44 86
0.99879 -3.23026 1.06628 40 49 98
0.98509 -3.23835 1.05323 38 43 77
0.98735 -3.23882 1.06717 39 44 84
0.96489 -3.25668 1.06881 34 43 93
0.96553 -3.28381 1.06631 68 68 113
0.96103 -3.30335 1.06522 83 100 114
0.95103 -3.31457 1.06566 80 93 106
0.94852 -3.33758 1.06397 60 66 96
0.93456 -3.34582 1.05068 39 40 65
0.94199 -3.35452 1.06341 46 45 64
0.92798 -3.36278 1.05008 36 43 73
0.91023 -3.44326 1.06009 41 50 91
0.92334 -3.43923 1.04370 42 50 83
0.90570 -3.46458 1.05885 65 62 103
0.90720 -3.49618 1.05582 96 105 125
0.89557 -3.50615 1.05661 99 113 135
0.88488 -3.51778 1.05711 68 73 106
0.89410 -3.56344 1.05172 41 43 77
0.87952 -3.57204 1.03784 34 43 68
0.85192 -3.67667 1.04772 39 38 62
0.86680 -3.66790 1.06188 34 40 68
0.86621 -3.67018 1.04624 35 38 62
0.85251 -3.67439 1.06337 35 42 66
0.84009 -3.68762 1.04845 42 40 65
0.82953 -3.70094 1.04879 52 57 81
0.83774 -3.74886 1.04334 68 79 97
0.80931 -3.76305 1.04618 69 74 92
0.82814 -3.83242 1.03729 39 46 70
0.81326 -3.83882 1.03886 22 30 61
0.80016 -3.84861 1.03988 41 54 95
0.80600 -3.89510 1.03490 106 123 145
0.79348 -3.90647 1.03570 136 151 166
0.77798 -3.91562 1.02094 139 147 163
0.76757 -3.92771 1.03754 139 147 157
0.75766 -3.94452 1.03748 123 126 126
0.78904 -4.04504 1.02400 63 54 61
0.80471 -4.11521 1.01549 29 24 27
0.80576 -4.27714 1.00092 37 37 46
0.80695 -4.32118 0.99683 45 45 55
0.80490 -4.35891 0.99377 57 57 68
0.79953 -4.38998 0.99178 73 74 80
0.77965 -4.43323 0.99079 104 104 106
0.76254 -4.44333 0.97451 109 113 116
0.76553 -4.44588 0.99171 104 109 111
0.74840 -4.45599 0.97540 109 113 116
2.52695 -2.69809 0.87834 78 57 56
2.54003 -2.69406 0.86199 81 48 78
2.51003 -2.70181 0.88046 73 58 56
2.48533 -2.69962 0.88426 86 73 65
2.46952 -2.70410 0.88616 107 90 77
2.45387 -2.70869 0.88801 139 116 83
2.44824 -2.72098 0.88770 158 134 80
2.43590 -2.72815 0.88884 155 122 80
2.42245 -2.73445 0.89021 154 127 86
2.40964 -2.74126 0.89146 155 131 89
2.39759 -2.74868 0.89253 139 116 88
2.38342 -2.75704 0.87903 129 104 76
2.39321 -2.76220 0.89192 127 107 78
2.37900 -2.77058 0.87839 130 106 71
2.32395 -2.82738 0.89600 129 102 55
2.33713 -2.82332 0.87952 131 103 70
2.31406 -2.83684 0.89657 101 82 56
2.29522 -2.83885 0.89913 72 62 55
2.28091 -2.84729 0.88551 73 66 48
2.28288 -2.84628 0.90024 70 61 57
2.26856 -2.85472 0.88662 74 61 49
2.27093 -2.85405 0.90127 72 66 59
2.25949 -2.86228 0.90218 84 71 61
2.24970 -2.87195 0.90271 110 90 74
2.10222 -2.94463 0.91750 135 110 80
2.11545 -2.94056 0.90096 136 105 73
2.09218 -2.95436 0.91807 153 138 113
2.10990 -2.98988 0.91221 182 178 162
2.10199 -3.00184 0.91226 175 169 158
2.08049 -3.02062 0.91366 181 175 154
2.04956 -3.01089 0.91906 176 160 152
2.03506 -3.01944 0.90527 144 139 147
2.03379 -3.01546 0.92094 169 150 158
2.01888 -3.02082 0.92262 169 156 149
2.00080 -3.02312 0.92504 168 157 147
1.98373 -3.02634 0.92723 170 161 146
1.98544 -3.04792 0.92499 169 155 111
1.97206 -3.05204 0.94171 69 50 41
1.97149 -3.05426 0.92644 76 52 36
1.71337 -2.87505 0.98060 120 117 116
1.70323 -2.88396 0.98125 152 138 128
1.69069 -2.88782 0.99693 156 137 130
1.69015 -2.88991 0.98261 155 137 130
1.68961 -2.89200 0.96829 156 136 128
1.15134 -2.88556 1.06155 159 178 226
1.16317 -2.88192 1.04676 144 146 177
1.15083 -2.88753 1.04804 148 153 191
1.13116 -2.88132 1.06488 196 221 251
1.11855 -2.88652 1.06624 227 241 253
1.10596 -2.89174 1.06759 236 251 251
1.09526 -2.89937 1.06845 215 229 238
1.08971 -2.91371 1.06793 167 177 214
1.09203 -2.93839 1.06532 119 135 184
1.08901 -2.95634 1.06410 105 124 167
1.08040 -2.96710 1.06436 109 127 163
1.07311 -2.97969 1.06426 114 125 151
1.06470 -2.99086 1.06446 116 108 130
1.05704 -3.00315 1.06444 120 111 135
1.05688 -3.02569 1.06239 128 137 163
1.04373 -3.03345 1.04987 131 132 152
1.03998 -3.04869 1.06273 131 134 149
1.03572 -3.06612 1.06174 133 131 150
1.02247 -3.07393 1.04914 143 155 171
1.03059 -3.08252 1.06098 138 148 161
1.02263 -3.09508 1.06098 142 151 164
1.01278 -3.10506 1.06149 142 153 171
1.00348 -3.11589 1.06185 135 147 165
1.00465 -3.14185 1.05928 112 122 145
1.01703 -3.18438 1.05356 81 82 123
1.02023 -3.21406 1.05035 45 51 94
1.00656 -3.22213 1.03733 34 43 84
1.01188 -3.22707 1.05037 36 42 89
0.99817 -3.23515 1.03732 36 43 89
0.97783 -3.25322 1.05292 44 42 76
0.97317 -3.27217 1.05185 58 69 96
0.97188 -3.29646 1.04980 83 92 107
0.96133 -3.30678 1.05038 81 87 115
0.95583 -3.32501 1.04950 68 74 101
0.95466 -3.35018 1.04735 52 45 86
0.91957 -3.46169 1.04218 37 47 91
0.93275 -3.45764 1.02571 41 48 81
0.92224 -3.49504 1.03871 76 82 103
0.90834 -3.50123 1.04017 108 117 132
0.89500 -3.50836 1.04145 75 93 122
0.90614 -3.55694 1.03535 46 52 94
0.89156 -3.56554 1.02147 32 43 71
0.89768 -3.57276 1.03512 34 42 74
0.88306 -3.58138 1.02121 34 44 69
0.86958 -3.64774 1.03230 35 36 58
0.88438 -3.63901 1.04639 31 41 61
0.88380 -3.64128 1.03082 32 42 58
0.87016 -3.64547 1.04787 33 39 61
0.86331 -3.66835 1.03131 40 34 64
0.85824 -3.69135 1.02993 52 54 80
0.85383 -3.71579 1.02832 64 73 92
0.85148 -3.74432 1.02603 80 87 105
0.83640 -3.75322 1.01168 92 96 118
0.84430 -3.76433 1.02523 88 94 113
0.83096 -3.77315 1.02636 87 93 105
0.81700 -3.78084 1.02769 65 73 91
0.83238 -3.84391 1.01963 36 45 73
0.81702 -3.85297 1.00501 29 35 70
0.81717 -3.84977 1.02130 25 33 63
0.80350 -3.85853 1.02249 38 48 89
0.79718 -3.88159 1.02128 93 107 137
0.79898 -3.92077 1.01740 133 149 169
0.78343 -3.92995 1.00260 137 146 163
0.77479 -3.94566 1.01863 140 147 159
0.77417 -3.94805 1.00224 137 146 159
0.75888 -3.95059 1.02050 129 133 134
0.80594 -4.12149 0.99787 30 20 21
0.79113 -4.13007 0.99924 27 33 41
0.77495 -4.13962 0.98383 33 36 45
0.79378 -4.25570 0.98726 40 41 48
0.79568 -4.30108 0.98280 51 49 60
0.79487 -4.34128 0.97921 66 67 71
0.79577 -4.38587 0.97496 80 83 91
0.78651 -4.40879 0.97420 94 98 109
0.76947 -4.41884 0.95798 118 123 126
0.77385 -4.42447 0.97460 109 116 122
-0.97560 -5.02607 1.17409 81 81 89
-0.95913 -5.01635 1.18977 82 82 76
-0.95978 -5.01888 1.17245 80 81 81
-0.97495 -5.02355 1.19141 74 81 83
-0.99142 -5.03326 1.17573 85 87 95
-0.99207 -5.03579 1.15841 92 95 97
2.52639 -2.70027 0.86341 84 64 75
2.53947 -2.69624 0.84706 102 74 92
2.48874 -2.68835 0.87009 118 114 100
2.47624 -2.69531 0.87126 146 140 102
2.46848 -2.70590 0.87140 142 123 73
2.45299 -2.71061 0.87322 154 130 96
2.43887 -2.71894 0.85978 174 149 107
2.44008 -2.71728 0.87449 172 146 109
2.42903 -2.72542 0.87534 166 140 92
2.42086 -2.73581 0.87555 160 133 86
2.40930 -2.74360 0.87651 142 115 90
2.39685 -2.75071 0.87766 129 103 79
2.32720 -2.83273 0.88008 130 104 62
2.34040 -2.82867 0.86359 130 100 70
2.32663 -2.83493 0.86502 131 103 66
2.31777 -2.84260 0.88053 104 81 65
2.29547 -2.84172 0.88390 77 64 57
2.25941 -2.86489 0.88699 79 63 61
2.24507 -2.87335 0.87335 117 98 73
2.24727 -2.87255 0.88805 102 85 71
2.23293 -2.88101 0.87440 120 95 71
2.11295 -2.95719 0.89974 135 108 68
2.12623 -2.95311 0.88315 134 102 77
2.11239 -2.95940 0.88459 136 105 73
2.09904 -2.96342 0.90120 138 117 85
2.11140 -3.01340 0.89461 204 192 181
2.09682 -3.02200 0.88072 203 196 182
2.10173 -3.02384 0.89503 203 194 172
2.09319 -3.03539 0.89519 181 174 160
2.03778 -3.00246 0.90649 155 140 146
2.00428 -3.02926 0.90886 155 152 148
1.98916 -3.03440 0.91060 162 160 151
1.99010 -3.05528 0.90847 176 169 142
1.91933 -3.00558 0.92363 128 114 80
1.76350 -2.92840 0.95394 88 81 89
1.71668 -2.90030 0.96351 143 137 131
1.11731 -2.86650 1.05498 169 189 222
1.12904 -2.86289 1.04032 143 144 173
1.11031 -2.87868 1.05485 190 202 214
1.10481 -2.89288 1.05430 181 182 208
1.10535 -2.91494 1.05212 136 150 198
1.09894 -2.92827 1.05179 106 130 177
1.09345 -2.94288 1.05120 106 125 163
1.08672 -2.95600 1.05094 114 122 149
1.07979 -2.96897 1.05072 117 117 137
1.07248 -2.98154 1.05060 119 112 129
1.06495 -2.99390 1.05053 119 99 115
1.05319 -3.00065 1.05161 121 107 127
1.05556 -3.02662 1.04878 127 132 164
1.04197 -3.05417 1.04815 134 134 156
1.02876 -3.06196 1.03558 143 152 176
1.03587 -3.06909 1.04763 138 145 167
1.01981 -3.09389 1.04762 141 153 170
1.01088 -3.10516 1.04786 129 137 155
1.01998 -3.14228 1.04298 100 105 130
1.03268 -3.18506 1.03703 60 73 105
1.01908 -3.19308 1.02408 38 42 87
1.02861 -3.20405 1.03581 42 50 96
1.01495 -3.21210 1.02282 35 44 83
1.02380 -3.22216 1.03479 35 40 82
1.01010 -3.23024 1.02175 33 43 83
0.99204 -3.25166 1.03665 39 40 76
1.00470 -3.24776 1.02082 35 40 87
0.98620 -3.26876 1.03588 61 61 72
0.98637 -3.29515 1.03333 73 92 98
0.97249 -3.30334 1.02013 72 73 87
0.97414 -3.30289 1.03439 77 81 101
0.96026 -3.31108 1.02118 79 82 95
0.96578 -3.31661 1.03431 77 75 107
0.95741 -3.33044 1.03423 64 75 95
0.95467 -3.35321 1.03246 53 56 85
0.94066 -3.36148 1.01912 42 50 79
0.94638 -3.36749 1.03231 43 44 75
0.93290 -3.37362 1.03371 40 45 74
0.93234 -3.37577 1.01895 42 50 79
0.93094 -3.48347 1.02351 36 47 86
0.94419 -3.47939 1.00696 42 48 79
0.92519 -3.50308 1.02249 78 91 104
0.91160 -3.50983 1.02384 107 117 139
0.90892 -3.53492 1.02184 56 64 96
0.90818 -3.56361 1.01921 34 42 80
0.89359 -3.57222 1.00532 33 42 65
0.87907 -3.63630 1.01656 40 41 65
0.89385 -3.62758 1.03062 35 43 65
0.89327 -3.62984 1.01508 38 42 69
0.87401 -3.65886 1.01515 49 51 78
0.87385 -3.69042 1.01216 62 66 90
0.87400 -3.72296 1.00903 77 87 107
0.85896 -3.73183 0.99472 95 101 122
0.86482 -3.73906 1.00884 85 100 115
0.84975 -3.74796 0.99450 95 99 123
0.85312 -3.75071 1.00946 91 98 117
0.83802 -3.75961 0.99509 93 97 121
0.83086 -3.77639 1.01028 88 95 107
0.82169 -3.79308 1.01004 63 72 92
0.83025 -3.84339 1.00397 33 44 79
0.81490 -3.85245 0.98936 30 35 69
0.80588 -3.86663 1.00534 38 40 81
0.80392 -3.89819 1.00262 76 87 124
0.80559 -3.93730 0.99864 127 145 168
0.78999 -3.94650 0.98379 135 145 162
0.77256 -3.98169 0.99926 133 140 143
0.78702 -3.97725 0.98119 135 145 159
0.81211 -4.13790 0.97853 34 23 29
0.79794 -4.14791 0.97966 30 35 45
0.78170 -4.15750 0.96420 39 41 47
0.79063 -4.21231 0.97458 31 38 44
0.78674 -4.24471 0.97206 43 45 56
0.78688 -4.28621 0.96808 57 54 69
0.79609 -4.34795 0.96083 73 82 78
0.79226 -4.38228 0.95812 88 94 100
0.77906 -4.39648 0.95870 100 106 119
0.76208 -4.40650 0.94254 119 121 125
0.23604 -4.56875 1.02220 101 109 116
0.25279 -4.55887 1.03815 112 118 122
0.25147 -4.56401 1.00291 114 122 128
0.23670 -4.56619 1.03982 113 124 119
0.21995 -4.57607 1.02387 104 106 109
-0.97642 -5.02570 1.15707 89 94 100
-0.96126 -5.02104 1.13812 92 92 92
-0.97707 -5.02823 1.13976 91 89 94
2.51319 -2.69295 0.85129 143 133 137
2.52623 -2.68894 0.83500 151 138 143
2.49695 -2.69713 0.85329 179 179 166
2.49596 -2.71287 0.85189 199 195 163
2.46085 -2.70267 0.85811 176 174 134
2.45072 -2.71146 0.85875 163 146 112
2.43660 -2.71979 0.84531 180 151 110
2.42439 -2.72441 0.86139 178 150 100
2.41701 -2.73541 0.86140 171 136 79
2.40591 -2.74355 0.86225 148 119 71
2.39678 -2.75327 0.86265 125 98 53
2.38500 -2.76092 0.86364 124 98 64
2.37137 -2.76711 0.86506 130 103 79
2.30981 -2.83863 0.86715 121 99 62
2.32299 -2.83458 0.85067 131 105 64
2.30924 -2.84083 0.85210 130 105 61
2.29953 -2.84780 0.86778 96 72 45
2.28289 -2.85163 0.86987 79 55 46
2.27204 -2.86034 0.87063 94 68 63
2.26212 -2.86989 0.87116 114 91 75
2.24778 -2.87836 0.85750 102 78 62
2.11016 -2.97642 0.88324 135 106 77
2.12348 -2.97232 0.86659 135 105 78
2.10959 -2.97864 0.86803 135 105 79
2.09964 -2.98587 0.88387 148 127 124
2.12094 -3.02508 0.87683 188 179 173
2.10405 -3.04846 0.87704 200 189 168
2.10347 -3.05071 0.86161 200 189 166
2.06542 -3.03152 0.88445 179 164 153
2.05081 -3.03729 0.88606 180 167 149
2.04767 -3.05411 0.88486 190 177 148
2.00185 -3.04956 0.89212 187 172 149
1.99833 -3.06615 0.89101 175 167 142
1.97764 -3.06592 0.89411 168 150 117
1.85718 -2.96644 0.92184 85 85 56
1.84306 -2.97199 0.92339 96 93 81
1.79134 -2.95928 0.93233 51 49 74
1.77738 -2.96752 0.91904 86 84 101
1.73224 -2.91881 0.94511 122 121 119
1.71617 -2.92188 0.94720 154 139 135
1.70352 -2.92577 0.96302 156 134 127
1.70298 -2.92788 0.94857 154 137 137
1.70243 -2.92999 0.93412 153 138 131
1.13061 -2.88582 1.03782 137 148 178
1.14240 -2.88219 1.02308 146 155 178
1.13010 -2.88778 1.02435 141 149 177
1.12243 -2.89665 1.03797 119 134 164
1.10960 -2.90422 1.02576 116 137 163
1.11446 -2.90780 1.03805 110 132 170
1.10161 -2.91539 1.02582 123 143 169
1.10580 -2.91816 1.03832 113 136 182
1.09789 -2.92954 1.03837 115 128 167
1.08986 -2.94085 1.03845 115 116 151
1.07694 -2.94847 1.02615 119 90 115
1.08365 -2.95464 1.03801 117 104 136
1.07070 -2.96229 1.02568 121 91 119
1.07460 -2.96477 1.03836 119 103 128
1.06817 -2.97847 1.03796 121 108 122
1.06040 -2.99048 1.03793 119 96 114
1.05283 -3.00285 1.03784 115 75 115
1.04427 -3.01399 1.03801 124 101 141
1.05160 -3.04695 1.03367 135 134 160
1.04282 -3.05809 1.03387 142 147 171
1.02642 -3.08222 1.03393 137 145 168
1.02272 -3.10077 1.03265 114 119 151
1.04298 -3.15355 1.02443 79 80 125
1.02947 -3.16152 1.01157 48 44 90
1.04188 -3.17644 1.02233 58 55 100
1.02830 -3.18446 1.00941 45 44 90
1.03707 -3.19425 1.02129 44 44 91
1.02344 -3.20229 1.00832 39 45 84
0.99659 -3.26138 1.02068 45 52 89
0.98281 -3.26951 1.00757 76 77 114
0.99936 -3.29154 1.01730 76 85 103
0.98548 -3.29972 1.00409 66 75 94
0.98907 -3.30221 1.01777 72 82 89
0.96699 -3.34833 1.01650 53 64 89
0.95904 -3.36308 1.01623 46 51 84
0.94500 -3.37137 1.00287 35 48 74
0.93945 -3.50056 1.00557 39 48 84
0.95274 -3.49647 0.98895 45 50 79
0.93888 -3.50278 0.99039 39 50 81
0.93193 -3.51737 1.00503 72 86 97
0.90932 -3.50918 1.00920 83 95 121
0.92294 -3.56169 1.00200 46 51 81
0.90834 -3.57031 0.98810 32 38 70
0.91419 -3.57700 1.00179 32 42 72
0.89640 -3.60759 1.00141 38 37 61
0.89219 -3.63125 0.99970 49 47 76
0.88489 -3.64977 0.99896 58 60 87
0.89693 -3.70266 0.99195 74 80 104
0.88193 -3.71151 0.97767 92 99 122
0.88662 -3.71652 0.99212 87 96 115
0.87160 -3.72539 0.97781 93 101 121
0.87681 -3.73137 0.99211 94 103 121
0.86174 -3.74026 0.97777 94 101 121
0.83316 -3.78411 0.99339 86 93 109
0.82977 -3.81166 0.99118 61 70 90
0.83770 -3.86098 0.98513 33 42 77
0.82230 -3.87007 0.97047 32 35 63
0.81170 -3.88134 0.98699 32 32 71
0.80667 -3.90709 0.98520 57 68 110
0.81515 -3.95960 0.97875 120 140 162
0.79947 -3.96885 0.96383 135 146 165
0.77893 -3.99814 0.98033 134 143 148
0.79343 -3.99368 0.96220 136 144 163
0.82002 -4.11902 0.96230 104 104 105
0.81234 -4.14216 0.96115 36 27 35
0.79610 -4.15174 0.94570 34 38 53
0.80141 -4.15890 0.96113 31 37 48
0.78514 -4.16850 0.94564 41 44 49
0.78653 -4.20757 0.95854 38 44 46
0.78171 -4.23794 0.95626 50 51 61
0.78519 -4.28655 0.95094 62 60 78
0.79259 -4.34440 0.94413 78 89 87
0.78672 -4.37424 0.94206 95 103 106
0.77292 -4.38704 0.94285 104 115 120
0.75599 -4.39703 0.92672 120 126 132
0.23279 -4.56331 1.00576 112 119 125
0.23213 -4.56587 0.98817 119 122 125
0.21607 -4.57317 0.98984 122 123 134
0.21579 -4.56767 1.00786 119 117 119
0.20039 -4.57241 1.02710 103 110 121
0.19908 -4.57753 0.99195 119 124 129
2.51080 -2.69374 0.83682 179 176 176
2.52383 -2.68974 0.82054 164 148 141
2.50226 -2.70374 0.83709 200 200 200
2.51667 -2.73122 0.83212 216 218 205
2.47968 -2.71965 0.83886 199 194 173
2.44495 -2.70962 0.84509 178 151 117
2.43085 -2.71794 0.83167 177 153 119
2.41800 -2.72204 0.84787 184 158 115
2.40865 -2.73148 0.84832 178 147 101
2.39560 -2.73805 0.84961 153 127 79
2.39589 -2.75518 0.84782 110 77 64
2.38399 -2.76273 0.84883 107 83 67
2.37397 -2.77181 0.84941 126 103 77
2.36089 -2.77583 0.86576 131 103 75
2.36033 -2.77801 0.85083 131 102 78
2.35977 -2.78019 0.83590 125 104 81
2.29485 -2.84654 0.85368 126 100 59
2.30803 -2.84249 0.83720 131 100 76
2.29429 -2.84874 0.83862 129 99 76
