ply
format ascii 1.0
element face 0
property list uchar int vertex_indices
element vertex 1243
property float x
property float y
property float z
property uchar diffuse_red
property uchar diffuse_green
property uchar diffuse_blue
end_header
-0.02533 -0.54912 -0.58053 254 254 254
-0.01847 -0.55154 -0.57727 254 254 254
-0.01162 -0.55396 -0.57401 254 254 254
-0.00476 -0.55638 -0.57075 254 254 254
0.00209 -0.55880 -0.56749 254 254 254
0.00895 -0.56121 -0.56423 254 254 254
0.01580 -0.56363 -0.56097 254 254 254
0.02266 -0.56605 -0.55770 254 254 254
0.02951 -0.56847 -0.55444 254 254 254
0.03636 -0.57089 -0.55118 254 254 254
0.04322 -0.57331 -0.54792 254 254 254
0.05007 -0.57572 -0.54466 254 254 254
0.05692 -0.57814 -0.54140 254 254 254
0.06377 -0.58056 -0.53814 254 254 254
0.07063 -0.58298 -0.53488 254 254 254
0.07748 -0.58540 -0.53162 254 254 254
0.08433 -0.58782 -0.52836 254 254 254
0.09118 -0.59023 -0.52510 254 254 254
0.09803 -0.59265 -0.52184 254 254 254
0.10489 -0.59507 -0.51858 254 254 254
0.11174 -0.59749 -0.51532 254 254 254
0.11859 -0.59990 -0.51206 254 254 254
0.12544 -0.60232 -0.50880 254 254 254
0.13229 -0.60474 -0.50554 254 254 254
0.13914 -0.60716 -0.50228 254 254 254
0.14599 -0.60957 -0.49903 254 254 254
0.15284 -0.61199 -0.49577 254 254 254
0.15969 -0.61441 -0.49251 254 254 254
0.16654 -0.61682 -0.48925 254 254 254
0.17339 -0.61924 -0.48599 254 254 254
0.18024 -0.62166 -0.48273 254 254 254
0.18709 -0.62408 -0.47947 254 254 254
0.19394 -0.62649 -0.47621 254 254 254
0.20078 -0.62891 -0.47296 254 254 254
0.20763 -0.63133 -0.46970 254 254 254
0.21448 -0.63374 -0.46644 254 254 254
0.22133 -0.63616 -0.46318 254 254 254
0.22818 -0.63858 -0.45992 254 254 254
0.23502 -0.64099 -0.45667 254 254 254
0.24187 -0.64341 -0.45341 254 254 254
0.24872 -0.64582 -0.45015 254 254 254
0.25557 -0.64824 -0.44689 254 254 254
0.26241 -0.65066 -0.44364 254 254 254
0.26926 -0.65307 -0.44038 254 254 254
0.27611 -0.65549 -0.43712 254 254 254
0.28295 -0.65790 -0.43386 254 254 254
0.28980 -0.66032 -0.43061 254 254 254
0.29664 -0.66274 -0.42735 254 254 254
0.30349 -0.66515 -0.42409 254 254 254
0.31033 -0.66757 -0.42084 254 254 254
0.31718 -0.66998 -0.41758 254 254 254
0.32402 -0.67240 -0.41432 254 254 254
0.33087 -0.67481 -0.41107 254 254 254
0.33771 -0.67723 -0.40781 254 254 254
0.34456 -0.67964 -0.40455 254 254 254
-0.38769 -0.43142 -0.74379 250 249 250
-0.38085 -0.43384 -0.74054 250 249 250
-0.37401 -0.43625 -0.73728 250 249 251
-0.36717 -0.43866 -0.73403 250 249 251
-0.36033 -0.44108 -0.73078 250 249 251
-0.35350 -0.44349 -0.72752 250 249 251
-0.34666 -0.44590 -0.72427 250 249 251
-0.33982 -0.44832 -0.72102 250 249 251
-0.33298 -0.45073 -0.71776 251 249 251
-0.32614 -0.45314 -0.71451 251 249 251
-0.31931 -0.45555 -0.71126 251 249 251
-0.31247 -0.45797 -0.70801 251 249 251
-0.30563 -0.46038 -0.70475 251 249 251
-0.29880 -0.46279 -0.70150 251 249 251
-0.29196 -0.46520 -0.69825 251 249 251
-0.28512 -0.46762 -0.69500 251 249 251
-0.27829 -0.47003 -0.69174 251 249 251
-0.27145 -0.47244 -0.68849 251 250 251
-0.26462 -0.47485 -0.68524 251 250 251
-0.25778 -0.47726 -0.68199 251 250 251
-0.25095 -0.47968 -0.67874 251 250 251
-0.24411 -0.48209 -0.67548 251 250 252
-0.23728 -0.48450 -0.67223 251 250 252
-0.23044 -0.48691 -0.66898 251 250 252
-0.22361 -0.48932 -0.66573 251 250 252
-0.21677 -0.49173 -0.66248 251 250 252
-0.20994 -0.49414 -0.65923 252 250 252
-0.20310 -0.49656 -0.65598 252 250 252
-0.19627 -0.49897 -0.65272 252 250 252
-0.18944 -0.50138 -0.64947 252 251 251
-0.18260 -0.50379 -0.64622 252 251 251
-0.17577 -0.50620 -0.64297 252 251 252
-0.16894 -0.50861 -0.63972 252 252 252
-0.16211 -0.51102 -0.63647 252 252 252
-0.15527 -0.51343 -0.63322 252 252 252
-0.14844 -0.51584 -0.62997 252 252 252
-0.14161 -0.51825 -0.62672 252 252 253
-0.13478 -0.52067 -0.62347 253 253 253
-0.12795 -0.52308 -0.62022 253 253 253
-0.12111 -0.52549 -0.61697 253 253 253
-0.11428 -0.52790 -0.61372 253 253 253
-0.10745 -0.53031 -0.61047 253 253 253
-0.10062 -0.53272 -0.60722 253 253 254
-0.09379 -0.53513 -0.60397 254 254 254
-0.08696 -0.53754 -0.60072 254 254 254
-0.08013 -0.53995 -0.59747 254 254 254
-0.07330 -0.54236 -0.59422 254 254 254
-0.06647 -0.54477 -0.59097 254 254 254
-0.05964 -0.54718 -0.58772 254 254 254
-0.05281 -0.54959 -0.58447 254 254 254
-0.04598 -0.55200 -0.58123 254 254 254
-0.03915 -0.55441 -0.57798 254 254 254
-0.03233 -0.55682 -0.57473 254 254 254
-0.02550 -0.55923 -0.57148 254 254 254
-0.01867 -0.56164 -0.56823 254 254 254
-0.01184 -0.56404 -0.56498 254 254 254
-0.00501 -0.56645 -0.56173 254 254 254
0.00181 -0.56886 -0.55849 254 254 254
0.00864 -0.57127 -0.55524 254 254 254
0.01547 -0.57368 -0.55199 254 254 254
0.02230 -0.57609 -0.54874 254 254 254
0.02912 -0.57850 -0.54549 254 254 254
0.03595 -0.58091 -0.54225 254 254 254
0.04278 -0.58332 -0.53900 254 254 254
0.04960 -0.58573 -0.53575 254 254 254
0.05643 -0.58813 -0.53250 254 254 254
0.06325 -0.59054 -0.52926 254 254 254
0.07008 -0.59295 -0.52601 254 254 254
0.07691 -0.59536 -0.52276 254 254 254
0.08373 -0.59777 -0.51951 254 254 254
0.09056 -0.60018 -0.51627 254 254 254
0.09738 -0.60258 -0.51302 254 254 254
0.10421 -0.60499 -0.50977 254 254 254
0.11103 -0.60740 -0.50653 254 254 254
0.11785 -0.60981 -0.50328 254 254 254
0.12468 -0.61222 -0.50003 254 254 254
0.13150 -0.61462 -0.49679 254 254 254
0.13833 -0.61703 -0.49354 254 254 254
0.14515 -0.61944 -0.49029 254 254 254
0.15197 -0.62185 -0.48705 254 254 254
0.15879 -0.62425 -0.48380 254 254 254
0.16562 -0.62666 -0.48056 254 254 254
0.17244 -0.62907 -0.47731 254 254 254
0.17926 -0.63148 -0.47406 254 254 254
0.18608 -0.63388 -0.47082 254 254 254
0.19291 -0.63629 -0.46757 254 254 254
0.19973 -0.63870 -0.46433 254 254 254
0.20655 -0.64110 -0.46108 254 254 254
0.21337 -0.64351 -0.45784 254 254 254
0.22019 -0.64592 -0.45459 254 254 254
0.22701 -0.64833 -0.45135 254 254 254
0.23383 -0.65073 -0.44810 254 254 254
0.24065 -0.65314 -0.44486 254 254 254
0.24747 -0.65555 -0.44161 254 254 254
0.25430 -0.65795 -0.43837 254 254 254
0.26112 -0.66036 -0.43512 254 254 254
0.26793 -0.66276 -0.43188 254 254 254
0.27475 -0.66517 -0.42863 254 254 254
0.28157 -0.66758 -0.42539 254 254 254
0.28839 -0.66998 -0.42215 254 254 254
0.29521 -0.67239 -0.41890 254 254 254
0.30203 -0.67480 -0.41566 254 254 254
0.30885 -0.67720 -0.41241 254 254 254
0.31567 -0.67961 -0.40917 254 254 254
0.32249 -0.68201 -0.40593 254 254 254
0.32930 -0.68442 -0.40268 254 254 254
0.33612 -0.68682 -0.39944 254 254 254
-0.39326 -0.43955 -0.73737 250 249 250
-0.38645 -0.44196 -0.73413 250 249 251
-0.37963 -0.44436 -0.73089 250 249 251
-0.37282 -0.44677 -0.72765 250 249 251
-0.36601 -0.44917 -0.72441 250 249 251
-0.35920 -0.45157 -0.72117 250 249 251
-0.35239 -0.45398 -0.71793 250 249 251
-0.34557 -0.45638 -0.71468 250 249 251
-0.33876 -0.45878 -0.71144 251 249 251
-0.33195 -0.46119 -0.70820 251 249 251
-0.32514 -0.46359 -0.70496 251 249 251
-0.31833 -0.46599 -0.70172 251 249 251
-0.31152 -0.46839 -0.69848 251 249 251
-0.30471 -0.47080 -0.69524 251 249 251
-0.29790 -0.47320 -0.69200 251 249 251
-0.29109 -0.47560 -0.68877 251 249 251
-0.28428 -0.47801 -0.68553 251 249 251
-0.27747 -0.48041 -0.68229 251 250 251
-0.27066 -0.48281 -0.67905 251 250 251
-0.26385 -0.48521 -0.67581 251 250 251
-0.25704 -0.48762 -0.67257 251 250 251
-0.25024 -0.49002 -0.66933 251 250 252
-0.24343 -0.49242 -0.66609 251 250 252
-0.23662 -0.49482 -0.66285 251 250 252
-0.22981 -0.49722 -0.65961 251 250 252
-0.22300 -0.49963 -0.65637 251 250 252
-0.21620 -0.50203 -0.65314 252 250 252
-0.20939 -0.50443 -0.64990 252 250 252
-0.20258 -0.50683 -0.64666 252 250 252
-0.19577 -0.50923 -0.64342 252 251 251
-0.18897 -0.51164 -0.64018 252 251 251
-0.18216 -0.51404 -0.63695 252 251 252
-0.17536 -0.51644 -0.63371 252 252 252
-0.16855 -0.51884 -0.63047 252 252 252
-0.16174 -0.52124 -0.62723 252 252 252
-0.15494 -0.52364 -0.62399 252 252 252
-0.14813 -0.52604 -0.62076 252 252 253
-0.14133 -0.52844 -0.61752 253 253 253
-0.13452 -0.53085 -0.61428 253 253 253
-0.12772 -0.53325 -0.61104 253 253 253
-0.12091 -0.53565 -0.60781 253 253 253
-0.11411 -0.53805 -0.60457 253 253 253
-0.10730 -0.54045 -0.60133 253 253 254
-0.10050 -0.54285 -0.59810 254 254 254
-0.09370 -0.54525 -0.59486 254 254 254
-0.08689 -0.54765 -0.59162 254 254 254
-0.08009 -0.55005 -0.58839 254 254 254
-0.07328 -0.55245 -0.58515 254 254 254
-0.06648 -0.55485 -0.58191 254 254 254
-0.05968 -0.55725 -0.57868 254 254 254
-0.05288 -0.55965 -0.57544 254 254 254
-0.04607 -0.56205 -0.57220 254 254 254
-0.03927 -0.56445 -0.56897 254 254 254
-0.03247 -0.56685 -0.56573 254 254 254
-0.02567 -0.56925 -0.56250 254 254 254
-0.01887 -0.57165 -0.55926 254 254 254
-0.01206 -0.57405 -0.55602 254 254 254
-0.00526 -0.57645 -0.55279 254 254 254
0.00154 -0.57885 -0.54955 254 254 254
0.00834 -0.58125 -0.54632 254 254 254
0.01514 -0.58365 -0.54308 254 254 254
0.02194 -0.58605 -0.53985 254 254 254
0.02874 -0.58845 -0.53661 254 254 254
0.03554 -0.59085 -0.53338 254 254 254
0.04234 -0.59325 -0.53014 254 254 254
0.04914 -0.59565 -0.52691 254 254 254
0.05594 -0.59805 -0.52367 254 254 254
0.06274 -0.60045 -0.52044 254 254 254
0.06954 -0.60284 -0.51720 254 254 254
0.07634 -0.60524 -0.51397 254 254 254
0.08313 -0.60764 -0.51074 254 254 254
0.08993 -0.61004 -0.50750 254 254 254
0.09673 -0.61244 -0.50427 254 254 254
0.10353 -0.61484 -0.50103 254 254 254
0.11033 -0.61724 -0.49780 254 254 254
0.11712 -0.61963 -0.49457 254 254 254
0.12392 -0.62203 -0.49133 254 254 254
0.13072 -0.62443 -0.48810 254 254 254
0.13752 -0.62683 -0.48487 254 254 254
0.14431 -0.62923 -0.48163 254 254 254
0.15111 -0.63163 -0.47840 254 254 254
0.15791 -0.63402 -0.47517 254 254 254
0.16470 -0.63642 -0.47193 254 254 254
0.17150 -0.63882 -0.46870 254 254 254
0.17829 -0.64122 -0.46547 254 254 254
0.18509 -0.64361 -0.46223 254 254 254
0.19188 -0.64601 -0.45900 254 254 254
0.19868 -0.64841 -0.45577 254 254 254
0.20548 -0.65081 -0.45254 254 254 254
0.21227 -0.65320 -0.44930 254 254 254
0.21906 -0.65560 -0.44607 254 254 254
0.22586 -0.65800 -0.44284 254 254 254
0.23265 -0.66040 -0.43961 254 254 254
0.23945 -0.66279 -0.43637 254 254 254
0.24624 -0.66519 -0.43314 254 254 254
0.25303 -0.66759 -0.42991 254 254 254
0.25983 -0.66998 -0.42668 254 254 254
0.26662 -0.67238 -0.42345 254 254 254
0.27341 -0.67478 -0.42021 254 254 254
0.28021 -0.67718 -0.41698 254 254 254
0.28700 -0.67957 -0.41375 254 254 254
0.29379 -0.68197 -0.41052 254 254 254
0.30058 -0.68436 -0.40729 254 254 254
0.30738 -0.68676 -0.40406 254 254 254
0.31417 -0.68916 -0.40083 254 254 254
0.32096 -0.69155 -0.39760 254 254 254
0.32775 -0.69395 -0.39437 254 254 254
-0.40557 -0.44523 -0.73423 250 249 250
-0.39878 -0.44762 -0.73100 250 249 250
-0.39200 -0.45002 -0.72777 250 249 251
-0.38521 -0.45241 -0.72454 250 249 251
-0.37842 -0.45480 -0.72131 250 249 251
-0.37164 -0.45720 -0.71808 250 249 251
-0.36485 -0.45959 -0.71486 250 249 251
-0.35807 -0.46199 -0.71163 250 249 251
-0.35128 -0.46438 -0.70840 250 249 251
-0.34450 -0.46677 -0.70517 251 249 251
-0.33771 -0.46917 -0.70195 251 249 251
-0.33093 -0.47156 -0.69872 251 249 251
-0.32415 -0.47396 -0.69549 251 249 251
-0.31736 -0.47635 -0.69226 251 249 251
-0.31058 -0.47874 -0.68904 251 249 251
-0.30379 -0.48114 -0.68581 251 249 251
-0.29701 -0.48353 -0.68258 251 249 251
-0.29023 -0.48592 -0.67936 251 249 251
-0.28344 -0.48832 -0.67613 251 250 251
-0.27666 -0.49071 -0.67290 251 250 251
-0.26988 -0.49310 -0.66968 251 250 251
-0.26310 -0.49549 -0.66645 251 250 251
-0.25631 -0.49789 -0.66322 251 250 252
-0.24953 -0.50028 -0.66000 251 250 252
-0.24275 -0.50267 -0.65677 251 250 252
-0.23597 -0.50507 -0.65354 251 250 252
-0.22919 -0.50746 -0.65032 251 250 252
-0.22241 -0.50985 -0.64709 252 250 252
-0.21562 -0.51224 -0.64387 252 250 252
-0.20884 -0.51464 -0.64064 252 251 252
-0.20206 -0.51703 -0.63742 252 251 251
-0.19528 -0.51942 -0.63419 252 251 251
-0.18850 -0.52181 -0.63097 252 251 252
-0.18172 -0.52420 -0.62774 252 252 252
-0.17494 -0.52660 -0.62451 252 252 252
-0.16816 -0.52899 -0.62129 252 252 252
-0.16138 -0.53138 -0.61806 252 252 252
-0.15460 -0.53377 -0.61484 252 252 253
-0.14782 -0.53616 -0.61161 253 253 253
-0.14105 -0.53855 -0.60839 253 253 253
-0.13427 -0.54095 -0.60516 253 253 253
-0.12749 -0.54334 -0.60194 253 253 253
-0.12071 -0.54573 -0.59872 253 253 253
-0.11393 -0.54812 -0.59549 253 253 254
-0.10715 -0.55051 -0.59227 254 254 254
-0.10038 -0.55290 -0.58904 254 254 254
-0.09360 -0.55529 -0.58582 254 254 254
-0.08682 -0.55769 -0.58259 254 254 254
-0.08005 -0.56008 -0.57937 254 254 254
-0.07327 -0.56247 -0.57615 254 254 254
-0.06649 -0.56486 -0.57292 254 254 254
-0.05972 -0.56725 -0.56970 254 254 254
-0.05294 -0.56964 -0.56648 254 254 254
-0.04616 -0.57203 -0.56325 254 254 254
-0.03939 -0.57442 -0.56003 254 254 254
-0.03261 -0.57681 -0.55681 254 254 254
-0.02584 -0.57920 -0.55358 254 254 254
-0.01906 -0.58159 -0.55036 254 254 254
-0.01229 -0.58398 -0.54714 254 254 254
-0.00551 -0.58637 -0.54391 254 254 254
0.00126 -0.58876 -0.54069 254 254 254
0.00804 -0.59115 -0.53747 254 254 254
0.01481 -0.59354 -0.53425 254 254 254
0.02159 -0.59593 -0.53102 254 254 254
0.02836 -0.59832 -0.52780 254 254 254
0.03513 -0.60071 -0.52458 254 254 254
0.04191 -0.60310 -0.52136 254 254 254
0.04868 -0.60549 -0.51814 254 254 254
0.05545 -0.60788 -0.51491 254 254 254
0.06223 -0.61027 -0.51169 254 254 254
0.06900 -0.61266 -0.50847 254 254 254
0.07577 -0.61505 -0.50525 254 254 254
0.08254 -0.61744 -0.50203 254 254 254
0.08932 -0.61983 -0.49880 254 254 254
0.09609 -0.62222 -0.49558 254 254 254
0.10286 -0.62461 -0.49236 254 254 254
0.10963 -0.62700 -0.48914 254 254 254
0.11640 -0.62939 -0.48592 254 254 254
0.12317 -0.63177 -0.48270 254 254 254
0.12994 -0.63416 -0.47948 254 254 254
0.13671 -0.63655 -0.47626 254 254 254
0.14348 -0.63894 -0.47304 254 254 254
0.15025 -0.64133 -0.46982 254 254 254
0.15702 -0.64372 -0.46660 254 254 254
0.16379 -0.64611 -0.46337 254 254 254
0.17056 -0.64849 -0.46015 254 254 254
0.17733 -0.65088 -0.45693 254 254 254
0.18410 -0.65327 -0.45371 254 254 254
0.19087 -0.65566 -0.45049 254 254 254
0.19764 -0.65805 -0.44727 254 254 254
0.20441 -0.66044 -0.44405 254 254 254
0.21118 -0.66282 -0.44083 254 254 254
0.21795 -0.66521 -0.43761 254 254 254
0.22471 -0.66760 -0.43439 254 254 254
0.23148 -0.66999 -0.43118 254 254 254
0.23825 -0.67237 -0.42796 254 254 254
0.24502 -0.67476 -0.42474 254 254 254
0.25178 -0.67715 -0.42152 254 254 254
0.25855 -0.67954 -0.41830 254 254 254
0.26532 -0.68192 -0.41508 254 254 254
0.27208 -0.68431 -0.41186 254 254 254
0.27885 -0.68670 -0.40864 254 254 254
0.28562 -0.68909 -0.40542 254 254 254
0.29238 -0.69147 -0.40220 254 254 254
0.29915 -0.69386 -0.39899 254 254 254
0.30591 -0.69625 -0.39577 254 254 254
0.31268 -0.69863 -0.39255 254 254 254
-0.41779 -0.45086 -0.73111 250 249 250
-0.41103 -0.45324 -0.72789 250 249 250
-0.40427 -0.45563 -0.72467 250 249 250
-0.39751 -0.45801 -0.72146 250 249 251
-0.39075 -0.46040 -0.71824 250 249 251
-0.38399 -0.46278 -0.71503 250 249 251
-0.37723 -0.46517 -0.71181 250 249 251
-0.37047 -0.46755 -0.70860 250 249 251
-0.36371 -0.46994 -0.70538 250 249 251
-0.35695 -0.47232 -0.70217 250 249 251
-0.35019 -0.47470 -0.69895 251 249 251
-0.34343 -0.47709 -0.69574 251 249 251
-0.33667 -0.47947 -0.69252 251 249 251
-0.32992 -0.48186 -0.68931 251 249 251
-0.32316 -0.48424 -0.68609 251 249 251
-0.31640 -0.48663 -0.68288 251 249 251
-0.30964 -0.48901 -0.67966 251 249 251
-0.30288 -0.49139 -0.67645 251 249 251
-0.29613 -0.49378 -0.67323 251 249 251
-0.28937 -0.49616 -0.67002 251 250 251
-0.28261 -0.49855 -0.66681 251 250 251
-0.27586 -0.50093 -0.66359 251 250 251
-0.26910 -0.50331 -0.66038 251 250 252
-0.26234 -0.50570 -0.65716 251 250 252
-0.25559 -0.50808 -0.65395 251 250 252
-0.24883 -0.51046 -0.65074 251 250 252
-0.24208 -0.51285 -0.64752 251 250 252
-0.23532 -0.51523 -0.64431 251 250 252
-0.22857 -0.51761 -0.64110 252 250 252
-0.22181 -0.52000 -0.63788 252 250 252
-0.21506 -0.52238 -0.63467 252 251 251
-0.20830 -0.52476 -0.63146 252 251 251
-0.20155 -0.52714 -0.62824 252 251 251
-0.19479 -0.52953 -0.62503 252 251 252
-0.18804 -0.53191 -0.62182 252 252 252
-0.18129 -0.53429 -0.61861 252 252 252
-0.17453 -0.53668 -0.61539 252 252 252
-0.16778 -0.53906 -0.61218 252 252 252
-0.16103 -0.54144 -0.60897 252 252 253
-0.15427 -0.54382 -0.60576 253 253 253
-0.14752 -0.54620 -0.60254 253 253 253
-0.14077 -0.54859 -0.59933 253 253 253
-0.13401 -0.55097 -0.59612 253 253 253
-0.12726 -0.55335 -0.59291 253 253 253
-0.12051 -0.55573 -0.58970 253 253 254
-0.11376 -0.55812 -0.58648 254 254 254
-0.10701 -0.56050 -0.58327 254 254 254
-0.10026 -0.56288 -0.58006 254 254 254
-0.09350 -0.56526 -0.57685 254 254 254
-0.08675 -0.56764 -0.57364 254 254 254
-0.08000 -0.57002 -0.57043 254 254 254
-0.07325 -0.57241 -0.56722 254 254 254
-0.06650 -0.57479 -0.56400 254 254 254
-0.05975 -0.57717 -0.56079 254 254 254
-0.05300 -0.57955 -0.55758 254 254 254
-0.04625 -0.58193 -0.55437 254 254 254
-0.03950 -0.58431 -0.55116 254 254 254
-0.03275 -0.58669 -0.54795 254 254 254
-0.02600 -0.58907 -0.54474 254 254 254
-0.01925 -0.59146 -0.54153 254 254 254
-0.01251 -0.59384 -0.53832 254 254 254
-0.00576 -0.59622 -0.53511 254 254 254
0.00099 -0.59860 -0.53190 254 254 254
0.00774 -0.60098 -0.52869 254 254 254
0.01449 -0.60336 -0.52548 254 254 254
0.02124 -0.60574 -0.52227 254 254 254
0.02798 -0.60812 -0.51906 254 254 254
0.03473 -0.61050 -0.51585 254 254 254
0.04148 -0.61288 -0.51264 254 254 254
0.04822 -0.61526 -0.50943 254 254 254
0.05497 -0.61764 -0.50622 254 254 254
0.06172 -0.62002 -0.50301 254 254 254
0.06846 -0.62240 -0.49980 254 254 254
0.07521 -0.62478 -0.49659 254 254 254
0.08196 -0.62716 -0.49338 254 254 254
0.08870 -0.62954 -0.49018 254 254 254
0.09545 -0.63192 -0.48697 254 254 254
0.10219 -0.63430 -0.48376 254 254 254
0.10894 -0.63668 -0.48055 254 254 254
0.11568 -0.63906 -0.47734 254 254 254
0.12243 -0.64144 -0.47413 254 254 254
0.12917 -0.64382 -0.47092 254 254 254
0.13592 -0.64620 -0.46772 254 254 254
0.14266 -0.64858 -0.46451 254 254 254
0.14941 -0.65096 -0.46130 254 254 254
0.15615 -0.65334 -0.45809 254 254 254
0.16289 -0.65571 -0.45488 254 254 254
0.16964 -0.65809 -0.45168 254 254 254
0.17638 -0.66047 -0.44847 254 254 254
0.18312 -0.66285 -0.44526 254 254 254
0.18987 -0.66523 -0.44205 254 254 254
0.19661 -0.66761 -0.43885 254 254 254
0.20335 -0.66999 -0.43564 254 254 254
0.21009 -0.67237 -0.43243 254 254 254
0.21683 -0.67475 -0.42922 254 254 254
0.22358 -0.67712 -0.42602 254 254 254
0.23032 -0.67950 -0.42281 254 254 254
0.23706 -0.68188 -0.41960 254 254 254
0.24380 -0.68426 -0.41640 254 254 254
0.25054 -0.68664 -0.41319 254 254 254
0.25728 -0.68901 -0.40998 254 254 254
0.26402 -0.69139 -0.40678 254 254 254
0.27076 -0.69377 -0.40357 254 254 254
0.27750 -0.69615 -0.40036 254 254 254
0.28424 -0.69853 -0.39716 254 254 254
0.29098 -0.70090 -0.39395 254 254 254
0.29772 -0.70328 -0.39075 254 254 254
0.30446 -0.70566 -0.38754 254 254 254
-0.42991 -0.45644 -0.72801 250 249 250
-0.42318 -0.45882 -0.72481 250 249 250
-0.41644 -0.46120 -0.72160 250 249 250
-0.40971 -0.46357 -0.71840 250 249 250
-0.40297 -0.46595 -0.71520 250 249 251
-0.39624 -0.46832 -0.71199 250 249 251
-0.38950 -0.47070 -0.70879 250 249 251
-0.38277 -0.47307 -0.70559 250 249 251
-0.37604 -0.47545 -0.70239 250 249 251
-0.36930 -0.47782 -0.69918 250 249 251
-0.36257 -0.48020 -0.69598 250 249 251
-0.35584 -0.48257 -0.69278 251 249 251
-0.34911 -0.48495 -0.68957 251 249 251
-0.34237 -0.48732 -0.68637 251 249 251
-0.33564 -0.48970 -0.68317 251 249 251
-0.32891 -0.49207 -0.67997 251 249 251
-0.32218 -0.49445 -0.67677 251 249 251
-0.31545 -0.49682 -0.67356 251 249 251
-0.30871 -0.49920 -0.67036 251 249 251
-0.30198 -0.50157 -0.66716 251 249 251
-0.29525 -0.50395 -0.66396 251 250 251
-0.28852 -0.50632 -0.66076 251 250 251
-0.28179 -0.50870 -0.65755 251 250 251
-0.27506 -0.51107 -0.65435 251 250 252
-0.26833 -0.51344 -0.65115 251 250 252
-0.26160 -0.51582 -0.64795 251 250 252
-0.25487 -0.51819 -0.64475 251 250 252
-0.24814 -0.52057 -0.64155 251 250 252
-0.24141 -0.52294 -0.63835 251 250 252
-0.23468 -0.52531 -0.63515 252 250 252
-0.22795 -0.52769 -0.63195 252 250 252
-0.22122 -0.53006 -0.62874 252 251 251
-0.21449 -0.53244 -0.62554 252 251 251
-0.20776 -0.53481 -0.62234 252 251 251
-0.20104 -0.53718 -0.61914 252 251 252
-0.19431 -0.53956 -0.61594 252 252 252
-0.18758 -0.54193 -0.61274 252 252 252
-0.18085 -0.54430 -0.60954 252 252 252
-0.17413 -0.54668 -0.60634 252 252 252
-0.16740 -0.54905 -0.60314 252 252 253
-0.16067 -0.55142 -0.59994 253 253 253
-0.15394 -0.55380 -0.59674 253 253 253
-0.14722 -0.55617 -0.59354 253 253 253
-0.14049 -0.55854 -0.59034 253 253 253
-0.13376 -0.56091 -0.58714 253 253 253
-0.12704 -0.56329 -0.58394 253 253 254
-0.12031 -0.56566 -0.58074 254 254 254
-0.11359 -0.56803 -0.57755 254 254 254
-0.10686 -0.57041 -0.57435 254 254 254
-0.10014 -0.57278 -0.57115 254 254 254
-0.09341 -0.57515 -0.56795 254 254 254
-0.08669 -0.57752 -0.56475 254 254 254
-0.07996 -0.57989 -0.56155 254 254 254
-0.07324 -0.58227 -0.55835 254 254 254
-0.06651 -0.58464 -0.55515 254 254 254
-0.05979 -0.58701 -0.55195 254 254 254
-0.05306 -0.58938 -0.54876 254 254 254
-0.04634 -0.59176 -0.54556 254 254 254
-0.03962 -0.59413 -0.54236 254 254 254
-0.03289 -0.59650 -0.53916 254 254 254
-0.02617 -0.59887 -0.53596 254 254 254
-0.01945 -0.60124 -0.53277 254 254 254
-0.01272 -0.60361 -0.52957 254 254 254
-0.00600 -0.60599 -0.52637 254 254 254
0.00072 -0.60836 -0.52317 254 254 254
0.00744 -0.61073 -0.51998 254 254 254
0.01417 -0.61310 -0.51678 254 254 254
0.02089 -0.61547 -0.51358 254 254 254
0.02761 -0.61784 -0.51038 254 254 254
0.03433 -0.62021 -0.50719 254 254 254
0.04105 -0.62258 -0.50399 254 254 254
0.04777 -0.62495 -0.50079 254 254 254
0.05449 -0.62733 -0.49760 254 254 254
0.06121 -0.62970 -0.49440 254 254 254
0.06793 -0.63207 -0.49120 254 254 254
0.07465 -0.63444 -0.48800 254 254 254
0.08137 -0.63681 -0.48481 254 254 254
0.08809 -0.63918 -0.48161 254 254 254
0.09481 -0.64155 -0.47842 254 254 254
0.10153 -0.64392 -0.47522 254 254 254
0.10825 -0.64629 -0.47202 254 254 254
0.11497 -0.64866 -0.46883 254 254 254
0.12169 -0.65103 -0.46563 254 254 254
0.12841 -0.65340 -0.46244 254 254 254
0.13513 -0.65577 -0.45924 254 254 254
0.14185 -0.65814 -0.45604 254 254 254
0.14856 -0.66051 -0.45285 254 254 254
0.15528 -0.66288 -0.44965 254 254 254
0.16200 -0.66525 -0.44646 254 254 254
0.16872 -0.66762 -0.44326 254 254 254
0.17543 -0.66999 -0.44007 254 254 254
0.18215 -0.67236 -0.43687 254 254 254
0.18887 -0.67473 -0.43368 254 254 254
0.19558 -0.67710 -0.43048 254 254 254
0.20230 -0.67947 -0.42729 254 254 254
0.20902 -0.68184 -0.42409 254 254 254
0.21573 -0.68421 -0.42090 254 254 254
0.22245 -0.68657 -0.41770 254 254 254
0.22916 -0.68894 -0.41451 254 254 254
0.23588 -0.69131 -0.41131 254 254 254
0.24259 -0.69368 -0.40812 254 254 254
0.24931 -0.69605 -0.40493 254 254 254
0.25603 -0.69842 -0.40173 254 254 254
0.26274 -0.70079 -0.39854 254 254 254
0.26945 -0.70316 -0.39534 254 254 254
0.27617 -0.70553 -0.39215 254 254 254
0.28288 -0.70789 -0.38896 254 254 254
0.28960 -0.71026 -0.38576 254 254 254
0.29631 -0.71263 -0.38257 254 254 254
-0.44194 -0.46199 -0.72494 250 249 250
-0.43523 -0.46435 -0.72175 250 249 250
-0.42852 -0.46672 -0.71856 250 249 250
-0.42181 -0.46909 -0.71537 250 249 250
-0.41511 -0.47145 -0.71217 250 249 250
-0.40840 -0.47382 -0.70898 250 249 251
-0.40169 -0.47619 -0.70579 250 249 251
-0.39498 -0.47855 -0.70260 250 249 251
-0.38827 -0.48092 -0.69941 250 249 251
-0.38156 -0.48329 -0.69622 250 249 251
-0.37486 -0.48565 -0.69303 250 249 251
-0.36815 -0.48802 -0.68984 250 249 251
-0.36144 -0.49038 -0.68665 251 249 251
-0.35474 -0.49275 -0.68346 251 249 251
-0.34803 -0.49511 -0.68027 251 249 251
-0.34132 -0.49748 -0.67708 251 249 251
-0.33462 -0.49985 -0.67389 251 249 251
-0.32791 -0.50221 -0.67070 251 249 251
-0.32120 -0.50458 -0.66751 251 249 251
-0.31450 -0.50694 -0.66432 251 249 251
-0.30779 -0.50931 -0.66113 251 249 251
-0.30109 -0.51167 -0.65794 251 250 251
-0.29438 -0.51404 -0.65475 251 250 251
-0.28768 -0.51640 -0.65156 251 250 251
-0.28097 -0.51877 -0.64837 251 250 252
-0.27427 -0.52113 -0.64519 251 250 252
-0.26756 -0.52350 -0.64200 251 250 252
-0.26086 -0.52586 -0.63881 251 250 252
-0.25415 -0.52823 -0.63562 251 250 252
-0.24745 -0.53059 -0.63243 251 250 252
-0.24075 -0.53296 -0.62924 252 250 252
-0.23404 -0.53532 -0.62605 252 250 252
-0.22734 -0.53769 -0.62286 252 251 251
-0.22064 -0.54005 -0.61968 252 251 251
-0.21393 -0.54242 -0.61649 252 251 251
-0.20723 -0.54478 -0.61330 252 251 252
-0.20053 -0.54714 -0.61011 252 252 252
-0.19383 -0.54951 -0.60692 252 252 252
-0.18713 -0.55187 -0.60374 252 252 252
-0.18042 -0.55424 -0.60055 252 252 252
-0.17372 -0.55660 -0.59736 252 252 253
-0.16702 -0.55896 -0.59417 253 253 253
-0.16032 -0.56133 -0.59099 253 253 253
-0.15362 -0.56369 -0.58780 253 253 253
-0.14692 -0.56606 -0.58461 253 253 253
-0.14022 -0.56842 -0.58142 253 253 253
-0.13352 -0.57078 -0.57824 253 253 254
-0.12682 -0.57315 -0.57505 254 254 254
-0.12012 -0.57551 -0.57186 254 254 254
-0.11342 -0.57787 -0.56868 254 254 254
-0.10672 -0.58024 -0.56549 254 254 254
-0.10002 -0.58260 -0.56230 254 254 254
-0.09332 -0.58496 -0.55912 254 254 254
-0.08662 -0.58733 -0.55593 254 254 254
-0.07992 -0.58969 -0.55274 254 254 254
-0.07322 -0.59205 -0.54956 254 254 254
-0.06652 -0.59442 -0.54637 254 254 254
-0.05982 -0.59678 -0.54318 254 254 254
-0.05313 -0.59914 -0.54000 254 254 254
-0.04643 -0.60150 -0.53681 254 254 254
-0.03973 -0.60387 -0.53363 254 254 254
-0.03303 -0.60623 -0.53044 254 254 254
-0.02633 -0.60859 -0.52726 254 254 254
-0.01964 -0.61095 -0.52407 254 254 254
-0.01294 -0.61332 -0.52088 254 254 254
-0.00624 -0.61568 -0.51770 254 254 254
0.00045 -0.61804 -0.51451 254 254 254
0.00715 -0.62040 -0.51133 254 254 254
0.01385 -0.62276 -0.50814 254 254 254
0.02054 -0.62513 -0.50496 254 254 254
0.02724 -0.62749 -0.50177 254 254 254
0.03393 -0.62985 -0.49859 254 254 254
0.04063 -0.63221 -0.49540 254 254 254
0.04732 -0.63457 -0.49222 254 254 254
0.05402 -0.63694 -0.48904 254 254 254
0.06071 -0.63930 -0.48585 254 254 254
0.06741 -0.64166 -0.48267 254 254 254
0.07410 -0.64402 -0.47948 254 254 254
0.08080 -0.64638 -0.47630 254 254 254
0.08749 -0.64874 -0.47311 254 254 254
0.09418 -0.65110 -0.46993 254 254 254
0.10088 -0.65346 -0.46675 254 254 254
0.10757 -0.65583 -0.46356 254 254 254
0.11426 -0.65819 -0.46038 254 254 254
0.12096 -0.66055 -0.45720 254 254 254
0.12765 -0.66291 -0.45401 254 254 254
0.13434 -0.66527 -0.45083 254 254 254
0.14104 -0.66763 -0.44765 254 254 254
0.14773 -0.66999 -0.44446 254 254 254
0.15442 -0.67235 -0.44128 254 254 254
0.16111 -0.67471 -0.43810 254 254 254
0.16780 -0.67707 -0.43491 254 254 254
0.17449 -0.67943 -0.43173 254 254 254
0.18119 -0.68179 -0.42855 254 254 254
0.18788 -0.68415 -0.42537 254 254 254
0.19457 -0.68651 -0.42218 254 254 254
0.20126 -0.68887 -0.41900 254 254 254
0.20795 -0.69123 -0.41582 254 254 254
0.21464 -0.69359 -0.41264 254 254 254
0.22133 -0.69595 -0.40945 254 254 254
0.22802 -0.69831 -0.40627 254 254 254
0.23471 -0.70067 -0.40309 254 254 254
0.24140 -0.70303 -0.39991 254 254 254
0.24809 -0.70539 -0.39673 254 254 254
0.25478 -0.70775 -0.39354 254 254 254
0.26147 -0.71011 -0.39036 254 254 254
0.26815 -0.71247 -0.38718 254 254 254
0.27484 -0.71483 -0.38400 254 254 254
0.28153 -0.71719 -0.38082 254 254 254
0.28822 -0.71955 -0.37764 254 254 254
-0.45388 -0.46749 -0.72189 250 249 250
-0.44720 -0.46985 -0.71871 250 249 250
-0.44051 -0.47220 -0.71553 250 249 250
-0.43383 -0.47456 -0.71235 250 249 250
-0.42715 -0.47692 -0.70917 250 249 250
-0.42046 -0.47928 -0.70600 250 249 250
-0.41378 -0.48163 -0.70282 250 249 251
-0.40710 -0.48399 -0.69964 250 249 251
-0.40041 -0.48635 -0.69646 250 249 251
-0.39373 -0.48870 -0.69328 250 249 251
-0.38705 -0.49106 -0.69010 250 249 251
-0.38037 -0.49342 -0.68693 250 249 251
-0.37369 -0.49578 -0.68375 250 249 251
-0.36700 -0.49813 -0.68057 251 249 251
-0.36032 -0.50049 -0.67739 251 249 251
-0.35364 -0.50285 -0.67421 251 249 251
-0.34696 -0.50520 -0.67104 251 249 251
-0.34028 -0.50756 -0.66786 251 249 251
-0.33360 -0.50992 -0.66468 251 249 251
-0.32692 -0.51227 -0.66150 251 249 251
-0.32024 -0.51463 -0.65833 251 249 251
-0.31356 -0.51698 -0.65515 251 249 251
-0.30688 -0.51934 -0.65197 251 250 251
-0.30020 -0.52170 -0.64879 251 250 251
-0.29352 -0.52405 -0.64562 251 250 251
-0.28684 -0.52641 -0.64244 251 250 252
-0.28016 -0.52876 -0.63926 251 250 252
-0.27348 -0.53112 -0.63609 251 250 252
-0.26680 -0.53348 -0.63291 251 250 252
-0.26012 -0.53583 -0.62973 251 250 252
-0.25345 -0.53819 -0.62656 252 250 252
-0.24677 -0.54054 -0.62338 252 250 252
-0.24009 -0.54290 -0.62020 252 250 252
-0.23341 -0.54525 -0.61703 252 251 251
-0.22673 -0.54761 -0.61385 252 251 251
-0.22006 -0.54996 -0.61068 252 251 251
-0.21338 -0.55232 -0.60750 252 251 252
-0.20670 -0.55467 -0.60432 252 252 252
-0.20003 -0.55703 -0.60115 252 252 252
-0.19335 -0.55938 -0.59797 252 252 252
-0.18667 -0.56174 -0.59480 252 252 252
-0.18000 -0.56409 -0.59162 252 252 253
-0.17332 -0.56645 -0.58845 253 253 253
-0.16665 -0.56880 -0.58527 253 253 253
-0.15997 -0.57116 -0.58210 253 253 253
-0.15329 -0.57351 -0.57892 253 253 253
-0.14662 -0.57587 -0.57575 253 253 253
-0.13994 -0.57822 -0.57257 253 253 254
-0.13327 -0.58058 -0.56940 254 254 254
-0.12659 -0.58293 -0.56622 254 254 254
-0.11992 -0.58529 -0.56305 254 254 254
-0.11325 -0.58764 -0.55987 254 254 254
-0.10657 -0.58999 -0.55670 254 254 254
-0.09990 -0.59235 -0.55353 254 254 254
-0.09322 -0.59470 -0.55035 254 254 254
-0.08655 -0.59706 -0.54718 254 254 254
-0.07988 -0.59941 -0.54400 254 254 254
-0.07320 -0.60176 -0.54083 254 254 254
-0.06653 -0.60412 -0.53766 254 254 254
-0.05986 -0.60647 -0.53448 254 254 254
-0.05319 -0.60882 -0.53131 254 254 254
-0.04651 -0.61118 -0.52813 254 254 254
-0.03984 -0.61353 -0.52496 254 254 254
-0.03317 -0.61588 -0.52179 254 254 254
-0.02650 -0.61824 -0.51861 254 254 254
-0.01983 -0.62059 -0.51544 254 254 254
-0.01316 -0.62294 -0.51227 254 254 254
-0.00648 -0.62530 -0.50909 254 254 254
0.00019 -0.62765 -0.50592 254 254 254
0.00686 -0.63000 -0.50275 254 254 254
0.01353 -0.63236 -0.49958 254 254 254
0.02020 -0.63471 -0.49640 254 254 254
0.02687 -0.63706 -0.49323 254 254 254
0.03354 -0.63941 -0.49006 254 254 254
0.04021 -0.64177 -0.48689 254 254 254
0.04688 -0.64412 -0.48371 254 254 254
0.05355 -0.64647 -0.48054 254 254 254
0.06022 -0.64882 -0.47737 254 254 254
0.06689 -0.65118 -0.47420 254 254 254
0.07355 -0.65353 -0.47103 254 254 254
0.08022 -0.65588 -0.46785 254 254 254
0.08689 -0.65823 -0.46468 254 254 254
0.09356 -0.66058 -0.46151 254 254 254
0.10023 -0.66294 -0.45834 254 254 254
0.10690 -0.66529 -0.45517 254 254 254
0.11356 -0.66764 -0.45200 254 254 254
0.12023 -0.66999 -0.44883 254 254 254
0.12690 -0.67234 -0.44565 254 254 254
0.13356 -0.67470 -0.44248 254 254 254
0.14023 -0.67705 -0.43931 254 254 254
0.14690 -0.67940 -0.43614 254 254 254
0.15356 -0.68175 -0.43297 254 254 254
0.16023 -0.68410 -0.42980 254 254 254
0.16690 -0.68645 -0.42663 254 254 254
0.17356 -0.68880 -0.42346 254 254 254
0.18023 -0.69116 -0.42029 254 254 254
0.18689 -0.69351 -0.41712 254 254 254
0.19356 -0.69586 -0.41395 254 254 254
0.20022 -0.69821 -0.41078 254 254 254
0.20689 -0.70056 -0.40761 254 254 254
0.21355 -0.70291 -0.40444 254 254 254
0.22022 -0.70526 -0.40127 254 254 254
0.22688 -0.70761 -0.39810 254 254 254
0.23355 -0.70996 -0.39493 254 254 254
0.24021 -0.71231 -0.39176 254 254 254
0.24687 -0.71466 -0.38859 254 254 254
0.25354 -0.71701 -0.38542 254 254 254
0.26020 -0.71936 -0.38225 254 254 254
0.26686 -0.72171 -0.37908 254 254 254
0.27353 -0.72406 -0.37591 254 254 254
-0.47239 -0.47060 -0.72203 250 249 250
-0.46573 -0.47295 -0.71887 250 249 250
-0.45907 -0.47530 -0.71570 250 249 250
-0.45241 -0.47765 -0.71253 250 249 250
-0.44575 -0.47999 -0.70936 250 249 250
-0.43910 -0.48234 -0.70620 250 249 250
-0.43244 -0.48469 -0.70303 250 249 250
-0.42578 -0.48704 -0.69986 250 249 250
-0.41912 -0.48939 -0.69670 250 249 251
-0.41247 -0.49174 -0.69353 250 249 251
-0.40581 -0.49408 -0.69037 250 249 251
-0.39915 -0.49643 -0.68720 250 249 251
-0.39249 -0.49878 -0.68403 250 249 251
-0.38584 -0.50113 -0.68087 250 249 251
-0.37918 -0.50348 -0.67770 250 249 251
-0.37252 -0.50582 -0.67454 251 249 251
-0.36587 -0.50817 -0.67137 251 249 251
-0.35921 -0.51052 -0.66820 251 249 251
-0.35256 -0.51287 -0.66504 251 249 251
-0.34590 -0.51521 -0.66187 251 249 251
-0.33925 -0.51756 -0.65871 251 249 251
-0.33259 -0.51991 -0.65554 251 249 251
-0.32594 -0.52226 -0.65238 251 249 251
-0.31928 -0.52460 -0.64921 251 249 251
-0.31263 -0.52695 -0.64605 251 250 251
-0.30597 -0.52930 -0.64288 251 250 251
-0.29932 -0.53164 -0.63972 251 250 251
-0.29266 -0.53399 -0.63655 251 250 252
-0.28601 -0.53634 -0.63339 251 250 252
-0.27936 -0.53868 -0.63022 251 250 252
-0.27270 -0.54103 -0.62706 251 250 252
-0.26605 -0.54338 -0.62389 251 250 252
-0.25940 -0.54572 -0.62073 252 250 252
-0.25274 -0.54807 -0.61757 252 250 252
-0.24609 -0.55042 -0.61440 252 250 252
-0.23944 -0.55276 -0.61124 252 251 251
-0.23279 -0.55511 -0.60807 252 251 251
-0.22613 -0.55746 -0.60491 252 251 251
-0.21948 -0.55980 -0.60175 252 251 252
-0.21283 -0.56215 -0.59858 252 252 252
-0.20618 -0.56449 -0.59542 252 252 252
-0.19953 -0.56684 -0.59226 252 252 252
-0.19288 -0.56919 -0.58909 252 252 252
-0.18622 -0.57153 -0.58593 252 252 253
-0.17957 -0.57388 -0.58277 253 253 253
-0.17292 -0.57622 -0.57960 253 253 253
-0.16627 -0.57857 -0.57644 253 253 253
-0.15962 -0.58091 -0.57328 253 253 253
-0.15297 -0.58326 -0.57011 253 253 253
-0.14632 -0.58560 -0.56695 253 253 254
-0.13967 -0.58795 -0.56379 254 254 254
-0.13302 -0.59030 -0.56063 254 254 254
-0.12638 -0.59264 -0.55746 254 254 254
-0.11973 -0.59499 -0.55430 254 254 254
-0.11308 -0.59733 -0.55114 254 254 254
-0.10643 -0.59968 -0.54798 254 254 254
-0.09978 -0.60202 -0.54481 254 254 254
-0.09313 -0.60437 -0.54165 254 254 254
-0.08648 -0.60671 -0.53849 254 254 254
-0.07984 -0.60906 -0.53533 254 254 254
-0.07319 -0.61140 -0.53217 254 254 254
-0.06654 -0.61374 -0.52901 254 254 254
-0.05989 -0.61609 -0.52584 254 254 254
-0.05325 -0.61843 -0.52268 254 254 254
-0.04660 -0.62078 -0.51952 254 254 254
-0.03995 -0.62312 -0.51636 254 254 254
-0.03331 -0.62547 -0.51320 254 254 254
-0.02666 -0.62781 -0.51004 254 254 254
-0.02001 -0.63015 -0.50688 254 254 254
-0.01337 -0.63250 -0.50372 254 254 254
-0.00672 -0.63484 -0.50056 254 254 254
-0.00008 -0.63719 -0.49740 254 254 254
0.00657 -0.63953 -0.49423 254 254 254
0.01321 -0.64187 -0.49107 254 254 254
0.01986 -0.64422 -0.48791 254 254 254
0.02650 -0.64656 -0.48475 254 254 254
0.03315 -0.64890 -0.48159 254 254 254
0.03979 -0.65125 -0.47843 254 254 254
0.04644 -0.65359 -0.47527 254 254 254
0.05308 -0.65594 -0.47211 254 254 254
0.05972 -0.65828 -0.46895 254 254 254
0.06637 -0.66062 -0.46579 254 254 254
0.07301 -0.66296 -0.46263 254 254 254
0.07965 -0.66531 -0.45947 254 254 254
0.08630 -0.66765 -0.45631 254 254 254
0.09294 -0.66999 -0.45315 254 254 254
0.09958 -0.67234 -0.45000 254 254 254
0.10622 -0.67468 -0.44684 254 254 254
0.11287 -0.67702 -0.44368 254 254 254
0.11951 -0.67937 -0.44052 254 254 254
0.12615 -0.68171 -0.43736 254 254 254
0.13279 -0.68405 -0.43420 254 254 254
0.13943 -0.68639 -0.43104 254 254 254
0.14608 -0.68874 -0.42788 254 254 254
0.15272 -0.69108 -0.42472 254 254 254
0.15936 -0.69342 -0.42157 254 254 254
0.16600 -0.69576 -0.41841 254 254 254
0.17264 -0.69810 -0.41525 254 254 254
0.17928 -0.70045 -0.41209 254 254 254
0.18592 -0.70279 -0.40893 254 254 254
0.19256 -0.70513 -0.40577 254 254 254
0.19920 -0.70747 -0.40262 254 254 254
0.20584 -0.70981 -0.39946 254 254 254
0.21248 -0.71216 -0.39630 254 254 254
0.21912 -0.71450 -0.39314 254 254 254
0.22576 -0.71684 -0.38999 254 254 254
0.23239 -0.71918 -0.38683 254 254 254
0.23903 -0.72152 -0.38367 254 254 254
0.24567 -0.72386 -0.38051 254 254 254
0.25231 -0.72620 -0.37736 254 254 254
0.25895 -0.72855 -0.37420 254 254 254
0.26559 -0.73089 -0.37104 254 254 254
0.56928 -0.34668 -0.65446 254 254 254
0.57514 -0.34909 -0.65059 254 254 254
0.58100 -0.35148 -0.64672 254 254 254
0.58686 -0.35388 -0.64286 254 254 254
0.59271 -0.35628 -0.63900 254 254 254
0.59855 -0.35867 -0.63514 254 254 254
0.60439 -0.36106 -0.63129 254 254 254
0.61022 -0.36344 -0.62744 254 254 254
0.61604 -0.36583 -0.62360 254 254 254
0.62186 -0.36821 -0.61975 254 254 254
0.62768 -0.37059 -0.61592 254 254 254
0.63348 -0.37297 -0.61208 254 254 254
0.63929 -0.37535 -0.60825 254 254 254
0.64508 -0.37772 -0.60443 254 254 254
0.65087 -0.38009 -0.60060 254 254 254
0.65666 -0.38246 -0.59679 254 254 254
0.66244 -0.38482 -0.59297 254 254 254
0.66821 -0.38719 -0.58916 254 254 254
0.67398 -0.38955 -0.58535 254 254 254
0.67974 -0.39191 -0.58155 254 254 254
0.68550 -0.39427 -0.57775 254 254 254
0.69125 -0.39662 -0.57395 254 254 254
0.69700 -0.39897 -0.57016 254 254 254
0.70274 -0.40132 -0.56637 254 254 254
0.70847 -0.40367 -0.56259 254 254 254
0.71420 -0.40601 -0.55880 254 254 254
0.71992 -0.40836 -0.55503 254 254 254
0.72564 -0.41070 -0.55125 254 254 254
0.73135 -0.41304 -0.54748 254 254 254
0.73706 -0.41537 -0.54372 254 254 254
0.74276 -0.41771 -0.53995 254 254 254
0.74845 -0.42004 -0.53619 254 254 254
0.75414 -0.42237 -0.53244 254 254 254
0.75983 -0.42469 -0.52869 254 254 254
0.76551 -0.42702 -0.52494 254 254 254
0.77118 -0.42934 -0.52119 254 254 254
0.77685 -0.43166 -0.51745 254 254 254
0.78251 -0.43398 -0.51371 254 254 254
0.78817 -0.43630 -0.50998 254 254 254
0.79382 -0.43861 -0.50625 254 254 254
0.79946 -0.44092 -0.50252 254 254 254
0.80510 -0.44323 -0.49880 254 254 254
0.81074 -0.44554 -0.49508 254 254 254
0.81637 -0.44784 -0.49137 254 254 254
0.82199 -0.45014 -0.48765 254 254 254
0.82761 -0.45244 -0.48395 254 254 254
0.83322 -0.45474 -0.48024 254 254 254
0.83883 -0.45704 -0.47654 254 254 254
0.49624 -0.32687 -0.69193 254 254 254
0.50216 -0.32928 -0.68803 254 254 254
0.50806 -0.33170 -0.68414 254 254 254
0.51397 -0.33411 -0.68025 254 254 254
0.51986 -0.33652 -0.67636 254 254 254
0.52575 -0.33892 -0.67248 254 254 254
0.53164 -0.34133 -0.66860 254 254 254
0.53751 -0.34373 -0.66472 254 254 254
0.54339 -0.34613 -0.66085 254 254 254
0.54925 -0.34852 -0.65699 254 254 254
0.55512 -0.35092 -0.65312 254 254 254
0.56097 -0.35331 -0.64926 254 254 254
0.56682 -0.35570 -0.64541 254 254 254
0.57266 -0.35809 -0.64156 254 254 254
0.57850 -0.36047 -0.63771 254 254 254
0.58433 -0.36286 -0.63386 254 254 254
0.59016 -0.36524 -0.63002 254 254 254
0.59598 -0.36761 -0.62618 254 254 254
0.60180 -0.36999 -0.62235 254 254 254
0.60761 -0.37236 -0.61852 254 254 254
0.61341 -0.37473 -0.61470 254 254 254
0.61921 -0.37710 -0.61087 254 254 254
0.62500 -0.37947 -0.60706 254 254 254
0.63079 -0.38183 -0.60324 254 254 254
0.63657 -0.38420 -0.59943 254 254 254
0.64234 -0.38656 -0.59562 254 254 254
0.64811 -0.38891 -0.59182 254 254 254
0.65388 -0.39127 -0.58802 254 254 254
0.65963 -0.39362 -0.58423 254 254 254
0.66539 -0.39597 -0.58043 254 254 254
0.67113 -0.39832 -0.57665 254 254 254
0.67687 -0.40066 -0.57286 254 254 254
0.68261 -0.40301 -0.56908 254 254 254
0.68834 -0.40535 -0.56530 254 254 254
0.71691 -0.41702 -0.54647 254 254 254
0.72260 -0.41935 -0.54272 254 254 254
0.72829 -0.42167 -0.53897 254 254 254
0.73398 -0.42399 -0.53522 254 254 254
0.73966 -0.42631 -0.53148 254 254 254
0.74533 -0.42863 -0.52774 254 254 254
0.75100 -0.43095 -0.52400 254 254 254
0.75667 -0.43326 -0.52027 254 254 254
0.76233 -0.43557 -0.51654 254 254 254
0.76798 -0.43788 -0.51281 254 254 254
0.77362 -0.44019 -0.50909 254 254 254
0.77927 -0.44250 -0.50537 254 254 254
0.78490 -0.44480 -0.50165 254 254 254
0.79053 -0.44710 -0.49794 254 254 254
0.79616 -0.44940 -0.49423 254 254 254
0.80178 -0.45169 -0.49053 254 254 254
0.80739 -0.45399 -0.48683 254 254 254
0.81300 -0.45628 -0.48313 254 254 254
0.81860 -0.45857 -0.47944 254 254 254
0.82420 -0.46085 -0.47575 254 254 254
0.82979 -0.46314 -0.47206 254 254 254
0.48817 -0.33357 -0.68659 254 254 254
0.49407 -0.33598 -0.68271 254 254 254
0.49996 -0.33838 -0.67883 254 254 254
0.50585 -0.34078 -0.67496 254 254 254
0.51173 -0.34318 -0.67109 254 254 254
0.51760 -0.34557 -0.66722 254 254 254
0.52347 -0.34796 -0.66336 254 254 254
0.52933 -0.35035 -0.65950 254 254 254
0.53519 -0.35274 -0.65564 254 254 254
0.54104 -0.35513 -0.65179 254 254 254
0.54688 -0.35751 -0.64794 254 254 254
0.55272 -0.35989 -0.64410 254 254 254
0.55855 -0.36227 -0.64026 254 254 254
0.56438 -0.36465 -0.63642 254 254 254
0.57020 -0.36702 -0.63259 254 254 254
0.57602 -0.36939 -0.62876 254 254 254
0.58183 -0.37176 -0.62494 254 254 254
0.58764 -0.37413 -0.62112 254 254 254
0.59343 -0.37649 -0.61730 254 254 254
0.59923 -0.37885 -0.61348 254 254 254
0.60502 -0.38121 -0.60967 254 254 254
0.61080 -0.38357 -0.60587 254 254 254
0.61657 -0.38593 -0.60207 254 254 254
0.62234 -0.38828 -0.59827 254 254 254
0.62811 -0.39063 -0.59447 254 254 254
0.63387 -0.39298 -0.59068 254 254 254
0.63962 -0.39532 -0.58689 254 254 254
0.64537 -0.39767 -0.58311 254 254 254
0.65111 -0.40001 -0.57933 254 254 254
0.65685 -0.40235 -0.57555 254 254 254
0.66258 -0.40468 -0.57178 254 254 254
0.73659 -0.43486 -0.52306 254 254 254
0.74224 -0.43716 -0.51934 254 254 254
0.74789 -0.43946 -0.51562 254 254 254
0.75353 -0.44176 -0.51191 254 254 254
0.75917 -0.44406 -0.50820 254 254 254
0.76480 -0.44636 -0.50449 254 254 254
0.77043 -0.44865 -0.50079 254 254 254
0.77605 -0.45094 -0.49709 254 254 254
0.78166 -0.45323 -0.49339 254 254 254
0.78727 -0.45552 -0.48970 254 254 254
0.79288 -0.45781 -0.48601 254 254 254
0.79848 -0.46009 -0.48232 254 254 254
0.80407 -0.46237 -0.47864 254 254 254
0.80966 -0.46465 -0.47496 254 254 254
0.81524 -0.46693 -0.47128 254 254 254
0.82082 -0.46920 -0.46761 254 254 254
0.48016 -0.34024 -0.68129 254 254 254
0.48604 -0.34263 -0.67742 254 254 254
0.49191 -0.34502 -0.67356 254 254 254
0.49778 -0.34741 -0.66970 254 254 254
0.50364 -0.34979 -0.66585 254 254 254
0.50950 -0.35218 -0.66200 254 254 254
0.51535 -0.35456 -0.65815 254 254 254
0.52120 -0.35694 -0.65431 254 254 254
0.52704 -0.35931 -0.65047 254 254 254
0.53288 -0.36169 -0.64663 254 254 254
0.53870 -0.36406 -0.64280 254 254 254
0.54453 -0.36643 -0.63897 254 254 254
0.55034 -0.36879 -0.63515 254 254 254
0.55616 -0.37116 -0.63133 254 254 254
0.56196 -0.37352 -0.62751 254 254 254
0.56776 -0.37588 -0.62370 254 254 254
0.57356 -0.37824 -0.61989 254 254 254
0.57935 -0.38059 -0.61608 254 254 254
0.58513 -0.38295 -0.61228 254 254 254
0.59091 -0.38530 -0.60848 254 254 254
0.59668 -0.38765 -0.60469 254 254 254
0.60245 -0.38999 -0.60090 254 254 254
0.60821 -0.39234 -0.59711 254 254 254
0.61396 -0.39468 -0.59333 254 254 254
0.61971 -0.39702 -0.58955 254 254 254
0.62545 -0.39935 -0.58577 254 254 254
0.63119 -0.40169 -0.58200 254 254 254
0.63693 -0.40402 -0.57823 254 254 254
0.64265 -0.40635 -0.57446 254 254 254
0.64837 -0.40868 -0.57070 254 254 254
0.75042 -0.45020 -0.50362 254 254 254
0.75604 -0.45249 -0.49993 254 254 254
0.76165 -0.45477 -0.49624 254 254 254
0.76725 -0.45705 -0.49255 254 254 254
0.77285 -0.45933 -0.48887 254 254 254
0.77845 -0.46161 -0.48519 254 254 254
0.78404 -0.46388 -0.48152 254 254 254
0.78963 -0.46615 -0.47784 254 254 254
0.79520 -0.46842 -0.47418 254 254 254
0.80078 -0.47069 -0.47051 254 254 254
0.80635 -0.47296 -0.46685 254 254 254
0.81191 -0.47522 -0.46319 254 254 254
0.46633 -0.34447 -0.67987 254 254 254
0.47220 -0.34685 -0.67602 254 254 254
0.47806 -0.34923 -0.67217 254 254 254
0.48392 -0.35161 -0.66832 254 254 254
0.48977 -0.35399 -0.66448 254 254 254
0.49562 -0.35636 -0.66064 254 254 254
0.50146 -0.35873 -0.65681 254 254 254
0.50730 -0.36110 -0.65298 254 254 254
0.51313 -0.36347 -0.64915 254 254 254
0.51895 -0.36584 -0.64533 254 254 254
0.52477 -0.36820 -0.64151 254 254 254
0.53058 -0.37056 -0.63769 254 254 254
0.53639 -0.37292 -0.63388 254 254 254
0.54219 -0.37527 -0.63007 254 254 254
0.54799 -0.37763 -0.62626 254 254 254
0.55378 -0.37998 -0.62246 254 254 254
0.55956 -0.38233 -0.61866 254 254 254
0.56534 -0.38467 -0.61487 254 254 254
0.57111 -0.38702 -0.61108 254 254 254
0.57688 -0.38936 -0.60729 254 254 254
0.58264 -0.39170 -0.60351 254 254 254
0.58840 -0.39404 -0.59973 254 254 254
0.59415 -0.39637 -0.59596 254 254 254
0.59989 -0.39870 -0.59219 254 254 254
0.60563 -0.40103 -0.58842 254 254 254
0.61137 -0.40336 -0.58465 254 254 254
0.61710 -0.40569 -0.58089 254 254 254
0.62282 -0.40801 -0.57714 254 254 254
0.62854 -0.41033 -0.57338 254 254 254
0.63425 -0.41265 -0.56963 254 254 254
0.63995 -0.41497 -0.56589 254 254 254
0.76411 -0.46538 -0.48438 254 254 254
0.76969 -0.46765 -0.48072 254 254 254
0.77526 -0.46991 -0.47705 254 254 254
0.78083 -0.47217 -0.47340 254 254 254
0.78640 -0.47443 -0.46974 254 254 254
0.79196 -0.47669 -0.46609 254 254 254
0.79751 -0.47895 -0.46245 254 254 254
0.80306 -0.48120 -0.45880 254 254 254
0.45844 -0.35105 -0.67463 254 254 254
0.46429 -0.35342 -0.67079 254 254 254
0.47014 -0.35579 -0.66696 254 254 254
0.47598 -0.35816 -0.66312 254 254 254
0.48182 -0.36053 -0.65930 254 254 254
0.48765 -0.36289 -0.65548 254 254 254
0.49348 -0.36525 -0.65166 254 254 254
0.49930 -0.36761 -0.64784 254 254 254
0.50511 -0.36996 -0.64403 254 254 254
0.51092 -0.37232 -0.64022 254 254 254
0.51672 -0.37467 -0.63642 254 254 254
0.52252 -0.37702 -0.63262 254 254 254
0.52831 -0.37936 -0.62882 254 254 254
0.53409 -0.38171 -0.62503 254 254 254
0.53987 -0.38405 -0.62124 254 254 254
0.54565 -0.38639 -0.61745 254 254 254
0.55142 -0.38873 -0.61367 254 254 254
0.55718 -0.39106 -0.60989 254 254 254
0.56294 -0.39340 -0.60611 254 254 254
0.56869 -0.39573 -0.60234 254 254 254
0.57443 -0.39806 -0.59858 254 254 254
0.58018 -0.40038 -0.59481 254 254 254
0.58591 -0.40271 -0.59105 254 254 254
0.59164 -0.40503 -0.58730 254 254 254
0.59736 -0.40735 -0.58354 254 254 254
0.60308 -0.40966 -0.57979 254 254 254
0.60880 -0.41198 -0.57605 254 254 254
0.61450 -0.41429 -0.57231 254 254 254
0.62020 -0.41660 -0.56857 254 254 254
0.62590 -0.41891 -0.56483 254 254 254
0.63159 -0.42122 -0.56110 254 254 254
0.76098 -0.47365 -0.47627 254 254 254
0.76654 -0.47590 -0.47262 254 254 254
0.77210 -0.47816 -0.46898 254 254 254
0.77765 -0.48040 -0.46534 254 254 254
0.78319 -0.48265 -0.46171 254 254 254
0.78873 -0.48490 -0.45807 254 254 254
0.79427 -0.48714 -0.45444 254 254 254
0.45061 -0.35759 -0.66942 254 254 254
0.45644 -0.35995 -0.66559 254 254 254
0.46227 -0.36231 -0.66178 254 254 254
0.46810 -0.36466 -0.65796 254 254 254
0.47392 -0.36702 -0.65415 254 254 254
0.47974 -0.36937 -0.65034 254 254 254
0.48555 -0.37172 -0.64654 254 254 254
0.49135 -0.37406 -0.64274 254 254 254
0.49715 -0.37641 -0.63894 254 254 254
0.50294 -0.37875 -0.63515 254 254 254
0.50873 -0.38109 -0.63136 254 254 254
0.51451 -0.38343 -0.62758 254 254 254
0.52028 -0.38577 -0.62379 254 254 254
0.52605 -0.38810 -0.62002 254 254 254
0.53182 -0.39043 -0.61624 254 254 254
0.53757 -0.39276 -0.61247 254 254 254
0.54333 -0.39509 -0.60871 254 254 254
0.54907 -0.39741 -0.60494 254 254 254
0.55482 -0.39973 -0.60118 254 254 254
0.56055 -0.40205 -0.59743 254 254 254
0.56628 -0.40437 -0.59367 254 254 254
0.57201 -0.40668 -0.58993 254 254 254
0.57773 -0.40900 -0.58618 254 254 254
0.58344 -0.41131 -0.58244 254 254 254
0.58915 -0.41362 -0.57870 254 254 254
0.59485 -0.41592 -0.57497 254 254 254
0.60055 -0.41823 -0.57124 254 254 254
0.60624 -0.42053 -0.56751 254 254 254
0.61193 -0.42283 -0.56379 254 254 254
0.61761 -0.42513 -0.56007 254 254 254
0.62329 -0.42742 -0.55635 254 254 254
0.75788 -0.48186 -0.46822 254 254 254
0.76342 -0.48410 -0.46459 254 254 254
0.76896 -0.48634 -0.46097 254 254 254
0.77449 -0.48857 -0.45735 254 254 254
0.78001 -0.49081 -0.45373 254 254 254
0.78553 -0.49304 -0.45011 254 254 254
0.43700 -0.36173 -0.66805 254 254 254
0.44282 -0.36408 -0.66424 254 254 254
0.44865 -0.36643 -0.66044 254 254 254
0.45446 -0.36878 -0.65663 254 254 254
0.46027 -0.37112 -0.65283 254 254 254
0.46608 -0.37346 -0.64904 254 254 254
0.47188 -0.37580 -0.64525 254 254 254
0.47767 -0.37814 -0.64146 254 254 254
0.48346 -0.38048 -0.63767 254 254 254
0.48924 -0.38281 -0.63389 254 254 254
0.49501 -0.38514 -0.63011 254 254 254
0.50078 -0.38747 -0.62634 254 254 254
