ply
format ascii 1.0
element face 0
property list uchar int vertex_indices
element vertex 1263
property float x
property float y
property float z
property uchar diffuse_red
property uchar diffuse_green
property uchar diffuse_blue
end_header
1.63678 -3.47712 0.19384 162 175 180
1.63600 -3.48890 0.20461 179 191 172
1.63521 -3.50067 0.21538 171 175 169
1.63443 -3.51244 0.22614 183 195 184
1.63364 -3.52421 0.23691 180 188 171
1.63286 -3.53597 0.24767 173 178 176
1.63208 -3.54773 0.25842 168 176 167
1.63129 -3.55949 0.26918 160 163 155
1.63051 -3.57124 0.27993 168 175 169
1.62973 -3.58299 0.29067 163 168 170
1.62894 -3.59474 0.30142 172 180 175
1.62816 -3.60648 0.31216 174 180 171
1.62738 -3.61822 0.32289 156 157 154
1.62660 -3.62996 0.33363 153 160 156
1.62582 -3.64169 0.34436 159 171 174
1.62503 -3.65342 0.35509 161 175 180
1.62425 -3.66515 0.36581 162 176 180
1.62347 -3.67687 0.37654 163 176 180
1.62269 -3.68859 0.38726 168 177 176
1.66566 -2.70729 -0.51236 127 135 124
1.66487 -2.71925 -0.50142 132 140 133
1.66407 -2.73119 -0.49050 135 135 131
1.66328 -2.74314 -0.47957 137 137 126
1.66249 -2.75508 -0.46865 136 142 129
1.66170 -2.76702 -0.45773 135 141 131
1.66091 -2.77895 -0.44682 146 149 144
1.66011 -2.79088 -0.43590 153 160 157
1.65932 -2.80281 -0.42500 134 142 147
1.65853 -2.81473 -0.41409 139 146 144
1.65774 -2.82665 -0.40319 137 132 138
1.65695 -2.83857 -0.39229 141 145 136
1.65616 -2.85048 -0.38139 146 155 141
1.65537 -2.86239 -0.37050 143 137 137
1.65458 -2.87430 -0.35961 150 157 159
1.65379 -2.88620 -0.34872 161 168 170
1.65300 -2.89810 -0.33784 153 167 167
1.65221 -2.91000 -0.32695 155 160 157
1.65142 -2.92189 -0.31608 163 174 176
1.65063 -2.93378 -0.30520 170 178 167
1.64984 -2.94567 -0.29433 164 181 171
1.64905 -2.95755 -0.28346 157 166 165
1.64827 -2.96943 -0.27260 157 165 167
1.64748 -2.98131 -0.26173 164 175 170
1.64669 -2.99318 -0.25087 173 184 177
1.64590 -3.00505 -0.24002 167 172 174
1.64512 -3.01692 -0.22917 170 182 176
1.64433 -3.02878 -0.21832 172 185 175
1.64354 -3.04064 -0.20747 170 176 175
1.64276 -3.05249 -0.19663 169 169 171
1.64197 -3.06435 -0.18578 174 177 175
1.64118 -3.07619 -0.17495 180 188 182
1.64040 -3.08804 -0.16411 174 183 177
1.63961 -3.09988 -0.15328 169 182 173
1.63883 -3.11172 -0.14245 171 183 178
1.63804 -3.12356 -0.13163 167 177 180
1.63726 -3.13539 -0.12081 169 183 182
1.63647 -3.14722 -0.10999 172 183 190
1.63569 -3.15904 -0.09917 176 188 191
1.63490 -3.17086 -0.08836 177 187 178
1.63412 -3.18268 -0.07755 167 174 166
1.63333 -3.19450 -0.06674 158 169 170
1.63255 -3.20631 -0.05594 170 182 180
1.63177 -3.21812 -0.04514 175 186 174
1.63098 -3.22992 -0.03434 172 187 177
1.63020 -3.24173 -0.02355 168 185 174
1.62942 -3.25352 -0.01276 167 181 182
1.62863 -3.26532 -0.00197 174 183 178
1.62785 -3.27711 0.00882 173 187 167
1.62707 -3.28890 0.01960 176 188 176
1.62629 -3.30068 0.03038 167 175 178
1.62551 -3.31247 0.04115 169 181 181
1.62472 -3.32424 0.05193 177 185 181
1.62394 -3.33602 0.06270 179 188 181
1.62316 -3.34779 0.07346 178 188 185
1.62238 -3.35956 0.08423 186 194 185
1.62160 -3.37132 0.09499 191 197 184
1.62082 -3.38308 0.10574 186 190 180
1.62004 -3.39484 0.11650 173 174 165
1.61926 -3.40660 0.12725 162 165 152
1.61848 -3.41835 0.13800 165 172 152
1.61770 -3.43010 0.14874 170 176 156
1.61692 -3.44184 0.15949 155 162 151
1.61614 -3.45358 0.17022 151 160 156
1.61536 -3.46532 0.18096 161 170 163
1.61459 -3.47706 0.19169 173 188 183
1.61381 -3.48879 0.20242 178 182 170
1.61303 -3.50051 0.21315 173 176 170
1.61225 -3.51224 0.22387 173 183 173
1.61147 -3.52396 0.23459 172 176 168
1.61070 -3.53568 0.24531 166 174 178
1.60992 -3.54739 0.25603 167 175 173
1.60914 -3.55910 0.26674 166 174 164
1.60836 -3.57081 0.27745 168 175 170
1.60759 -3.58252 0.28815 164 170 177
1.60681 -3.59422 0.29886 174 184 182
1.60603 -3.60592 0.30955 174 182 174
1.60526 -3.61761 0.32025 160 170 162
1.60448 -3.62930 0.33094 157 168 165
1.60371 -3.64099 0.34163 161 172 176
1.60293 -3.65268 0.35232 161 176 180
1.64481 -2.68642 -0.53354 140 141 128
1.64402 -2.69833 -0.52265 140 136 122
1.64323 -2.71024 -0.51175 134 133 127
1.64245 -2.72214 -0.50087 133 141 130
1.64166 -2.73404 -0.48998 138 143 122
1.64087 -2.74594 -0.47910 140 138 123
1.64009 -2.75783 -0.46822 139 144 136
1.63930 -2.76973 -0.45734 139 145 140
1.63852 -2.78161 -0.44647 146 146 145
1.63773 -2.79350 -0.43560 156 152 156
1.63695 -2.80538 -0.42474 153 150 161
1.63616 -2.81725 -0.41387 156 161 156
1.63538 -2.82913 -0.40301 152 148 136
1.63459 -2.84100 -0.39216 147 152 143
1.63381 -2.85286 -0.38130 150 162 152
1.63302 -2.86473 -0.37045 152 157 152
1.63224 -2.87659 -0.35960 157 165 161
1.63146 -2.88844 -0.34876 164 172 167
1.63067 -2.90030 -0.33792 157 170 166
1.62989 -2.91215 -0.32708 147 156 153
1.62911 -2.92399 -0.31624 155 165 168
1.62832 -2.93584 -0.30541 175 179 159
1.62754 -2.94768 -0.29458 163 169 163
1.62676 -2.95951 -0.28375 149 163 165
1.62598 -2.97135 -0.27293 150 165 164
1.62520 -2.98318 -0.26211 160 169 168
1.62441 -2.99500 -0.25129 169 177 173
1.62363 -3.00682 -0.24048 168 173 170
1.62285 -3.01864 -0.22967 173 183 180
1.62207 -3.03046 -0.21886 168 176 174
1.62129 -3.04227 -0.20806 170 177 172
1.62051 -3.05408 -0.19725 177 184 168
1.61973 -3.06589 -0.18646 181 187 172
1.61895 -3.07769 -0.17566 181 188 181
1.61817 -3.08949 -0.16487 175 182 183
1.61739 -3.10129 -0.15408 173 185 185
1.61661 -3.11308 -0.14329 173 186 183
1.61583 -3.12487 -0.13251 167 174 173
1.61505 -3.13665 -0.12173 171 178 172
1.61427 -3.14844 -0.11095 173 180 178
1.61350 -3.16022 -0.10018 176 184 180
1.61272 -3.17199 -0.08941 175 182 182
1.61194 -3.18376 -0.07864 167 175 170
1.61116 -3.19553 -0.06788 167 178 172
1.61038 -3.20730 -0.05711 178 191 194
1.60961 -3.21906 -0.04636 180 191 190
1.60883 -3.23082 -0.03560 167 173 174
1.60805 -3.24258 -0.02485 166 175 168
1.60728 -3.25433 -0.01410 168 180 184
1.60650 -3.26608 -0.00335 175 185 176
1.60572 -3.27782 0.00739 175 188 166
1.60495 -3.28957 0.01813 181 191 184
1.60417 -3.30131 0.02887 180 187 186
1.60340 -3.31304 0.03960 175 184 188
1.60262 -3.32477 0.05034 181 192 191
1.60185 -3.33650 0.06106 184 196 189
1.60107 -3.34823 0.07179 181 190 187
1.60030 -3.35995 0.08251 184 193 187
1.59952 -3.37167 0.09323 184 195 190
1.59875 -3.38339 0.10395 178 185 186
1.59797 -3.39510 0.11466 171 175 172
1.59720 -3.40681 0.12537 168 173 159
1.59643 -3.41851 0.13608 176 183 162
1.59565 -3.43022 0.14678 181 188 168
1.59488 -3.44192 0.15748 167 173 159
1.59411 -3.45361 0.16818 163 171 168
1.59334 -3.46530 0.17887 171 175 167
1.59256 -3.47699 0.18956 178 188 176
1.59179 -3.48868 0.20025 175 183 174
1.59102 -3.50036 0.21094 172 179 162
1.59025 -3.51204 0.22162 170 178 164
1.58947 -3.52372 0.23230 171 182 169
1.58870 -3.53539 0.24298 162 174 175
1.58793 -3.54706 0.25365 171 177 170
1.58716 -3.55872 0.26432 179 185 175
1.58639 -3.57039 0.27499 173 175 168
1.58562 -3.58205 0.28565 168 177 170
1.58485 -3.59370 0.29631 166 175 170
1.58023 -3.66357 0.36022 162 177 180
1.62332 -2.67757 -0.54371 130 137 141
1.62254 -2.68943 -0.53286 141 146 138
1.62176 -2.70130 -0.52201 144 149 130
1.62098 -2.71316 -0.51116 141 142 133
1.62020 -2.72502 -0.50031 142 147 138
1.61942 -2.73687 -0.48947 142 153 137
1.61864 -2.74872 -0.47863 142 146 136
1.61786 -2.76057 -0.46779 143 146 140
1.61708 -2.77241 -0.45696 142 149 143
1.61630 -2.78425 -0.44613 149 153 146
1.61552 -2.79609 -0.43530 160 159 152
1.61474 -2.80792 -0.42448 156 157 153
1.61396 -2.81975 -0.41366 157 157 146
1.61319 -2.83158 -0.40284 155 156 143
1.61241 -2.84341 -0.39202 147 157 153
1.61163 -2.85523 -0.38121 144 159 159
1.61085 -2.86704 -0.37040 157 177 160
1.61007 -2.87886 -0.35960 157 166 167
1.60930 -2.89067 -0.34880 161 168 170
1.60852 -2.90247 -0.33800 169 171 179
1.60774 -2.91428 -0.32720 161 167 167
1.60697 -2.92608 -0.31641 160 172 172
1.60619 -2.93787 -0.30562 171 176 160
1.60541 -2.94967 -0.29483 160 164 150
1.60464 -2.96146 -0.28404 152 162 161
1.60386 -2.97324 -0.27326 152 160 161
1.60309 -2.98503 -0.26248 160 169 171
1.60231 -2.99681 -0.25171 164 175 173
1.60154 -3.00859 -0.24094 167 177 173
1.60076 -3.02036 -0.23017 173 183 184
1.59999 -3.03213 -0.21940 167 177 176
1.59921 -3.04390 -0.20864 170 180 175
1.59844 -3.05566 -0.19788 179 190 172
1.59766 -3.06742 -0.18712 182 191 169
1.59689 -3.07918 -0.17637 175 185 177
1.59612 -3.09093 -0.16562 170 181 184
1.59534 -3.10268 -0.15487 172 179 181
1.59457 -3.11443 -0.14413 176 177 175
1.59380 -3.12617 -0.13339 175 178 171
1.59302 -3.13791 -0.12265 173 180 171
1.59225 -3.14965 -0.11191 167 179 172
1.59148 -3.16138 -0.10118 167 178 172
1.59071 -3.17311 -0.09045 175 185 189
1.58994 -3.18484 -0.07972 170 178 181
1.58916 -3.19656 -0.06900 174 186 175
1.58839 -3.20828 -0.05828 177 186 185
1.58762 -3.22000 -0.04756 174 180 181
1.58685 -3.23171 -0.03685 161 157 172
1.58608 -3.24342 -0.02614 164 169 169
1.58531 -3.25513 -0.01543 172 182 182
1.58454 -3.26683 -0.00472 180 192 177
1.58377 -3.27853 0.00598 181 189 184
1.58300 -3.29023 0.01668 185 194 199
1.58223 -3.30192 0.02737 188 193 192
1.58146 -3.31361 0.03807 185 192 193
1.58069 -3.32530 0.04876 191 205 204
1.57992 -3.33698 0.05944 186 198 198
1.57915 -3.34866 0.07013 176 184 189
1.57838 -3.36034 0.08081 172 180 183
1.57762 -3.37201 0.09149 171 181 184
1.57685 -3.38369 0.10216 172 181 185
1.57608 -3.39535 0.11283 173 180 177
1.57531 -3.40702 0.12350 173 179 162
1.57454 -3.41868 0.13417 179 187 163
1.57378 -3.43033 0.14483 182 190 178
1.57301 -3.44199 0.15549 172 176 171
1.57224 -3.45364 0.16615 171 180 178
1.57148 -3.46529 0.17680 174 178 170
1.57071 -3.47693 0.18745 175 180 171
1.56994 -3.48857 0.19810 167 181 180
1.56918 -3.50021 0.20874 178 193 177
1.56841 -3.51184 0.21939 179 193 177
1.56765 -3.52347 0.23002 174 187 172
1.56688 -3.53510 0.24066 164 171 164
1.56612 -3.54673 0.25129 168 172 165
1.56535 -3.55835 0.26192 179 188 181
1.56459 -3.56997 0.27255 177 186 175
1.56382 -3.58158 0.28317 173 183 169
1.55848 -3.66279 0.35746 163 177 181
1.60278 -2.65695 -0.56463 130 136 128
1.60200 -2.66878 -0.55381 132 136 129
1.60123 -2.68060 -0.54300 138 140 125
1.60045 -2.69243 -0.53218 138 145 136
1.59968 -2.70424 -0.52137 135 145 141
1.59890 -2.71606 -0.51057 139 144 137
1.59813 -2.72787 -0.49976 146 153 144
1.59735 -2.73968 -0.48896 136 150 151
1.59658 -2.75148 -0.47817 134 144 146
1.59581 -2.76328 -0.46737 147 151 141
1.59503 -2.77508 -0.45658 147 157 149
1.59426 -2.78687 -0.44579 150 160 148
1.59349 -2.79866 -0.43501 156 162 149
1.59271 -2.81045 -0.42422 149 155 146
1.59194 -2.82224 -0.41344 155 157 148
1.59117 -2.83402 -0.40267 154 158 150
1.59040 -2.84580 -0.39189 159 159 153
1.58962 -2.85757 -0.38112 141 153 157
1.58885 -2.86934 -0.37036 153 169 161
1.58808 -2.88111 -0.35959 151 159 168
1.58731 -2.89287 -0.34883 157 164 170
1.58654 -2.90463 -0.33808 167 169 181
1.58577 -2.91639 -0.32732 164 166 177
1.58500 -2.92815 -0.31657 162 180 180
1.58423 -2.93990 -0.30582 167 175 162
1.58346 -2.95164 -0.29507 156 167 153
1.58269 -2.96339 -0.28433 159 167 161
1.58192 -2.97513 -0.27359 160 167 163
1.58115 -2.98687 -0.26286 170 179 178
1.58038 -2.99860 -0.25212 166 173 174
1.57961 -3.01033 -0.24139 164 175 176
1.57884 -3.02206 -0.23066 169 185 181
1.57807 -3.03378 -0.21994 165 180 175
1.57730 -3.04551 -0.20922 166 179 177
1.57654 -3.05722 -0.19850 176 185 180
1.57577 -3.06894 -0.18778 180 190 178
1.57500 -3.08065 -0.17707 177 187 176
1.57423 -3.09236 -0.16636 174 184 177
1.57346 -3.10406 -0.15566 175 181 175
1.57270 -3.11576 -0.14495 177 172 169
1.57193 -3.12746 -0.13425 177 171 171
1.57116 -3.13915 -0.12356 174 182 176
1.57040 -3.15085 -0.11286 165 176 169
1.56963 -3.16253 -0.10217 162 171 167
1.56887 -3.17422 -0.09148 173 186 190
1.56810 -3.18590 -0.08080 166 172 185
1.56733 -3.19758 -0.07012 167 181 173
1.56657 -3.20925 -0.05944 164 165 156
1.56580 -3.22093 -0.04876 168 174 169
1.56504 -3.23259 -0.03809 162 161 167
1.56427 -3.24426 -0.02742 165 174 171
1.56351 -3.25592 -0.01675 179 187 173
1.56275 -3.26758 -0.00609 184 191 180
1.56198 -3.27923 0.00457 181 189 193
1.56122 -3.29089 0.01523 182 192 197
1.56045 -3.30253 0.02589 186 192 184
1.55969 -3.31418 0.03654 189 197 190
1.55893 -3.32582 0.04719 190 202 200
1.55816 -3.33746 0.05784 184 194 197
1.55740 -3.34910 0.06848 177 186 194
1.55664 -3.36073 0.07912 176 186 186
1.55588 -3.37236 0.08976 176 186 180
1.55511 -3.38398 0.10039 176 185 179
1.55435 -3.39560 0.11102 180 189 178
1.55359 -3.40722 0.12165 182 189 171
1.55283 -3.41884 0.13227 183 189 168
1.55207 -3.43045 0.14290 180 185 178
1.55131 -3.44206 0.15351 170 174 178
1.55055 -3.45367 0.16413 170 185 182
1.54979 -3.46527 0.17474 173 184 171
1.54903 -3.47687 0.18535 177 185 167
1.54826 -3.48847 0.19596 165 173 169
1.54750 -3.50006 0.20657 175 184 179
1.54674 -3.51165 0.21717 179 193 187
1.54599 -3.52323 0.22776 170 179 172
1.54523 -3.53482 0.23836 161 162 153
1.54447 -3.54640 0.24895 163 168 164
1.53764 -3.65047 0.34415 164 173 179
1.53613 -3.67356 0.36527 164 176 181
1.58084 -2.66006 -0.56383 134 136 134
1.58007 -2.67184 -0.55306 139 143 138
1.57930 -2.68362 -0.54228 145 148 129
1.57853 -2.69539 -0.53151 141 144 132
1.57776 -2.70717 -0.52074 129 134 137
1.57699 -2.71893 -0.50998 132 134 135
1.57622 -2.73070 -0.49922 143 153 148
1.57546 -2.74246 -0.48846 138 155 151
1.57469 -2.75422 -0.47770 137 148 144
1.57392 -2.76597 -0.46695 149 154 146
1.57315 -2.77773 -0.45620 145 150 146
1.57239 -2.78947 -0.44545 146 160 148
1.57162 -2.80122 -0.43471 156 164 145
1.57085 -2.81296 -0.42397 150 154 144
1.57009 -2.82470 -0.41323 156 159 158
1.56932 -2.83643 -0.40250 151 153 158
1.56855 -2.84817 -0.39177 168 164 162
1.56779 -2.85990 -0.38104 160 167 165
1.56702 -2.87162 -0.37031 157 163 163
1.56626 -2.88334 -0.35959 147 155 167
1.56549 -2.89506 -0.34887 155 165 165
1.56473 -2.90678 -0.33815 163 167 168
1.56396 -2.91849 -0.32744 159 161 170
1.56320 -2.93020 -0.31673 153 164 168
1.56243 -2.94190 -0.30602 166 177 157
1.56167 -2.95360 -0.29532 157 169 162
1.56091 -2.96530 -0.28462 167 179 167
1.56014 -2.97700 -0.27392 174 182 171
1.55938 -2.98869 -0.26322 171 178 173
1.55861 -3.00038 -0.25253 162 167 166
1.55785 -3.01207 -0.24184 159 168 168
1.55709 -3.02375 -0.23116 171 185 179
1.55633 -3.03543 -0.22047 172 182 178
1.55556 -3.04710 -0.20979 168 177 179
1.55480 -3.05878 -0.19912 166 176 183
1.55404 -3.07044 -0.18844 172 180 187
1.55328 -3.08211 -0.17777 182 188 182
1.55252 -3.09377 -0.16710 182 188 175
1.55176 -3.10543 -0.15644 181 188 175
1.55099 -3.11709 -0.14577 183 184 175
1.55023 -3.12874 -0.13512 178 176 177
1.54947 -3.14039 -0.12446 180 188 180
1.54871 -3.15204 -0.11381 176 181 169
1.54795 -3.16368 -0.10316 165 170 161
1.54719 -3.17532 -0.09251 167 177 179
1.54643 -3.18696 -0.08186 160 166 172
1.54567 -3.19859 -0.07122 162 171 162
1.54491 -3.21022 -0.06058 169 172 146
1.54415 -3.22185 -0.04995 175 181 162
1.54339 -3.23347 -0.03932 172 177 167
1.54264 -3.24509 -0.02869 170 181 175
1.54188 -3.25671 -0.01806 180 188 173
1.54112 -3.26832 -0.00744 187 193 184
1.53506 -3.36111 0.07744 181 190 186
1.53430 -3.37270 0.08804 188 198 185
1.53355 -3.38428 0.09863 188 198 185
1.53279 -3.39585 0.10922 184 194 185
1.53204 -3.40743 0.11981 181 193 186
1.53128 -3.41900 0.13039 178 186 177
1.53053 -3.43057 0.14098 180 183 175
1.52977 -3.44213 0.15155 178 182 180
1.52902 -3.45369 0.16213 172 184 181
1.52826 -3.46525 0.17270 171 182 173
1.52751 -3.47681 0.18327 178 190 174
1.52675 -3.48836 0.19384 173 178 168
1.52600 -3.49991 0.20440 171 171 171
1.52524 -3.51145 0.21496 173 178 181
1.52449 -3.52300 0.22552 158 166 167
1.52374 -3.53454 0.23608 147 152 146
1.52298 -3.54607 0.24663 160 168 172
1.55907 -2.66314 -0.56304 134 141 133
1.55830 -2.67488 -0.55231 130 142 143
1.55754 -2.68661 -0.54158 137 145 138
1.55678 -2.69834 -0.53085 144 146 128
1.55601 -2.71006 -0.52012 138 139 124
1.55525 -2.72179 -0.50940 132 132 129
1.55449 -2.73351 -0.49868 135 139 146
1.55373 -2.74522 -0.48796 139 148 143
1.55297 -2.75694 -0.47725 139 144 131
1.55220 -2.76865 -0.46653 142 144 135
1.55144 -2.78035 -0.45583 143 142 136
1.55068 -2.79205 -0.44512 138 143 135
1.54992 -2.80375 -0.43442 149 156 136
1.54916 -2.81545 -0.42372 148 153 145
1.54840 -2.82714 -0.41302 148 153 157
1.54764 -2.83883 -0.40233 149 155 156
1.54688 -2.85052 -0.39164 170 171 170
1.54612 -2.86220 -0.38095 171 178 167
1.54536 -2.87388 -0.37027 165 169 165
1.54460 -2.88556 -0.35959 153 165 169
1.54384 -2.89723 -0.34891 156 167 160
1.54308 -2.90890 -0.33823 163 166 160
1.54232 -2.92057 -0.32756 160 165 163
1.54156 -2.93223 -0.31689 152 158 156
1.54081 -2.94389 -0.30622 160 171 153
1.54005 -2.95555 -0.29556 155 168 163
1.53929 -2.96720 -0.28490 172 184 177
1.53853 -2.97885 -0.27424 180 187 179
1.53777 -2.99050 -0.26359 166 171 164
1.53702 -3.00215 -0.25294 155 164 154
1.53626 -3.01379 -0.24229 155 167 161
1.53550 -3.02542 -0.23164 174 186 180
1.53475 -3.03706 -0.22100 182 188 186
1.53399 -3.04869 -0.21036 172 179 182
1.53323 -3.06032 -0.19973 159 171 181
1.53248 -3.07194 -0.18909 163 175 184
1.53172 -3.08356 -0.17846 178 186 180
1.53097 -3.09518 -0.16783 180 186 174
1.53021 -3.10679 -0.15721 180 187 176
1.52946 -3.11840 -0.14659 184 190 181
1.52870 -3.13001 -0.13597 180 184 186
1.52795 -3.14162 -0.12535 184 194 188
1.52719 -3.15322 -0.11474 184 192 184
1.52644 -3.16482 -0.10413 170 175 169
1.52568 -3.17641 -0.09353 168 176 176
1.52493 -3.18800 -0.08292 164 173 170
1.52418 -3.19959 -0.07232 168 175 163
1.52342 -3.21118 -0.06172 188 200 174
1.52267 -3.22276 -0.05113 191 196 174
1.52192 -3.23434 -0.04054 175 180 173
1.52116 -3.24591 -0.02995 172 185 184
1.52041 -3.25749 -0.01936 173 182 181
1.51365 -3.36149 0.07578 179 187 181
1.51290 -3.37303 0.08633 185 196 188
1.51215 -3.38457 0.09689 193 205 198
1.51140 -3.39610 0.10744 190 200 196
1.51065 -3.40763 0.11798 177 188 190
1.50990 -3.41916 0.12853 169 180 183
1.50915 -3.43068 0.13907 178 185 175
1.50840 -3.44220 0.14961 181 183 173
1.50765 -3.45372 0.16015 174 179 172
1.50690 -3.46524 0.17068 173 179 175
1.50615 -3.47675 0.18121 179 188 183
1.50540 -3.48826 0.19173 177 184 178
1.50465 -3.49976 0.20226 177 175 171
1.50391 -3.51126 0.21278 174 174 172
1.50316 -3.52276 0.22330 157 163 159
1.50241 -3.53426 0.23381 140 147 145
1.50166 -3.54575 0.24433 153 163 168
1.53746 -2.66620 -0.56226 129 136 129
1.53670 -2.67789 -0.55157 120 136 140
1.53595 -2.68958 -0.54087 131 143 141
1.53519 -2.70126 -0.53019 144 149 130
1.53443 -2.71294 -0.51950 142 147 125
1.53368 -2.72462 -0.50882 134 139 134
1.53292 -2.73629 -0.49814 129 135 146
1.53216 -2.74796 -0.48746 137 143 141
1.53141 -2.75963 -0.47679 144 150 137
1.53065 -2.77130 -0.46612 144 151 147
1.52990 -2.78296 -0.45545 146 148 152
1.52914 -2.79462 -0.44479 137 138 142
1.52839 -2.80627 -0.43413 150 154 144
1.52763 -2.81792 -0.42347 153 155 157
1.52688 -2.82957 -0.41281 157 160 168
1.52612 -2.84121 -0.40216 157 165 160
1.52537 -2.85285 -0.39151 165 173 166
1.52462 -2.86449 -0.38087 169 179 174
1.52386 -2.87613 -0.37022 171 179 174
1.52311 -2.88776 -0.35958 159 174 167
1.52236 -2.89939 -0.34894 157 166 159
1.52160 -2.91101 -0.33831 164 169 160
1.52085 -2.92263 -0.32768 162 168 165
1.52010 -2.93425 -0.31705 155 163 158
1.51934 -2.94587 -0.30642 156 169 162
1.51859 -2.95748 -0.29580 159 174 168
1.51784 -2.96909 -0.28518 168 177 180
1.51709 -2.98070 -0.27457 174 182 180
1.51634 -2.99230 -0.26395 166 174 165
1.51559 -3.00390 -0.25334 160 169 157
1.51483 -3.01549 -0.24273 160 175 166
1.51408 -3.02709 -0.23213 170 182 182
1.51333 -3.03868 -0.22153 179 188 188
1.51258 -3.05026 -0.21093 172 181 182
1.51183 -3.06184 -0.20033 160 169 171
1.51108 -3.07342 -0.18974 159 168 166
1.51033 -3.08500 -0.17915 165 176 170
1.50958 -3.09657 -0.16856 171 181 175
1.50883 -3.10814 -0.15798 178 188 182
1.50808 -3.11971 -0.14740 183 190 188
1.50733 -3.13127 -0.13682 180 186 190
1.50659 -3.14283 -0.12624 185 196 193
1.50584 -3.15439 -0.11567 182 192 191
1.50509 -3.16595 -0.10510 174 181 179
1.50434 -3.17750 -0.09454 171 179 180
1.50359 -3.18904 -0.08397 167 177 175
1.50284 -3.20059 -0.07341 171 182 172
1.50210 -3.21213 -0.06285 195 211 200
1.50135 -3.22367 -0.05230 203 203 191
1.49240 -3.36187 0.07413 181 191 184
1.49165 -3.37337 0.08464 178 190 182
1.49091 -3.38486 0.09516 186 198 193
1.49016 -3.39635 0.10567 195 202 197
1.48942 -3.40784 0.11617 186 190 192
1.48867 -3.41932 0.12668 179 188 191
1.48793 -3.43080 0.13718 179 189 183
1.48719 -3.44228 0.14768 175 177 172
1.48644 -3.45375 0.15818 175 179 166
1.48570 -3.46522 0.16867 175 182 170
1.48496 -3.47669 0.17916 173 182 180
1.48422 -3.48815 0.18965 173 180 179
1.48347 -3.49961 0.20013 181 184 177
1.48273 -3.51107 0.21061 178 183 172
1.48199 -3.52253 0.22109 159 165 158
1.48125 -3.53398 0.23157 147 157 155
1.51677 -2.65759 -0.57214 139 136 136
1.51602 -2.66924 -0.56148 132 134 127
1.51527 -2.68088 -0.55083 129 137 134
1.51452 -2.69252 -0.54018 140 146 140
1.51377 -2.70416 -0.52953 144 147 134
1.51302 -2.71580 -0.51889 138 142 132
1.51227 -2.72743 -0.50825 139 145 138
1.51152 -2.73906 -0.49761 136 146 143
1.51077 -2.75068 -0.48697 135 143 142
1.51002 -2.76231 -0.47634 144 151 147
1.50927 -2.77393 -0.46571 139 150 160
1.50852 -2.78554 -0.45508 139 145 161
1.50777 -2.79716 -0.44446 140 143 154
1.50702 -2.80877 -0.43384 156 161 162
1.50627 -2.82037 -0.42322 160 160 155
1.50552 -2.83198 -0.41261 165 166 169
1.50477 -2.84358 -0.40200 164 172 178
1.50403 -2.85517 -0.39139 165 172 171
1.50328 -2.86677 -0.38078 160 175 180
1.50253 -2.87836 -0.37018 166 178 172
1.50178 -2.88994 -0.35958 160 171 156
1.50103 -2.90153 -0.34898 154 167 163
1.50029 -2.91311 -0.33839 164 174 167
1.49954 -2.92468 -0.32780 163 172 171
1.49879 -2.93626 -0.31721 154 159 164
1.49805 -2.94783 -0.30662 157 167 175
1.49730 -2.95940 -0.29604 168 182 173
1.49655 -2.97096 -0.28546 165 165 171
1.49581 -2.98252 -0.27489 169 179 177
1.49506 -2.99408 -0.26431 171 177 172
1.49432 -3.00564 -0.25374 175 181 172
1.49357 -3.01719 -0.24317 176 186 173
1.49283 -3.02874 -0.23261 173 179 179
1.49208 -3.04028 -0.22205 177 188 183
1.49134 -3.05182 -0.21149 178 190 178
1.49059 -3.06336 -0.20093 172 175 164
1.48985 -3.07490 -0.19038 161 161 155
1.48910 -3.08643 -0.17983 157 165 164
1.48836 -3.09796 -0.16928 164 177 178
1.48762 -3.10948 -0.15874 175 189 189
1.48687 -3.12101 -0.14820 182 196 197
1.48613 -3.13253 -0.13766 181 190 194
1.48539 -3.14404 -0.12713 184 195 191
1.48464 -3.15556 -0.11659 179 186 180
1.48390 -3.16707 -0.10606 174 181 171
1.48316 -3.17857 -0.09554 169 177 175
1.48242 -3.19008 -0.08501 161 171 167
1.48167 -3.20158 -0.07449 170 177 168
1.48093 -3.21307 -0.06398 186 197 195
1.48019 -3.22457 -0.05346 196 192 191
1.47945 -3.23606 -0.04295 192 194 186
1.47426 -3.31640 0.03055 178 189 183
1.47352 -3.32787 0.04104 192 200 183
1.47279 -3.33933 0.05152 179 185 181
1.47205 -3.35079 0.06201 176 183 184
1.47131 -3.36225 0.07249 177 187 184
1.47057 -3.37370 0.08296 173 186 179
1.46983 -3.38515 0.09344 179 192 184
1.46909 -3.39659 0.10391 187 194 190
1.46835 -3.40804 0.11438 187 190 191
1.46761 -3.41948 0.12484 186 191 194
1.46688 -3.43091 0.13530 179 184 187
1.46614 -3.44235 0.14576 170 175 175
1.46540 -3.45378 0.15622 179 188 173
1.46466 -3.46520 0.16667 178 186 166
1.46393 -3.47663 0.17712 163 172 172
1.46319 -3.48805 0.18757 166 177 175
1.46245 -3.49947 0.19802 183 194 185
1.46172 -3.51088 0.20846 178 185 177
1.46098 -3.52229 0.21890 156 161 160
1.46024 -3.53370 0.22934 152 164 160
1.49624 -2.64904 -0.58194 138 141 143
1.49549 -2.66064 -0.57133 140 145 138
1.49475 -2.67225 -0.56071 139 142 128
1.49400 -2.68385 -0.55010 138 138 127
1.49326 -2.69545 -0.53949 141 141 135
1.49251 -2.70704 -0.52888 143 144 139
1.49177 -2.71863 -0.51828 139 145 142
1.49102 -2.73022 -0.50768 142 152 146
1.49028 -2.74180 -0.49708 137 151 142
1.48953 -2.75338 -0.48648 129 144 139
1.48879 -2.76496 -0.47589 139 143 144
1.48804 -2.77654 -0.46530 136 136 150
1.48730 -2.78811 -0.45472 140 145 153
1.48656 -2.79968 -0.44413 140 143 151
1.48581 -2.81124 -0.43355 150 157 164
1.48507 -2.82280 -0.42298 159 165 151
1.48433 -2.83436 -0.41240 164 170 161
1.48358 -2.84592 -0.40183 162 167 182
1.48284 -2.85747 -0.39126 164 176 179
1.48210 -2.86902 -0.38070 154 171 178
1.48136 -2.88057 -0.37013 158 170 166
1.48062 -2.89211 -0.35957 168 173 158
1.47987 -2.90365 -0.34902 153 168 166
1.47913 -2.91519 -0.33846 164 177 174
1.47839 -2.92672 -0.32791 172 184 181
1.47765 -2.93825 -0.31736 165 165 171
1.47691 -2.94978 -0.30682 166 171 179
1.47617 -2.96130 -0.29628 175 180 171
1.47543 -2.97282 -0.28574 166 164 164
1.47469 -2.98434 -0.27520 167 175 172
1.47395 -2.99585 -0.26467 179 185 180
1.47321 -3.00736 -0.25414 186 193 184
1.47247 -3.01887 -0.24361 186 192 177
1.47173 -3.03037 -0.23309 181 186 174
1.47099 -3.04187 -0.22256 181 193 180
1.47025 -3.05337 -0.21205 187 199 179
1.46951 -3.06487 -0.20153 185 188 172
1.46877 -3.07636 -0.19102 171 171 164
1.46804 -3.08785 -0.18051 164 171 166
1.46730 -3.09933 -0.17000 170 182 173
1.46656 -3.11081 -0.15950 174 188 181
1.46582 -3.12229 -0.14899 174 187 188
1.46508 -3.13377 -0.13850 177 183 187
1.46435 -3.14524 -0.12800 178 186 188
1.46361 -3.15671 -0.11751 174 182 175
1.46287 -3.16818 -0.10702 172 178 158
1.46214 -3.17964 -0.09653 169 179 165
1.46140 -3.19110 -0.08605 164 172 168
1.46066 -3.20256 -0.07557 176 182 176
1.45993 -3.21401 -0.06509 175 179 189
1.45919 -3.22546 -0.05461 183 188 193
1.45846 -3.23691 -0.04414 189 204 195
1.45405 -3.30552 0.01863 179 186 177
1.44964 -3.37403 0.08130 173 182 185
1.44891 -3.38543 0.09173 181 188 185
1.44818 -3.39684 0.10216 183 187 179
1.44744 -3.40824 0.11259 178 182 180
1.44671 -3.41963 0.12302 174 178 184
1.44598 -3.43103 0.13344 172 174 176
1.44525 -3.44242 0.14386 169 174 169
1.44452 -3.45380 0.15428 179 188 179
1.44378 -3.46519 0.16469 177 187 172
1.44305 -3.47657 0.17511 161 168 166
1.44232 -3.48795 0.18552 167 177 167
1.44159 -3.49932 0.19592 180 192 183
1.44086 -3.51069 0.20632 169 175 176
1.44013 -3.52206 0.21672 157 163 156
1.43940 -3.53343 0.22712 154 162 149
1.47511 -2.65212 -0.58110 144 152 146
1.47437 -2.66368 -0.57052 142 148 139
1.47363 -2.67524 -0.55994 143 148 131
1.47289 -2.68679 -0.54937 140 144 130
1.47215 -2.69835 -0.53880 138 143 141
1.47141 -2.70990 -0.52824 141 148 147
1.47067 -2.72144 -0.51767 141 151 147
1.46994 -2.73299 -0.50711 142 150 146
1.46920 -2.74453 -0.49655 135 146 140
1.46846 -2.75606 -0.48600 131 145 140
1.46772 -2.76760 -0.47545 140 148 145
1.46698 -2.77913 -0.46490 144 144 147
1.46624 -2.79066 -0.45435 149 152 154
1.46551 -2.80218 -0.44381 144 151 149
1.46477 -2.81370 -0.43327 143 149 155
1.46403 -2.82522 -0.42273 158 168 167
1.46329 -2.83673 -0.41220 168 180 169
1.46256 -2.84825 -0.40167 161 168 171
1.46182 -2.85975 -0.39114 160 173 170
1.46108 -2.87126 -0.38061 157 164 167
1.46035 -2.88276 -0.37009 165 169 163
1.45961 -2.89426 -0.35957 163 167 165
1.45887 -2.90576 -0.34905 157 169 167
1.45814 -2.91725 -0.33854 166 179 177
1.45740 -2.92874 -0.32803 175 186 181
1.45667 -2.94022 -0.31752 173 178 167
1.45593 -2.95171 -0.30701 174 184 175
1.45520 -2.96319 -0.29651 176 177 172
1.45446 -2.97466 -0.28601 167 171 172
1.45373 -2.98614 -0.27552 166 169 168
1.45299 -2.99761 -0.26502 181 189 182
1.45226 -3.00907 -0.25453 184 193 186
1.45153 -3.02054 -0.24404 181 189 178
1.45079 -3.03200 -0.23356 178 188 175
1.45006 -3.04346 -0.22308 177 188 180
1.44933 -3.05491 -0.21260 182 191 187
1.44859 -3.06636 -0.20212 183 186 186
1.44786 -3.07781 -0.19165 176 179 179
1.44713 -3.08925 -0.18118 175 179 172
1.44639 -3.10070 -0.17071 182 187 165
1.44566 -3.11213 -0.16025 177 186 167
1.44493 -3.12357 -0.14979 170 175 174
1.44420 -3.13500 -0.13933 177 180 178
1.44347 -3.14643 -0.12887 174 183 186
1.44273 -3.15786 -0.11842 170 186 178
1.44200 -3.16928 -0.10797 171 187 165
1.44127 -3.18070 -0.09752 175 182 161
1.44054 -3.19212 -0.08708 173 178 173
1.43981 -3.20353 -0.07663 175 183 183
1.43908 -3.21494 -0.06620 170 179 186
1.43835 -3.22635 -0.05576 182 192 187
1.43397 -3.29472 0.00680 197 200 193
1.42815 -3.38572 0.09004 181 183 178
1.42742 -3.39708 0.10043 188 192 177
1.42669 -3.40843 0.11082 178 184 174
1.42451 -3.44249 0.14198 177 183 169
1.42379 -3.45383 0.15235 174 179 176
1.42306 -3.46517 0.16273 173 183 170
1.42233 -3.47651 0.17310 166 172 168
1.42161 -3.48785 0.18347 174 188 172
1.42088 -3.49918 0.19384 178 187 180
1.42016 -3.51051 0.20420 160 168 174
1.41943 -3.52183 0.21457 159 169 154
1.45488 -2.64365 -0.59080 135 147 144
1.45415 -2.65517 -0.58026 149 155 144
1.45341 -2.66669 -0.56972 150 152 144
1.45268 -2.67820 -0.55918 146 152 141
1.45194 -2.68972 -0.54865 146 152 143
1.45121 -2.70123 -0.53812 147 149 147
1.45048 -2.71273 -0.52759 146 144 146
1.44974 -2.72423 -0.51707 146 145 151
1.44901 -2.73573 -0.50655 150 148 152
1.44828 -2.74723 -0.49603 146 144 143
1.44754 -2.75872 -0.48552 145 151 144
1.44681 -2.77021 -0.47501 149 161 149
1.44608 -2.78170 -0.46450 149 160 157
1.44535 -2.79318 -0.45399 152 158 160
1.44461 -2.80466 -0.44349 152 164 153
1.44388 -2.81614 -0.43299 151 155 153
1.44315 -2.82762 -0.42249 160 171 172
1.44242 -2.83909 -0.41200 170 177 169
1.44169 -2.85055 -0.40150 165 176 167
1.44096 -2.86202 -0.39101 162 169 167
1.44022 -2.87348 -0.38053 162 162 165
1.43949 -2.88494 -0.37005 171 172 158
1.43876 -2.89639 -0.35957 150 150 149
1.43803 -2.90785 -0.34909 165 172 169
1.43730 -2.91930 -0.33861 165 177 182
1.43657 -2.93074 -0.32814 167 178 174
1.43584 -2.94218 -0.31767 163 175 160
1.43511 -2.95362 -0.30721 168 179 168
1.43438 -2.96506 -0.29675 167 175 172
1.43366 -2.97649 -0.28629 169 177 180
1.43293 -2.98792 -0.27583 170 177 172
1.43220 -2.99935 -0.26538 172 179 176
1.43147 -3.01077 -0.25492 176 184 178
1.43074 -3.02219 -0.24448 175 184 177
1.43001 -3.03361 -0.23403 172 182 178
1.42929 -3.04503 -0.22359 170 180 181
1.42856 -3.05644 -0.21315 171 181 188
1.42783 -3.06784 -0.20271 174 181 196
1.42710 -3.07925 -0.19228 173 180 191
1.42638 -3.09065 -0.18185 179 185 176
1.42565 -3.10205 -0.17142 182 189 161
1.42492 -3.11345 -0.16099 174 184 160
1.42420 -3.12484 -0.15057 177 181 173
1.42347 -3.13623 -0.14015 181 185 176
1.42274 -3.14761 -0.12973 172 182 173
1.42202 -3.15900 -0.11932 163 178 160
1.42129 -3.17038 -0.10891 170 187 177
1.40177 -3.47645 0.17111 170 176 172
1.40105 -3.48774 0.18145 175 191 183
1.40033 -3.49903 0.19177 176 188 183
1.43407 -2.64672 -0.58992 133 145 141
1.43334 -2.65820 -0.57942 149 156 141
1.43261 -2.66968 -0.56892 150 152 141
1.43188 -2.68115 -0.55843 141 147 145
1.43115 -2.69262 -0.54794 143 147 149
1.43042 -2.70408 -0.53745 149 146 146
1.42970 -2.71554 -0.52696 152 145 143
1.42897 -2.72700 -0.51648 153 148 150
1.42824 -2.73846 -0.50599 154 151 156
1.42751 -2.74991 -0.49552 150 147 151
1.42679 -2.76136 -0.48504 151 152 144
1.42606 -2.77281 -0.47457 152 162 145
1.42533 -2.78425 -0.46410 150 165 159
1.42460 -2.79569 -0.45363 154 163 163
1.42388 -2.80713 -0.44317 159 170 154
1.42315 -2.81856 -0.43271 166 171 162
1.42243 -2.82999 -0.42225 165 173 168
1.42170 -2.84142 -0.41179 170 174 166
1.42097 -2.85285 -0.40134 171 177 171
1.42025 -2.86427 -0.39089 166 171 172
1.41952 -2.87569 -0.38045 169 174 179
1.41880 -2.88710 -0.37000 171 175 164
1.41807 -2.89851 -0.35956 159 156 136
1.41735 -2.90992 -0.34912 169 171 168
1.41662 -2.92133 -0.33869 168 173 182
1.41590 -2.93273 -0.32826 173 182 175
1.41518 -2.94413 -0.31783 167 180 169
1.41445 -2.95553 -0.30740 165 172 169
1.41373 -2.96692 -0.29698 160 171 170
1.41300 -2.97831 -0.28656 170 176 169
1.41228 -2.98970 -0.27614 170 176 167
1.41156 -3.00108 -0.26572 160 166 173
1.41083 -3.01246 -0.25531 167 180 180
1.41011 -3.02384 -0.24490 169 181 185
1.40939 -3.03521 -0.23450 168 175 183
1.40867 -3.04658 -0.22409 165 178 177
1.40794 -3.05795 -0.21369 166 176 174
1.40722 -3.06932 -0.20329 167 172 180
1.40650 -3.08068 -0.19290 168 174 181
1.40578 -3.09204 -0.18251 175 182 174
1.40506 -3.10339 -0.17212 175 182 165
1.40434 -3.11475 -0.16173 170 182 161
1.40362 -3.12609 -0.15135 178 190 168
1.40290 -3.13744 -0.14097 181 193 176
1.40217 -3.14878 -0.13059 173 189 173
1.40145 -3.16012 -0.12021 162 174 155
1.38136 -3.47639 0.16914 167 174 173
1.38065 -3.48764 0.17943 167 181 183
1.41341 -2.64978 -0.58906 135 143 138
1.41269 -2.66121 -0.57859 139 149 138
1.41196 -2.67264 -0.56814 140 142 135
1.41124 -2.68407 -0.55768 139 140 143
1.41052 -2.69550 -0.54723 142 148 151
1.40979 -2.70692 -0.53678 145 152 150
1.40907 -2.71834 -0.52633 156 157 152
1.40835 -2.72975 -0.51588 159 157 147
1.40763 -2.74117 -0.50544 148 153 141
1.40690 -2.75258 -0.49500 144 153 148
1.40618 -2.76398 -0.48457 147 154 147
1.40546 -2.77539 -0.47413 148 161 144
1.40474 -2.78679 -0.46370 148 161 149
1.40402 -2.79818 -0.45328 150 157 157
1.40330 -2.80958 -0.44285 158 163 156
1.40258 -2.82097 -0.43243 171 171 167
1.40186 -2.83235 -0.42201 165 167 169
1.40114 -2.84374 -0.41160 167 173 165
1.40042 -2.85512 -0.40118 172 179 173
1.39970 -2.86650 -0.39077 161 169 167
1.39898 -2.87787 -0.38036 157 164 172
1.39826 -2.88925 -0.36996 168 168 163
1.39754 -2.90062 -0.35956 175 180 155
1.39682 -2.91198 -0.34916 170 171 171
1.39610 -2.92334 -0.33876 172 185 185
1.39538 -2.93470 -0.32837 180 184 179
1.39466 -2.94606 -0.31798 175 180 175
1.39394 -2.95741 -0.30759 162 172 171
1.39322 -2.96876 -0.29721 157 169 171
1.39251 -2.98011 -0.28683 169 173 165
1.39179 -2.99145 -0.27645 164 167 163
1.39107 -3.00280 -0.26607 157 165 173
1.39035 -3.01413 -0.25570 167 181 183
1.38964 -3.02547 -0.24533 168 176 184
1.38892 -3.03680 -0.23496 172 178 178
1.38820 -3.04813 -0.22459 168 179 169
1.38749 -3.05945 -0.21423 172 178 162
1.38677 -3.07078 -0.20387 176 180 170
1.38605 -3.08210 -0.19352 174 179 178
1.38534 -3.09341 -0.18316 173 179 182
1.38462 -3.10473 -0.17281 174 182 185
1.38391 -3.11604 -0.16246 179 187 182
1.38319 -3.12734 -0.15212 188 194 180
1.38247 -3.13865 -0.14178 187 192 183
1.38176 -3.14995 -0.13144 176 187 184
1.38104 -3.16125 -0.12110 166 177 175
1.39362 -2.64141 -0.59862 136 144 144
1.39291 -2.65281 -0.58819 143 151 141
1.39219 -2.66420 -0.57777 143 154 144
1.39147 -2.67559 -0.56735 142 147 143
1.39075 -2.68697 -0.55694 149 149 146
1.39003 -2.69835 -0.54652 150 158 150
1.38932 -2.70973 -0.53611 151 162 152
1.38860 -2.72111 -0.52570 157 159 155
1.38788 -2.73248 -0.51530 159 158 153
1.38717 -2.74385 -0.50489 153 161 147
1.38645 -2.75522 -0.49449 152 165 149
1.38573 -2.76658 -0.48410 154 168 157
1.38502 -2.77794 -0.47370 157 171 155
1.38430 -2.78930 -0.46331 155 160 143
1.38359 -2.80065 -0.45292 150 154 148
1.38287 -2.81200 -0.44254 156 160 159
1.38216 -2.82335 -0.43215 170 164 163
1.38144 -2.83470 -0.42177 164 163 163
1.38073 -2.84604 -0.41140 166 174 163
1.38001 -2.85738 -0.40102 170 176 164
1.37930 -2.86871 -0.39065 153 165 157
1.37858 -2.88005 -0.38028 142 150 158
1.37787 -2.89138 -0.36992 161 168 160
1.37715 -2.90270 -0.35955 176 191 177
1.37644 -2.91403 -0.34919 170 174 173
1.37573 -2.92535 -0.33884 168 175 178
1.37501 -2.93666 -0.32848 173 173 180
1.37430 -2.94798 -0.31813 175 178 179
1.37359 -2.95929 -0.30778 156 166 172
1.37287 -2.97060 -0.29744 163 180 180
1.37216 -2.98190 -0.28709 169 174 168
1.37145 -2.99320 -0.27675 158 163 161
1.37074 -3.00450 -0.26641 161 170 176
1.37002 -3.01580 -0.25608 171 180 179
1.36931 -3.02709 -0.24575 169 176 171
1.36860 -3.03838 -0.23542 174 176 169
1.36789 -3.04966 -0.22509 174 174 170
1.36718 -3.06095 -0.21477 185 186 171
1.36647 -3.07223 -0.20445 188 191 174
1.36576 -3.08350 -0.19413 180 185 176
1.36505 -3.09478 -0.18381 173 180 181
1.36434 -3.10605 -0.17350 172 181 184
1.36363 -3.11732 -0.16319 176 184 181
1.36292 -3.12858 -0.15289 177 186 181
1.36221 -3.13984 -0.14258 181 188 186
1.36150 -3.15110 -0.13228 176 184 184
1.36079 -3.16236 -0.12198 169 181 179
1.37398 -2.63311 -0.60812 136 146 142
1.37327 -2.64446 -0.59773 144 153 148
1.37255 -2.65581 -0.58734 157 164 154
1.37184 -2.66716 -0.57696 150 158 155
1.37113 -2.67851 -0.56658 142 148 152
1.37042 -2.68985 -0.55620 149 155 150
1.36971 -2.70119 -0.54582 153 161 149
1.36899 -2.71253 -0.53545 155 163 147
1.36828 -2.72386 -0.52508 153 158 148
1.36757 -2.73519 -0.51471 146 152 154
1.36686 -2.74652 -0.50435 153 162 161
1.36615 -2.75784 -0.49399 162 169 165
1.36544 -2.76916 -0.48363 162 165 158
1.36473 -2.78048 -0.47328 164 170 158
1.36402 -2.79179 -0.46292 162 172 154
1.36331 -2.80311 -0.45257 150 158 145
1.36260 -2.81441 -0.44223 158 170 161
1.36189 -2.82572 -0.43188 171 175 161
1.36118 -2.83702 -0.42154 163 166 160
1.36047 -2.84832 -0.41120 160 174 164
1.35976 -2.85962 -0.40087 163 172 159
1.35905 -2.87091 -0.39053 157 161 152
1.35834 -2.88220 -0.38020 158 155 146
1.35763 -2.89349 -0.36988 154 163 157
1.35692 -2.90477 -0.35955 167 180 186
1.35621 -2.91605 -0.34923 165 172 176
1.35551 -2.92733 -0.33891 159 163 157
1.35480 -2.93861 -0.32859 159 165 166
1.35409 -2.94988 -0.31828 165 172 179
1.35338 -2.96115 -0.30797 152 154 168
1.35267 -2.97241 -0.29766 164 180 189
1.35197 -2.98368 -0.28736 170 171 174
1.35126 -2.99494 -0.27706 155 156 159
1.35055 -3.00619 -0.26676 163 169 173
1.34985 -3.01745 -0.25646 172 180 173
1.34914 -3.02870 -0.24617 175 183 168
1.34843 -3.03994 -0.23587 173 174 177
1.34773 -3.05119 -0.22559 177 178 183
1.34702 -3.06243 -0.21530 188 193 186
1.34632 -3.07367 -0.20502 190 195 182
1.34561 -3.08490 -0.19474 181 187 180
1.34491 -3.09613 -0.18446 174 183 186
1.34420 -3.10736 -0.17419 176 185 182
1.34350 -3.11859 -0.16392 172 181 170
1.34279 -3.12981 -0.15365 163 171 173
1.34209 -3.14103 -0.14338 163 175 179
1.34138 -3.15225 -0.13312 164 181 175
1.34068 -3.16346 -0.12286 172 184 175
1.35519 -2.61354 -0.62790 150 158 153
1.35448 -2.62486 -0.61754 143 152 148
1.35377 -2.63618 -0.60719 142 153 145
1.35306 -2.64749 -0.59684 153 163 157
1.35235 -2.65880 -0.58649 159 164 162
1.35165 -2.67011 -0.57615 144 146 156
1.35094 -2.68141 -0.56580 140 140 153
1.35023 -2.69271 -0.55546 151 155 154
1.34953 -2.70401 -0.54513 155 163 154
1.34882 -2.71530 -0.53479 160 168 152
1.34811 -2.72659 -0.52446 158 163 146
1.34741 -2.73788 -0.51414 143 149 148
1.34670 -2.74916 -0.50381 145 155 163
1.34600 -2.76044 -0.49349 161 165 174
1.34529 -2.77172 -0.48317 166 167 158
1.34459 -2.78300 -0.47285 167 171 150
1.34388 -2.79427 -0.46254 162 173 155
1.34318 -2.80554 -0.45222 151 161 144
1.34247 -2.81681 -0.44192 157 173 164
1.34177 -2.82807 -0.43161 167 177 161
1.34106 -2.83933 -0.42131 157 165 153
1.34036 -2.85059 -0.41101 152 166 161
1.33965 -2.86184 -0.40071 159 167 161
1.33895 -2.87309 -0.39041 158 166 155
1.33825 -2.88434 -0.38012 163 164 149
1.33754 -2.89559 -0.36983 140 147 157
1.33684 -2.90683 -0.35955 153 160 173
1.33614 -2.91807 -0.34926 161 164 172
1.33543 -2.92930 -0.33898 157 168 164
1.33473 -2.94054 -0.32870 165 178 173
1.33403 -2.95177 -0.31843 161 168 163
1.33333 -2.96299 -0.30816 159 173 165
1.33262 -2.97422 -0.29789 163 172 179
1.33192 -2.98544 -0.28762 165 171 174
1.33122 -2.99666 -0.27736 160 168 170
1.33052 -3.00787 -0.26709 171 174 174
1.32982 -3.01908 -0.25684 175 182 173
1.32912 -3.03029 -0.24658 179 183 170
1.32842 -3.04150 -0.23633 183 190 191
1.32771 -3.05270 -0.22608 184 193 189
1.32701 -3.06390 -0.21583 183 188 176
1.32631 -3.07510 -0.20558 184 190 179
1.32561 -3.08629 -0.19534 177 179 183
1.32491 -3.09748 -0.18510 167 168 188
1.32421 -3.10867 -0.17487 169 175 185
1.32351 -3.11985 -0.16463 169 172 170
1.32281 -3.13103 -0.15440 172 175 168
1.32212 -3.14221 -0.14417 173 187 173
1.32142 -3.15339 -0.13395 159 176 162
1.32072 -3.16456 -0.12373 167 175 157
1.33582 -2.60540 -0.63722 148 153 142
1.33511 -2.61668 -0.62690 149 155 147
1.33441 -2.62795 -0.61659 143 148 141
1.33371 -2.63923 -0.60627 145 150 144
1.33301 -2.65050 -0.59596 154 160 159
1.33230 -2.66176 -0.58565 159 163 159
1.33160 -2.67303 -0.57534 145 145 147
1.33090 -2.68429 -0.56504 146 146 146
1.33020 -2.69555 -0.55474 158 165 156
1.32950 -2.70680 -0.54444 158 167 163
1.32880 -2.71805 -0.53414 161 168 159
1.32809 -2.72930 -0.52385 166 170 150
1.32739 -2.74055 -0.51356 154 159 146
1.32669 -2.75179 -0.50327 148 154 151
1.32599 -2.76303 -0.49299 162 159 159
1.32529 -2.77427 -0.48271 165 166 161
1.32459 -2.78550 -0.47243 165 173 162
1.32389 -2.79673 -0.46215 160 178 166
1.32319 -2.80796 -0.45188 155 172 159
1.32249 -2.81918 -0.44161 159 169 170
1.32179 -2.83040 -0.43134 167 172 165
1.32110 -2.84162 -0.42108 164 164 154
1.32040 -2.85284 -0.41081 164 166 160
1.31970 -2.86405 -0.40055 164 169 162
1.31900 -2.87526 -0.39030 163 167 154
1.31830 -2.88647 -0.38004 160 170 155
1.31760 -2.89767 -0.36979 150 165 158
1.31691 -2.90887 -0.35954 171 187 167
1.31621 -2.92007 -0.34930 168 164 161
1.31551 -2.93126 -0.33905 155 155 163
1.31481 -2.94245 -0.32881 170 173 161
1.31412 -2.95364 -0.31858 182 183 162
1.31342 -2.96483 -0.30834 168 177 166
1.31272 -2.97601 -0.29811 164 170 181
1.31202 -2.98719 -0.28788 164 171 173
1.31133 -2.99836 -0.27765 164 172 172
1.31063 -3.00954 -0.26743 167 176 184
1.30994 -3.02071 -0.25721 172 181 180
1.30924 -3.03187 -0.24699 182 190 183
1.30854 -3.04304 -0.23678 185 195 195
1.30785 -3.05420 -0.22656 178 186 185
1.30715 -3.06536 -0.21635 177 186 179
1.30646 -3.07651 -0.20615 182 190 183
1.30576 -3.08767 -0.19594 185 188 182
1.30507 -3.09881 -0.18574 182 192 186
1.30437 -3.10996 -0.17554 179 194 183
1.30368 -3.12110 -0.16535 176 187 170
1.30299 -3.13224 -0.15515 173 184 171
1.30229 -3.14338 -0.14496 174 184 170
1.30160 -3.15452 -0.13477 176 182 157
1.30090 -3.16565 -0.12459 176 182 154
1.31658 -2.59731 -0.64648 139 145 145
1.31589 -2.60855 -0.63620 142 148 146
1.31519 -2.61979 -0.62592 143 151 146
1.31449 -2.63102 -0.61564 142 149 143
1.31379 -2.64225 -0.60536 149 157 154
1.31310 -2.65348 -0.59509 160 162 168
1.31240 -2.66470 -0.58481 162 161 160
1.31170 -2.67593 -0.57454 149 148 142
1.31101 -2.68715 -0.56428 150 152 141
1.31031 -2.69836 -0.55402 160 170 159
1.30961 -2.70957 -0.54376 158 169 169
1.30892 -2.72078 -0.53350 160 166 165
1.30822 -2.73199 -0.52324 162 168 161
1.30753 -2.74320 -0.51299 162 170 159
1.30683 -2.75440 -0.50274 162 169 154
1.30614 -2.76559 -0.49249 164 163 142
1.30544 -2.77679 -0.48225 164 156 148
1.30475 -2.78798 -0.47201 163 169 167
1.30405 -2.79917 -0.46177 157 175 164
1.30336 -2.81036 -0.45154 154 165 159
1.30266 -2.82154 -0.44130 163 176 169
1.30197 -2.83272 -0.43107 163 171 165
1.30128 -2.84390 -0.42085 174 170 163
1.30058 -2.85507 -0.41062 180 186 180
1.29989 -2.86624 -0.40040 175 182 168
1.29920 -2.87741 -0.39018 171 171 156
1.29850 -2.88857 -0.37996 165 173 186
1.29781 -2.89974 -0.36975 170 179 175
1.29712 -2.91090 -0.35954 157 169 157
1.29642 -2.92205 -0.34933 160 168 168
1.29573 -2.93320 -0.33913 167 179 176
1.29504 -2.94435 -0.32892 174 188 173
1.29435 -2.95550 -0.31872 187 192 174
1.29366 -2.96665 -0.30853 162 168 166
1.29297 -2.97779 -0.29833 167 164 178
1.29227 -2.98892 -0.28814 167 173 170
1.29158 -3.00006 -0.27795 161 159 157
1.29089 -3.01119 -0.26777 151 160 165
1.28468 -3.11125 -0.17621 177 183 187
1.28399 -3.12235 -0.16605 176 179 167
1.28330 -3.13345 -0.15590 173 181 162
1.28261 -3.14454 -0.14574 172 187 173
1.28192 -3.15564 -0.13559 178 192 176
1.28124 -3.16673 -0.12544 182 191 177
1.29818 -2.57807 -0.66593 150 150 140
1.29749 -2.58928 -0.65568 155 156 145
1.29680 -2.60048 -0.64543 148 153 148
1.29610 -2.61168 -0.63518 143 146 140
1.29541 -2.62287 -0.62494 147 154 144
1.29472 -2.63406 -0.61469 152 160 150
1.29403 -2.64525 -0.60445 153 161 159
1.29333 -2.65644 -0.59422 159 161 166
1.29264 -2.66762 -0.58398 165 164 160
1.29195 -2.67880 -0.57375 161 162 155
1.29126 -2.68998 -0.56352 156 161 156
1.29057 -2.70116 -0.55330 156 164 159
1.28988 -2.71233 -0.54308 159 172 166
1.28919 -2.72350 -0.53286 164 174 170
1.28850 -2.73466 -0.52264 163 164 169
1.28781 -2.74583 -0.51242 169 171 165
1.28712 -2.75698 -0.50221 170 172 160
1.28643 -2.76814 -0.49200 164 170 156
1.28574 -2.77930 -0.48180 168 170 160
1.28505 -2.79045 -0.47159 172 174 170
1.28436 -2.80159 -0.46139 168 173 166
1.28367 -2.81274 -0.45120 158 164 166
1.28298 -2.82388 -0.44100 173 184 174
1.28229 -2.83502 -0.43081 171 177 171
1.28160 -2.84615 -0.42062 180 192 172
1.28091 -2.85729 -0.41043 181 190 183
1.28023 -2.86842 -0.40025 175 178 169
1.27954 -2.87954 -0.39006 168 170 166
1.27885 -2.89067 -0.37989 155 168 175
1.27816 -2.90179 -0.36971 157 168 165
1.27747 -2.91291 -0.35954 152 148 139
1.27679 -2.92402 -0.34936 165 191 183
1.27610 -2.93513 -0.33920 168 181 171
1.27541 -2.94624 -0.32903 153 166 169
1.27473 -2.95735 -0.31887 169 169 161
1.27404 -2.96845 -0.30871 154 150 160
1.27335 -2.97955 -0.29855 165 165 176
1.27267 -2.99065 -0.28840 170 169 176
1.26513 -3.11252 -0.17688 186 199 194
1.26308 -3.14570 -0.14652 160 173 166
1.26239 -3.15675 -0.13641 159 175 168
1.26171 -3.16780 -0.12629 179 193 173
1.27921 -2.57013 -0.67502 142 152 142
1.27853 -2.58130 -0.66481 149 157 142
1.27784 -2.59246 -0.65459 151 155 142
1.27715 -2.60362 -0.64438 155 159 143
1.27646 -2.61478 -0.63417 155 158 138
1.27578 -2.62593 -0.62396 151 154 143
1.27509 -2.63709 -0.61376 149 156 151
1.27440 -2.64823 -0.60356 148 155 157
1.27372 -2.65938 -0.59336 157 162 160
1.27303 -2.67052 -0.58316 167 171 158
1.27234 -2.68166 -0.57297 165 166 158
1.27166 -2.69280 -0.56278 164 166 161
1.27097 -2.70393 -0.55259 164 169 164
1.27029 -2.71506 -0.54240 164 174 166
1.26960 -2.72619 -0.53222 164 179 168
1.26892 -2.73731 -0.52204 157 163 166
1.26823 -2.74844 -0.51186 153 160 163
1.26754 -2.75955 -0.50169 154 161 159
1.26686 -2.77067 -0.49152 156 163 159
1.26618 -2.78178 -0.48135 169 176 172
1.26549 -2.79289 -0.47118 173 177 173
1.26481 -2.80400 -0.46102 165 169 167
1.26412 -2.81510 -0.45086 158 166 165
1.26344 -2.82620 -0.44070 167 175 171
1.26275 -2.83730 -0.43054 174 185 175
1.26207 -2.84840 -0.42039 176 185 171
1.26139 -2.85949 -0.41024 171 189 181
1.26070 -2.87058 -0.40009 165 177 168
1.26002 -2.88166 -0.38995 156 163 168
1.25934 -2.89275 -0.37981 157 166 163
1.25866 -2.90383 -0.36967 153 162 163
1.25797 -2.91490 -0.35953 146 161 149
1.25729 -2.92598 -0.34940 163 173 173
1.25661 -2.93705 -0.33927 172 189 173
1.25593 -2.94812 -0.32914 164 173 174
1.25525 -2.95918 -0.31901 162 167 160
1.25456 -2.97024 -0.30889 159 165 158
1.25388 -2.98130 -0.29877 155 163 168
1.24368 -3.14684 -0.14729 160 168 167
1.24301 -3.15785 -0.13721 161 176 169
1.24233 -3.16886 -0.12714 183 191 176
1.26038 -2.56225 -0.68405 143 150 141
1.25970 -2.57338 -0.67387 136 143 152
1.25902 -2.58451 -0.66369 141 151 150
1.25833 -2.59563 -0.65351 145 155 143
1.25765 -2.60675 -0.64334 151 158 146
1.25697 -2.61786 -0.63316 150 156 145
1.25629 -2.62898 -0.62299 147 153 145
1.25560 -2.64009 -0.61283 147 153 149
1.25492 -2.65119 -0.60266 150 158 154
1.25424 -2.66230 -0.59250 154 166 162
1.25356 -2.67340 -0.58234 156 168 164
1.25288 -2.68450 -0.57219 155 158 163
1.25220 -2.69559 -0.56203 159 160 167
1.25152 -2.70669 -0.55188 165 174 167
1.25084 -2.71778 -0.54173 164 179 166
1.25016 -2.72886 -0.53159 165 179 169
1.24948 -2.73995 -0.52145 165 167 163
1.24880 -2.75103 -0.51131 162 164 158
1.24812 -2.76210 -0.50117 166 172 149
1.24744 -2.77318 -0.49103 162 167 150
1.24676 -2.78425 -0.48090 168 180 176
1.24608 -2.79532 -0.47077 171 170 164
1.24540 -2.80639 -0.46065 167 171 160
1.24472 -2.81745 -0.45052 161 163 149
1.24404 -2.82851 -0.44040 154 154 155
1.24336 -2.83957 -0.43028 159 164 162
1.24268 -2.85062 -0.42017 153 162 158
1.24200 -2.86167 -0.41005 153 163 160
1.24133 -2.87272 -0.39994 157 163 166
1.24065 -2.88377 -0.38984 158 163 170
1.23997 -2.89481 -0.37973 162 169 172
1.23929 -2.90585 -0.36963 163 166 169
1.23862 -2.91688 -0.35953 176 182 168
1.23794 -2.92792 -0.34943 163 164 169
1.23726 -2.93895 -0.33934 163 168 169
1.23658 -2.94998 -0.32925 162 167 165
1.23591 -2.96100 -0.31916 164 171 161
1.23523 -2.97202 -0.30907 158 171 160
1.22376 -3.15895 -0.13801 177 181 179
1.21435 -3.31226 0.00228 181 197 190
1.21368 -3.32319 0.01228 177 170 169
1.21301 -3.33412 0.02228 171 170 161
1.21234 -3.34504 0.03228 174 186 172
1.20097 -3.53029 0.20180 178 180 162
1.20030 -3.54116 0.21175 170 179 171
1.24236 -2.54333 -0.70317 153 149 142
1.24168 -2.55443 -0.69302 162 161 155
1.24100 -2.56552 -0.68287 155 151 143
1.24032 -2.57660 -0.67273 141 143 146
1.23965 -2.58769 -0.66258 138 145 146
1.23897 -2.59877 -0.65244 144 149 146
1.23829 -2.60985 -0.64230 150 152 152
1.23761 -2.62092 -0.63217 154 158 158
