ply
format ascii 1.0
element face 0
property list uchar int vertex_indices
element vertex 1288
property float x
property float y
property float z
property uchar diffuse_red
property uchar diffuse_green
property uchar diffuse_blue
end_header
0.11145 -4.54156 1.00585 111 117 103
0.11110 -4.55023 1.01364 104 107 94
0.11074 -4.55889 1.02143 102 104 96
0.11039 -4.56755 1.02922 114 110 113
0.11004 -4.57621 1.03700 118 112 107
0.10969 -4.58487 1.04479 107 107 101
0.10933 -4.59352 1.05257 109 114 108
0.10898 -4.60218 1.06036 122 126 112
0.10863 -4.61084 1.06814 115 116 120
0.10828 -4.61949 1.07592 116 114 129
0.10792 -4.62814 1.08370 114 113 115
0.10757 -4.63680 1.09148 124 127 105
0.10722 -4.64545 1.09926 120 117 110
0.10687 -4.65409 1.10703 110 113 102
0.10652 -4.66274 1.11481 106 116 94
0.10616 -4.67139 1.12258 110 118 114
0.10581 -4.68004 1.13036 113 117 108
0.10546 -4.68868 1.13813 113 114 103
0.10511 -4.69732 1.14590 108 104 110
0.17972 -2.56451 -0.77296 193 199 206
0.17936 -2.57342 -0.76495 193 197 203
0.17900 -2.58232 -0.75694 199 199 204
0.17864 -2.59123 -0.74894 205 204 205
0.17828 -2.60013 -0.74093 204 205 205
0.17791 -2.60904 -0.73292 202 205 207
0.17755 -2.61794 -0.72492 205 207 205
0.17719 -2.62684 -0.71691 197 198 202
0.17683 -2.63574 -0.70891 192 197 200
0.17647 -2.64464 -0.70091 202 206 200
0.17611 -2.65354 -0.69291 203 204 203
0.17575 -2.66244 -0.68491 197 201 204
0.17538 -2.67133 -0.67691 203 205 206
0.17502 -2.68023 -0.66892 210 213 211
0.17466 -2.68912 -0.66092 204 210 210
0.17430 -2.69801 -0.65293 196 204 204
0.17394 -2.70690 -0.64493 199 204 206
0.17358 -2.71579 -0.63694 198 199 206
0.17322 -2.72468 -0.62895 198 201 206
0.17286 -2.73357 -0.62096 199 205 204
0.17249 -2.74245 -0.61297 202 212 202
0.17213 -2.75134 -0.60498 202 209 205
0.17177 -2.76022 -0.59700 199 205 203
0.17141 -2.76910 -0.58901 196 198 204
0.17105 -2.77798 -0.58103 206 217 210
0.17069 -2.78686 -0.57304 205 207 208
0.17033 -2.79574 -0.56506 204 204 211
0.16997 -2.80462 -0.55708 188 190 205
0.16961 -2.81349 -0.54910 181 181 198
0.16925 -2.82237 -0.54112 198 206 208
0.16889 -2.83124 -0.53314 202 204 204
0.16853 -2.84011 -0.52516 182 187 204
0.16817 -2.84898 -0.51719 181 191 201
0.16781 -2.85785 -0.50921 194 199 206
0.16745 -2.86672 -0.50124 192 198 205
0.16709 -2.87559 -0.49327 192 195 198
0.16673 -2.88446 -0.48529 187 189 203
0.16637 -2.89332 -0.47732 208 210 213
0.16601 -2.90218 -0.46935 203 207 213
0.16565 -2.91105 -0.46139 196 198 198
0.16529 -2.91991 -0.45342 193 200 201
0.16493 -2.92877 -0.44545 199 204 209
0.16457 -2.93763 -0.43749 189 187 194
0.16421 -2.94648 -0.42952 191 195 192
0.16385 -2.95534 -0.42156 186 197 199
0.16349 -2.96420 -0.41360 191 196 191
0.16313 -2.97305 -0.40564 194 196 193
0.16277 -2.98190 -0.39768 186 181 183
0.16241 -2.99075 -0.38972 183 190 188
0.16205 -2.99960 -0.38176 179 189 189
0.16169 -3.00845 -0.37381 184 196 203
0.16133 -3.01730 -0.36585 189 201 208
0.16097 -3.02615 -0.35790 187 197 206
0.16061 -3.03499 -0.34994 193 204 198
0.16025 -3.04384 -0.34199 180 189 185
0.15989 -3.05268 -0.33404 168 174 178
0.15953 -3.06152 -0.32609 175 181 183
0.15917 -3.07036 -0.31814 186 194 193
0.15881 -3.07920 -0.31020 180 190 194
0.15846 -3.08804 -0.30225 170 181 190
0.15810 -3.09688 -0.29430 171 181 182
0.15774 -3.10571 -0.28636 178 189 183
0.15738 -3.11455 -0.27842 188 203 195
0.15702 -3.12338 -0.27048 179 188 193
0.15666 -3.13221 -0.26253 169 179 194
0.15630 -3.14104 -0.25459 173 178 196
0.15594 -3.14987 -0.24666 166 161 186
0.15558 -3.15870 -0.23872 167 177 190
0.15523 -3.16753 -0.23078 165 176 184
0.15487 -3.17635 -0.22285 162 165 182
0.15451 -3.18518 -0.21491 169 179 190
0.15415 -3.19400 -0.20698 181 185 192
0.15379 -3.20283 -0.19905 166 168 191
0.15343 -3.21165 -0.19111 173 187 198
0.15308 -3.22047 -0.18318 178 183 169
0.15272 -3.22929 -0.17526 160 171 144
0.15236 -3.23810 -0.16733 158 161 172
0.15200 -3.24692 -0.15940 170 172 167
0.15164 -3.25573 -0.15147 168 183 184
0.15128 -3.26455 -0.14355 172 171 174
0.15093 -3.27336 -0.13563 188 195 178
0.15057 -3.28217 -0.12770 157 156 169
0.15021 -3.29098 -0.11978 165 178 175
0.14985 -3.29979 -0.11186 149 143 174
0.14949 -3.30860 -0.10394 147 160 172
0.14914 -3.31741 -0.09602 144 154 156
0.14878 -3.32621 -0.08811 163 175 180
0.14842 -3.33502 -0.08019 182 194 195
0.14806 -3.34382 -0.07228 170 172 172
0.14771 -3.35262 -0.06436 170 177 173
0.14735 -3.36142 -0.05645 169 176 178
0.14699 -3.37022 -0.04854 171 178 175
0.14663 -3.37902 -0.04063 157 161 159
0.14628 -3.38782 -0.03272 153 165 158
0.14592 -3.39661 -0.02481 154 170 173
0.14556 -3.40541 -0.01690 159 170 174
0.14521 -3.41420 -0.00900 148 155 161
0.14485 -3.42299 -0.00109 124 146 155
0.14449 -3.43179 0.00681 138 159 169
0.14413 -3.44057 0.01472 166 180 176
0.14378 -3.44936 0.02262 165 177 167
0.14342 -3.45815 0.03052 153 164 163
0.14306 -3.46694 0.03842 148 151 154
0.14271 -3.47572 0.04632 151 149 153
0.14235 -3.48451 0.05421 168 170 173
0.14199 -3.49329 0.06211 167 163 163
0.14164 -3.50207 0.07001 149 148 145
0.14128 -3.51085 0.07790 149 158 153
0.14092 -3.51963 0.08579 152 167 155
0.14057 -3.52841 0.09369 150 159 158
0.14021 -3.53718 0.10158 139 143 143
0.13985 -3.54596 0.10947 131 125 122
0.13950 -3.55473 0.11736 137 147 147
0.13914 -3.56351 0.12525 139 142 157
0.13878 -3.57228 0.13313 154 161 169
0.13843 -3.58105 0.14102 148 146 147
0.13807 -3.58982 0.14890 153 155 145
0.13771 -3.59859 0.15679 158 163 138
0.13736 -3.60735 0.16467 148 152 149
0.13700 -3.61612 0.17255 142 145 138
0.13665 -3.62488 0.18043 143 156 162
0.13629 -3.63365 0.18831 155 174 170
0.13593 -3.64241 0.19619 122 114 135
0.13558 -3.65117 0.20406 144 151 145
0.13522 -3.65993 0.21194 159 162 145
0.13487 -3.66869 0.21982 129 130 144
0.13451 -3.67745 0.22769 137 151 157
0.13416 -3.68620 0.23556 146 156 137
0.13380 -3.69496 0.24343 133 139 122
0.13344 -3.70371 0.25131 140 146 125
0.13309 -3.71247 0.25917 136 135 142
0.13273 -3.72122 0.26704 141 143 138
0.12989 -3.79119 0.32995 122 118 114
0.12954 -3.79993 0.33781 121 126 123
0.12918 -3.80867 0.34567 122 134 125
0.12883 -3.81740 0.35353 117 126 114
0.12847 -3.82614 0.36138 128 134 123
0.12812 -3.83488 0.36924 134 135 135
0.12776 -3.84361 0.37709 149 151 145
0.12741 -3.85235 0.38494 159 158 139
0.12705 -3.86108 0.39279 137 134 129
0.12670 -3.86981 0.40064 132 137 136
0.12634 -3.87854 0.40849 146 152 146
0.12599 -3.88727 0.41634 147 150 148
0.12563 -3.89600 0.42419 140 138 138
0.12528 -3.90472 0.43203 130 125 130
0.12492 -3.91345 0.43988 124 129 133
0.12457 -3.92217 0.44772 123 132 133
0.12421 -3.93090 0.45557 115 119 122
0.12386 -3.93962 0.46341 109 115 127
0.12351 -3.94834 0.47125 125 133 138
0.12315 -3.95706 0.47909 115 122 115
0.12280 -3.96578 0.48693 120 127 121
0.12244 -3.97449 0.49476 131 137 132
0.12209 -3.98321 0.50260 133 137 129
0.12174 -3.99192 0.51044 127 127 127
0.12138 -4.00064 0.51827 126 125 125
0.12103 -4.00935 0.52610 126 139 116
0.12067 -4.01806 0.53394 124 129 133
0.12032 -4.02677 0.54177 122 125 126
0.11997 -4.03548 0.54960 138 145 133
0.11961 -4.04419 0.55743 135 142 134
0.11678 -4.11380 0.62002 117 121 120
0.11643 -4.12250 0.62784 110 110 120
0.11608 -4.13120 0.63566 110 120 118
0.11572 -4.13989 0.64347 110 120 113
0.11537 -4.14858 0.65129 115 118 119
0.11502 -4.15728 0.65911 121 126 125
0.11466 -4.16597 0.66692 115 113 124
0.11431 -4.17466 0.67473 118 122 115
0.11396 -4.18334 0.68254 116 112 110
0.11361 -4.19203 0.69036 114 107 109
0.11325 -4.20072 0.69816 114 111 113
0.11290 -4.20940 0.70597 118 121 116
0.11255 -4.21809 0.71378 126 130 120
0.11219 -4.22677 0.72159 128 131 124
0.11184 -4.23545 0.72939 126 128 130
0.11149 -4.24413 0.73720 122 126 129
0.11114 -4.25281 0.74500 129 135 130
0.11078 -4.26149 0.75280 131 136 125
0.11043 -4.27016 0.76061 121 125 116
0.11008 -4.27884 0.76841 121 125 117
0.10973 -4.28752 0.77620 121 122 114
0.10937 -4.29619 0.78400 113 113 110
0.10902 -4.30486 0.79180 115 117 114
0.10867 -4.31353 0.79960 125 131 116
0.10832 -4.32220 0.80739 127 132 118
0.10797 -4.33087 0.81518 127 125 120
0.10761 -4.33954 0.82298 120 117 109
0.10726 -4.34820 0.83077 113 117 114
0.10691 -4.35687 0.83856 121 133 129
0.10656 -4.36553 0.84635 122 127 114
0.10621 -4.37419 0.85414 118 121 110
0.10585 -4.38286 0.86193 128 132 125
0.10550 -4.39152 0.86971 126 131 124
0.10515 -4.40018 0.87750 114 119 117
0.10480 -4.40883 0.88528 117 115 113
0.10445 -4.41749 0.89307 112 104 104
0.10410 -4.42615 0.90085 111 113 105
0.10374 -4.43480 0.90863 123 129 122
0.10339 -4.44345 0.91641 123 125 122
0.10304 -4.45210 0.92419 115 120 118
0.10269 -4.46076 0.93197 118 122 116
0.10234 -4.46941 0.93974 117 116 110
0.10199 -4.47805 0.94752 115 118 108
0.10164 -4.48670 0.95529 122 124 116
0.10128 -4.49535 0.96307 124 119 108
0.10093 -4.50399 0.97084 110 106 94
0.10058 -4.51264 0.97861 105 106 99
0.10023 -4.52128 0.98638 116 118 106
0.09988 -4.52992 0.99415 120 126 113
0.09953 -4.53856 1.00192 110 116 110
0.09918 -4.54720 1.00969 108 114 102
0.09883 -4.55584 1.01746 107 112 103
0.09848 -4.56447 1.02522 115 115 112
0.09812 -4.57311 1.03298 118 117 105
0.09777 -4.58174 1.04075 109 110 104
0.09742 -4.59038 1.04851 104 110 107
0.09707 -4.59901 1.05627 110 110 109
0.09672 -4.60764 1.06403 115 108 115
0.09637 -4.61627 1.07179 116 107 111
0.09602 -4.62490 1.07955 109 104 100
0.09567 -4.63353 1.08731 110 106 104
0.09532 -4.64215 1.09506 118 130 121
0.09497 -4.65078 1.10282 110 112 101
0.09462 -4.65940 1.11057 96 102 87
0.09427 -4.66802 1.11832 108 115 117
0.09392 -4.67665 1.12608 107 108 124
0.09357 -4.68527 1.13383 114 108 109
0.09322 -4.69389 1.14158 104 105 109
1.05006 -3.05498 2.02945 157 133 122
1.04607 -3.06129 2.03573 155 131 122
1.04209 -3.06759 2.04201 154 131 123
1.03811 -3.07387 2.04827 154 132 121
1.03414 -3.08015 2.05453 153 132 116
1.03018 -3.08642 2.06077 154 132 121
1.02622 -3.09267 2.06700 154 132 126
1.02227 -3.09892 2.07322 152 131 126
1.01833 -3.10515 2.07943 150 131 126
1.01439 -3.11137 2.08563 150 131 123
1.04934 -3.06412 2.02265 155 134 121
1.04534 -3.07044 2.02895 155 132 127
1.04135 -3.07674 2.03525 154 132 124
1.03736 -3.08303 2.04153 154 133 120
1.03338 -3.08932 2.04781 152 133 114
1.02941 -3.09559 2.05407 154 134 119
1.02544 -3.10185 2.06032 152 133 123
1.02149 -3.10810 2.06656 150 132 123
1.01754 -3.11434 2.07279 151 132 122
1.01359 -3.12057 2.07901 152 130 122
1.00965 -3.12679 2.08522 152 129 121
1.00572 -3.13299 2.09142 149 129 118
1.00180 -3.13919 2.09761 147 128 118
0.99788 -3.14538 2.10378 146 127 120
0.99397 -3.15155 2.10995 146 126 117
0.99006 -3.15772 2.11611 144 127 111
0.98616 -3.16388 2.12225 144 127 111
0.98227 -3.17002 2.12839 143 125 118
0.97839 -3.17615 2.13452 141 123 120
0.97451 -3.18228 2.14063 140 123 121
0.97064 -3.18839 2.14674 141 125 120
1.04861 -3.07330 2.01582 153 133 117
1.04460 -3.07962 2.02215 154 131 123
1.04060 -3.08593 2.02846 154 131 125
1.03661 -3.09223 2.03476 152 133 122
1.03262 -3.09852 2.04106 152 133 111
1.02864 -3.10480 2.04734 154 133 120
1.02466 -3.11107 2.05361 152 133 125
1.02070 -3.11732 2.05987 150 132 122
1.01674 -3.12357 2.06612 149 131 118
1.01279 -3.12981 2.07236 149 129 118
1.00884 -3.13603 2.07859 148 128 121
1.00490 -3.14224 2.08481 147 129 118
1.00097 -3.14845 2.09102 148 128 117
0.99704 -3.15464 2.09721 149 127 115
0.99312 -3.16082 2.10340 148 126 112
0.98921 -3.16699 2.10958 144 127 110
0.98530 -3.17316 2.11574 142 128 110
0.98140 -3.17931 2.12190 143 128 111
0.97751 -3.18545 2.12804 143 126 111
0.97362 -3.19158 2.13417 142 125 111
0.96974 -3.19770 2.14030 140 121 106
0.96587 -3.20381 2.14641 140 118 109
1.05190 -3.07619 2.00260 157 133 119
1.04787 -3.08253 2.00896 156 132 117
1.04386 -3.08885 2.01530 155 131 117
1.03985 -3.09517 2.02164 154 131 122
1.03585 -3.10148 2.02796 152 133 123
1.03185 -3.10777 2.03428 152 134 117
1.02786 -3.11406 2.04058 151 134 119
1.02388 -3.12033 2.04687 152 134 121
1.01991 -3.12659 2.05315 152 132 123
1.01594 -3.13284 2.05942 149 130 122
1.01198 -3.13909 2.06568 148 128 120
1.00802 -3.14532 2.07193 148 128 120
1.00408 -3.15154 2.07817 147 130 117
1.00013 -3.15774 2.08439 147 129 116
0.99620 -3.16394 2.09061 148 126 115
0.99227 -3.17013 2.09682 148 125 112
0.98835 -3.17631 2.10301 146 126 113
0.98444 -3.18248 2.10920 145 128 111
0.98053 -3.18863 2.11537 146 128 103
0.97663 -3.19478 2.12154 145 126 102
0.97273 -3.20092 2.12769 142 125 107
0.96885 -3.20704 2.13383 140 125 106
0.96497 -3.21316 2.13997 140 124 107
0.96109 -3.21926 2.14609 142 126 111
0.95722 -3.22535 2.15220 144 128 108
0.95336 -3.23144 2.15830 147 128 105
0.94951 -3.23751 2.16439 147 127 108
0.94566 -3.24358 2.17047 145 126 109
0.94182 -3.24963 2.17654 144 126 107
0.93798 -3.25567 2.18260 144 125 108
0.93415 -3.26171 2.18865 144 123 118
0.93033 -3.26773 2.19469 145 124 118
0.92651 -3.27374 2.20072 144 125 115
0.92270 -3.27974 2.20674 140 121 115
1.13747 -2.94962 1.85917 154 133 123
1.13329 -2.95620 1.86578 155 132 121
1.12912 -2.96277 1.87239 155 133 120
1.12495 -2.96933 1.87898 156 133 122
1.12079 -2.97588 1.88556 157 131 123
1.11664 -2.98241 1.89213 155 131 119
1.11249 -2.98894 1.89869 152 132 115
1.10835 -2.99545 1.90523 153 134 124
1.10422 -3.00195 1.91177 154 133 122
1.05521 -3.07909 1.98930 157 134 121
1.05117 -3.08545 1.99569 158 133 119
1.04714 -3.09179 2.00207 156 132 118
1.04311 -3.09813 2.00843 154 133 120
1.03910 -3.10445 2.01479 155 133 122
1.03509 -3.11076 2.02113 154 134 125
1.03108 -3.11706 2.02747 154 135 123
1.02708 -3.12335 2.03379 151 135 121
1.02309 -3.12963 2.04010 152 134 121
1.01911 -3.13590 2.04640 153 131 121
1.01513 -3.14216 2.05269 151 129 121
1.01117 -3.14841 2.05897 149 129 119
1.00720 -3.15464 2.06524 148 130 117
1.00325 -3.16087 2.07150 150 131 117
0.99930 -3.16708 2.07774 150 128 121
0.99536 -3.17329 2.08398 150 126 118
0.99142 -3.17948 2.09021 149 125 108
0.98749 -3.18567 2.09642 147 126 109
0.98357 -3.19184 2.10262 146 128 113
0.97965 -3.19800 2.10882 145 127 108
0.97574 -3.20416 2.11500 144 124 106
0.97184 -3.21030 2.12118 142 123 110
0.96795 -3.21643 2.12734 143 123 111
0.96406 -3.22255 2.13349 143 124 114
0.96017 -3.22866 2.13963 145 128 116
0.95630 -3.23476 2.14576 146 130 116
0.95243 -3.24085 2.15188 146 130 115
0.94857 -3.24693 2.15799 146 127 114
0.94471 -3.25300 2.16409 145 126 116
0.94086 -3.25906 2.17018 145 127 114
0.93702 -3.26510 2.17626 146 127 109
0.93318 -3.27114 2.18233 146 126 117
0.92935 -3.27717 2.18839 146 126 120
0.92553 -3.28319 2.19444 141 126 112
0.92171 -3.28920 2.20048 138 123 104
1.13693 -2.95877 1.85178 152 132 124
1.13274 -2.96536 1.85841 155 133 118
1.12856 -2.97194 1.86504 156 133 115
1.12438 -2.97851 1.87165 158 135 117
1.12021 -2.98506 1.87826 157 133 118
1.11605 -2.99160 1.88485 157 133 117
1.11189 -2.99814 1.89143 155 134 116
1.10775 -3.00466 1.89799 157 136 118
1.10361 -3.01116 1.90455 157 136 113
1.09947 -3.01766 1.91109 155 136 105
1.09535 -3.02415 1.91763 154 135 116
1.09123 -3.03062 1.92415 155 131 121
1.08712 -3.03708 1.93066 153 130 121
1.08301 -3.04354 1.93716 154 132 119
1.07892 -3.04998 1.94365 155 133 116
1.07483 -3.05641 1.95012 151 131 119
1.05449 -3.08838 1.98234 154 136 118
1.05044 -3.09475 1.98874 156 136 117
1.04640 -3.10110 1.99514 154 134 117
1.04237 -3.10744 2.00153 153 134 120
1.03834 -3.11377 2.00791 154 135 124
1.03432 -3.12009 2.01427 153 136 131
1.03031 -3.12640 2.02062 154 135 128
1.02630 -3.13269 2.02697 154 134 122
1.02230 -3.13898 2.03330 153 132 120
1.01831 -3.14525 2.03962 152 130 117
1.01433 -3.15152 2.04593 150 130 117
1.01035 -3.15777 2.05223 149 130 119
1.00638 -3.16401 2.05852 151 129 116
1.00241 -3.17025 2.06480 152 128 117
0.99846 -3.17647 2.07106 152 127 120
0.99451 -3.18268 2.07732 149 126 115
0.99056 -3.18888 2.08356 149 127 109
0.98663 -3.19507 2.08980 149 127 111
0.98270 -3.20125 2.09602 147 127 115
0.97877 -3.20741 2.10224 145 125 113
0.97485 -3.21357 2.10844 145 123 111
0.97094 -3.21972 2.11463 146 123 109
0.96704 -3.22586 2.12081 145 124 109
0.96314 -3.23198 2.12698 144 125 113
0.95925 -3.23810 2.13315 147 128 115
0.95537 -3.24420 2.13930 148 129 115
0.95149 -3.25030 2.14544 147 128 116
0.94762 -3.25639 2.15156 146 127 117
0.94376 -3.26246 2.15768 145 127 117
0.93990 -3.26852 2.16379 144 127 114
0.93605 -3.27458 2.16989 144 127 111
0.93220 -3.28062 2.17598 144 128 115
0.92837 -3.28666 2.18206 143 127 116
0.92454 -3.29268 2.18812 142 126 113
0.92071 -3.29869 2.19418 140 123 108
1.13638 -2.96797 1.84435 152 131 119
1.13218 -2.97457 1.85101 155 133 117
1.12799 -2.98116 1.85766 155 132 114
1.12380 -2.98773 1.86429 157 134 118
1.11963 -2.99429 1.87092 157 134 113
1.11546 -3.00084 1.87753 158 135 113
1.11129 -3.00738 1.88413 157 135 114
1.10714 -3.01391 1.89072 158 136 117
1.10299 -3.02042 1.89730 157 136 115
1.09884 -3.02692 1.90386 154 136 110
1.09471 -3.03342 1.91042 153 135 116
1.09058 -3.03990 1.91696 154 133 119
1.08646 -3.04637 1.92349 154 131 121
1.08235 -3.05283 1.93001 155 130 118
1.07824 -3.05927 1.93652 154 131 116
1.07415 -3.06571 1.94302 153 130 118
1.07005 -3.07213 1.94951 153 132 114
1.06597 -3.07855 1.95598 150 130 106
1.06189 -3.08495 1.96245 147 132 111
1.05782 -3.09134 1.96890 149 137 123
1.05376 -3.09772 1.97534 154 138 124
1.04970 -3.10409 1.98177 156 136 120
1.04566 -3.11045 1.98819 156 134 121
1.04161 -3.11680 1.99459 155 133 123
1.03758 -3.12313 2.00099 155 134 123
1.03355 -3.12946 2.00738 154 135 127
1.02953 -3.13577 2.01375 154 133 128
1.02552 -3.14207 2.02011 155 133 123
1.02151 -3.14837 2.02647 154 132 122
1.01751 -3.15465 2.03281 152 131 120
1.01352 -3.16092 2.03914 151 130 121
1.00953 -3.16718 2.04546 152 129 124
1.00555 -3.17343 2.05177 153 128 119
1.00158 -3.17966 2.05806 152 128 118
0.99761 -3.18589 2.06435 150 128 119
0.99365 -3.19211 2.07063 149 128 114
0.98970 -3.19831 2.07689 149 127 109
0.98576 -3.20451 2.08315 150 127 111
0.98182 -3.21070 2.08939 149 126 117
0.97789 -3.21687 2.09562 147 124 116
0.97396 -3.22303 2.10185 145 122 116
0.97004 -3.22919 2.10806 146 124 115
0.96613 -3.23533 2.11426 147 125 110
0.96223 -3.24146 2.12045 147 127 109
0.95833 -3.24758 2.12663 149 128 114
0.95444 -3.25369 2.13280 150 127 117
0.95055 -3.25979 2.13896 148 128 116
0.94667 -3.26589 2.14511 146 129 113
0.94280 -3.27197 2.15125 147 129 108
0.93894 -3.27804 2.15737 148 128 106
0.93508 -3.28409 2.16349 147 127 110
0.93122 -3.29014 2.16960 146 127 117
0.92738 -3.29618 2.17570 145 126 112
0.92354 -3.30221 2.18178 143 125 111
0.91971 -3.30823 2.18786 142 124 110
1.13584 -2.97722 1.83689 152 131 120
1.13163 -2.98382 1.84357 153 134 121
1.12742 -2.99041 1.85024 154 133 115
1.12323 -2.99699 1.85690 156 134 119
1.11904 -3.00356 1.86355 156 135 111
1.11486 -3.01012 1.87018 157 134 115
1.11069 -3.01666 1.87680 156 135 117
1.10652 -3.02320 1.88341 156 136 120
1.10236 -3.02972 1.89001 156 136 120
1.09821 -3.03623 1.89660 155 135 112
1.09407 -3.04273 1.90318 154 134 114
1.08993 -3.04922 1.90974 154 134 117
1.08580 -3.05570 1.91630 153 132 121
1.08168 -3.06216 1.92284 154 131 117
1.07757 -3.06861 1.92937 153 130 115
1.07346 -3.07506 1.93589 153 131 117
1.06936 -3.08149 1.94239 153 131 114
1.06527 -3.08791 1.94889 150 130 105
1.06118 -3.09432 1.95537 149 133 112
1.05710 -3.10072 1.96185 150 137 122
1.05303 -3.10710 1.96831 153 137 123
1.04897 -3.11348 1.97476 156 136 121
1.04491 -3.11984 1.98120 155 133 124
1.04086 -3.12620 1.98763 155 133 123
1.03682 -3.13254 1.99405 155 133 120
1.03278 -3.13887 2.00045 155 135 122
1.02875 -3.14519 2.00685 156 134 123
1.02473 -3.15150 2.01323 155 133 118
1.02071 -3.15780 2.01960 154 132 121
1.01670 -3.16408 2.02596 152 129 124
1.01270 -3.17036 2.03231 152 128 124
1.00871 -3.17663 2.03865 153 128 124
1.00472 -3.18288 2.04498 153 128 119
1.00074 -3.18913 2.05130 152 129 116
0.99677 -3.19536 2.05761 151 129 112
0.99280 -3.20158 2.06390 150 128 113
0.98884 -3.20779 2.07019 149 127 119
0.98488 -3.21400 2.07646 149 127 119
0.98094 -3.22019 2.08273 149 125 118
0.97700 -3.22637 2.08898 148 123 114
0.97306 -3.23254 2.09522 146 123 114
0.96914 -3.23869 2.10146 145 124 119
0.96522 -3.24484 2.10768 145 126 117
0.96131 -3.25098 2.11389 148 126 110
0.95740 -3.25711 2.12009 150 127 107
0.95350 -3.26323 2.12628 149 127 107
0.94961 -3.26933 2.13245 147 128 111
0.94572 -3.27543 2.13862 146 129 110
0.94184 -3.28151 2.14478 146 130 108
0.93797 -3.28759 2.15093 146 129 105
0.93410 -3.29365 2.15706 145 128 107
0.93024 -3.29971 2.16319 144 127 113
0.92639 -3.30575 2.16931 143 125 110
0.92254 -3.31179 2.17541 143 124 103
0.91870 -3.31781 2.18151 142 124 101
1.13107 -2.99311 1.83610 153 133 121
1.12685 -2.99971 1.84279 154 134 119
1.12265 -3.00630 1.84947 155 135 114
1.11845 -3.01288 1.85614 156 134 112
1.11426 -3.01944 1.86280 156 133 117
1.11008 -3.02599 1.86944 156 133 116
1.10591 -3.03253 1.87607 156 134 120
1.10174 -3.03906 1.88269 155 135 119
1.09758 -3.04558 1.88930 154 135 116
1.09343 -3.05209 1.89590 155 134 116
1.08928 -3.05858 1.90249 154 133 119
1.08514 -3.06507 1.90906 151 131 123
1.08101 -3.07154 1.91563 152 131 114
1.07689 -3.07800 1.92218 152 130 107
1.07277 -3.08445 1.92872 153 131 113
1.06866 -3.09089 1.93525 154 130 118
1.06456 -3.09731 1.94176 150 128 112
1.06047 -3.10373 1.94827 151 134 114
1.05638 -3.11013 1.95476 151 138 120
1.05230 -3.11653 1.96125 152 137 124
1.04823 -3.12291 1.96772 154 136 123
1.04416 -3.12928 1.97418 154 135 126
1.04010 -3.13564 1.98063 156 134 125
1.03605 -3.14199 1.98707 155 135 121
1.03200 -3.14832 1.99349 156 137 121
1.02797 -3.15465 1.99991 156 137 117
1.02393 -3.16097 2.00631 155 136 109
1.01991 -3.16727 2.01271 154 133 116
1.01589 -3.17356 2.01909 152 129 124
1.01188 -3.17985 2.02546 152 128 122
1.00788 -3.18612 2.03182 152 128 120
1.00388 -3.19238 2.03817 152 130 116
0.99990 -3.19863 2.04451 150 131 117
0.99591 -3.20487 2.05084 148 131 121
0.99194 -3.21110 2.05715 147 129 123
0.98797 -3.21732 2.06346 149 128 127
0.98401 -3.22352 2.06975 149 128 125
0.98005 -3.22972 2.07604 146 126 115
0.97610 -3.23591 2.08231 145 124 107
0.97216 -3.24208 2.08857 145 124 103
0.96823 -3.24825 2.09482 144 126 106
0.96430 -3.25440 2.10106 145 127 110
0.96038 -3.26054 2.10729 149 127 116
0.95647 -3.26668 2.11351 151 127 116
0.95256 -3.27280 2.11972 149 128 113
0.94866 -3.27891 2.12592 148 126 108
0.94476 -3.28501 2.13211 147 125 109
0.94087 -3.29110 2.13828 148 126 116
0.93699 -3.29719 2.14445 148 126 110
0.93312 -3.30326 2.15061 146 126 110
0.92925 -3.30932 2.15675 144 126 115
0.92539 -3.31537 2.16289 144 124 116
0.92154 -3.32141 2.16901 144 123 109
0.91769 -3.32744 2.17513 142 122 109
1.12628 -3.00906 1.83530 152 134 122
1.12207 -3.01565 1.84201 156 134 113
1.11786 -3.02223 1.84870 157 133 114
1.11366 -3.02881 1.85538 158 132 119
1.10947 -3.03537 1.86204 157 131 111
1.10529 -3.04191 1.86870 156 132 118
1.10111 -3.04845 1.87534 156 134 121
1.09694 -3.05497 1.88197 153 135 118
1.09278 -3.06149 1.88859 155 133 118
1.08863 -3.06799 1.89520 154 131 119
1.08448 -3.07448 1.90180 152 130 119
1.08034 -3.08096 1.90838 151 131 108
1.07621 -3.08743 1.91496 150 130 101
1.07208 -3.09388 1.92152 152 131 109
1.06796 -3.10033 1.92807 152 129 111
1.06385 -3.10676 1.93461 151 125 112
1.05975 -3.11318 1.94113 153 132 116
1.05565 -3.11959 1.94765 155 136 120
1.05156 -3.12599 1.95415 156 136 123
1.04748 -3.13238 1.96065 155 135 119
1.04341 -3.13876 1.96713 153 135 116
1.03934 -3.14512 1.97360 154 134 119
1.03528 -3.15148 1.98006 155 135 124
1.03122 -3.15782 1.98650 156 136 125
1.02718 -3.16416 1.99294 156 137 119
1.02314 -3.17048 1.99937 154 136 113
1.01911 -3.17679 2.00578 152 133 114
1.01508 -3.18309 2.01218 150 131 117
1.01106 -3.18938 2.01858 150 130 120
1.00705 -3.19566 2.02496 151 129 115
1.00305 -3.20192 2.03133 151 129 105
0.99905 -3.20818 2.03768 149 130 109
0.99506 -3.21442 2.04403 147 131 117
0.99107 -3.22066 2.05037 146 129 120
0.98710 -3.22688 2.05669 148 127 122
0.98313 -3.23310 2.06301 148 127 120
0.97916 -3.23930 2.06931 145 126 117
0.97521 -3.24549 2.07561 145 125 116
0.97126 -3.25167 2.08189 145 125 112
0.96732 -3.25784 2.08816 145 126 107
0.96338 -3.26400 2.09442 146 127 111
0.95945 -3.27015 2.10067 147 129 120
0.95553 -3.27629 2.10691 148 129 124
0.95161 -3.28242 2.11314 148 129 121
0.94770 -3.28853 2.11936 148 127 111
0.94380 -3.29464 2.12556 148 125 111
0.93990 -3.30074 2.13176 150 124 113
0.93602 -3.30683 2.13794 149 124 111
0.93213 -3.31290 2.14412 146 125 110
0.92826 -3.31897 2.15029 143 124 110
0.92439 -3.32502 2.15644 142 123 110
0.92053 -3.33107 2.16258 143 122 106
0.91667 -3.33710 2.16872 142 122 108
1.12148 -3.02505 1.83451 154 132 114
1.11727 -3.03164 1.84122 156 132 119
1.11306 -3.03822 1.84792 158 131 118
1.10886 -3.04478 1.85461 157 130 114
1.10467 -3.05134 1.86129 155 131 118
1.10048 -3.05788 1.86795 156 133 123
1.09630 -3.06441 1.87461 155 132 118
1.09213 -3.07093 1.88125 155 131 121
1.08797 -3.07744 1.88788 154 131 122
1.08381 -3.08394 1.89450 154 131 121
1.07966 -3.09042 1.90110 153 130 112
1.07552 -3.09690 1.90770 150 130 111
1.07139 -3.10336 1.91428 151 130 115
1.06726 -3.10981 1.92085 150 127 106
1.06314 -3.11625 1.92741 151 128 109
1.05903 -3.12268 1.93396 153 134 115
1.05492 -3.12910 1.94050 155 137 121
1.05082 -3.13550 1.94703 157 137 124
1.04673 -3.14190 1.95354 156 135 120
1.04265 -3.14828 1.96004 154 134 118
1.03857 -3.15465 1.96653 156 133 119
1.03450 -3.16102 1.97301 156 134 123
1.03044 -3.16737 1.97948 155 135 124
1.02639 -3.17371 1.98594 155 134 123
1.02234 -3.18003 1.99239 154 133 122
1.01830 -3.18635 1.99882 152 132 112
1.01426 -3.19266 2.00525 150 130 110
1.01024 -3.19895 2.01166 150 129 115
1.00622 -3.20524 2.01806 151 129 113
1.00220 -3.21151 2.02445 150 130 110
0.99820 -3.21777 2.03083 148 131 111
0.99420 -3.22402 2.03720 146 131 113
0.99021 -3.23026 2.04355 147 129 117
0.98622 -3.23649 2.04990 148 127 119
0.98224 -3.24271 2.05624 147 126 116
0.97827 -3.24892 2.06256 147 126 112
0.97431 -3.25512 2.06887 147 124 107
0.97035 -3.26130 2.07517 146 124 107
0.96640 -3.26748 2.08147 145 127 111
0.96245 -3.27365 2.08775 146 129 114
0.95852 -3.27980 2.09402 146 131 118
0.95459 -3.28594 2.10028 147 130 118
0.95066 -3.29208 2.10652 146 130 111
0.94674 -3.29820 2.11276 146 128 105
0.94283 -3.30431 2.11899 147 127 111
0.93893 -3.31042 2.12520 148 125 113
0.93503 -3.31651 2.13141 148 124 115
0.93114 -3.32259 2.13760 146 124 110
0.92726 -3.32866 2.14379 144 124 109
0.92338 -3.33472 2.14996 143 123 109
0.91951 -3.34077 2.15613 143 122 108
0.91565 -3.34681 2.16228 144 121 108
1.11667 -3.04108 1.83371 153 133 123
1.11245 -3.04767 1.84043 156 132 120
1.10824 -3.05424 1.84714 157 132 117
1.10404 -3.06080 1.85384 157 132 117
1.09985 -3.06735 1.86053 157 133 117
1.09566 -3.07389 1.86721 156 132 112
1.09148 -3.08042 1.87387 156 132 121
1.08731 -3.08694 1.88052 154 132 120
1.08314 -3.09344 1.88716 152 132 116
1.07898 -3.09993 1.89379 152 129 107
1.07483 -3.10641 1.90041 151 128 111
1.07069 -3.11288 1.90701 151 129 116
1.06655 -3.11934 1.91361 147 125 112
1.06242 -3.12579 1.92019 149 130 113
1.05830 -3.13222 1.92676 154 136 119
1.05419 -3.13865 1.93332 155 138 125
1.05008 -3.14506 1.93987 156 138 131
1.04598 -3.15146 1.94640 155 136 126
1.04189 -3.15785 1.95293 154 134 122
1.03780 -3.16423 1.95944 154 134 123
1.03373 -3.17060 1.96594 154 133 125
1.02965 -3.17695 1.97243 154 133 124
1.02559 -3.18330 1.97891 154 132 122
1.02153 -3.18963 1.98538 153 132 120
1.01748 -3.19596 1.99183 152 132 113
1.01344 -3.20227 1.99828 151 131 111
1.00941 -3.20857 2.00471 151 130 113
1.00538 -3.21486 2.01113 150 130 110
1.00136 -3.22114 2.01754 150 131 113
0.99734 -3.22741 2.02394 148 130 112
0.99333 -3.23366 2.03033 148 130 110
0.98933 -3.23991 2.03671 149 129 116
0.98534 -3.24615 2.04307 148 127 116
0.98135 -3.25237 2.04943 146 126 112
0.97737 -3.25858 2.05577 146 125 108
0.97340 -3.26479 2.06211 146 125 105
0.96943 -3.27098 2.06843 145 126 105
0.96548 -3.27716 2.07474 145 129 107
0.96152 -3.28333 2.08104 146 131 111
0.95758 -3.28949 2.08733 147 131 115
0.95364 -3.29564 2.09361 148 130 115
0.94971 -3.30178 2.09988 147 131 113
0.94578 -3.30791 2.10614 146 130 112
0.94186 -3.31403 2.11238 145 129 115
0.93795 -3.32014 2.11862 146 126 117
0.93405 -3.32624 2.12485 146 124 117
0.93015 -3.33232 2.13106 144 125 108
0.92626 -3.33840 2.13726 142 125 106
0.92237 -3.34447 2.14346 142 123 111
0.91849 -3.35052 2.14964 141 121 115
0.91462 -3.35657 2.15581 144 120 113
1.11184 -3.05717 1.83291 155 133 121
1.10762 -3.06375 1.83964 157 133 122
1.10341 -3.07032 1.84636 156 134 120
1.09921 -3.07687 1.85307 156 134 118
1.09501 -3.08342 1.85977 156 133 115
1.09082 -3.08995 1.86646 156 134 117
1.08664 -3.09648 1.87313 155 134 119
1.08247 -3.10299 1.87980 152 133 118
1.07830 -3.10949 1.88645 151 131 107
1.07414 -3.11597 1.89308 151 129 110
1.06999 -3.12245 1.89971 150 130 115
1.06584 -3.12891 1.90633 146 129 110
1.06170 -3.13537 1.91293 149 133 115
1.05757 -3.14181 1.91952 156 137 121
1.05345 -3.14824 1.92610 156 137 122
1.04934 -3.15466 1.93267 157 135 124
1.04523 -3.16107 1.93923 156 134 123
1.04113 -3.16746 1.94577 154 133 123
1.03703 -3.17385 1.95231 153 134 123
1.03294 -3.18022 1.95883 154 134 123
1.02886 -3.18658 1.96534 153 133 122
1.02479 -3.19294 1.97184 153 132 120
1.02073 -3.19928 1.97833 152 131 117
1.01667 -3.20561 1.98481 150 130 116
1.01262 -3.21192 1.99127 149 131 117
1.00857 -3.21823 1.99773 148 131 118
1.00454 -3.22453 2.00417 148 132 115
1.00051 -3.23081 2.01060 151 131 112
0.99648 -3.23709 2.01702 151 130 109
0.99247 -3.24335 2.02343 149 129 109
0.98846 -3.24960 2.02983 147 129 112
0.98446 -3.25584 2.03622 146 128 111
0.98046 -3.26207 2.04259 144 126 108
0.97647 -3.26829 2.04896 144 125 108
0.97249 -3.27450 2.05531 146 126 107
0.96852 -3.28070 2.06166 144 127 109
0.96455 -3.28689 2.06799 144 129 109
0.96059 -3.29307 2.07431 146 131 111
0.95664 -3.29923 2.08062 147 130 117
0.95269 -3.30539 2.08692 147 129 118
0.94875 -3.31153 2.09321 146 129 118
0.94482 -3.31767 2.09948 145 130 113
0.94089 -3.32379 2.10575 143 129 112
0.93697 -3.32991 2.11201 146 127 113
0.93306 -3.33601 2.11825 146 125 112
0.92915 -3.34210 2.12449 144 125 107
0.92525 -3.34818 2.13071 141 125 105
0.92136 -3.35425 2.13692 141 125 112
0.91747 -3.36031 2.14312 142 124 109
0.91359 -3.36636 2.14932 141 122 105
1.11123 -3.06671 1.82535 155 131 120
1.10700 -3.07330 1.83210 157 133 125
1.10278 -3.07987 1.83885 157 134 122
1.09857 -3.08644 1.84558 156 133 119
1.09436 -3.09299 1.85230 156 133 116
1.09016 -3.09953 1.85901 155 133 115
1.08597 -3.10606 1.86571 155 133 121
1.08179 -3.11258 1.87239 154 132 126
1.07761 -3.11908 1.87907 153 131 109
1.07344 -3.12558 1.88573 152 131 108
1.06928 -3.13206 1.89238 151 131 110
1.06513 -3.13853 1.89901 150 130 111
1.06098 -3.14499 1.90564 153 133 119
1.05684 -3.15144 1.91225 155 134 124
1.05271 -3.15788 1.91885 154 134 120
1.04859 -3.16430 1.92544 153 135 119
1.04447 -3.17072 1.93202 153 134 119
1.04036 -3.17712 1.93859 154 132 119
1.03625 -3.18351 1.94515 154 133 122
1.03216 -3.18989 1.95169 153 132 117
1.02807 -3.19626 1.95822 153 133 116
1.02399 -3.20262 1.96474 153 131 118
1.01991 -3.20896 1.97125 153 129 115
1.01585 -3.21530 1.97775 150 129 116
1.01179 -3.22162 1.98424 149 130 120
1.00774 -3.22794 1.99071 148 131 120
1.00369 -3.23424 1.99718 148 131 118
0.99965 -3.24053 2.00363 152 130 115
0.99562 -3.24681 2.01007 153 128 111
0.99160 -3.25308 2.01650 150 126 113
0.98758 -3.25934 2.02292 148 126 112
0.98357 -3.26559 2.02933 146 126 108
0.97956 -3.27182 2.03573 144 126 108
0.97557 -3.27805 2.04211 145 126 112
0.97158 -3.28426 2.04849 147 126 115
0.96760 -3.29047 2.05485 147 127 117
0.96362 -3.29666 2.06120 145 128 120
0.95965 -3.30284 2.06754 145 130 115
0.95569 -3.30902 2.07387 147 128 115
0.95173 -3.31518 2.08019 150 127 114
0.94779 -3.32133 2.08650 148 127 113
0.94384 -3.32747 2.09280 146 127 111
0.93991 -3.33360 2.09909 146 127 115
0.93598 -3.33972 2.10536 147 126 114
0.93206 -3.34582 2.11163 145 124 107
0.92815 -3.35192 2.11788 143 123 108
0.92424 -3.35801 2.12412 141 123 107
0.92034 -3.36408 2.13036 142 122 110
0.91644 -3.37015 2.13658 140 123 106
0.91256 -3.37621 2.14279 139 121 104
1.10638 -3.08289 1.82453 154 133 120
1.10215 -3.08948 1.83130 157 134 120
1.09793 -3.09605 1.83805 157 133 118
1.09371 -3.10261 1.84480 156 133 119
1.08950 -3.10916 1.85153 153 133 122
1.08530 -3.11569 1.85825 156 132 121
1.08111 -3.12222 1.86495 155 131 119
1.07692 -3.12873 1.87165 155 132 109
1.07274 -3.13523 1.87833 153 132 107
1.06857 -3.14172 1.88500 150 130 105
1.06441 -3.14820 1.89166 151 131 110
1.06026 -3.15466 1.89831 154 133 119
1.05611 -3.16112 1.90495 155 133 123
1.05197 -3.16756 1.91157 154 133 122
1.04783 -3.17399 1.91818 153 134 122
1.04371 -3.18041 1.92478 154 134 118
1.03959 -3.18682 1.93137 154 133 115
1.03547 -3.19322 1.93795 155 132 118
1.03137 -3.19961 1.94452 155 133 119
1.02727 -3.20598 1.95107 153 133 118
1.02318 -3.21235 1.95761 152 130 117
1.01910 -3.21870 1.96414 151 128 112
1.01502 -3.22504 1.97066 150 128 115
1.01096 -3.23137 1.97717 150 130 122
1.00689 -3.23769 1.98367 151 130 120
1.00284 -3.24400 1.99015 151 129 115
0.99879 -3.25030 1.99663 150 129 114
0.99475 -3.25658 2.00309 150 127 112
0.99072 -3.26286 2.00954 148 126 113
0.98669 -3.26912 2.01598 145 126 114
0.98267 -3.27537 2.02241 146 125 111
0.97866 -3.28162 2.02883 145 124 108
0.97466 -3.28785 2.03523 145 124 107
0.97066 -3.29407 2.04163 146 125 105
0.96667 -3.30028 2.04801 147 127 109
0.96269 -3.30648 2.05439 145 128 120
0.95871 -3.31267 2.06075 143 128 120
0.95474 -3.31884 2.06710 147 127 120
0.95077 -3.32501 2.07344 148 126 119
0.94682 -3.33117 2.07977 148 126 115
0.94287 -3.33731 2.08608 148 125 107
0.93893 -3.34345 2.09239 145 126 109
0.93499 -3.34957 2.09869 144 126 113
0.93106 -3.35568 2.10497 143 125 110
0.92714 -3.36179 2.11125 142 124 111
0.92322 -3.36788 2.11751 142 121 114
0.91931 -3.37396 2.12376 143 124 114
0.91541 -3.38003 2.13000 141 122 107
0.91152 -3.38609 2.13624 140 120 106
1.10575 -3.09254 1.81692 151 132 121
1.10151 -3.09913 1.82371 153 134 121
1.09728 -3.10570 1.83049 155 135 115
1.09305 -3.11227 1.83726 156 134 117
1.08884 -3.11882 1.84401 155 134 120
1.08463 -3.12537 1.85075 155 133 117
1.08042 -3.13190 1.85748 154 132 112
1.07623 -3.13842 1.86420 154 132 108
1.07204 -3.14492 1.87090 152 130 110
1.06786 -3.15142 1.87760 149 129 114
1.06369 -3.15790 1.88428 150 132 115
1.05953 -3.16438 1.89095 153 135 115
1.05537 -3.17084 1.89761 153 134 118
1.05122 -3.17729 1.90425 153 133 122
1.04708 -3.18373 1.91089 152 133 119
1.04294 -3.19015 1.91751 153 133 114
1.03881 -3.19657 1.92412 153 131 114
1.03469 -3.20297 1.93072 152 131 118
1.03058 -3.20937 1.93731 153 131 121
1.02647 -3.21575 1.94388 151 132 123
1.02237 -3.22212 1.95045 150 130 122
1.01828 -3.22848 1.95700 150 129 120
1.01420 -3.23483 1.96354 149 129 119
1.01012 -3.24116 1.97007 149 130 120
1.00605 -3.24749 1.97659 150 130 118
1.00199 -3.25380 1.98310 151 129 117
0.99793 -3.26011 1.98959 150 128 118
0.99388 -3.26640 1.99608 150 127 119
0.98984 -3.27268 2.00255 150 126 120
0.98581 -3.27895 2.00901 148 125 118
0.98178 -3.28521 2.01546 148 124 112
0.97776 -3.29146 2.02190 146 124 103
0.97374 -3.29769 2.02832 146 123 104
0.96974 -3.30392 2.03474 147 125 108
0.96574 -3.31013 2.04114 149 128 115
0.96175 -3.31634 2.04754 146 129 124
0.95776 -3.32253 2.05392 146 128 124
0.95378 -3.32872 2.06029 148 125 118
0.94981 -3.33489 2.06665 148 124 114
0.94585 -3.34105 2.07300 147 125 113
0.94189 -3.34720 2.07934 146 125 116
0.93794 -3.35334 2.08567 144 126 116
0.93399 -3.35947 2.09198 142 125 115
0.93006 -3.36559 2.09829 140 124 113
0.92613 -3.37170 2.10458 141 124 109
0.92220 -3.37780 2.11087 140 123 110
0.91829 -3.38388 2.11714 138 124 113
0.91438 -3.38996 2.12340 139 121 108
0.91047 -3.39603 2.12965 139 118 104
1.10087 -3.10882 1.81609 150 134 124
1.09663 -3.11540 1.82289 153 134 118
1.09240 -3.12198 1.82968 154 134 116
1.08817 -3.12854 1.83646 154 134 117
1.08395 -3.13509 1.84322 154 133 117
1.07974 -3.14163 1.84997 154 133 116
1.07553 -3.14815 1.85671 155 131 112
1.07134 -3.15467 1.86344 153 129 107
1.06715 -3.16117 1.87016 148 129 104
1.06297 -3.16766 1.87686 149 132 109
1.05879 -3.17414 1.88355 153 134 112
1.05463 -3.18061 1.89023 154 133 119
1.03390 -3.21277 1.92346 150 127 119
1.02978 -3.21917 1.93007 153 128 122
1.02567 -3.22556 1.93666 153 131 121
1.02156 -3.23194 1.94325 150 130 120
1.01746 -3.23830 1.94982 149 129 118
1.01337 -3.24466 1.95639 150 129 114
1.00928 -3.25100 1.96294 148 130 115
1.00520 -3.25733 1.96948 148 130 120
1.00113 -3.26365 1.97601 149 129 123
0.99706 -3.26996 1.98252 148 126 123
0.99301 -3.27626 1.98903 147 126 119
0.98896 -3.28255 1.99552 146 126 117
0.98491 -3.28882 2.00200 145 125 116
0.98088 -3.29509 2.00847 146 124 113
0.97685 -3.30134 2.01493 145 123 109
0.97283 -3.30758 2.02138 142 122 111
0.96881 -3.31382 2.02782 145 124 115
0.96480 -3.32004 2.03424 145 126 116
0.96080 -3.32625 2.04066 145 127 115
0.95681 -3.33245 2.04706 146 128 113
0.95282 -3.33863 2.05345 146 126 115
0.94884 -3.34481 2.05983 147 125 117
0.94487 -3.35098 2.06620 147 126 119
0.94090 -3.35714 2.07256 145 128 122
0.93694 -3.36328 2.07891 143 128 124
0.93299 -3.36942 2.08525 142 125 118
0.92905 -3.37554 2.09157 142 123 119
0.92511 -3.38166 2.09789 142 121 116
0.92118 -3.38776 2.10419 140 122 109
0.91725 -3.39385 2.11048 140 120 104
0.91333 -3.39993 2.11676 139 119 101
0.90942 -3.40600 2.12304 138 116 106
1.09598 -3.12515 1.81525 152 132 118
1.09173 -3.13173 1.82207 153 134 119
1.08750 -3.13830 1.82887 153 135 119
1.08327 -3.14486 1.83565 154 134 121
1.07905 -3.15140 1.84243 155 133 122
1.07483 -3.15793 1.84919 156 131 115
1.07063 -3.16445 1.85594 152 128 110
1.06643 -3.17096 1.86268 150 128 109
1.06224 -3.17746 1.86941 151 131 113
1.05806 -3.18395 1.87612 152 132 116
1.02898 -3.22902 1.92279 151 128 121
1.02486 -3.23542 1.92941 151 129 118
1.02074 -3.24180 1.93602 148 130 117
1.01663 -3.24817 1.94261 149 129 117
1.01253 -3.25453 1.94920 151 129 118
1.00843 -3.26088 1.95577 151 129 118
1.00435 -3.26722 1.96233 151 130 116
1.00027 -3.27355 1.96888 150 129 116
0.99619 -3.27986 1.97542 148 127 117
0.99213 -3.28616 1.98195 147 127 117
0.98807 -3.29246 1.98846 146 127 114
0.98402 -3.29874 1.99497 145 126 117
0.97997 -3.30501 2.00146 147 124 117
0.97593 -3.31127 2.00794 148 122 115
0.97190 -3.31752 2.01441 146 122 118
0.96788 -3.32376 2.02086 146 124 121
0.96386 -3.32998 2.02731 147 127 120
0.95986 -3.33620 2.03375 148 128 116
0.95585 -3.34241 2.04017 149 127 114
0.95186 -3.34860 2.04658 146 126 116
0.94787 -3.35478 2.05298 147 126 114
0.94389 -3.36096 2.05938 146 127 110
0.93991 -3.36712 2.06575 145 127 109
0.93595 -3.37327 2.07212 144 127 115
0.93199 -3.37941 2.07848 142 125 112
0.92803 -3.38554 2.08483 140 123 115
0.92409 -3.39166 2.09116 141 123 112
0.92015 -3.39777 2.09748 140 122 108
0.91621 -3.40386 2.10380 141 120 106
0.91229 -3.40995 2.11010 139 119 106
0.90837 -3.41603 2.11639 136 117 107
1.09107 -3.14153 1.81442 150 134 119
1.08682 -3.14811 1.82124 150 135 117
1.08259 -3.15467 1.82805 154 134 118
1.07835 -3.16122 1.83485 155 132 118
1.07413 -3.16776 1.84163 153 130 111
1.06992 -3.17429 1.84841 149 128 105
1.06571 -3.18080 1.85517 150 128 109
1.06151 -3.18731 1.86192 152 129 115
1.05732 -3.19380 1.86866 151 130 121
1.02404 -3.24532 1.92212 151 129 121
1.01992 -3.25171 1.92875 149 129 118
1.01580 -3.25809 1.93537 150 128 117
1.01169 -3.26446 1.94198 151 127 117
1.00759 -3.27081 1.94857 151 126 118
1.00349 -3.27715 1.95515 151 127 120
0.99940 -3.28349 1.96173 149 128 120
0.99532 -3.28981 1.96829 148 127 122
0.99124 -3.29612 1.97483 147 126 121
0.98718 -3.30242 1.98137 147 126 113
0.98312 -3.30870 1.98789 147 125 113
0.97906 -3.31498 1.99441 144 124 113
0.97502 -3.32125 2.00091 142 123 111
0.97098 -3.32750 2.00740 145 125 111
0.96695 -3.33374 2.01388 148 126 113
0.96292 -3.33998 2.02035 148 127 120
0.95890 -3.34620 2.02680 147 128 120
0.95489 -3.35241 2.03325 147 128 117
0.95089 -3.35861 2.03968 144 128 117
0.94689 -3.36480 2.04610 146 127 116
0.94290 -3.37098 2.05252 146 128 119
0.93892 -3.37714 2.05892 144 127 118
0.93495 -3.38330 2.06530 142 126 113
0.93098 -3.38945 2.07168 141 124 116
0.92701 -3.39558 2.07805 140 123 119
0.92306 -3.40171 2.08440 141 122 113
0.91911 -3.40782 2.09075 140 122 108
0.91517 -3.41392 2.09708 138 120 106
0.91124 -3.42002 2.10340 137 117 104
0.90731 -3.42610 2.10971 132 116 102
1.08615 -3.15796 1.81358 150 133 116
1.08190 -3.16453 1.82041 153 132 114
1.07766 -3.17109 1.82723 153 130 115
1.07343 -3.17763 1.83404 151 129 112
1.06920 -3.18417 1.84084 146 128 109
1.06498 -3.19069 1.84762 149 129 113
1.06077 -3.19720 1.85440 151 129 112
1.05657 -3.20370 1.86116 150 129 109
1.02323 -3.25528 1.91480 146 130 114
1.01909 -3.26167 1.92145 147 129 114
1.01497 -3.26805 1.92809 150 127 117
1.01085 -3.27443 1.93472 150 125 118
1.00673 -3.28079 1.94134 149 125 116
1.00263 -3.28714 1.94794 148 126 116
0.99853 -3.29347 1.95454 149 127 113
0.99444 -3.29980 1.96112 148 127 113
0.99036 -3.30612 1.96769 147 127 115
0.98628 -3.31242 1.97424 147 125 113
0.98221 -3.31872 1.98079 147 124 112
0.97815 -3.32500 1.98733 143 124 107
0.97409 -3.33127 1.99385 142 123 108
0.97005 -3.33753 2.00036 144 125 119
0.96601 -3.34378 2.00686 146 127 114
0.96197 -3.35002 2.01335 146 128 117
0.95795 -3.35624 2.01983 145 128 116
0.95393 -3.36246 2.02629 145 127 115
0.94992 -3.36867 2.03275 143 127 117
0.94591 -3.37486 2.03919 146 126 116
0.94191 -3.38104 2.04562 148 126 117
0.93792 -3.38722 2.05204 145 126 114
0.93394 -3.39338 2.05845 143 125 109
0.92996 -3.39953 2.06485 142 124 115
0.92599 -3.40567 2.07124 141 123 118
0.92203 -3.41180 2.07762 140 122 112
0.91807 -3.41792 2.08398 139 122 110
0.91412 -3.42403 2.09033 138 119 107
0.91018 -3.43013 2.09668 139 116 99
0.90624 -3.43621 2.10301 135 114 97
1.08121 -3.17444 1.81274 152 132 116
1.07696 -3.18100 1.81958 152 131 117
1.07272 -3.18756 1.82641 150 131 111
1.06848 -3.19410 1.83323 144 129 106
1.06426 -3.20063 1.84004 146 130 110
1.06004 -3.20714 1.84684 148 130 108
1.02241 -3.26527 1.90744 145 129 109
1.01826 -3.27167 1.91412 148 129 111
1.01413 -3.27806 1.92078 150 130 116
1.01000 -3.28444 1.92743 149 131 118
1.00588 -3.29081 1.93407 150 130 119
1.00176 -3.29717 1.94070 150 129 119
0.99766 -3.30351 1.94731 149 127 114
0.99356 -3.30984 1.95391 148 125 113
0.98946 -3.31616 1.96051 147 126 115
0.98538 -3.32247 1.96709 145 126 113
0.98130 -3.32877 1.97365 145 125 112
0.97723 -3.33506 1.98021 145 124 106
0.97317 -3.34134 1.98676 146 124 107
0.96911 -3.34761 1.99329 146 125 115
0.96506 -3.35386 1.99981 148 127 116
0.96102 -3.36010 2.00632 148 128 119
0.95699 -3.36634 2.01282 147 128 120
0.95296 -3.37256 2.01931 147 128 121
0.94894 -3.37877 2.02578 147 126 118
0.94493 -3.38497 2.03225 146 126 108
0.94092 -3.39116 2.03870 146 126 111
0.93692 -3.39734 2.04514 144 124 111
0.93293 -3.40350 2.05157 142 125 109
0.92894 -3.40966 2.05799 140 126 115
0.92496 -3.41581 2.06440 140 125 116
0.92099 -3.42194 2.07080 139 124 105
0.91703 -3.42807 2.07718 138 122 103
0.91307 -3.43418 2.08356 137 119 106
0.90912 -3.44028 2.08992 136 116 101
0.90518 -3.44637 2.09627 133 114 98
1.07626 -3.19097 1.81189 146 129 113
1.07200 -3.19753 1.81875 146 128 111
1.06776 -3.20407 1.82559 148 129 107
1.06352 -3.21061 1.83242 148 130 107
1.05930 -3.21713 1.83924 147 129 106
1.02158 -3.27532 1.90005 146 130 115
1.01743 -3.28173 1.90675 150 130 112
1.01329 -3.28812 1.91343 151 130 114
1.00915 -3.29451 1.92011 149 131 116
1.00502 -3.30088 1.92677 146 130 119
1.00089 -3.30724 1.93342 146 129 119
0.99678 -3.31359 1.94005 145 128 118
0.99267 -3.31993 1.94668 144 127 120
0.98857 -3.32626 1.95329 145 125 119
0.98448 -3.33257 1.95989 145 124 116
0.98039 -3.33888 1.96648 144 123 116
0.97631 -3.34517 1.97306 142 123 108
0.97224 -3.35146 1.97963 141 125 109
0.96817 -3.35773 1.98618 145 126 115
0.96412 -3.36399 1.99273 149 125 118
0.96006 -3.37024 1.99926 147 127 123
0.95602 -3.37648 2.00578 145 128 123
0.95199 -3.38270 2.01229 147 128 118
0.94796 -3.38892 2.01878 147 127 117
0.94393 -3.39513 2.02527 147 127 114
0.93992 -3.40132 2.03174 147 126 116
0.93591 -3.40750 2.03821 145 125 112
0.93191 -3.41368 2.04466 142 124 109
0.92792 -3.41984 2.05110 142 125 107
0.92393 -3.42599 2.05753 142 125 105
0.91995 -3.43213 2.06394 140 123 105
0.91598 -3.43826 2.07035 137 121 105
0.91201 -3.44438 2.07675 135 119 106
0.90805 -3.45049 2.08313 133 116 103
0.90410 -3.45658 2.08950 132 115 102
1.06703 -3.21410 1.81791 149 129 106
1.06279 -3.22064 1.82476 150 131 108
1.05855 -3.22717 1.83161 148 129 110
1.02076 -3.28541 1.89263 145 130 113
1.01659 -3.29183 1.89935 149 129 116
1.01244 -3.29823 1.90605 151 127 117
1.00829 -3.30462 1.91275 149 128 115
1.00415 -3.31100 1.91943 146 128 115
1.00002 -3.31736 1.92610 147 128 116
0.99590 -3.32372 1.93276 147 129 116
0.99178 -3.33007 1.93941 147 128 117
0.98767 -3.33640 1.94604 149 126 110
0.98357 -3.34272 1.95267 148 124 107
0.97947 -3.34903 1.95928 144 123 112
0.97538 -3.35533 1.96588 143 122 107
0.97130 -3.36162 1.97247 143 124 108
0.96723 -3.36790 1.97904 143 125 116
0.96316 -3.37416 1.98561 145 126 118
0.95910 -3.38042 1.99216 145 127 119
0.95505 -3.38666 1.99870 144 127 119
0.95101 -3.39290 2.00523 146 128 116
0.94697 -3.39912 2.01175 147 127 115
0.94294 -3.40533 2.01826 147 126 115
0.93892 -3.41153 2.02476 146 124 114
0.93490 -3.41772 2.03124 144 124 113
0.93089 -3.42390 2.03771 143 123 113
0.92689 -3.43006 2.04417 143 124 109
0.92289 -3.43622 2.05062 144 124 104
0.91891 -3.44237 2.05706 142 122 106
0.91492 -3.44850 2.06349 138 120 106
0.91095 -3.45462 2.06990 134 119 105
0.90698 -3.46074 2.07631 133 117 107
0.90302 -3.46684 2.08270 132 116 110
1.06631 -3.22417 1.81019 148 129 108
1.06205 -3.23072 1.81707 149 130 113
1.05780 -3.23725 1.82394 149 131 118
1.01159 -3.30838 1.89864 149 127 121
1.00743 -3.31478 1.90535 149 127 118
1.00328 -3.32116 1.91206 149 128 116
0.99914 -3.32754 1.91875 149 129 115
0.99501 -3.33390 1.92543 146 129 111
0.99088 -3.34025 1.93210 146 127 114
0.98676 -3.34659 1.93876 148 125 114
0.98265 -3.35292 1.94541 148 124 108
0.97855 -3.35923 1.95204 145 123 109
0.97445 -3.36554 1.95866 144 123 110
0.97036 -3.37183 1.96527 145 125 114
0.96628 -3.37812 1.97187 145 127 121
0.96221 -3.38439 1.97846 146 127 123
0.95814 -3.39065 1.98503 148 127 119
0.95408 -3.39690 1.99160 149 127 113
0.95002 -3.40314 1.99815 146 127 116
0.94598 -3.40936 2.00469 144 127 118
0.94194 -3.41558 2.01122 146 126 119
0.93791 -3.42179 2.01773 146 124 115
0.93388 -3.42798 2.02424 143 124 115
0.92987 -3.43416 2.03073 142 123 118
0.92585 -3.44034 2.03722 142 123 113
0.92185 -3.44650 2.04369 141 123 100
0.91785 -3.45265 2.05015 141 120 106
0.91387 -3.45879 2.05659 138 119 107
0.90988 -3.46492 2.06303 135 117 104
0.90591 -3.47104 2.06946 134 115 104
0.90194 -3.47714 2.07587 134 115 107
1.06557 -3.23429 1.80244 150 129 111
1.06131 -3.24084 1.80934 151 129 113
1.01073 -3.31858 1.89118 150 130 127
1.00657 -3.32499 1.89792 149 130 126
1.00241 -3.33138 1.90465 148 130 122
0.99826 -3.33776 1.91137 148 130 119
0.99412 -3.34412 1.91807 148 128 113
0.98998 -3.35048 1.92477 148 125 115
0.98586 -3.35683 1.93145 147 124 117
0.98174 -3.36316 1.93811 144 123 114
0.97762 -3.36948 1.94477 143 122 116
0.97352 -3.37579 1.95141 144 123 118
0.96942 -3.38209 1.95805 147 126 120
0.96533 -3.38838 1.96467 148 128 121
0.96124 -3.39466 1.97127 149 127 120
0.95717 -3.40093 1.97787 147 126 119
0.95310 -3.40718 1.98446 146 126 117
0.94904 -3.41342 1.99103 145 127 119
0.94498 -3.41966 1.99759 143 127 113
0.94093 -3.42588 2.00414 143 126 111
0.93689 -3.43209 2.01068 142 124 108
0.93286 -3.43829 2.01721 143 124 107
0.92883 -3.44448 2.02372 144 124 114
0.92482 -3.45066 2.03023 142 123 113
0.92080 -3.45682 2.03672 140 122 104
0.91680 -3.46298 2.04320 139 120 105
0.91280 -3.46912 2.04967 138 119 106
0.90881 -3.47526 2.05613 136 117 103
0.90483 -3.48138 2.06257 135 116 103
0.90085 -3.48750 2.06901 137 114 103
1.06484 -3.24446 1.79465 150 130 116
1.06056 -3.25102 1.80158 149 129 124
1.00988 -3.32883 1.88370 148 129 118
1.00570 -3.33524 1.89046 149 130 118
1.00154 -3.34164 1.89721 149 130 120
0.99738 -3.34802 1.90395 147 129 116
0.99322 -3.35440 1.91068 147 130 113
0.98908 -3.36076 1.91739 148 128 111
0.98494 -3.36711 1.92409 149 126 107
0.98081 -3.37345 1.93078 145 125 109
0.97669 -3.37978 1.93746 143 125 116
0.97258 -3.38610 1.94413 145 126 118
