ply
format ascii 1.0
element face 0
property list uchar int vertex_indices
element vertex 1237
property float x
property float y
property float z
property uchar diffuse_red
property uchar diffuse_green
property uchar diffuse_blue
end_header
0.08543 -0.60281 -0.47561 254 254 254
0.09060 -0.60473 -0.47242 254 254 254
0.09576 -0.60666 -0.46922 254 254 254
0.10092 -0.60858 -0.46604 254 254 254
0.10608 -0.61050 -0.46285 254 254 254
0.11123 -0.61242 -0.45967 254 254 254
0.11638 -0.61434 -0.45649 254 254 254
0.12152 -0.61626 -0.45331 254 254 254
0.12666 -0.61817 -0.45013 254 254 254
0.13180 -0.62008 -0.44696 254 254 254
0.13693 -0.62200 -0.44379 254 254 254
0.14206 -0.62391 -0.44062 254 254 254
0.14718 -0.62581 -0.43746 254 254 254
0.15230 -0.62772 -0.43429 254 254 254
0.15741 -0.62963 -0.43113 254 254 254
0.16253 -0.63153 -0.42798 254 254 254
0.16763 -0.63343 -0.42482 254 254 254
0.17273 -0.63533 -0.42167 254 254 254
0.17783 -0.63723 -0.41852 254 254 254
0.18292 -0.63913 -0.41537 254 254 254
0.18801 -0.64103 -0.41223 254 254 254
0.19310 -0.64292 -0.40909 254 254 254
0.19818 -0.64481 -0.40595 254 254 254
0.20326 -0.64670 -0.40281 254 254 254
0.20833 -0.64859 -0.39968 254 254 254
0.21340 -0.65048 -0.39655 254 254 254
0.21846 -0.65237 -0.39342 254 254 254
0.22352 -0.65425 -0.39029 254 254 254
0.22858 -0.65614 -0.38717 254 254 254
0.23363 -0.65802 -0.38405 254 254 254
0.23868 -0.65990 -0.38093 254 254 254
0.24372 -0.66178 -0.37781 254 254 254
0.24876 -0.66366 -0.37470 254 254 254
0.25379 -0.66553 -0.37159 254 254 254
0.25882 -0.66741 -0.36848 254 254 254
0.26385 -0.66928 -0.36537 254 254 254
0.26887 -0.67115 -0.36227 254 254 254
0.27389 -0.67302 -0.35917 254 254 254
0.27891 -0.67489 -0.35607 254 254 254
0.28392 -0.67676 -0.35297 254 254 254
-0.38576 -0.43447 -0.75918 251 250 251
-0.38021 -0.43654 -0.75575 251 250 251
-0.37467 -0.43860 -0.75233 251 250 250
-0.36913 -0.44066 -0.74891 251 250 250
-0.36359 -0.44272 -0.74549 251 250 251
-0.35806 -0.44478 -0.74208 251 250 251
-0.35254 -0.44683 -0.73867 251 250 251
-0.34702 -0.44889 -0.73526 251 250 251
-0.34150 -0.45094 -0.73186 252 250 251
-0.33599 -0.45299 -0.72845 252 250 251
-0.33048 -0.45504 -0.72505 252 251 251
-0.32498 -0.45708 -0.72166 252 251 251
-0.31948 -0.45913 -0.71827 252 251 251
-0.31399 -0.46117 -0.71488 252 251 251
-0.30850 -0.46321 -0.71149 252 252 252
-0.30302 -0.46525 -0.70810 252 252 252
-0.29754 -0.46729 -0.70472 252 252 252
-0.29207 -0.46933 -0.70134 252 252 252
-0.28660 -0.47136 -0.69797 252 252 252
-0.28113 -0.47339 -0.69459 252 252 252
-0.27567 -0.47543 -0.69122 252 252 252
-0.27022 -0.47745 -0.68786 252 252 252
-0.26477 -0.47948 -0.68449 252 253 253
-0.25932 -0.48151 -0.68113 253 253 253
-0.25388 -0.48353 -0.67777 253 253 253
-0.24844 -0.48555 -0.67442 253 253 253
-0.24301 -0.48758 -0.67106 254 254 254
-0.23758 -0.48959 -0.66771 254 254 254
-0.23216 -0.49161 -0.66437 254 254 254
-0.22674 -0.49363 -0.66102 254 254 254
-0.22133 -0.49564 -0.65768 254 254 254
-0.21592 -0.49765 -0.65434 254 254 254
-0.21051 -0.49966 -0.65100 254 254 254
-0.20511 -0.50167 -0.64767 254 254 254
-0.19972 -0.50368 -0.64434 254 254 254
-0.19433 -0.50568 -0.64101 254 254 254
-0.18894 -0.50769 -0.63769 254 254 254
-0.18356 -0.50969 -0.63437 254 254 254
-0.17818 -0.51169 -0.63105 254 254 254
-0.17281 -0.51369 -0.62773 254 254 254
-0.16744 -0.51569 -0.62442 254 254 254
-0.16208 -0.51768 -0.62111 254 254 254
-0.15672 -0.51968 -0.61780 254 254 254
-0.15136 -0.52167 -0.61449 254 254 254
-0.14601 -0.52366 -0.61119 254 254 254
-0.14067 -0.52565 -0.60789 254 254 254
-0.13533 -0.52763 -0.60460 254 254 254
-0.12999 -0.52962 -0.60130 254 254 254
-0.12466 -0.53160 -0.59801 254 254 254
-0.11933 -0.53358 -0.59472 254 254 254
-0.11401 -0.53556 -0.59144 254 254 254
-0.10869 -0.53754 -0.58815 254 254 254
-0.10338 -0.53952 -0.58487 254 254 254
-0.09807 -0.54149 -0.58160 254 254 254
-0.09276 -0.54347 -0.57832 254 254 254
-0.08746 -0.54544 -0.57505 254 254 254
-0.08216 -0.54741 -0.57178 254 254 254
-0.07687 -0.54938 -0.56851 254 254 254
-0.07158 -0.55134 -0.56525 254 254 254
-0.06630 -0.55331 -0.56199 254 254 254
-0.06102 -0.55527 -0.55873 254 254 254
-0.05575 -0.55724 -0.55547 254 254 254
-0.05048 -0.55920 -0.55222 254 254 254
-0.04521 -0.56115 -0.54897 254 254 254
-0.03995 -0.56311 -0.54572 254 254 254
-0.03470 -0.56507 -0.54248 254 254 254
-0.02944 -0.56702 -0.53924 254 254 254
-0.02420 -0.56897 -0.53600 254 254 254
-0.01895 -0.57092 -0.53276 254 254 254
-0.01371 -0.57287 -0.52953 254 254 254
-0.00848 -0.57482 -0.52630 254 254 254
-0.00325 -0.57677 -0.52307 254 254 254
0.00198 -0.57871 -0.51984 254 254 254
0.00720 -0.58065 -0.51662 254 254 254
0.01242 -0.58259 -0.51340 254 254 254
0.01763 -0.58453 -0.51018 254 254 254
0.02284 -0.58647 -0.50697 254 254 254
0.02804 -0.58841 -0.50375 254 254 254
0.03324 -0.59034 -0.50054 254 254 254
0.03844 -0.59227 -0.49734 254 254 254
0.04363 -0.59420 -0.49413 254 254 254
0.04882 -0.59613 -0.49093 254 254 254
0.05400 -0.59806 -0.48773 254 254 254
0.05918 -0.59999 -0.48454 254 254 254
0.06435 -0.60191 -0.48134 254 254 254
0.06952 -0.60384 -0.47815 254 254 254
0.07469 -0.60576 -0.47496 254 254 254
0.07985 -0.60768 -0.47178 254 254 254
0.08501 -0.60960 -0.46859 254 254 254
0.09016 -0.61151 -0.46541 254 254 254
0.09531 -0.61343 -0.46223 254 254 254
0.10045 -0.61534 -0.45906 254 254 254
0.10559 -0.61725 -0.45589 254 254 254
0.11073 -0.61916 -0.45272 254 254 254
0.11586 -0.62107 -0.44955 254 254 254
0.12099 -0.62298 -0.44638 254 254 254
0.12611 -0.62489 -0.44322 254 254 254
0.13123 -0.62679 -0.44006 254 254 254
0.13634 -0.62869 -0.43690 254 254 254
0.14145 -0.63059 -0.43375 254 254 254
0.14656 -0.63249 -0.43060 254 254 254
0.15166 -0.63439 -0.42745 254 254 254
0.15676 -0.63629 -0.42430 254 254 254
0.16185 -0.63818 -0.42116 254 254 254
0.16694 -0.64008 -0.41802 254 254 254
0.17203 -0.64197 -0.41488 254 254 254
0.17711 -0.64386 -0.41174 254 254 254
0.18219 -0.64575 -0.40861 254 254 254
0.18726 -0.64763 -0.40548 254 254 254
0.19233 -0.64952 -0.40235 254 254 254
0.19739 -0.65140 -0.39922 254 254 254
0.20245 -0.65328 -0.39610 254 254 254
0.20751 -0.65517 -0.39298 254 254 254
0.21256 -0.65704 -0.38986 254 254 254
0.21761 -0.65892 -0.38674 254 254 254
0.22265 -0.66080 -0.38363 254 254 254
0.22769 -0.66267 -0.38052 254 254 254
0.23273 -0.66455 -0.37741 254 254 254
0.23776 -0.66642 -0.37431 254 254 254
0.24279 -0.66829 -0.37120 254 254 254
0.24781 -0.67016 -0.36810 254 254 254
0.25283 -0.67202 -0.36500 254 254 254
0.25784 -0.67389 -0.36191 254 254 254
0.26285 -0.67575 -0.35882 254 254 254
0.26786 -0.67762 -0.35572 254 254 254
0.27286 -0.67948 -0.35264 254 254 254
0.27786 -0.68134 -0.34955 254 254 254
-0.39565 -0.43796 -0.75777 251 250 251
-0.39011 -0.44001 -0.75436 251 250 251
-0.38458 -0.44207 -0.75095 251 250 251
-0.37905 -0.44412 -0.74754 251 250 251
-0.37352 -0.44618 -0.74413 251 250 251
-0.36800 -0.44823 -0.74072 251 250 251
-0.36249 -0.45028 -0.73732 251 250 251
-0.35698 -0.45232 -0.73392 251 250 251
-0.35147 -0.45437 -0.73053 252 250 251
-0.34597 -0.45641 -0.72714 252 250 251
-0.34047 -0.45845 -0.72375 252 251 251
-0.33498 -0.46049 -0.72036 252 251 251
-0.32949 -0.46253 -0.71698 252 251 251
-0.32401 -0.46457 -0.71359 252 251 251
-0.31853 -0.46660 -0.71022 252 252 252
-0.31306 -0.46864 -0.70684 252 252 252
-0.30759 -0.47067 -0.70347 252 252 252
-0.30213 -0.47270 -0.70010 252 252 252
-0.29667 -0.47473 -0.69673 252 252 252
-0.29121 -0.47675 -0.69337 252 252 252
-0.28576 -0.47878 -0.69001 252 252 252
-0.28032 -0.48080 -0.68665 252 252 252
-0.27487 -0.48282 -0.68329 252 252 253
-0.26944 -0.48484 -0.67994 253 253 253
-0.26401 -0.48686 -0.67659 253 253 253
-0.25858 -0.48887 -0.67325 253 253 253
-0.25316 -0.49089 -0.66990 253 253 254
-0.24774 -0.49290 -0.66656 254 254 254
-0.24233 -0.49491 -0.66322 254 254 254
-0.23692 -0.49692 -0.65989 254 254 254
-0.23151 -0.49893 -0.65655 254 254 254
-0.22611 -0.50093 -0.65322 254 254 254
-0.22072 -0.50294 -0.64990 254 254 254
-0.21533 -0.50494 -0.64657 254 254 254
-0.20994 -0.50694 -0.64325 254 254 254
-0.20456 -0.50894 -0.63993 254 254 254
-0.19918 -0.51093 -0.63662 254 254 254
-0.19381 -0.51293 -0.63330 254 254 254
-0.18844 -0.51492 -0.62999 254 254 254
-0.18308 -0.51692 -0.62669 254 254 254
-0.17772 -0.51891 -0.62338 254 254 254
-0.17237 -0.52090 -0.62008 254 254 254
-0.16702 -0.52288 -0.61678 254 254 254
-0.16167 -0.52487 -0.61348 254 254 254
-0.15633 -0.52685 -0.61019 254 254 254
-0.15099 -0.52883 -0.60690 254 254 254
-0.14566 -0.53081 -0.60361 254 254 254
-0.14033 -0.53279 -0.60033 254 254 254
-0.13501 -0.53477 -0.59704 254 254 254
-0.12969 -0.53675 -0.59376 254 254 254
-0.12438 -0.53872 -0.59049 254 254 254
-0.11907 -0.54069 -0.58721 254 254 254
-0.11376 -0.54266 -0.58394 254 254 254
-0.10846 -0.54463 -0.58067 254 254 254
-0.10317 -0.54660 -0.57741 254 254 254
-0.09787 -0.54856 -0.57414 254 254 254
-0.09259 -0.55053 -0.57088 254 254 254
-0.08730 -0.55249 -0.56762 254 254 254
-0.08203 -0.55445 -0.56437 254 254 254
-0.07675 -0.55641 -0.56112 254 254 254
-0.07148 -0.55837 -0.55787 254 254 254
-0.06622 -0.56032 -0.55462 254 254 254
-0.06096 -0.56228 -0.55138 254 254 254
-0.05570 -0.56423 -0.54813 254 254 254
-0.05045 -0.56618 -0.54490 254 254 254
-0.04520 -0.56813 -0.54166 254 254 254
-0.03996 -0.57008 -0.53843 254 254 254
-0.03472 -0.57202 -0.53519 254 254 254
-0.02948 -0.57397 -0.53197 254 254 254
-0.02425 -0.57591 -0.52874 254 254 254
-0.01903 -0.57785 -0.52552 254 254 254
-0.01380 -0.57979 -0.52230 254 254 254
-0.00859 -0.58173 -0.51908 254 254 254
-0.00337 -0.58367 -0.51587 254 254 254
0.00183 -0.58560 -0.51265 254 254 254
0.00704 -0.58753 -0.50944 254 254 254
0.01224 -0.58947 -0.50624 254 254 254
0.01744 -0.59140 -0.50303 254 254 254
0.02263 -0.59332 -0.49983 254 254 254
0.02781 -0.59525 -0.49663 254 254 254
0.03300 -0.59718 -0.49344 254 254 254
0.03817 -0.59910 -0.49024 254 254 254
0.04335 -0.60102 -0.48705 254 254 254
0.04852 -0.60294 -0.48387 254 254 254
0.05368 -0.60486 -0.48068 254 254 254
0.05885 -0.60678 -0.47750 254 254 254
0.06400 -0.60869 -0.47432 254 254 254
0.06916 -0.61061 -0.47114 254 254 254
0.07430 -0.61252 -0.46796 254 254 254
0.07945 -0.61443 -0.46479 254 254 254
0.08459 -0.61634 -0.46162 254 254 254
0.08973 -0.61825 -0.45845 254 254 254
0.09486 -0.62015 -0.45529 254 254 254
0.09998 -0.62206 -0.45213 254 254 254
0.10511 -0.62396 -0.44897 254 254 254
0.11023 -0.62586 -0.44581 254 254 254
0.11534 -0.62776 -0.44266 254 254 254
0.12045 -0.62966 -0.43951 254 254 254
0.12556 -0.63156 -0.43636 254 254 254
0.13066 -0.63345 -0.43321 254 254 254
0.13576 -0.63535 -0.43007 254 254 254
0.14085 -0.63724 -0.42693 254 254 254
0.14594 -0.63913 -0.42379 254 254 254
0.15103 -0.64102 -0.42065 254 254 254
0.15611 -0.64290 -0.41752 254 254 254
0.16119 -0.64479 -0.41439 254 254 254
0.16626 -0.64667 -0.41126 254 254 254
0.17133 -0.64856 -0.40813 254 254 254
0.17639 -0.65044 -0.40501 254 254 254
0.18145 -0.65232 -0.40189 254 254 254
0.18651 -0.65420 -0.39877 254 254 254
0.19156 -0.65607 -0.39565 254 254 254
0.19661 -0.65795 -0.39254 254 254 254
0.20165 -0.65982 -0.38943 254 254 254
0.20669 -0.66169 -0.38632 254 254 254
0.21173 -0.66356 -0.38322 254 254 254
0.21676 -0.66543 -0.38011 254 254 254
0.22179 -0.66730 -0.37701 254 254 254
0.22681 -0.66917 -0.37392 254 254 254
0.23183 -0.67103 -0.37082 254 254 254
0.23685 -0.67289 -0.36773 254 254 254
0.24186 -0.67476 -0.36464 254 254 254
0.24687 -0.67662 -0.36155 254 254 254
0.25187 -0.67847 -0.35846 254 254 254
0.25687 -0.68033 -0.35538 254 254 254
0.26186 -0.68219 -0.35230 254 254 254
0.26685 -0.68404 -0.34922 254 254 254
-0.39996 -0.44348 -0.75297 251 250 251
-0.39444 -0.44552 -0.74957 251 250 251
-0.38892 -0.44757 -0.74617 251 250 251
-0.38340 -0.44962 -0.74277 251 250 251
-0.37789 -0.45166 -0.73938 251 250 251
-0.37239 -0.45370 -0.73598 251 250 251
-0.36689 -0.45574 -0.73260 251 250 251
-0.36139 -0.45778 -0.72921 252 250 251
-0.35590 -0.45982 -0.72583 252 250 251
-0.35041 -0.46185 -0.72245 252 251 251
-0.34493 -0.46389 -0.71907 252 251 251
-0.33945 -0.46592 -0.71569 252 251 251
-0.33398 -0.46795 -0.71232 252 251 251
-0.32851 -0.46998 -0.70895 252 252 252
-0.32305 -0.47200 -0.70559 252 252 252
-0.31759 -0.47403 -0.70222 252 252 252
-0.31213 -0.47605 -0.69886 252 252 252
-0.30668 -0.47807 -0.69550 252 252 252
-0.30124 -0.48009 -0.69215 252 252 252
-0.29580 -0.48211 -0.68880 252 252 252
-0.29036 -0.48413 -0.68545 252 252 252
-0.28493 -0.48614 -0.68210 252 252 252
-0.27950 -0.48815 -0.67876 252 253 253
-0.27408 -0.49016 -0.67542 253 253 253
-0.26866 -0.49217 -0.67208 253 253 253
-0.26325 -0.49418 -0.66875 253 253 253
-0.25784 -0.49619 -0.66541 254 254 254
-0.25244 -0.49819 -0.66208 254 254 254
-0.24704 -0.50019 -0.65876 254 254 254
-0.24164 -0.50219 -0.65543 254 254 254
-0.23625 -0.50419 -0.65211 254 254 254
-0.23087 -0.50619 -0.64879 254 254 254
-0.22549 -0.50819 -0.64548 254 254 254
-0.22011 -0.51018 -0.64217 254 254 254
-0.21474 -0.51217 -0.63886 254 254 254
-0.20937 -0.51416 -0.63555 254 254 254
-0.20401 -0.51615 -0.63225 254 254 254
-0.19865 -0.51814 -0.62894 254 254 254
-0.19330 -0.52013 -0.62565 254 254 254
-0.18795 -0.52211 -0.62235 254 254 254
-0.18260 -0.52409 -0.61906 254 254 254
-0.17726 -0.52607 -0.61577 254 254 254
-0.17192 -0.52805 -0.61248 254 254 254
-0.16659 -0.53003 -0.60919 254 254 254
-0.16127 -0.53201 -0.60591 254 254 254
-0.15594 -0.53398 -0.60263 254 254 254
-0.15062 -0.53595 -0.59936 254 254 254
-0.14531 -0.53792 -0.59608 254 254 254
-0.14000 -0.53989 -0.59281 254 254 254
-0.13470 -0.54186 -0.58954 254 254 254
-0.12940 -0.54383 -0.58628 254 254 254
-0.12410 -0.54579 -0.58301 254 254 254
-0.11881 -0.54775 -0.57975 254 254 254
-0.11352 -0.54971 -0.57650 254 254 254
-0.10824 -0.55167 -0.57324 254 254 254
-0.10296 -0.55363 -0.56999 254 254 254
-0.09769 -0.55559 -0.56674 254 254 254
-0.09242 -0.55754 -0.56349 254 254 254
-0.08715 -0.55949 -0.56025 254 254 254
-0.08189 -0.56145 -0.55701 254 254 254
-0.07663 -0.56340 -0.55377 254 254 254
-0.07138 -0.56534 -0.55053 254 254 254
-0.06613 -0.56729 -0.54730 254 254 254
-0.06089 -0.56923 -0.54407 254 254 254
-0.05565 -0.57118 -0.54084 254 254 254
-0.05042 -0.57312 -0.53762 254 254 254
-0.04519 -0.57506 -0.53440 254 254 254
-0.03996 -0.57700 -0.53118 254 254 254
-0.03474 -0.57893 -0.52796 254 254 254
-0.02952 -0.58087 -0.52474 254 254 254
-0.02431 -0.58280 -0.52153 254 254 254
-0.01910 -0.58473 -0.51832 254 254 254
-0.01389 -0.58666 -0.51512 254 254 254
-0.00869 -0.58859 -0.51191 254 254 254
-0.00350 -0.59052 -0.50871 254 254 254
0.00169 -0.59245 -0.50551 254 254 254
0.00688 -0.59437 -0.50232 254 254 254
0.01206 -0.59629 -0.49912 254 254 254
0.01724 -0.59821 -0.49593 254 254 254
0.02242 -0.60013 -0.49275 254 254 254
0.02759 -0.60205 -0.48956 254 254 254
0.03275 -0.60397 -0.48638 254 254 254
0.03791 -0.60588 -0.48320 254 254 254
0.04307 -0.60779 -0.48002 254 254 254
0.04822 -0.60970 -0.47685 254 254 254
0.05337 -0.61161 -0.47367 254 254 254
0.05852 -0.61352 -0.47050 254 254 254
0.06366 -0.61543 -0.46734 254 254 254
0.06879 -0.61733 -0.46417 254 254 254
0.07392 -0.61924 -0.46101 254 254 254
0.07905 -0.62114 -0.45785 254 254 254
0.08418 -0.62304 -0.45470 254 254 254
0.08929 -0.62494 -0.45154 254 254 254
0.09441 -0.62683 -0.44839 254 254 254
0.09952 -0.62873 -0.44524 254 254 254
0.10463 -0.63062 -0.44210 254 254 254
0.10973 -0.63252 -0.43895 254 254 254
0.11483 -0.63441 -0.43581 254 254 254
0.11992 -0.63630 -0.43267 254 254 254
0.12501 -0.63818 -0.42954 254 254 254
0.13010 -0.64007 -0.42640 254 254 254
0.13518 -0.64195 -0.42327 254 254 254
0.14026 -0.64384 -0.42014 254 254 254
0.14533 -0.64572 -0.41702 254 254 254
0.15040 -0.64760 -0.41390 254 254 254
0.15546 -0.64948 -0.41078 254 254 254
0.16052 -0.65136 -0.40766 254 254 254
0.16558 -0.65323 -0.40454 254 254 254
0.17063 -0.65510 -0.40143 254 254 254
0.17568 -0.65698 -0.39832 254 254 254
0.18073 -0.65885 -0.39521 254 254 254
0.18577 -0.66072 -0.39211 254 254 254
0.19080 -0.66258 -0.38900 254 254 254
0.19583 -0.66445 -0.38590 254 254 254
0.20086 -0.66632 -0.38281 254 254 254
0.20589 -0.66818 -0.37971 254 254 254
0.21091 -0.67004 -0.37662 254 254 254
0.21592 -0.67190 -0.37353 254 254 254
0.22093 -0.67376 -0.37044 254 254 254
0.22594 -0.67562 -0.36735 254 254 254
0.23094 -0.67747 -0.36427 254 254 254
0.23594 -0.67933 -0.36119 254 254 254
0.24094 -0.68118 -0.35811 254 254 254
0.24593 -0.68303 -0.35504 254 254 254
0.25092 -0.68488 -0.35197 254 254 254
0.25590 -0.68673 -0.34890 254 254 254
0.26088 -0.68858 -0.34583 254 254 254
-0.40976 -0.44692 -0.75160 251 250 250
-0.40425 -0.44896 -0.74820 251 250 250
-0.39874 -0.45100 -0.74481 251 250 250
-0.39323 -0.45304 -0.74142 251 250 250
-0.38773 -0.45508 -0.73804 251 250 251
-0.38224 -0.45711 -0.73465 251 250 251
-0.37675 -0.45915 -0.73127 251 250 251
-0.37126 -0.46118 -0.72790 252 250 251
-0.36578 -0.46321 -0.72452 252 250 251
-0.36030 -0.46524 -0.72115 252 251 251
-0.35483 -0.46726 -0.71778 252 251 251
-0.34936 -0.46929 -0.71442 252 251 251
-0.34390 -0.47131 -0.71105 252 251 251
-0.33844 -0.47333 -0.70769 252 252 252
-0.33299 -0.47535 -0.70434 252 252 252
-0.32754 -0.47737 -0.70098 252 252 252
-0.32209 -0.47939 -0.69763 252 252 252
-0.31665 -0.48140 -0.69428 252 252 252
-0.31122 -0.48341 -0.69094 252 252 252
-0.30578 -0.48543 -0.68759 252 252 252
-0.30036 -0.48744 -0.68425 252 252 252
-0.29494 -0.48944 -0.68092 252 252 252
-0.28952 -0.49145 -0.67758 252 253 253
-0.28411 -0.49345 -0.67425 253 253 253
-0.27870 -0.49546 -0.67092 253 253 253
-0.27329 -0.49746 -0.66760 253 253 253
-0.26790 -0.49946 -0.66427 254 254 254
-0.26250 -0.50146 -0.66095 254 254 254
-0.25711 -0.50345 -0.65763 254 254 254
-0.25173 -0.50545 -0.65432 254 254 254
-0.24635 -0.50744 -0.65101 254 254 254
-0.24097 -0.50943 -0.64770 254 254 254
-0.23560 -0.51142 -0.64439 254 254 254
-0.23023 -0.51341 -0.64109 254 254 254
-0.22487 -0.51539 -0.63779 254 254 254
-0.21951 -0.51738 -0.63449 254 254 254
-0.21415 -0.51936 -0.63119 254 254 254
-0.20881 -0.52134 -0.62790 254 254 254
-0.20346 -0.52332 -0.62461 254 254 254
-0.19812 -0.52530 -0.62132 254 254 254
-0.19278 -0.52727 -0.61804 254 254 254
-0.18745 -0.52925 -0.61476 254 254 254
-0.18213 -0.53122 -0.61148 254 254 254
-0.17680 -0.53319 -0.60820 254 254 254
-0.17149 -0.53516 -0.60493 254 254 254
-0.16617 -0.53713 -0.60166 254 254 254
-0.16086 -0.53910 -0.59839 254 254 254
-0.15556 -0.54106 -0.59513 254 254 254
-0.15026 -0.54302 -0.59186 254 254 254
-0.14496 -0.54499 -0.58860 254 254 254
-0.13967 -0.54695 -0.58535 254 254 254
-0.13438 -0.54890 -0.58209 254 254 254
-0.12910 -0.55086 -0.57884 254 254 254
-0.12382 -0.55281 -0.57559 254 254 254
-0.11855 -0.55477 -0.57234 254 254 254
-0.11328 -0.55672 -0.56910 254 254 254
-0.10801 -0.55867 -0.56586 254 254 254
-0.10275 -0.56062 -0.56262 254 254 254
-0.09750 -0.56256 -0.55939 254 254 254
-0.09224 -0.56451 -0.55615 254 254 254
-0.08700 -0.56645 -0.55292 254 254 254
-0.08175 -0.56839 -0.54970 254 254 254
-0.07651 -0.57033 -0.54647 254 254 254
-0.07128 -0.57227 -0.54325 254 254 254
-0.06605 -0.57421 -0.54003 254 254 254
-0.06082 -0.57615 -0.53681 254 254 254
-0.05560 -0.57808 -0.53360 254 254 254
-0.05039 -0.58001 -0.53039 254 254 254
-0.04517 -0.58194 -0.52718 254 254 254
-0.03996 -0.58387 -0.52397 254 254 254
-0.03476 -0.58580 -0.52077 254 254 254
-0.02956 -0.58772 -0.51757 254 254 254
-0.02436 -0.58965 -0.51437 254 254 254
-0.01917 -0.59157 -0.51118 254 254 254
-0.01399 -0.59349 -0.50798 254 254 254
-0.00880 -0.59541 -0.50479 254 254 254
-0.00362 -0.59733 -0.50161 254 254 254
0.00155 -0.59925 -0.49842 254 254 254
0.00672 -0.60116 -0.49524 254 254 254
0.01189 -0.60307 -0.49206 254 254 254
0.01705 -0.60499 -0.48888 254 254 254
0.02221 -0.60690 -0.48571 254 254 254
0.02736 -0.60880 -0.48254 254 254 254
0.03251 -0.61071 -0.47937 254 254 254
0.03765 -0.61262 -0.47620 254 254 254
0.04279 -0.61452 -0.47304 254 254 254
0.04793 -0.61642 -0.46987 254 254 254
0.05306 -0.61832 -0.46671 254 254 254
0.05819 -0.62022 -0.46356 254 254 254
0.06331 -0.62212 -0.46041 254 254 254
0.06843 -0.62401 -0.45725 254 254 254
0.07355 -0.62591 -0.45411 254 254 254
0.07866 -0.62780 -0.45096 254 254 254
0.08376 -0.62969 -0.44782 254 254 254
0.08887 -0.63158 -0.44468 254 254 254
0.09396 -0.63347 -0.44154 254 254 254
0.09906 -0.63536 -0.43840 254 254 254
0.10415 -0.63724 -0.43527 254 254 254
0.10923 -0.63913 -0.43214 254 254 254
0.11432 -0.64101 -0.42901 254 254 254
0.11939 -0.64289 -0.42588 254 254 254
0.12447 -0.64477 -0.42276 254 254 254
0.12954 -0.64664 -0.41964 254 254 254
0.13460 -0.64852 -0.41652 254 254 254
0.13966 -0.65039 -0.41341 254 254 254
0.14472 -0.65227 -0.41030 254 254 254
0.14977 -0.65414 -0.40719 254 254 254
0.15482 -0.65601 -0.40408 254 254 254
0.15987 -0.65788 -0.40097 254 254 254
0.16491 -0.65974 -0.39787 254 254 254
0.16994 -0.66161 -0.39477 254 254 254
0.17497 -0.66347 -0.39167 254 254 254
0.18000 -0.66533 -0.38858 254 254 254
0.18503 -0.66720 -0.38549 254 254 254
0.19005 -0.66905 -0.38240 254 254 254
0.19506 -0.67091 -0.37931 254 254 254
0.20007 -0.67277 -0.37622 254 254 254
0.20508 -0.67462 -0.37314 254 254 254
0.21009 -0.67648 -0.37006 254 254 254
0.21509 -0.67833 -0.36698 254 254 254
0.22008 -0.68018 -0.36391 254 254 254
0.22507 -0.68203 -0.36084 254 254 254
0.23006 -0.68387 -0.35777 254 254 254
0.23504 -0.68572 -0.35470 254 254 254
0.24002 -0.68756 -0.35163 254 254 254
0.24500 -0.68941 -0.34857 254 254 254
0.24997 -0.69125 -0.34551 254 254 254
0.25494 -0.69309 -0.34245 254 254 254
-0.41401 -0.45238 -0.74684 251 250 250
-0.40851 -0.45441 -0.74346 251 250 250
-0.40301 -0.45644 -0.74008 251 250 251
-0.39752 -0.45847 -0.73670 251 250 251
-0.39204 -0.46050 -0.73333 251 250 251
-0.38656 -0.46253 -0.72996 252 250 251
-0.38108 -0.46456 -0.72659 252 250 251
-0.37561 -0.46658 -0.72322 252 250 251
-0.37014 -0.46860 -0.71986 252 251 251
-0.36468 -0.47062 -0.71650 252 251 251
-0.35922 -0.47264 -0.71315 252 251 251
-0.35377 -0.47466 -0.70979 252 251 251
-0.34832 -0.47667 -0.70644 252 252 252
-0.34287 -0.47868 -0.70309 252 252 252
-0.33743 -0.48070 -0.69975 252 252 252
-0.33200 -0.48271 -0.69641 252 252 252
-0.32657 -0.48471 -0.69307 252 252 252
-0.32114 -0.48672 -0.68973 252 252 252
-0.31572 -0.48873 -0.68640 252 252 252
-0.31030 -0.49073 -0.68306 252 252 252
-0.30489 -0.49273 -0.67974 252 252 252
-0.29948 -0.49473 -0.67641 252 252 253
-0.29408 -0.49673 -0.67309 253 253 253
-0.28868 -0.49872 -0.66977 253 253 253
-0.28329 -0.50072 -0.66645 253 253 253
-0.27790 -0.50271 -0.66314 253 253 254
-0.27251 -0.50470 -0.65983 254 254 254
-0.26713 -0.50669 -0.65652 254 254 254
-0.26176 -0.50868 -0.65321 254 254 254
-0.25639 -0.51067 -0.64991 254 254 254
-0.25102 -0.51265 -0.64661 254 254 254
-0.24566 -0.51464 -0.64331 254 254 254
-0.24030 -0.51662 -0.64001 254 254 254
-0.23494 -0.51860 -0.63672 254 254 254
-0.22960 -0.52057 -0.63343 254 254 254
-0.22425 -0.52255 -0.63015 254 254 254
-0.21891 -0.52453 -0.62686 254 254 254
-0.21358 -0.52650 -0.62358 254 254 254
-0.20824 -0.52847 -0.62030 254 254 254
-0.20292 -0.53044 -0.61703 254 254 254
-0.19760 -0.53241 -0.61375 254 254 254
-0.19228 -0.53438 -0.61048 254 254 254
-0.18696 -0.53634 -0.60722 254 254 254
-0.18165 -0.53830 -0.60395 254 254 254
-0.17635 -0.54026 -0.60069 254 254 254
-0.17105 -0.54222 -0.59743 254 254 254
-0.16575 -0.54418 -0.59417 254 254 254
-0.16046 -0.54614 -0.59092 254 254 254
-0.15518 -0.54809 -0.58767 254 254 254
-0.14989 -0.55005 -0.58442 254 254 254
-0.14462 -0.55200 -0.58117 254 254 254
-0.13934 -0.55395 -0.57793 254 254 254
-0.13407 -0.55590 -0.57469 254 254 254
-0.12881 -0.55785 -0.57145 254 254 254
-0.12355 -0.55979 -0.56822 254 254 254
-0.11829 -0.56174 -0.56499 254 254 254
-0.11304 -0.56368 -0.56176 254 254 254
-0.10779 -0.56562 -0.55853 254 254 254
-0.10255 -0.56756 -0.55530 254 254 254
-0.09731 -0.56949 -0.55208 254 254 254
-0.09208 -0.57143 -0.54886 254 254 254
-0.08685 -0.57336 -0.54565 254 254 254
-0.08162 -0.57530 -0.54243 254 254 254
-0.07640 -0.57723 -0.53922 254 254 254
-0.07118 -0.57916 -0.53601 254 254 254
-0.06597 -0.58108 -0.53281 254 254 254
-0.06076 -0.58301 -0.52961 254 254 254
-0.05555 -0.58494 -0.52640 254 254 254
-0.05035 -0.58686 -0.52321 254 254 254
-0.04516 -0.58878 -0.52001 254 254 254
-0.03997 -0.59070 -0.51682 254 254 254
-0.03478 -0.59262 -0.51363 254 254 254
-0.02960 -0.59453 -0.51044 254 254 254
-0.02442 -0.59645 -0.50726 254 254 254
-0.01924 -0.59836 -0.50408 254 254 254
-0.01407 -0.60027 -0.50090 254 254 254
-0.00891 -0.60219 -0.49772 254 254 254
-0.00375 -0.60409 -0.49455 254 254 254
0.00141 -0.60600 -0.49137 254 254 254
0.00656 -0.60791 -0.48821 254 254 254
0.01171 -0.60981 -0.48504 254 254 254
0.01686 -0.61171 -0.48188 254 254 254
0.02200 -0.61361 -0.47871 254 254 254
0.02713 -0.61551 -0.47556 254 254 254
0.03227 -0.61741 -0.47240 254 254 254
0.03739 -0.61931 -0.46925 254 254 254
0.04252 -0.62120 -0.46610 254 254 254
0.04764 -0.62310 -0.46295 254 254 254
0.05275 -0.62499 -0.45980 254 254 254
0.05786 -0.62688 -0.45666 254 254 254
0.06297 -0.62877 -0.45352 254 254 254
0.06807 -0.63065 -0.45038 254 254 254
0.07317 -0.63254 -0.44724 254 254 254
0.07826 -0.63442 -0.44411 254 254 254
0.08335 -0.63630 -0.44098 254 254 254
0.08844 -0.63819 -0.43785 254 254 254
0.09352 -0.64006 -0.43473 254 254 254
0.09860 -0.64194 -0.43161 254 254 254
0.10367 -0.64382 -0.42849 254 254 254
0.10874 -0.64569 -0.42537 254 254 254
0.11381 -0.64757 -0.42225 254 254 254
0.11887 -0.64944 -0.41914 254 254 254
0.12393 -0.65131 -0.41603 254 254 254
0.12898 -0.65318 -0.41292 254 254 254
0.13403 -0.65504 -0.40982 254 254 254
0.13907 -0.65691 -0.40672 254 254 254
0.14411 -0.65877 -0.40362 254 254 254
0.14915 -0.66064 -0.40052 254 254 254
0.15418 -0.66250 -0.39743 254 254 254
0.15921 -0.66436 -0.39433 254 254 254
0.16424 -0.66621 -0.39124 254 254 254
0.16926 -0.66807 -0.38816 254 254 254
0.17427 -0.66993 -0.38507 254 254 254
0.17928 -0.67178 -0.38199 254 254 254
0.18429 -0.67363 -0.37891 254 254 254
0.18930 -0.67548 -0.37583 254 254 254
0.19430 -0.67733 -0.37276 254 254 254
0.19929 -0.67918 -0.36968 254 254 254
0.20428 -0.68102 -0.36662 254 254 254
0.20927 -0.68287 -0.36355 254 254 254
0.21426 -0.68471 -0.36048 254 254 254
0.21924 -0.68655 -0.35742 254 254 254
0.22421 -0.68839 -0.35436 254 254 254
0.22918 -0.69023 -0.35130 254 254 254
0.23415 -0.69207 -0.34825 254 254 254
0.23911 -0.69390 -0.34520 254 254 254
0.24407 -0.69574 -0.34215 254 254 254
0.24903 -0.69757 -0.33910 254 254 254
-0.42372 -0.45578 -0.74548 251 250 250
-0.41823 -0.45781 -0.74211 251 250 251
-0.41274 -0.45983 -0.73874 251 250 251
-0.40726 -0.46186 -0.73537 251 250 251
-0.40179 -0.46388 -0.73201 252 250 251
-0.39632 -0.46590 -0.72865 252 250 251
-0.39085 -0.46792 -0.72529 252 250 251
-0.38539 -0.46993 -0.72193 252 250 251
-0.37993 -0.47195 -0.71858 252 251 251
-0.37448 -0.47396 -0.71523 252 251 251
-0.36903 -0.47597 -0.71188 252 251 251
-0.36358 -0.47798 -0.70854 252 251 251
-0.35815 -0.47999 -0.70520 252 252 252
-0.35271 -0.48200 -0.70186 252 252 252
-0.34728 -0.48400 -0.69852 252 252 252
-0.34186 -0.48601 -0.69519 252 252 252
-0.33643 -0.48801 -0.69186 252 252 252
-0.33102 -0.49001 -0.68853 252 252 252
-0.32561 -0.49201 -0.68520 252 252 252
-0.32020 -0.49401 -0.68188 252 252 252
-0.31480 -0.49600 -0.67856 252 252 252
-0.30940 -0.49799 -0.67525 252 252 252
-0.30400 -0.49999 -0.67193 253 253 253
-0.29861 -0.50198 -0.66862 253 253 253
-0.29323 -0.50396 -0.66531 253 253 253
-0.28785 -0.50595 -0.66201 253 253 253
-0.28247 -0.50794 -0.65870 254 254 254
-0.27710 -0.50992 -0.65540 254 254 254
-0.27174 -0.51190 -0.65211 254 254 254
-0.26637 -0.51388 -0.64881 254 254 254
-0.26102 -0.51586 -0.64552 254 254 254
-0.25566 -0.51784 -0.64223 254 254 254
-0.25032 -0.51981 -0.63895 254 254 254
-0.24497 -0.52178 -0.63566 254 254 254
-0.23963 -0.52376 -0.63238 254 254 254
-0.23430 -0.52573 -0.62910 254 254 254
-0.22897 -0.52769 -0.62583 254 254 254
-0.22364 -0.52966 -0.62256 254 254 254
-0.21832 -0.53163 -0.61929 254 254 254
-0.21300 -0.53359 -0.61602 254 254 254
-0.20769 -0.53555 -0.61276 254 254 254
-0.20238 -0.53751 -0.60949 254 254 254
-0.19707 -0.53947 -0.60623 254 254 254
-0.19177 -0.54143 -0.60298 254 254 254
-0.18648 -0.54338 -0.59972 254 254 254
-0.18119 -0.54534 -0.59647 254 254 254
-0.17590 -0.54729 -0.59323 254 254 254
-0.17062 -0.54924 -0.58998 254 254 254
-0.16534 -0.55119 -0.58674 254 254 254
-0.16007 -0.55314 -0.58350 254 254 254
-0.15480 -0.55508 -0.58026 254 254 254
-0.14953 -0.55703 -0.57703 254 254 254
-0.14427 -0.55897 -0.57379 254 254 254
-0.13902 -0.56091 -0.57056 254 254 254
-0.13376 -0.56285 -0.56734 254 254 254
-0.12852 -0.56479 -0.56411 254 254 254
-0.12327 -0.56672 -0.56089 254 254 254
-0.11804 -0.56866 -0.55767 254 254 254
-0.11280 -0.57059 -0.55446 254 254 254
-0.10757 -0.57252 -0.55125 254 254 254
-0.10235 -0.57445 -0.54803 254 254 254
-0.09712 -0.57638 -0.54483 254 254 254
-0.09191 -0.57831 -0.54162 254 254 254
-0.08669 -0.58023 -0.53842 254 254 254
-0.08149 -0.58215 -0.53522 254 254 254
-0.07628 -0.58407 -0.53202 254 254 254
-0.07108 -0.58600 -0.52883 254 254 254
-0.06589 -0.58791 -0.52563 254 254 254
-0.06069 -0.58983 -0.52244 254 254 254
-0.05551 -0.59175 -0.51926 254 254 254
-0.05032 -0.59366 -0.51607 254 254 254
-0.04515 -0.59557 -0.51289 254 254 254
-0.03997 -0.59748 -0.50971 254 254 254
-0.03480 -0.59939 -0.50654 254 254 254
-0.02964 -0.60130 -0.50336 254 254 254
-0.02447 -0.60321 -0.50019 254 254 254
-0.01932 -0.60511 -0.49702 254 254 254
-0.01416 -0.60701 -0.49386 254 254 254
-0.00901 -0.60891 -0.49069 254 254 254
-0.00387 -0.61081 -0.48753 254 254 254
0.00127 -0.61271 -0.48437 254 254 254
0.00641 -0.61461 -0.48122 254 254 254
0.01154 -0.61650 -0.47807 254 254 254
0.01667 -0.61840 -0.47491 254 254 254
0.02179 -0.62029 -0.47177 254 254 254
0.02691 -0.62218 -0.46862 254 254 254
0.03202 -0.62407 -0.46548 254 254 254
0.03714 -0.62596 -0.46234 254 254 254
0.04224 -0.62784 -0.45920 254 254 254
0.04735 -0.62973 -0.45607 254 254 254
0.05244 -0.63161 -0.45293 254 254 254
0.05754 -0.63349 -0.44980 254 254 254
0.06263 -0.63537 -0.44668 254 254 254
0.06771 -0.63725 -0.44355 254 254 254
0.07280 -0.63912 -0.44043 254 254 254
0.07787 -0.64100 -0.43731 254 254 254
0.08295 -0.64287 -0.43419 254 254 254
0.08802 -0.64474 -0.43108 254 254 254
0.09308 -0.64661 -0.42796 254 254 254
0.09814 -0.64848 -0.42485 254 254 254
0.10320 -0.65035 -0.42175 254 254 254
0.10826 -0.65222 -0.41864 254 254 254
0.11330 -0.65408 -0.41554 254 254 254
0.11835 -0.65594 -0.41244 254 254 254
0.12339 -0.65781 -0.40934 254 254 254
0.12843 -0.65967 -0.40625 254 254 254
0.13346 -0.66152 -0.40316 254 254 254
0.13849 -0.66338 -0.40007 254 254 254
0.14351 -0.66524 -0.39698 254 254 254
0.14853 -0.66709 -0.39390 254 254 254
0.15355 -0.66894 -0.39081 254 254 254
0.15856 -0.67079 -0.38774 254 254 254
0.16357 -0.67264 -0.38466 254 254 254
0.16857 -0.67449 -0.38158 254 254 254
0.17357 -0.67634 -0.37851 254 254 254
0.17857 -0.67818 -0.37544 254 254 254
0.18356 -0.68003 -0.37237 254 254 254
0.18855 -0.68187 -0.36931 254 254 254
0.19353 -0.68371 -0.36625 254 254 254
0.19851 -0.68555 -0.36319 254 254 254
0.20349 -0.68738 -0.36013 254 254 254
0.20846 -0.68922 -0.35708 254 254 254
0.21343 -0.69105 -0.35402 254 254 254
0.21839 -0.69289 -0.35097 254 254 254
0.22335 -0.69472 -0.34793 254 254 254
0.22831 -0.69655 -0.34488 254 254 254
0.23326 -0.69838 -0.34184 254 254 254
0.23821 -0.70021 -0.33880 254 254 254
0.24316 -0.70203 -0.33576 254 254 254
-0.43338 -0.45916 -0.74414 251 250 251
-0.42790 -0.46118 -0.74077 251 250 251
-0.42243 -0.46320 -0.73741 251 250 251
-0.41695 -0.46522 -0.73405 252 250 251
-0.41149 -0.46723 -0.73070 252 250 251
-0.40603 -0.46925 -0.72735 252 250 251
-0.40057 -0.47126 -0.72400 252 250 251
-0.39512 -0.47327 -0.72065 252 250 251
-0.38967 -0.47528 -0.71731 252 251 251
-0.38423 -0.47729 -0.71396 252 251 251
-0.37879 -0.47929 -0.71063 252 251 251
-0.37335 -0.48130 -0.70729 252 252 251
-0.36792 -0.48330 -0.70396 252 252 252
-0.36250 -0.48530 -0.70063 252 252 252
-0.35708 -0.48730 -0.69730 252 252 252
-0.35166 -0.48929 -0.69398 252 252 252
-0.34625 -0.49129 -0.69065 252 252 252
-0.34084 -0.49328 -0.68733 252 252 252
-0.33544 -0.49527 -0.68402 252 252 252
-0.33004 -0.49727 -0.68071 252 252 252
-0.32465 -0.49925 -0.67739 252 252 252
-0.31926 -0.50124 -0.67409 253 253 253
-0.31388 -0.50323 -0.67078 253 253 253
-0.30850 -0.50521 -0.66748 253 253 253
-0.30312 -0.50719 -0.66418 253 253 253
-0.29775 -0.50917 -0.66088 253 253 253
-0.29239 -0.51115 -0.65759 254 254 254
-0.28702 -0.51313 -0.65430 254 254 254
-0.28167 -0.51510 -0.65101 254 254 254
-0.27631 -0.51708 -0.64772 254 254 254
-0.27097 -0.51905 -0.64444 254 254 254
-0.26562 -0.52102 -0.64116 254 254 254
-0.26028 -0.52299 -0.63788 254 254 254
-0.25495 -0.52496 -0.63461 254 254 254
-0.24962 -0.52692 -0.63134 254 254 254
-0.24429 -0.52888 -0.62807 254 254 254
-0.23897 -0.53085 -0.62480 254 254 254
-0.23365 -0.53281 -0.62154 254 254 254
-0.22834 -0.53477 -0.61828 254 254 254
-0.22303 -0.53672 -0.61502 254 254 254
-0.21773 -0.53868 -0.61176 254 254 254
-0.21243 -0.54063 -0.60851 254 254 254
-0.20713 -0.54259 -0.60526 254 254 254
-0.20184 -0.54454 -0.60201 254 254 254
-0.19655 -0.54649 -0.59877 254 254 254
-0.19127 -0.54843 -0.59552 254 254 254
-0.18599 -0.55038 -0.59228 254 254 254
-0.18072 -0.55232 -0.58905 254 254 254
-0.17545 -0.55427 -0.58581 254 254 254
-0.17019 -0.55621 -0.58258 254 254 254
-0.16493 -0.55815 -0.57935 254 254 254
-0.15967 -0.56009 -0.57613 254 254 254
-0.15442 -0.56202 -0.57290 254 254 254
-0.14917 -0.56396 -0.56968 254 254 254
-0.14393 -0.56589 -0.56646 254 254 254
-0.13869 -0.56782 -0.56325 254 254 254
-0.13346 -0.56975 -0.56003 254 254 254
-0.12823 -0.57168 -0.55682 254 254 254
-0.12300 -0.57361 -0.55362 254 254 254
-0.11778 -0.57553 -0.55041 254 254 254
-0.11256 -0.57746 -0.54721 254 254 254
-0.10735 -0.57938 -0.54401 254 254 254
-0.10214 -0.58130 -0.54081 254 254 254
-0.09694 -0.58322 -0.53762 254 254 254
-0.09174 -0.58513 -0.53443 254 254 254
-0.08654 -0.58705 -0.53124 254 254 254
-0.08135 -0.58896 -0.52805 254 254 254
-0.07617 -0.59088 -0.52487 254 254 254
-0.07098 -0.59279 -0.52169 254 254 254
-0.06580 -0.59470 -0.51851 254 254 254
-0.06063 -0.59661 -0.51533 254 254 254
-0.05546 -0.59851 -0.51216 254 254 254
-0.05029 -0.60042 -0.50899 254 254 254
-0.04513 -0.60232 -0.50582 254 254 254
-0.03998 -0.60422 -0.50265 254 254 254
-0.03482 -0.60612 -0.49949 254 254 254
-0.02967 -0.60802 -0.49633 254 254 254
-0.02453 -0.60992 -0.49317 254 254 254
-0.01939 -0.61181 -0.49002 254 254 254
-0.01425 -0.61371 -0.48686 254 254 254
-0.00912 -0.61560 -0.48371 254 254 254
-0.00399 -0.61749 -0.48056 254 254 254
0.00113 -0.61938 -0.47742 254 254 254
0.00625 -0.62127 -0.47428 254 254 254
0.01137 -0.62315 -0.47114 254 254 254
0.01648 -0.62504 -0.46800 254 254 254
0.02158 -0.62692 -0.46486 254 254 254
0.02669 -0.62880 -0.46173 254 254 254
0.03179 -0.63068 -0.45860 254 254 254
0.03688 -0.63256 -0.45548 254 254 254
0.04197 -0.63444 -0.45235 254 254 254
0.04706 -0.63631 -0.44923 254 254 254
0.05214 -0.63819 -0.44611 254 254 254
0.05722 -0.64006 -0.44299 254 254 254
0.06229 -0.64193 -0.43988 254 254 254
0.06736 -0.64380 -0.43677 254 254 254
0.07243 -0.64567 -0.43366 254 254 254
0.07749 -0.64753 -0.43055 254 254 254
0.08254 -0.64940 -0.42745 254 254 254
0.08760 -0.65126 -0.42434 254 254 254
0.09265 -0.65312 -0.42124 254 254 254
0.09769 -0.65498 -0.41815 254 254 254
0.10273 -0.65684 -0.41505 254 254 254
0.10777 -0.65870 -0.41196 254 254 254
0.11280 -0.66056 -0.40887 254 254 254
0.11783 -0.66241 -0.40578 254 254 254
0.12286 -0.66426 -0.40270 254 254 254
0.12788 -0.66611 -0.39962 254 254 254
0.13289 -0.66796 -0.39654 254 254 254
0.13791 -0.66981 -0.39346 254 254 254
0.14291 -0.67166 -0.39039 254 254 254
0.14792 -0.67350 -0.38732 254 254 254
0.15292 -0.67535 -0.38425 254 254 254
0.15792 -0.67719 -0.38118 254 254 254
0.16291 -0.67903 -0.37812 254 254 254
0.16790 -0.68087 -0.37505 254 254 254
0.17288 -0.68271 -0.37199 254 254 254
0.17786 -0.68454 -0.36894 254 254 254
0.18284 -0.68638 -0.36588 254 254 254
0.18781 -0.68821 -0.36283 254 254 254
0.19278 -0.69004 -0.35978 254 254 254
0.19774 -0.69187 -0.35673 254 254 254
0.20270 -0.69370 -0.35369 254 254 254
0.20766 -0.69553 -0.35065 254 254 254
0.21261 -0.69736 -0.34761 254 254 254
0.21756 -0.69918 -0.34457 254 254 254
0.22250 -0.70101 -0.34153 254 254 254
0.22744 -0.70283 -0.33850 254 254 254
0.23238 -0.70465 -0.33547 254 254 254
0.23731 -0.70647 -0.33244 254 254 254
-0.44299 -0.46253 -0.74280 251 250 251
-0.43752 -0.46454 -0.73944 251 250 251
-0.43206 -0.46655 -0.73609 252 250 251
-0.42660 -0.46857 -0.73274 252 250 251
-0.42114 -0.47057 -0.72939 252 250 251
-0.41569 -0.47258 -0.72605 252 250 251
-0.41024 -0.47459 -0.72271 252 250 251
-0.40480 -0.47659 -0.71937 252 250 251
-0.39936 -0.47859 -0.71604 252 251 251
-0.39393 -0.48059 -0.71270 252 251 251
-0.38850 -0.48259 -0.70937 252 251 251
-0.38307 -0.48459 -0.70605 252 252 251
-0.37765 -0.48659 -0.70272 252 252 252
-0.37224 -0.48858 -0.69940 252 252 252
-0.36683 -0.49057 -0.69608 252 252 252
-0.36142 -0.49256 -0.69277 252 252 252
-0.35602 -0.49455 -0.68946 252 252 252
-0.35062 -0.49654 -0.68615 252 252 252
-0.34523 -0.49852 -0.68284 252 252 252
-0.33984 -0.50051 -0.67953 252 252 252
-0.33446 -0.50249 -0.67623 252 252 252
-0.32908 -0.50447 -0.67293 253 253 253
-0.32370 -0.50645 -0.66964 253 253 253
-0.31833 -0.50843 -0.66634 253 253 253
-0.31297 -0.51040 -0.66305 253 253 253
-0.30760 -0.51238 -0.65977 253 253 253
-0.30225 -0.51435 -0.65648 253 253 254
-0.29689 -0.51632 -0.65320 254 254 254
-0.29155 -0.51829 -0.64992 254 254 254
-0.28620 -0.52026 -0.64664 254 254 254
-0.28086 -0.52222 -0.64337 254 254 254
-0.27553 -0.52419 -0.64010 254 254 254
-0.27020 -0.52615 -0.63683 254 254 254
-0.26487 -0.52811 -0.63356 254 254 254
-0.25955 -0.53007 -0.63030 254 254 254
-0.25424 -0.53203 -0.62704 254 254 254
-0.24892 -0.53398 -0.62378 254 254 254
-0.24361 -0.53594 -0.62052 254 254 254
-0.23831 -0.53789 -0.61727 254 254 254
-0.23301 -0.53984 -0.61402 254 254 254
-0.22772 -0.54179 -0.61077 254 254 254
-0.22243 -0.54374 -0.60753 254 254 254
-0.21714 -0.54569 -0.60429 254 254 254
-0.21186 -0.54763 -0.60105 254 254 254
-0.20658 -0.54957 -0.59781 254 254 254
-0.20131 -0.55152 -0.59458 254 254 254
-0.19604 -0.55346 -0.59135 254 254 254
-0.19078 -0.55539 -0.58812 254 254 254
-0.18552 -0.55733 -0.58489 254 254 254
-0.18026 -0.55927 -0.58167 254 254 254
-0.17501 -0.56120 -0.57845 254 254 254
-0.16976 -0.56313 -0.57523 254 254 254
-0.16452 -0.56506 -0.57201 254 254 254
-0.15928 -0.56699 -0.56880 254 254 254
-0.15405 -0.56892 -0.56559 254 254 254
-0.14882 -0.57084 -0.56239 254 254 254
-0.14359 -0.57277 -0.55918 254 254 254
-0.13837 -0.57469 -0.55598 254 254 254
-0.13315 -0.57661 -0.55278 254 254 254
-0.12794 -0.57853 -0.54958 254 254 254
-0.12273 -0.58045 -0.54639 254 254 254
-0.11753 -0.58236 -0.54320 254 254 254
-0.11233 -0.58428 -0.54001 254 254 254
-0.10713 -0.58619 -0.53682 254 254 254
-0.10194 -0.58810 -0.53364 254 254 254
-0.09676 -0.59001 -0.53046 254 254 254
-0.09157 -0.59192 -0.52728 254 254 254
-0.08639 -0.59383 -0.52410 254 254 254
-0.08122 -0.59573 -0.52093 254 254 254
-0.07605 -0.59763 -0.51776 254 254 254
-0.07088 -0.59954 -0.51459 254 254 254
-0.06572 -0.60144 -0.51143 254 254 254
-0.06057 -0.60334 -0.50826 254 254 254
-0.05541 -0.60523 -0.50510 254 254 254
-0.05026 -0.60713 -0.50195 254 254 254
-0.04512 -0.60902 -0.49879 254 254 254
-0.03998 -0.61092 -0.49564 254 254 254
-0.03484 -0.61281 -0.49249 254 254 254
-0.02971 -0.61470 -0.48934 254 254 254
-0.02458 -0.61658 -0.48620 254 254 254
-0.01946 -0.61847 -0.48305 254 254 254
-0.01434 -0.62036 -0.47991 254 254 254
-0.00922 -0.62224 -0.47678 254 254 254
-0.00411 -0.62412 -0.47364 254 254 254
0.00099 -0.62600 -0.47051 254 254 254
0.00610 -0.62788 -0.46738 254 254 254
0.01119 -0.62976 -0.46425 254 254 254
0.01629 -0.63163 -0.46113 254 254 254
0.02138 -0.63351 -0.45801 254 254 254
0.02647 -0.63538 -0.45489 254 254 254
0.03155 -0.63725 -0.45177 254 254 254
0.03663 -0.63912 -0.44866 254 254 254
0.04170 -0.64099 -0.44555 254 254 254
0.04677 -0.64286 -0.44244 254 254 254
0.05184 -0.64472 -0.43933 254 254 254
0.05690 -0.64659 -0.43623 254 254 254
0.06195 -0.64845 -0.43312 254 254 254
0.06701 -0.65031 -0.43003 254 254 254
0.07206 -0.65217 -0.42693 254 254 254
0.07710 -0.65403 -0.42383 254 254 254
0.08214 -0.65588 -0.42074 254 254 254
0.08718 -0.65774 -0.41765 254 254 254
0.09221 -0.65959 -0.41457 254 254 254
0.09724 -0.66144 -0.41148 254 254 254
0.10227 -0.66329 -0.40840 254 254 254
0.10729 -0.66514 -0.40532 254 254 254
0.11230 -0.66699 -0.40225 254 254 254
0.11732 -0.66883 -0.39917 254 254 254
0.12233 -0.67068 -0.39610 254 254 254
0.12733 -0.67252 -0.39303 254 254 254
0.13233 -0.67436 -0.38996 254 254 254
0.13733 -0.67620 -0.38690 254 254 254
0.14232 -0.67804 -0.38384 254 254 254
0.14731 -0.67987 -0.38078 254 254 254
0.15229 -0.68171 -0.37772 254 254 254
0.15727 -0.68354 -0.37467 254 254 254
0.16225 -0.68538 -0.37162 254 254 254
0.16722 -0.68721 -0.36857 254 254 254
0.17219 -0.68904 -0.36552 254 254 254
0.17716 -0.69086 -0.36247 254 254 254
0.18212 -0.69269 -0.35943 254 254 254
0.18707 -0.69452 -0.35639 254 254 254
0.19203 -0.69634 -0.35335 254 254 254
0.19698 -0.69816 -0.35032 254 254 254
0.20192 -0.69998 -0.34729 254 254 254
0.20686 -0.70180 -0.34426 254 254 254
0.21180 -0.70362 -0.34123 254 254 254
0.21673 -0.70544 -0.33820 254 254 254
0.22166 -0.70725 -0.33518 254 254 254
0.22658 -0.70906 -0.33216 254 254 254
0.23151 -0.71088 -0.32914 254 254 254
-0.45256 -0.46588 -0.74146 251 250 251
-0.44710 -0.46788 -0.73812 252 250 251
-0.44164 -0.46989 -0.73477 252 250 251
-0.43619 -0.47190 -0.73143 252 250 251
-0.43074 -0.47390 -0.72810 252 250 251
-0.42530 -0.47590 -0.72476 252 250 251
-0.41986 -0.47790 -0.72143 252 250 251
-0.41443 -0.47990 -0.71810 252 251 251
-0.40900 -0.48189 -0.71477 252 251 251
-0.40358 -0.48389 -0.71145 252 251 251
-0.39816 -0.48588 -0.70813 252 251 251
-0.39274 -0.48787 -0.70481 252 252 251
-0.38733 -0.48986 -0.70150 252 252 252
-0.38193 -0.49185 -0.69819 252 252 252
-0.37652 -0.49383 -0.69488 252 252 252
-0.37113 -0.49582 -0.69157 252 252 252
-0.36574 -0.49780 -0.68827 252 252 252
-0.36035 -0.49978 -0.68496 252 252 252
-0.35496 -0.50176 -0.68167 252 252 252
-0.34959 -0.50374 -0.67837 252 252 252
-0.34421 -0.50571 -0.67508 252 252 252
-0.33884 -0.50769 -0.67179 253 253 253
-0.33348 -0.50966 -0.66850 253 253 253
-0.32812 -0.51163 -0.66521 253 253 253
-0.32276 -0.51360 -0.66193 253 253 253
-0.31741 -0.51557 -0.65865 253 253 253
-0.31206 -0.51753 -0.65538 253 253 253
-0.30672 -0.51950 -0.65210 254 254 254
-0.30138 -0.52146 -0.64883 254 254 254
-0.29604 -0.52342 -0.64556 254 254 254
-0.29071 -0.52538 -0.64230 254 254 254
-0.28539 -0.52734 -0.63903 254 254 254
-0.28007 -0.52930 -0.63577 254 254 254
-0.27475 -0.53125 -0.63252 254 254 254
-0.26944 -0.53320 -0.62926 254 254 254
-0.26413 -0.53516 -0.62601 254 254 254
-0.25883 -0.53711 -0.62276 254 254 254
-0.25353 -0.53905 -0.61951 254 254 254
-0.24823 -0.54100 -0.61627 254 254 254
-0.24294 -0.54294 -0.61303 254 254 254
-0.23766 -0.54489 -0.60979 254 254 254
-0.23238 -0.54683 -0.60655 254 254 254
-0.22710 -0.54877 -0.60332 254 254 254
-0.22183 -0.55071 -0.60009 254 254 254
-0.21656 -0.55265 -0.59686 254 254 254
-0.21129 -0.55458 -0.59364 254 254 254
-0.20603 -0.55652 -0.59041 254 254 254
-0.20078 -0.55845 -0.58719 254 254 254
-0.19553 -0.56038 -0.58398 254 254 254
-0.19028 -0.56231 -0.58076 254 254 254
-0.18504 -0.56423 -0.57755 254 254 254
-0.17980 -0.56616 -0.57434 254 254 254
-0.17457 -0.56808 -0.57113 254 254 254
-0.16934 -0.57001 -0.56793 254 254 254
-0.16411 -0.57193 -0.56473 254 254 254
-0.15889 -0.57385 -0.56153 254 254 254
-0.15367 -0.57577 -0.55833 254 254 254
-0.14846 -0.57768 -0.55514 254 254 254
-0.14325 -0.57960 -0.55195 254 254 254
-0.13805 -0.58151 -0.54876 254 254 254
-0.13285 -0.58342 -0.54557 254 254 254
-0.12766 -0.58533 -0.54239 254 254 254
-0.12246 -0.58724 -0.53921 254 254 254
-0.11728 -0.58915 -0.53603 254 254 254
-0.11210 -0.59105 -0.53285 254 254 254
-0.10692 -0.59296 -0.52968 254 254 254
-0.10174 -0.59486 -0.52651 254 254 254
-0.09657 -0.59676 -0.52334 254 254 254
-0.09141 -0.59866 -0.52018 254 254 254
-0.08625 -0.60056 -0.51702 254 254 254
-0.08109 -0.60245 -0.51386 254 254 254
-0.07594 -0.60435 -0.51070 254 254 254
-0.07079 -0.60624 -0.50754 254 254 254
-0.06564 -0.60813 -0.50439 254 254 254
-0.06050 -0.61002 -0.50124 254 254 254
-0.05537 -0.61191 -0.49810 254 254 254
-0.05023 -0.61380 -0.49495 254 254 254
-0.04511 -0.61568 -0.49181 254 254 254
-0.03998 -0.61757 -0.48867 254 254 254
-0.03486 -0.61945 -0.48553 254 254 254
-0.02975 -0.62133 -0.48240 254 254 254
-0.02464 -0.62321 -0.47927 254 254 254
-0.01953 -0.62509 -0.47614 254 254 254
-0.01443 -0.62696 -0.47301 254 254 254
-0.00933 -0.62884 -0.46989 254 254 254
-0.00423 -0.63071 -0.46677 254 254 254
0.00086 -0.63258 -0.46365 254 254 254
0.00594 -0.63445 -0.46053 254 254 254
0.01102 -0.63632 -0.45742 254 254 254
0.01610 -0.63819 -0.45430 254 254 254
0.02118 -0.64005 -0.45120 254 254 254
0.02625 -0.64192 -0.44809 254 254 254
0.03131 -0.64378 -0.44499 254 254 254
0.03637 -0.64564 -0.44188 254 254 254
0.04143 -0.64750 -0.43879 254 254 254
0.04649 -0.64936 -0.43569 254 254 254
0.05153 -0.65121 -0.43260 254 254 254
0.05658 -0.65307 -0.42950 254 254 254
0.06162 -0.65492 -0.42641 254 254 254
0.06666 -0.65678 -0.42333 254 254 254
0.07169 -0.65863 -0.42024 254 254 254
0.07672 -0.66047 -0.41716 254 254 254
0.08175 -0.66232 -0.41408 254 254 254
0.08677 -0.66417 -0.41101 254 254 254
0.09178 -0.66601 -0.40793 254 254 254
0.09680 -0.66786 -0.40486 254 254 254
0.10180 -0.66970 -0.40179 254 254 254
0.10681 -0.67154 -0.39873 254 254 254
0.11181 -0.67338 -0.39566 254 254 254
0.11681 -0.67521 -0.39260 254 254 254
0.12180 -0.67705 -0.38954 254 254 254
0.12679 -0.67888 -0.38649 254 254 254
0.13177 -0.68072 -0.38343 254 254 254
0.13675 -0.68255 -0.38038 254 254 254
0.14173 -0.68438 -0.37733 254 254 254
0.14670 -0.68621 -0.37428 254 254 254
0.15167 -0.68803 -0.37124 254 254 254
0.15664 -0.68986 -0.36820 254 254 254
0.16160 -0.69168 -0.36516 254 254 254
0.16655 -0.69350 -0.36212 254 254 254
0.17151 -0.69533 -0.35908 254 254 254
0.17646 -0.69714 -0.35605 254 254 254
0.18140 -0.69896 -0.35302 254 254 254
0.18634 -0.70078 -0.35000 254 254 254
0.19128 -0.70259 -0.34697 254 254 254
0.19621 -0.70441 -0.34395 254 254 254
0.20114 -0.70622 -0.34093 254 254 254
0.20607 -0.70803 -0.33791 254 254 254
0.21099 -0.70984 -0.33489 254 254 254
0.21591 -0.71165 -0.33188 254 254 254
0.22082 -0.71346 -0.32887 254 254 254
-0.46207 -0.46921 -0.74013 252 250 251
-0.45662 -0.47121 -0.73680 252 250 251
-0.45117 -0.47321 -0.73346 252 250 251
-0.44573 -0.47521 -0.73013 252 250 251
-0.44030 -0.47720 -0.72680 252 250 251
-0.43486 -0.47920 -0.72348 252 251 251
-0.42944 -0.48119 -0.72016 252 251 251
-0.42401 -0.48318 -0.71684 252 251 251
-0.41859 -0.48517 -0.71352 252 251 251
-0.41318 -0.48716 -0.71020 252 251 251
-0.40777 -0.48915 -0.70689 252 251 251
-0.40236 -0.49113 -0.70358 252 252 251
-0.39696 -0.49311 -0.70028 252 252 252
-0.39157 -0.49509 -0.69697 252 252 252
-0.38617 -0.49707 -0.69367 252 252 252
-0.38079 -0.49905 -0.69037 252 252 252
-0.37540 -0.50103 -0.68708 252 252 252
-0.37003 -0.50300 -0.68379 252 252 252
-0.36465 -0.50498 -0.68050 252 252 252
-0.35928 -0.50695 -0.67721 252 252 252
-0.35392 -0.50892 -0.67393 252 252 252
-0.34856 -0.51089 -0.67064 253 253 253
-0.34320 -0.51285 -0.66737 253 253 253
-0.33785 -0.51482 -0.66409 253 253 253
-0.33250 -0.51678 -0.66082 253 253 253
-0.32716 -0.51874 -0.65755 253 253 253
-0.32182 -0.52070 -0.65428 253 253 253
-0.31649 -0.52266 -0.65101 254 254 254
-0.31116 -0.52462 -0.64775 254 254 254
-0.30583 -0.52657 -0.64449 254 254 254
-0.30051 -0.52852 -0.64123 254 254 254
-0.29520 -0.53048 -0.63798 254 254 254
-0.28989 -0.53243 -0.63473 254 254 254
-0.28458 -0.53437 -0.63148 254 254 254
-0.27928 -0.53632 -0.62823 254 254 254
-0.27398 -0.53827 -0.62499 254 254 254
-0.26868 -0.54021 -0.62175 254 254 254
-0.26339 -0.54215 -0.61851 254 254 254
-0.25811 -0.54409 -0.61527 254 254 254
