ply
format ascii 1.0
element face 0
property list uchar int vertex_indices
element vertex 1265
property float x
property float y
property float z
property uchar diffuse_red
property uchar diffuse_green
property uchar diffuse_blue
end_header
1.47035 -2.81184 -0.45243 158 160 154
1.61056 -2.67896 -0.55300 149 150 141
1.59840 -2.68880 -0.54591 145 147 141
1.58624 -2.69864 -0.53883 153 150 155
1.57409 -2.70847 -0.53174 149 155 149
1.56195 -2.71830 -0.52466 140 153 146
1.54981 -2.72812 -0.51759 146 155 148
1.53768 -2.73794 -0.51051 141 145 153
1.52555 -2.74775 -0.50344 153 149 154
1.51344 -2.75755 -0.49638 154 150 150
1.50132 -2.76736 -0.48932 155 156 151
1.48922 -2.77715 -0.48226 153 148 149
1.47711 -2.78695 -0.47520 155 148 149
1.46502 -2.79673 -0.46815 152 154 161
1.44085 -2.81629 -0.45406 157 158 163
1.42877 -2.82607 -0.44702 164 161 163
1.41670 -2.83583 -0.43998 163 165 158
1.40464 -2.84560 -0.43295 162 153 147
1.59269 -2.67406 -0.56135 149 147 138
1.58057 -2.68387 -0.55428 142 144 144
1.56846 -2.69368 -0.54722 152 154 155
1.55635 -2.70348 -0.54016 152 160 154
1.54425 -2.71328 -0.53310 153 165 157
1.53216 -2.72307 -0.52604 155 160 157
1.52007 -2.73286 -0.51899 157 161 160
1.50799 -2.74264 -0.51194 162 158 153
1.49592 -2.75241 -0.50490 156 155 144
1.48385 -2.76219 -0.49786 146 147 139
1.47178 -2.77195 -0.49082 151 150 149
1.45973 -2.78172 -0.48378 159 154 152
1.44767 -2.79147 -0.47675 159 158 158
1.43563 -2.80122 -0.46973 160 163 157
1.41156 -2.82071 -0.45568 158 157 160
1.39953 -2.83045 -0.44866 158 161 159
1.38751 -2.84018 -0.44165 164 165 150
1.57494 -2.66920 -0.56965 145 142 143
1.56286 -2.67898 -0.56260 148 156 147
1.55079 -2.68875 -0.55556 144 154 150
1.53873 -2.69853 -0.54852 160 157 155
1.52668 -2.70829 -0.54148 161 166 163
1.51462 -2.71805 -0.53444 155 157 154
1.50258 -2.72781 -0.52741 150 152 146
1.49054 -2.73756 -0.52038 160 158 154
1.47851 -2.74731 -0.51336 159 160 152
1.46648 -2.75705 -0.50634 147 151 147
1.45446 -2.76679 -0.49932 151 154 150
1.44245 -2.77652 -0.49231 155 157 160
1.43044 -2.78624 -0.48530 153 158 158
1.41844 -2.79597 -0.47829 155 156 149
1.40644 -2.80568 -0.47129 156 149 142
1.39445 -2.81540 -0.46429 154 153 149
1.38247 -2.82510 -0.45729 152 156 154
1.37049 -2.83481 -0.45030 162 165 152
1.35852 -2.84451 -0.44331 161 162 161
1.55730 -2.66436 -0.57790 137 140 142
1.54527 -2.67412 -0.57087 142 144 138
1.53324 -2.68386 -0.56384 146 142 135
1.52122 -2.69360 -0.55682 147 153 150
1.50921 -2.70334 -0.54980 154 158 155
1.49720 -2.71307 -0.54279 154 160 149
1.48520 -2.72280 -0.53578 155 155 148
1.47320 -2.73252 -0.52877 148 153 151
1.46122 -2.74223 -0.52177 157 149 149
1.44923 -2.75194 -0.51477 154 158 146
1.43725 -2.76165 -0.50777 155 154 148
1.42528 -2.77135 -0.50078 153 152 154
1.41332 -2.78105 -0.49379 148 154 156
1.40136 -2.79074 -0.48680 151 155 154
1.38940 -2.80043 -0.47982 160 156 150
1.37746 -2.81011 -0.47284 152 153 145
1.36551 -2.81979 -0.46586 154 152 146
1.35358 -2.82946 -0.45889 159 162 153
1.34165 -2.83913 -0.45192 166 164 157
1.32973 -2.84880 -0.44496 157 163 159
1.53977 -2.65956 -0.58609 141 144 140
1.52778 -2.66928 -0.57908 141 142 140
1.51580 -2.67900 -0.57208 143 150 141
1.50382 -2.68871 -0.56508 135 144 148
1.49185 -2.69842 -0.55808 146 148 148
1.47989 -2.70812 -0.55108 145 141 143
1.46793 -2.71781 -0.54409 153 151 149
1.45598 -2.72750 -0.53711 132 145 146
1.44403 -2.73719 -0.53012 155 148 142
1.43209 -2.74687 -0.52314 147 158 150
1.42016 -2.75655 -0.51617 148 154 149
1.40823 -2.76622 -0.50919 153 155 151
1.39630 -2.77589 -0.50222 157 160 153
1.38439 -2.78555 -0.49526 152 158 162
1.37248 -2.79521 -0.48830 166 163 171
1.36057 -2.80486 -0.48134 153 160 164
1.34867 -2.81451 -0.47438 154 166 157
1.33678 -2.82416 -0.46743 155 155 160
1.32489 -2.83379 -0.46048 155 156 162
1.31301 -2.84343 -0.45353 158 162 159
1.52236 -2.65479 -0.59423 146 140 149
1.51041 -2.66448 -0.58724 140 139 143
1.49847 -2.67417 -0.58026 142 146 149
1.48654 -2.68385 -0.57328 144 154 148
1.47461 -2.69352 -0.56630 147 148 152
1.46269 -2.70320 -0.55933 140 149 157
1.45077 -2.71286 -0.55236 145 153 156
1.43886 -2.72252 -0.54539 141 151 154
1.42696 -2.73218 -0.53843 156 157 153
1.41506 -2.74183 -0.53147 143 141 161
1.40317 -2.75148 -0.52451 149 154 152
1.39128 -2.76112 -0.51756 156 159 151
1.37940 -2.77076 -0.51061 161 160 152
1.36752 -2.78040 -0.50366 151 162 159
1.35565 -2.79002 -0.49672 150 153 159
1.34379 -2.79965 -0.48978 156 160 157
1.33193 -2.80927 -0.48284 160 164 156
1.32008 -2.81888 -0.47591 162 162 157
1.30824 -2.82849 -0.46898 156 157 161
1.29640 -2.83809 -0.46206 165 169 158
1.28456 -2.84769 -0.45513 171 177 161
1.27273 -2.85729 -0.44822 163 170 161
1.50505 -2.65005 -0.60232 139 137 141
1.49315 -2.65971 -0.59535 142 141 135
1.48125 -2.66937 -0.58838 145 157 140
1.46936 -2.67902 -0.58142 150 142 139
1.45748 -2.68866 -0.57447 148 152 143
1.44560 -2.69831 -0.56751 152 151 147
1.43372 -2.70794 -0.56056 146 146 151
1.42185 -2.71758 -0.55362 146 147 151
1.40999 -2.72720 -0.54667 154 154 148
1.39813 -2.73683 -0.53973 167 159 160
1.38628 -2.74644 -0.53280 159 154 151
1.37444 -2.75606 -0.52587 155 151 147
1.36260 -2.76567 -0.51894 156 159 156
1.35077 -2.77527 -0.51201 155 167 168
1.33894 -2.78487 -0.50509 159 162 155
1.32712 -2.79446 -0.49817 159 159 145
1.31530 -2.80405 -0.49125 162 168 154
1.30349 -2.81364 -0.48434 172 166 154
1.29169 -2.82322 -0.47743 161 157 151
1.27989 -2.83279 -0.47052 154 156 153
1.26810 -2.84237 -0.46362 151 154 149
1.25631 -2.85193 -0.45672 152 156 149
1.47600 -2.65497 -0.60341 148 149 147
1.46414 -2.66460 -0.59646 149 154 154
1.45229 -2.67422 -0.58952 157 160 147
1.44045 -2.68384 -0.58258 149 154 150
1.42861 -2.69345 -0.57565 146 134 137
1.41678 -2.70306 -0.56872 142 145 143
1.40495 -2.71266 -0.56179 154 157 149
1.39313 -2.72226 -0.55487 157 156 148
1.38132 -2.73185 -0.54795 157 154 154
1.36951 -2.74144 -0.54103 155 150 152
1.35771 -2.75102 -0.53412 154 151 148
1.34591 -2.76060 -0.52721 151 145 150
1.33412 -2.77018 -0.52031 146 142 145
1.32233 -2.77975 -0.51340 151 156 149
1.31055 -2.78931 -0.50650 152 156 150
1.29878 -2.79887 -0.49961 158 165 157
1.28701 -2.80843 -0.49272 166 173 162
1.27524 -2.81798 -0.48583 165 168 156
1.26349 -2.82753 -0.47894 161 160 152
1.25174 -2.83707 -0.47206 157 154 147
1.23999 -2.84661 -0.46518 156 160 153
1.44714 -2.65986 -0.60449 146 151 151
1.43533 -2.66945 -0.59757 144 150 150
1.42353 -2.67904 -0.59065 146 144 154
1.41174 -2.68862 -0.58374 151 143 140
1.39994 -2.69820 -0.57683 150 154 139
1.38816 -2.70777 -0.56992 148 157 165
1.37638 -2.71734 -0.56302 153 156 158
1.36461 -2.72691 -0.55612 158 156 156
1.35284 -2.73647 -0.54922 166 167 154
1.34108 -2.74602 -0.54233 165 163 160
1.32932 -2.75557 -0.53544 161 159 154
1.31757 -2.76512 -0.52855 162 162 149
1.30583 -2.77466 -0.52167 159 166 161
1.29409 -2.78420 -0.51479 154 163 160
1.28235 -2.79373 -0.50791 157 157 160
1.27063 -2.80325 -0.50104 161 162 158
1.25890 -2.81278 -0.49417 162 163 159
1.24719 -2.82229 -0.48730 161 166 156
1.23548 -2.83181 -0.48044 163 162 143
1.22377 -2.84132 -0.47358 159 162 155
1.43025 -2.65515 -0.61246 143 142 151
1.41848 -2.66471 -0.60556 133 142 151
1.40672 -2.67427 -0.59866 145 147 149
1.39497 -2.68382 -0.59177 152 152 144
1.38322 -2.69337 -0.58488 147 153 136
1.37147 -2.70292 -0.57799 145 148 142
1.35973 -2.71246 -0.57111 155 159 159
1.34800 -2.72199 -0.56423 161 162 158
1.33627 -2.73152 -0.55735 161 163 156
1.32455 -2.74105 -0.55048 166 164 160
1.31284 -2.75057 -0.54361 161 162 157
1.30113 -2.76009 -0.53674 158 161 155
1.28943 -2.76960 -0.52988 152 157 151
1.27773 -2.77911 -0.52302 150 158 155
1.26604 -2.78861 -0.51616 160 155 154
1.25435 -2.79811 -0.50931 163 165 155
1.24267 -2.80761 -0.50246 165 163 149
1.23099 -2.81709 -0.49561 166 166 163
1.21932 -2.82658 -0.48877 170 177 167
1.20766 -2.83606 -0.48193 163 173 163
1.41346 -2.65047 -0.62039 146 147 154
1.40174 -2.66000 -0.61351 139 141 150
1.39002 -2.66953 -0.60663 155 153 148
1.37830 -2.67906 -0.59975 158 155 151
1.36659 -2.68858 -0.59288 145 140 145
1.35489 -2.69809 -0.58602 141 148 145
1.34319 -2.70760 -0.57915 149 161 169
1.33150 -2.71711 -0.57229 156 161 161
1.31981 -2.72661 -0.56543 153 159 161
1.30813 -2.73611 -0.55858 166 166 160
1.29646 -2.74560 -0.55173 159 166 157
1.28479 -2.75509 -0.54488 156 158 156
1.27313 -2.76458 -0.53804 149 155 155
1.26147 -2.77406 -0.53120 152 161 161
1.24982 -2.78353 -0.52436 163 170 166
1.23817 -2.79300 -0.51753 158 163 163
1.22653 -2.80247 -0.51070 163 164 154
1.21490 -2.81193 -0.50387 166 160 162
1.20327 -2.82138 -0.49705 165 163 164
1.19164 -2.83083 -0.49022 160 158 154
1.18003 -2.84028 -0.48341 155 152 143
1.16841 -2.84972 -0.47659 165 167 157
1.39678 -2.64581 -0.62826 140 144 144
1.38509 -2.65532 -0.62140 144 141 146
1.37341 -2.66482 -0.61454 151 151 157
1.36174 -2.67432 -0.60769 156 164 166
1.35007 -2.68381 -0.60084 149 152 152
1.33841 -2.69330 -0.59399 139 143 132
1.32675 -2.70278 -0.58715 141 144 149
1.31510 -2.71226 -0.58030 155 152 156
1.30346 -2.72173 -0.57347 152 160 151
1.29182 -2.73120 -0.56663 155 164 151
1.28018 -2.74067 -0.55980 166 175 166
1.26856 -2.75013 -0.55297 161 168 161
1.25693 -2.75958 -0.54615 160 159 163
1.24532 -2.76903 -0.53933 155 152 166
1.23370 -2.77848 -0.53251 166 174 165
1.22210 -2.78792 -0.52569 166 166 169
1.21050 -2.79736 -0.51888 164 166 170
1.19890 -2.80679 -0.51208 163 168 166
1.18731 -2.81622 -0.50527 163 165 164
1.17573 -2.82564 -0.49847 159 164 164
1.16415 -2.83506 -0.49167 152 155 152
1.15258 -2.84447 -0.48488 156 159 154
1.14101 -2.85388 -0.47809 162 169 164
1.38020 -2.64119 -0.63609 128 134 140
1.36856 -2.65067 -0.62925 144 150 144
1.35692 -2.66014 -0.62241 136 148 152
1.34528 -2.66961 -0.61557 152 158 159
1.33366 -2.67908 -0.60874 155 160 154
1.32203 -2.68853 -0.60191 153 159 146
1.31042 -2.69799 -0.59509 148 153 149
1.29881 -2.70744 -0.58827 162 159 153
1.28720 -2.71688 -0.58145 159 163 150
1.27560 -2.72632 -0.57463 153 157 155
1.26401 -2.73576 -0.56782 166 170 163
1.25242 -2.74519 -0.56101 152 154 156
1.24084 -2.75462 -0.55421 149 146 150
1.22926 -2.76404 -0.54741 146 148 159
1.21769 -2.77346 -0.54061 156 166 168
1.20612 -2.78287 -0.53381 163 162 166
1.19456 -2.79228 -0.52702 161 158 167
1.18301 -2.80169 -0.52023 158 159 166
1.17146 -2.81109 -0.51345 159 166 164
1.15992 -2.82048 -0.50666 166 166 163
1.14838 -2.82987 -0.49988 162 159 157
1.13684 -2.83926 -0.49311 163 163 158
1.12532 -2.84864 -0.48634 169 175 161
1.36372 -2.63660 -0.64386 144 151 155
1.35212 -2.64605 -0.63704 138 141 147
1.34052 -2.65549 -0.63022 131 138 143
1.32893 -2.66493 -0.62341 155 158 161
1.31734 -2.67437 -0.61660 155 158 154
1.30576 -2.68380 -0.60979 154 155 152
1.29418 -2.69323 -0.60298 158 160 159
1.28261 -2.70265 -0.59618 157 158 158
1.27105 -2.71206 -0.58938 151 149 156
1.25949 -2.72148 -0.58258 152 154 161
1.24793 -2.73088 -0.57579 158 163 164
1.23638 -2.74029 -0.56900 154 152 158
1.22484 -2.74969 -0.56222 149 150 154
1.21330 -2.75908 -0.55543 139 143 154
1.20177 -2.76847 -0.54865 141 151 147
1.19025 -2.77786 -0.54188 162 160 157
1.17873 -2.78724 -0.53510 166 162 164
1.16721 -2.79661 -0.52834 157 154 162
1.15570 -2.80599 -0.52157 149 155 154
1.14420 -2.81535 -0.51481 157 165 156
1.13270 -2.82472 -0.50805 163 165 159
1.12121 -2.83408 -0.50129 164 169 161
1.10972 -2.84343 -0.49454 164 171 162
1.09824 -2.85278 -0.48779 156 165 157
1.34735 -2.63203 -0.65159 148 151 154
1.33579 -2.64146 -0.64479 143 136 139
1.32423 -2.65087 -0.63799 142 149 154
1.31268 -2.66028 -0.63119 153 151 159
1.30113 -2.66969 -0.62440 150 150 152
1.28959 -2.67909 -0.61761 151 154 147
1.27805 -2.68849 -0.61083 154 157 161
1.26652 -2.69789 -0.60404 156 161 165
1.25499 -2.70727 -0.59726 147 145 150
1.24347 -2.71666 -0.59049 150 149 155
1.23196 -2.72604 -0.58371 154 159 161
1.22045 -2.73541 -0.57694 162 161 160
1.20895 -2.74479 -0.57018 156 162 161
1.19745 -2.75415 -0.56341 146 154 155
1.18596 -2.76351 -0.55665 147 150 149
1.17447 -2.77287 -0.54989 157 158 155
1.16299 -2.78223 -0.54314 157 160 160
1.15151 -2.79157 -0.53639 155 159 160
1.14004 -2.80092 -0.52964 153 160 159
1.12858 -2.81026 -0.52290 163 171 166
1.11712 -2.81959 -0.51616 167 169 164
1.10566 -2.82892 -0.50942 163 164 163
1.09422 -2.83825 -0.50268 163 170 168
1.08277 -2.84757 -0.49595 157 161 157
1.31955 -2.63689 -0.65249 144 146 136
1.30804 -2.64628 -0.64571 142 147 149
1.29652 -2.65566 -0.63893 142 141 154
1.28501 -2.66504 -0.63216 145 151 147
1.27351 -2.67442 -0.62539 149 152 148
1.26201 -2.68379 -0.61862 152 156 158
1.25052 -2.69315 -0.61186 157 160 165
1.23904 -2.70251 -0.60510 155 158 155
1.22756 -2.71187 -0.59834 154 155 150
1.21608 -2.72122 -0.59158 153 161 154
1.20461 -2.73057 -0.58483 157 163 158
1.19315 -2.73991 -0.57809 153 161 159
1.18169 -2.74925 -0.57134 152 158 157
1.17024 -2.75859 -0.56460 153 156 153
1.15879 -2.76792 -0.55786 153 154 150
1.14735 -2.77724 -0.55113 148 148 155
1.13591 -2.78656 -0.54439 151 161 165
1.12448 -2.79588 -0.53767 157 165 164
1.11305 -2.80519 -0.53094 166 167 165
1.10163 -2.81450 -0.52422 166 166 163
1.09022 -2.82380 -0.51750 159 161 159
1.07881 -2.83310 -0.51078 152 156 159
1.06741 -2.84240 -0.50407 151 153 156
1.30342 -2.63235 -0.66014 138 143 142
1.29194 -2.64171 -0.65338 139 146 147
1.28047 -2.65107 -0.64662 141 142 150
1.26900 -2.66042 -0.63987 145 150 142
1.25754 -2.66977 -0.63312 146 151 148
1.24608 -2.67911 -0.62637 148 150 153
1.23463 -2.68845 -0.61962 156 158 159
1.22318 -2.69778 -0.61288 156 159 155
1.21174 -2.70711 -0.60614 155 154 152
1.20030 -2.71644 -0.59941 154 164 156
1.18887 -2.72576 -0.59268 155 164 157
1.17745 -2.73507 -0.58595 148 159 152
1.16603 -2.74438 -0.57922 150 156 155
1.15461 -2.75369 -0.57250 163 166 157
1.14321 -2.76299 -0.56578 170 165 158
1.13180 -2.77229 -0.55906 155 158 160
1.12040 -2.78159 -0.55235 149 156 164
1.10901 -2.79087 -0.54564 154 159 160
1.09762 -2.80016 -0.53893 162 165 166
1.08624 -2.80944 -0.53223 162 163 166
1.07487 -2.81872 -0.52553 154 156 158
1.06350 -2.82799 -0.51883 140 144 146
1.29884 -2.61851 -0.67450 149 146 146
1.28739 -2.62785 -0.66775 147 145 151
1.27595 -2.63718 -0.66101 139 144 148
1.26451 -2.64651 -0.65427 141 148 147
1.25308 -2.65583 -0.64753 143 147 145
1.24166 -2.66515 -0.64080 141 145 152
1.23024 -2.67446 -0.63407 141 139 151
1.21883 -2.68378 -0.62734 144 148 153
1.20742 -2.69308 -0.62062 149 155 154
1.19602 -2.70238 -0.61390 150 158 153
1.18462 -2.71168 -0.60718 153 161 159
1.17323 -2.72097 -0.60047 157 172 163
1.16184 -2.73026 -0.59376 154 163 158
1.15046 -2.73955 -0.58705 153 158 159
1.13909 -2.74882 -0.58035 167 168 162
1.12772 -2.75810 -0.57365 174 173 162
1.11635 -2.76737 -0.56695 165 163 161
1.10499 -2.77664 -0.56026 159 158 159
1.09364 -2.78590 -0.55357 157 163 157
1.08229 -2.79516 -0.54688 161 166 165
1.07095 -2.80441 -0.54019 162 163 164
1.05961 -2.81366 -0.53351 151 152 161
1.04828 -2.82290 -0.52683 148 151 156
-0.24145 -3.87500 0.23324 115 116 119
1.29428 -2.60474 -0.68877 144 146 148
1.28286 -2.61405 -0.68204 147 146 148
1.27146 -2.62336 -0.67531 148 145 146
1.26005 -2.63267 -0.66859 145 143 139
1.24866 -2.64197 -0.66187 146 160 153
1.23727 -2.65127 -0.65515 142 145 146
1.22588 -2.66056 -0.64843 142 138 136
1.21450 -2.66985 -0.64172 141 139 149
1.20313 -2.67913 -0.63502 140 149 152
1.19176 -2.68841 -0.62831 142 147 146
1.18039 -2.69768 -0.62161 139 146 153
1.16903 -2.70695 -0.61491 151 162 164
1.15768 -2.71622 -0.60822 158 166 163
1.14633 -2.72548 -0.60153 153 158 160
1.13499 -2.73474 -0.59484 150 157 157
1.12365 -2.74399 -0.58815 156 158 161
1.11232 -2.75324 -0.58147 162 165 163
1.10100 -2.76248 -0.57479 163 162 165
1.08968 -2.77172 -0.56812 166 167 165
1.07836 -2.78095 -0.56144 157 159 158
1.06705 -2.79018 -0.55477 153 155 156
1.05574 -2.79941 -0.54811 156 162 157
1.04445 -2.80863 -0.54144 154 166 162
1.03315 -2.81785 -0.53478 155 164 163
-0.24165 -3.85823 0.21694 121 116 111
-0.25234 -3.86696 0.22325 116 114 118
1.27836 -2.60034 -0.69624 138 138 145
1.26699 -2.60963 -0.68953 141 138 146
1.25562 -2.61891 -0.68282 148 146 142
1.24426 -2.62819 -0.67612 142 147 144
1.23290 -2.63746 -0.66942 143 145 156
1.22155 -2.64673 -0.66272 136 136 149
1.21020 -2.65600 -0.65602 143 147 136
1.19886 -2.66526 -0.64933 143 143 147
1.18752 -2.67451 -0.64264 140 149 153
1.17619 -2.68376 -0.63596 144 144 148
1.16486 -2.69301 -0.62927 144 146 144
1.15354 -2.70225 -0.62259 150 148 145
1.14223 -2.71149 -0.61592 153 154 155
1.13092 -2.72073 -0.60924 146 155 157
1.11961 -2.72996 -0.60257 148 152 153
1.10832 -2.73918 -0.59591 153 155 160
1.09702 -2.74840 -0.58924 152 159 168
1.08573 -2.75762 -0.58258 154 156 167
1.07445 -2.76683 -0.57593 157 161 165
1.06317 -2.77604 -0.56927 149 155 160
1.05190 -2.78524 -0.56262 147 150 156
1.04063 -2.79444 -0.55597 152 159 156
1.02937 -2.80364 -0.54933 157 166 160
1.01812 -2.81283 -0.54269 160 165 161
-0.24184 -3.84156 0.20073 120 111 110
-0.25251 -3.85026 0.20703 125 124 114
-0.26317 -3.85897 0.21332 118 121 123
1.27389 -2.58671 -0.71037 146 147 142
1.26254 -2.59597 -0.70367 136 132 134
1.25121 -2.60523 -0.69698 138 140 140
1.23988 -2.61448 -0.69029 135 139 133
1.22855 -2.62373 -0.68360 123 135 133
1.21723 -2.63298 -0.67692 138 140 148
1.20592 -2.64222 -0.67024 141 141 146
1.19461 -2.65146 -0.66356 150 156 146
1.18331 -2.66069 -0.65689 146 150 149
1.17201 -2.66992 -0.65022 139 146 154
1.16072 -2.67915 -0.64355 151 155 154
1.14943 -2.68837 -0.63689 152 154 151
1.13815 -2.69758 -0.63023 154 153 150
1.12687 -2.70679 -0.62357 154 157 153
1.11560 -2.71600 -0.61692 154 164 153
1.10433 -2.72520 -0.61026 160 168 153
1.09307 -2.73440 -0.60362 160 161 159
1.08181 -2.74360 -0.59697 156 158 165
1.07056 -2.75279 -0.59033 158 157 160
1.05932 -2.76197 -0.58369 158 161 158
1.04808 -2.77115 -0.57705 155 158 156
1.03685 -2.78033 -0.57042 152 154 155
1.02562 -2.78950 -0.56379 154 158 155
1.01439 -2.79867 -0.55717 158 161 159
1.00317 -2.80783 -0.55054 166 164 161
-0.25268 -3.83366 0.19089 125 126 117
-0.26331 -3.84234 0.19717 124 123 117
-0.27393 -3.85102 0.20344 119 120 126
1.25813 -2.58239 -0.71773 151 151 156
1.24682 -2.59162 -0.71106 140 138 141
1.23553 -2.60086 -0.70438 141 142 146
1.22423 -2.61008 -0.69771 138 140 149
1.21295 -2.61931 -0.69104 132 140 142
1.20166 -2.62853 -0.68438 144 150 148
1.19039 -2.63774 -0.67772 142 147 145
1.17912 -2.64695 -0.67106 148 149 150
1.16785 -2.65616 -0.66440 145 154 146
1.15659 -2.66536 -0.65775 142 146 149
1.14534 -2.67456 -0.65110 149 149 147
1.13409 -2.68375 -0.64446 143 143 155
1.12284 -2.69294 -0.63782 146 145 155
1.11160 -2.70213 -0.63118 150 154 148
1.10037 -2.71131 -0.62454 156 160 150
1.08914 -2.72048 -0.61791 167 164 153
1.07792 -2.72965 -0.61128 164 160 152
1.06670 -2.73882 -0.60465 156 158 162
1.05549 -2.74798 -0.59803 160 167 161
1.04428 -2.75714 -0.59141 164 167 158
1.03308 -2.76630 -0.58479 164 163 157
1.02188 -2.77545 -0.57817 159 160 162
1.01069 -2.78459 -0.57156 158 165 166
0.99950 -2.79373 -0.56495 158 163 156
0.98832 -2.80287 -0.55835 163 166 154
1.24246 -2.57810 -0.72505 146 145 161
1.23120 -2.58731 -0.71840 142 147 151
1.21994 -2.59651 -0.71174 148 146 151
1.20868 -2.60571 -0.70509 145 146 152
1.19743 -2.61491 -0.69844 135 138 147
1.18619 -2.62410 -0.69179 136 140 143
1.17495 -2.63329 -0.68515 137 141 147
1.16372 -2.64247 -0.67851 145 146 146
1.15249 -2.65165 -0.67187 139 143 140
1.14127 -2.66083 -0.66524 145 145 149
1.13005 -2.67000 -0.65861 151 150 148
1.11884 -2.67916 -0.65198 154 151 157
1.10763 -2.68833 -0.64536 152 152 156
1.09643 -2.69749 -0.63874 148 153 154
1.08523 -2.70664 -0.63212 153 158 162
1.07404 -2.71579 -0.62550 164 165 167
1.06286 -2.72493 -0.61889 166 163 159
1.05168 -2.73407 -0.61228 166 168 169
1.04050 -2.74321 -0.60568 168 170 169
1.02933 -2.75234 -0.59908 167 169 165
1.01816 -2.76147 -0.59248 164 166 162
1.00701 -2.77059 -0.58588 159 160 161
0.99585 -2.77971 -0.57929 160 163 164
0.98470 -2.78883 -0.57270 161 166 155
0.97356 -2.79794 -0.56611 161 168 156
0.96242 -2.80705 -0.55953 157 164 163
1.20444 -2.59219 -0.71905 152 147 148
1.19323 -2.60137 -0.71242 139 138 143
1.18201 -2.61054 -0.70579 133 134 150
1.17081 -2.61970 -0.69916 136 138 145
1.15961 -2.62886 -0.69254 145 151 154
1.14841 -2.63802 -0.68592 152 156 157
1.13722 -2.64717 -0.67930 147 149 151
1.12604 -2.65632 -0.67268 151 150 157
1.11486 -2.66546 -0.66607 154 153 157
1.10368 -2.67460 -0.65946 156 159 154
1.09251 -2.68374 -0.65286 153 156 154
1.08135 -2.69287 -0.64625 142 150 157
1.07019 -2.70200 -0.63965 147 153 166
1.05903 -2.71112 -0.63306 158 165 169
1.04789 -2.72024 -0.62646 161 165 163
1.03674 -2.72936 -0.61987 165 169 168
1.02560 -2.73847 -0.61328 167 165 166
1.01447 -2.74757 -0.60670 166 167 167
1.00334 -2.75667 -0.60012 166 168 165
0.99222 -2.76577 -0.59354 163 162 159
0.98110 -2.77486 -0.58697 160 161 157
0.96999 -2.78395 -0.58039 157 164 156
0.95888 -2.79304 -0.57382 156 161 159
0.94778 -2.80212 -0.56726 157 159 164
0.93668 -2.81119 -0.56070 158 157 157
0.92559 -2.82027 -0.55414 156 155 150
0.91451 -2.82933 -0.54758 155 161 154
0.90342 -2.83840 -0.54103 156 162 159
0.89235 -2.84746 -0.53447 158 163 165
0.88128 -2.85651 -0.52793 164 170 171
1.18904 -2.58790 -0.72632 147 147 147
1.17786 -2.59704 -0.71971 145 146 147
1.16669 -2.60619 -0.71310 145 151 148
1.15552 -2.61533 -0.70649 139 137 144
1.14436 -2.62446 -0.69988 149 151 154
1.13320 -2.63359 -0.69328 158 155 158
1.12204 -2.64272 -0.68668 156 158 161
1.11090 -2.65184 -0.68008 155 155 164
1.09975 -2.66096 -0.67349 154 156 161
1.08862 -2.67007 -0.66690 151 160 156
1.07748 -2.67918 -0.66031 152 156 154
1.06636 -2.68829 -0.65372 150 155 156
1.05523 -2.69739 -0.64714 152 158 163
1.04412 -2.70648 -0.64056 157 164 167
1.03300 -2.71558 -0.63399 154 158 159
1.02190 -2.72466 -0.62741 159 164 159
1.01080 -2.73375 -0.62084 162 158 163
0.99970 -2.74283 -0.61428 162 161 168
0.98861 -2.75190 -0.60771 163 166 166
0.97752 -2.76098 -0.60115 161 163 160
0.96644 -2.77004 -0.59460 155 158 155
0.95537 -2.77910 -0.58804 151 158 157
0.94430 -2.78816 -0.58149 151 154 155
0.93323 -2.79722 -0.57494 155 156 161
0.92217 -2.80627 -0.56840 162 168 164
0.91112 -2.81531 -0.56186 162 169 160
0.90007 -2.82436 -0.55532 159 167 164
0.88902 -2.83339 -0.54878 159 168 164
0.87798 -2.84243 -0.54225 164 172 162
1.17373 -2.58363 -0.73355 137 144 147
1.16259 -2.59275 -0.72695 146 145 150
1.15145 -2.60187 -0.72036 147 149 147
1.14032 -2.61098 -0.71377 139 137 145
1.12920 -2.62009 -0.70718 144 146 150
1.11807 -2.62919 -0.70059 154 152 153
1.10696 -2.63829 -0.69401 157 160 159
1.09585 -2.64739 -0.68743 153 154 151
1.08474 -2.65648 -0.68086 150 152 154
1.07364 -2.66557 -0.67428 146 149 151
1.06254 -2.67465 -0.66771 153 157 154
1.05145 -2.68373 -0.66115 157 164 163
1.04037 -2.69280 -0.65458 159 164 163
1.02929 -2.70187 -0.64802 159 164 167
1.01821 -2.71094 -0.64147 156 162 158
1.00714 -2.72000 -0.63491 161 167 156
0.99608 -2.72906 -0.62836 163 166 158
0.98502 -2.73811 -0.62181 161 163 164
0.97396 -2.74716 -0.61527 160 166 164
0.96291 -2.75621 -0.60872 160 165 163
0.95187 -2.76525 -0.60218 160 160 160
0.94083 -2.77429 -0.59565 159 163 157
0.92980 -2.78332 -0.58911 158 160 156
0.91877 -2.79235 -0.58258 160 158 162
0.90774 -2.80137 -0.57606 164 164 167
0.89672 -2.81039 -0.56953 164 163 164
0.88571 -2.81941 -0.56301 161 166 167
0.87470 -2.82842 -0.55649 160 167 165
0.86370 -2.83743 -0.54998 160 169 159
1.14741 -2.58848 -0.73415 148 148 149
1.13631 -2.59757 -0.72758 147 147 149
1.12522 -2.60666 -0.72100 146 142 145
1.11413 -2.61574 -0.71443 144 144 143
1.10304 -2.62482 -0.70787 152 151 148
1.09196 -2.63389 -0.70130 156 155 153
1.08089 -2.64296 -0.69474 148 148 142
1.06982 -2.65203 -0.68818 144 147 149
1.05875 -2.66109 -0.68163 146 147 146
1.04769 -2.67015 -0.67508 155 158 151
1.03664 -2.67920 -0.66853 158 162 160
1.02559 -2.68825 -0.66198 155 158 157
1.01455 -2.69729 -0.65544 157 163 161
1.00351 -2.70633 -0.64890 159 170 159
0.99248 -2.71537 -0.64236 156 166 158
0.98145 -2.72440 -0.63583 156 162 154
0.97042 -2.73343 -0.62930 157 161 159
0.95940 -2.74245 -0.62277 163 170 161
0.94839 -2.75147 -0.61625 169 172 163
0.93738 -2.76049 -0.60972 170 170 167
0.92638 -2.76950 -0.60321 165 171 162
0.91538 -2.77850 -0.59669 162 164 160
0.90439 -2.78751 -0.59018 163 162 169
0.89340 -2.79651 -0.58367 166 163 170
0.88242 -2.80550 -0.57716 163 157 164
0.87144 -2.81449 -0.57066 161 159 164
0.86047 -2.82348 -0.56416 161 164 161
0.84950 -2.83246 -0.55766 156 162 153
0.11541 -3.43365 -0.12275 146 154 150
0.10478 -3.44236 -0.11645 133 139 126
0.09416 -3.45105 -0.11016 133 146 137
0.08354 -3.45975 -0.10387 138 150 138
1.12126 -2.59330 -0.73475 146 154 146
1.11020 -2.60236 -0.72820 147 145 144
1.09915 -2.61142 -0.72165 144 149 144
1.08810 -2.62047 -0.71510 149 152 148
1.07705 -2.62952 -0.70855 149 152 152
1.06602 -2.63856 -0.70201 146 149 144
1.05498 -2.64760 -0.69547 142 149 146
1.04396 -2.65664 -0.68893 148 152 149
1.03293 -2.66567 -0.68240 157 158 152
1.02191 -2.67470 -0.67587 157 160 156
1.01090 -2.68372 -0.66934 152 155 155
0.99989 -2.69274 -0.66281 154 160 158
0.98889 -2.70175 -0.65629 158 164 158
0.97789 -2.71076 -0.64977 156 162 161
0.96690 -2.71977 -0.64326 158 161 159
0.95592 -2.72877 -0.63674 159 156 159
0.94493 -2.73777 -0.63023 163 166 158
0.93396 -2.74676 -0.62373 170 174 163
0.92298 -2.75575 -0.61722 169 171 169
0.91202 -2.76474 -0.61072 165 169 165
0.90106 -2.77372 -0.60422 163 163 163
0.89010 -2.78269 -0.59773 164 164 169
0.87915 -2.79167 -0.59124 165 165 169
0.86820 -2.80064 -0.58475 162 160 163
0.85726 -2.80960 -0.57826 160 161 163
0.84632 -2.81856 -0.57178 163 165 161
0.83539 -2.82752 -0.56530 159 163 154
0.09306 -3.43571 -0.12526 119 118 121
0.08248 -3.44439 -0.11898 124 135 133
0.07189 -3.45306 -0.11271 129 132 123
0.06131 -3.46173 -0.10644 133 141 136
1.07324 -2.61615 -0.72228 146 149 152
1.06224 -2.62517 -0.71576 151 157 153
1.05123 -2.63419 -0.70923 148 153 146
1.04024 -2.64320 -0.70271 150 151 146
1.02925 -2.65221 -0.69619 153 155 152
1.01826 -2.66122 -0.68967 150 157 156
1.00728 -2.67022 -0.68316 154 160 159
0.99630 -2.67922 -0.67665 161 164 161
0.98533 -2.68821 -0.67014 159 160 161
0.97436 -2.69720 -0.66364 159 157 160
0.96340 -2.70618 -0.65714 160 163 164
0.95244 -2.71516 -0.65064 166 169 167
0.94149 -2.72414 -0.64414 167 165 167
0.93055 -2.73311 -0.63765 157 160 161
0.91961 -2.74208 -0.63116 158 162 163
0.90867 -2.75104 -0.62467 157 160 167
0.89774 -2.76000 -0.61819 160 164 166
0.88681 -2.76896 -0.61171 163 163 163
0.87589 -2.77791 -0.60523 160 159 164
0.86497 -2.78686 -0.59876 161 160 163
0.85406 -2.79580 -0.59229 161 162 161
0.84316 -2.80474 -0.58582 162 166 165
0.83226 -2.81368 -0.57935 162 166 165
0.82136 -2.82261 -0.57289 159 163 160
0.07086 -3.43776 -0.12775 132 140 130
0.06031 -3.44641 -0.12150 133 135 119
0.04976 -3.45505 -0.11524 146 150 143
0.03922 -3.46369 -0.10899 139 148 146
-0.19146 -3.65277 0.02783 123 126 121
-0.20189 -3.66132 0.03402 119 123 128
1.05848 -2.61185 -0.72943 147 149 156
1.04751 -2.62085 -0.72292 150 157 156
1.03654 -2.62984 -0.71641 140 146 141
1.02558 -2.63883 -0.70991 149 151 144
1.01462 -2.64781 -0.70340 153 157 155
1.00367 -2.65679 -0.69691 149 155 157
0.99273 -2.66577 -0.69041 151 154 160
0.98179 -2.67474 -0.68392 164 164 165
0.97085 -2.68371 -0.67743 160 161 165
0.95992 -2.69267 -0.67094 158 157 162
0.94899 -2.70163 -0.66446 153 155 160
0.93807 -2.71058 -0.65798 166 172 162
0.92716 -2.71954 -0.65150 167 168 159
0.91625 -2.72848 -0.64502 153 155 152
0.90534 -2.73743 -0.63855 152 154 152
0.89444 -2.74636 -0.63208 152 154 155
0.88354 -2.75530 -0.62562 156 159 159
0.87265 -2.76423 -0.61915 157 160 156
0.86177 -2.77315 -0.61269 155 156 158
0.85089 -2.78208 -0.60623 160 158 161
0.84001 -2.79100 -0.59978 162 161 162
0.82914 -2.79991 -0.59333 162 164 166
0.81827 -2.80882 -0.58688 160 163 166
0.80741 -2.81773 -0.58044 155 160 159
0.05931 -3.43117 -0.13647 133 133 127
0.04879 -3.43980 -0.13023 130 134 115
0.03828 -3.44842 -0.12399 140 145 143
1.04380 -2.60758 -0.73653 150 154 158
1.03286 -2.61655 -0.73004 145 147 159
1.02193 -2.62552 -0.72355 140 144 141
1.01101 -2.63448 -0.71706 146 146 145
1.00009 -2.64344 -0.71058 148 153 156
0.98917 -2.65239 -0.70410 145 150 154
0.97826 -2.66134 -0.69762 148 151 158
0.96736 -2.67029 -0.69114 159 158 163
0.95646 -2.67923 -0.68467 162 164 164
0.94556 -2.68817 -0.67820 159 161 161
0.93467 -2.69710 -0.67173 152 151 154
0.92378 -2.70603 -0.66527 160 164 155
0.91290 -2.71496 -0.65881 160 159 154
0.90203 -2.72388 -0.65235 158 160 152
0.89116 -2.73280 -0.64590 159 163 151
0.88029 -2.74171 -0.63945 158 160 149
0.86943 -2.75062 -0.63300 157 156 154
0.85858 -2.75953 -0.62655 155 157 154
0.84773 -2.76843 -0.62011 156 163 159
0.83688 -2.77732 -0.61367 163 164 164
0.82604 -2.78622 -0.60723 159 161 163
0.81521 -2.79511 -0.60080 155 159 164
0.80437 -2.80399 -0.59437 157 159 163
0.79355 -2.81287 -0.58794 156 161 159
0.78273 -2.82175 -0.58151 158 162 155
0.04782 -3.42462 -0.14514 135 136 131
0.03734 -3.43322 -0.13892 130 128 121
0.02686 -3.44182 -0.13269 132 141 134
1.02920 -2.60334 -0.74359 146 149 152
1.01831 -2.61228 -0.73712 138 139 157
1.00741 -2.62122 -0.73064 147 153 148
0.99652 -2.63016 -0.72417 149 150 149
0.98564 -2.63909 -0.71771 145 149 148
0.97476 -2.64802 -0.71124 138 145 142
0.96388 -2.65695 -0.70478 148 155 156
0.95301 -2.66587 -0.69832 162 164 161
0.94215 -2.67478 -0.69187 167 167 161
0.93129 -2.68370 -0.68542 161 164 162
0.92043 -2.69261 -0.67897 158 161 156
0.90958 -2.70151 -0.67252 161 162 157
0.89874 -2.71041 -0.66608 159 158 158
0.88790 -2.71931 -0.65964 160 163 156
0.87706 -2.72820 -0.65320 162 167 157
0.86623 -2.73709 -0.64677 162 165 155
0.85540 -2.74597 -0.64034 161 161 157
0.84458 -2.75485 -0.63391 159 164 161
0.83377 -2.76373 -0.62748 161 170 165
0.82296 -2.77260 -0.62106 165 166 161
0.81215 -2.78147 -0.61464 157 159 158
0.80135 -2.79033 -0.60822 153 158 160
0.79056 -2.79919 -0.60181 155 157 158
0.77977 -2.80805 -0.59540 154 159 155
0.76898 -2.81690 -0.58899 153 157 154
0.75820 -2.82575 -0.58258 147 151 154
0.03640 -3.41811 -0.15376 136 143 134
0.02595 -3.42669 -0.14755 125 126 128
0.01551 -3.43526 -0.14134 128 135 136
1.00383 -2.60804 -0.74415 137 141 154
0.99297 -2.61695 -0.73770 147 159 150
0.98212 -2.62586 -0.73124 145 154 148
0.97127 -2.63477 -0.72480 145 151 145
0.96043 -2.64368 -0.71835 145 155 146
0.94959 -2.65257 -0.71191 150 157 156
0.93875 -2.66147 -0.70546 164 166 158
0.92792 -2.67036 -0.69903 167 165 160
0.91710 -2.67925 -0.69259 164 166 165
0.90628 -2.68813 -0.68616 163 166 164
0.89546 -2.69701 -0.67973 167 168 162
0.88465 -2.70589 -0.67331 162 166 160
0.87385 -2.71476 -0.66688 157 161 155
0.86304 -2.72363 -0.66046 157 160 159
0.85225 -2.73249 -0.65405 159 160 161
0.84146 -2.74135 -0.64763 160 160 159
0.83067 -2.75020 -0.64122 158 162 162
0.81989 -2.75905 -0.63481 159 162 162
0.80912 -2.76790 -0.62841 160 158 155
0.79835 -2.77675 -0.62200 155 156 157
0.78758 -2.78558 -0.61560 158 161 160
0.77682 -2.79442 -0.60921 156 160 158
0.76606 -2.80325 -0.60281 149 155 156
0.75531 -2.81208 -0.59642 151 155 157
0.74456 -2.82090 -0.59003 149 153 163
0.96780 -2.62159 -0.73827 142 145 140
0.95699 -2.63047 -0.73184 146 153 145
0.94618 -2.63935 -0.72541 153 162 159
0.93537 -2.64823 -0.71899 151 158 156
0.92457 -2.65710 -0.71256 160 161 156
0.91378 -2.66596 -0.70614 162 161 160
0.90299 -2.67483 -0.69973 165 163 164
0.89220 -2.68369 -0.69331 166 165 168
0.88142 -2.69254 -0.68690 166 166 163
0.87065 -2.70139 -0.68049 158 162 155
0.85988 -2.71024 -0.67408 155 160 155
0.84911 -2.71908 -0.66768 155 158 158
0.83835 -2.72792 -0.66128 154 156 159
0.82759 -2.73675 -0.65488 156 154 157
0.81684 -2.74558 -0.64849 156 153 161
0.80610 -2.75441 -0.64210 155 155 160
0.79536 -2.76323 -0.63571 155 156 155
0.78462 -2.77205 -0.62932 153 156 159
0.77389 -2.78086 -0.62294 158 160 161
0.76316 -2.78968 -0.61656 157 158 158
0.75244 -2.79848 -0.61018 151 157 158
0.74172 -2.80728 -0.60381 159 161 161
0.73101 -2.81608 -0.59744 161 159 165
0.72030 -2.82488 -0.59107 158 158 168
0.95357 -2.61735 -0.74526 149 148 145
0.94279 -2.62620 -0.73885 150 154 147
0.93201 -2.63506 -0.73244 146 149 157
0.92124 -2.64391 -0.72603 144 152 156
0.91048 -2.65275 -0.71962 158 158 161
0.89972 -2.66159 -0.71322 160 158 160
0.88896 -2.67043 -0.70682 164 163 159
0.87821 -2.67927 -0.70042 165 166 162
0.86747 -2.68810 -0.69402 161 160 159
0.85673 -2.69692 -0.68763 159 158 151
0.84599 -2.70574 -0.68124 158 161 153
0.83526 -2.71456 -0.67486 158 162 156
0.82453 -2.72337 -0.66847 154 159 156
0.81381 -2.73218 -0.66209 153 154 155
0.80309 -2.74099 -0.65572 151 152 159
0.79238 -2.74979 -0.64934 152 156 161
0.78167 -2.75859 -0.64297 155 158 161
0.77097 -2.76738 -0.63660 156 158 158
0.76027 -2.77617 -0.63024 160 160 159
0.74958 -2.78496 -0.62387 159 160 159
0.73889 -2.79374 -0.61751 156 159 154
0.72821 -2.80252 -0.61116 161 161 159
0.71753 -2.81129 -0.60480 161 160 163
0.70686 -2.82006 -0.59845 159 159 164
0.93942 -2.61312 -0.75221 154 158 156
0.92867 -2.62196 -0.74581 148 150 149
0.91793 -2.63079 -0.73942 143 144 153
0.90720 -2.63961 -0.73303 139 141 155
0.89647 -2.64843 -0.72664 158 154 158
0.88574 -2.65725 -0.72025 160 156 154
0.87502 -2.66606 -0.71387 156 158 153
0.86430 -2.67487 -0.70749 156 157 154
0.85359 -2.68368 -0.70111 157 155 158
0.84288 -2.69248 -0.69473 163 160 161
0.83218 -2.70127 -0.68836 163 163 160
0.82149 -2.71007 -0.68199 161 163 160
0.81079 -2.71886 -0.67563 157 160 158
0.80011 -2.72764 -0.66926 153 156 154
0.78942 -2.73642 -0.66290 146 153 151
0.77875 -2.74520 -0.65655 147 154 154
0.76807 -2.75397 -0.65019 155 158 160
0.75740 -2.76274 -0.64384 158 158 158
0.74674 -2.77151 -0.63749 160 161 161
0.73608 -2.78027 -0.63114 157 162 160
0.72543 -2.78903 -0.62480 152 153 151
0.71478 -2.79778 -0.61846 155 154 158
0.70414 -2.80653 -0.61212 156 157 164
0.69350 -2.81528 -0.60579 156 157 162
0.68286 -2.82402 -0.59945 160 161 162
0.92535 -2.60893 -0.75912 148 153 150
0.91464 -2.61773 -0.75274 143 145 145
0.90393 -2.62654 -0.74636 146 147 151
0.89323 -2.63534 -0.73998 143 142 155
0.88253 -2.64414 -0.73361 156 156 151
0.87184 -2.65293 -0.72724 156 158 145
0.86116 -2.66172 -0.72088 148 154 151
0.85047 -2.67050 -0.71451 149 152 154
0.83980 -2.67928 -0.70815 154 154 159
0.82912 -2.68806 -0.70179 162 159 165
0.81846 -2.69683 -0.69544 163 163 162
0.80779 -2.70560 -0.68909 160 160 161
0.79713 -2.71436 -0.68274 157 158 160
0.78648 -2.72313 -0.67639 156 159 155
0.77583 -2.73188 -0.67005 151 155 149
0.76519 -2.74063 -0.66371 151 155 150
0.75455 -2.74938 -0.65737 156 160 156
0.74392 -2.75813 -0.65103 159 162 161
0.73329 -2.76687 -0.64470 159 161 162
0.72266 -2.77561 -0.63837 154 156 156
0.71204 -2.78434 -0.63204 149 148 151
0.70143 -2.79307 -0.62572 152 148 155
0.69082 -2.80180 -0.61940 156 156 162
0.68021 -2.81052 -0.61308 153 156 160
0.66961 -2.81924 -0.60677 154 157 161
0.65901 -2.82795 -0.60045 155 156 163
0.90068 -2.61354 -0.75962 145 150 151
0.89001 -2.62232 -0.75326 149 151 152
0.87935 -2.63109 -0.74690 147 150 156
0.86868 -2.63986 -0.74055 153 160 151
0.85802 -2.64863 -0.73420 150 157 145
0.84737 -2.65740 -0.72785 150 159 155
0.83672 -2.66616 -0.72150 156 162 158
0.82608 -2.67491 -0.71515 156 158 159
0.81544 -2.68367 -0.70881 162 161 161
0.80481 -2.69241 -0.70248 163 165 158
0.79418 -2.70116 -0.69614 162 162 159
0.78355 -2.70990 -0.68981 159 162 162
0.77293 -2.71863 -0.68348 153 158 162
0.76232 -2.72737 -0.67715 155 156 156
0.75171 -2.73610 -0.67083 159 160 154
0.74110 -2.74482 -0.66450 160 163 159
0.73050 -2.75354 -0.65819 163 167 165
0.71991 -2.76226 -0.65187 164 166 163
0.70932 -2.77097 -0.64556 158 161 156
0.69873 -2.77968 -0.63925 153 156 156
0.68815 -2.78839 -0.63294 153 155 160
0.67757 -2.79709 -0.62664 154 158 163
0.66700 -2.80579 -0.62033 150 154 162
0.65643 -2.81448 -0.61404 153 158 163
0.64587 -2.82317 -0.60774 154 153 162
0.63531 -2.83186 -0.60145 150 145 157
-0.13312 -3.46403 -0.14342 137 143 136
0.88681 -2.60936 -0.76647 150 156 159
0.87617 -2.61812 -0.76012 154 159 157
0.86554 -2.62687 -0.75378 154 157 161
0.85491 -2.63562 -0.74744 152 158 154
0.84429 -2.64436 -0.74111 146 148 145
0.83367 -2.65310 -0.73477 148 155 158
0.82305 -2.66184 -0.72844 155 164 163
0.81244 -2.67057 -0.72212 156 159 163
0.80184 -2.67930 -0.71579 159 163 164
0.79124 -2.68802 -0.70947 161 163 160
0.78064 -2.69674 -0.70315 165 166 161
0.77005 -2.70546 -0.69684 165 168 164
0.75947 -2.71417 -0.69052 153 156 165
0.74888 -2.72288 -0.68421 151 153 157
0.73831 -2.73158 -0.67790 156 157 153
0.72774 -2.74028 -0.67160 158 158 161
0.71717 -2.74898 -0.66530 163 165 167
0.70661 -2.75767 -0.65900 161 165 165
0.69605 -2.76636 -0.65270 154 160 159
0.68550 -2.77505 -0.64641 152 159 159
0.67495 -2.78373 -0.64012 151 160 163
0.66440 -2.79241 -0.63383 151 158 164
0.65386 -2.80108 -0.62755 149 153 161
0.64333 -2.80975 -0.62126 153 158 164
0.63280 -2.81842 -0.61498 153 157 168
0.62228 -2.82708 -0.60871 146 151 162
0.86241 -2.61395 -0.76695 150 155 157
0.85181 -2.62267 -0.76062 152 152 160
0.84122 -2.63140 -0.75430 152 152 152
0.83063 -2.64012 -0.74798 151 151 148
0.82004 -2.64883 -0.74166 152 155 158
0.80946 -2.65754 -0.73535 155 161 164
0.79889 -2.66625 -0.72904 158 161 164
0.78831 -2.67495 -0.72273 161 166 166
0.77775 -2.68365 -0.71643 160 161 162
0.76718 -2.69235 -0.71012 159 159 161
0.75663 -2.70104 -0.70382 158 161 162
0.74607 -2.70973 -0.69753 152 156 158
0.73553 -2.71842 -0.69123 151 153 153
0.72498 -2.72710 -0.68494 153 154 154
0.71444 -2.73577 -0.67865 154 155 162
0.70391 -2.74445 -0.67237 158 160 171
0.69338 -2.75312 -0.66609 156 162 172
0.68286 -2.76178 -0.65981 154 160 166
0.67234 -2.77044 -0.65353 155 161 164
0.66182 -2.77910 -0.64726 153 161 166
0.65131 -2.78775 -0.64098 156 161 163
0.64080 -2.79640 -0.63471 156 156 155
0.63030 -2.80505 -0.62845 158 158 159
0.61981 -2.81369 -0.62219 157 164 168
0.60932 -2.82233 -0.61593 148 154 163
0.83817 -2.61850 -0.76742 146 147 147
0.82761 -2.62720 -0.76112 151 148 146
0.81705 -2.63589 -0.75481 154 154 153
0.80650 -2.64459 -0.74851 154 157 158
0.79595 -2.65327 -0.74222 153 154 156
0.78540 -2.66196 -0.73592 152 155 158
0.77487 -2.67064 -0.72963 153 160 163
0.76433 -2.67931 -0.72334 156 160 164
0.75380 -2.68799 -0.71706 157 159 166
0.74328 -2.69665 -0.71077 154 158 165
0.73276 -2.70532 -0.70449 148 155 162
0.72225 -2.71398 -0.69822 153 157 164
0.71173 -2.72264 -0.69194 156 159 163
0.70123 -2.73129 -0.68567 152 157 160
0.69073 -2.73994 -0.67940 154 158 164
0.68023 -2.74858 -0.67313 157 161 168
0.66974 -2.75723 -0.66687 162 166 170
0.65925 -2.76586 -0.66061 159 163 170
0.64877 -2.77450 -0.65435 153 159 166
0.63829 -2.78313 -0.64810 157 159 164
0.62782 -2.79175 -0.64184 157 157 161
0.61735 -2.80038 -0.63559 160 162 163
0.60689 -2.80899 -0.62935 158 166 162
0.59643 -2.81761 -0.62310 153 154 158
0.58597 -2.82622 -0.61686 153 153 167
0.82460 -2.61435 -0.77418 147 150 152
0.81407 -2.62302 -0.76789 154 154 155
0.80354 -2.63170 -0.76161 157 158 159
0.79303 -2.64036 -0.75532 156 162 163
0.78251 -2.64903 -0.74904 156 154 152
0.77200 -2.65769 -0.74277 151 153 154
0.76150 -2.66634 -0.73649 149 152 160
0.75099 -2.67500 -0.73022 153 156 161
0.74050 -2.68364 -0.72395 154 155 164
0.73001 -2.69229 -0.71768 154 153 166
0.71952 -2.70093 -0.71142 152 155 164
0.70904 -2.70957 -0.70516 160 159 169
0.69856 -2.71820 -0.69890 158 157 166
0.68809 -2.72683 -0.69264 149 154 158
0.67762 -2.73546 -0.68639 148 154 158
0.66716 -2.74408 -0.68014 151 157 160
0.65670 -2.75270 -0.67389 154 161 164
0.64624 -2.76131 -0.66765 150 158 166
0.63579 -2.76992 -0.66141 153 158 165
0.62535 -2.77853 -0.65517 157 157 163
0.61491 -2.78713 -0.64893 158 157 166
0.60447 -2.79573 -0.64270 161 164 170
0.59404 -2.80432 -0.63647 157 165 163
0.58361 -2.81291 -0.63024 151 154 154
0.57319 -2.82150 -0.62401 153 153 170
0.56278 -2.83009 -0.61779 154 155 171
-0.46623 -3.67797 -0.00315 130 132 131
0.81111 -2.61022 -0.78090 150 149 153
0.80061 -2.61887 -0.77463 155 154 156
0.79012 -2.62752 -0.76836 157 157 159
0.77963 -2.63617 -0.76210 158 162 169
0.76915 -2.64481 -0.75583 158 159 160
0.75867 -2.65344 -0.74957 158 158 156
0.74820 -2.66207 -0.74331 155 157 161
0.73773 -2.67070 -0.73706 151 157 161
0.72727 -2.67933 -0.73080 150 156 161
0.71681 -2.68795 -0.72455 151 155 164
0.70636 -2.69657 -0.71830 151 153 162
0.69591 -2.70518 -0.71206 155 154 159
0.68546 -2.71379 -0.70582 151 154 159
0.67502 -2.72240 -0.69958 148 155 158
0.66459 -2.73100 -0.69334 147 152 157
0.65416 -2.73960 -0.68711 149 153 157
0.64373 -2.74819 -0.68088 150 154 160
0.63331 -2.75678 -0.67465 148 152 166
0.62289 -2.76537 -0.66842 155 159 165
0.61248 -2.77395 -0.66220 157 156 156
0.60207 -2.78253 -0.65598 155 153 157
0.59167 -2.79111 -0.64976 156 158 161
0.58127 -2.79968 -0.64355 154 157 157
0.57087 -2.80825 -0.63734 149 151 158
0.56048 -2.81681 -0.63113 151 154 170
0.55010 -2.82537 -0.62492 161 162 171
-0.35623 -3.57247 -0.08327 124 132 139
-0.36622 -3.58070 -0.07730 128 134 134
-0.46584 -3.66282 -0.01777 121 121 131
-0.47578 -3.67101 -0.01183 132 132 137
0.79769 -2.60612 -0.78759 147 148 144
0.78723 -2.61475 -0.78133 148 150 159
0.77677 -2.62337 -0.77508 150 152 161
0.76632 -2.63199 -0.76883 158 159 167
0.75587 -2.64061 -0.76258 155 156 165
0.74542 -2.64922 -0.75634 157 162 161
0.73498 -2.65783 -0.75009 158 161 165
0.72455 -2.66644 -0.74385 151 158 166
0.71412 -2.67504 -0.73762 149 158 160
0.70369 -2.68363 -0.73138 149 156 159
0.69327 -2.69223 -0.72515 149 154 161
0.68285 -2.70082 -0.71892 153 156 161
0.67244 -2.70940 -0.71270 152 158 160
0.66203 -2.71799 -0.70647 152 157 158
0.65163 -2.72657 -0.70025 157 160 161
0.64123 -2.73514 -0.69404 157 164 162
0.63084 -2.74371 -0.68782 154 157 159
0.62045 -2.75228 -0.68161 156 157 167
0.61006 -2.76084 -0.67540 160 161 165
0.59968 -2.76940 -0.66919 152 150 149
0.58930 -2.77796 -0.66299 151 151 149
0.57893 -2.78651 -0.65679 154 157 159
0.56857 -2.79506 -0.65059 156 161 161
0.55821 -2.80361 -0.64439 150 156 163
0.54785 -2.81215 -0.63820 147 152 171
0.53749 -2.82068 -0.63201 162 166 175
-0.21623 -3.44222 -0.18133 133 147 140
-0.35613 -3.55759 -0.09768 131 139 133
-0.47537 -3.65592 -0.02638 115 117 128
-0.48528 -3.66409 -0.02046 127 122 132
0.78435 -2.60204 -0.79424 150 155 144
0.77392 -2.61064 -0.78800 147 147 159
0.76349 -2.61924 -0.78176 148 150 165
0.75307 -2.62784 -0.77552 165 166 169
0.74266 -2.63644 -0.76929 166 164 167
0.73224 -2.64502 -0.76306 164 164 164
0.72184 -2.65361 -0.75684 160 161 165
0.71143 -2.66219 -0.75061 150 155 158
0.70104 -2.67077 -0.74439 148 155 150
0.69064 -2.67934 -0.73818 155 158 154
0.68025 -2.68791 -0.73196 155 156 160
0.66987 -2.69648 -0.72575 158 163 164
0.65949 -2.70504 -0.71954 157 164 162
0.64911 -2.71360 -0.71333 155 158 154
0.63874 -2.72216 -0.70713 159 161 155
0.62838 -2.73071 -0.70092 160 164 159
0.61801 -2.73926 -0.69473 154 158 159
0.60766 -2.74780 -0.68853 152 159 165
0.59730 -2.75634 -0.68234 157 167 166
0.58696 -2.76488 -0.67615 153 158 159
0.57661 -2.77341 -0.66996 152 154 157
0.56627 -2.78194 -0.66377 154 160 164
0.55594 -2.79047 -0.65759 157 166 165
0.54561 -2.79899 -0.65141 155 160 164
0.53528 -2.80751 -0.64523 152 159 165
0.52496 -2.81602 -0.63906 156 165 171
-0.22647 -3.43591 -0.18952 130 131 123
-0.23647 -3.44416 -0.18354 120 125 132
-0.37588 -3.55917 -0.10013 134 144 146
0.54559 -5.17305 1.57947 98 103 98
0.52764 -5.18224 1.58482 101 104 102
0.54650 -5.14593 1.55486 91 100 96
0.52861 -5.15510 1.56022 94 101 95
0.51074 -5.16427 1.56556 97 104 100
0.49290 -5.17342 1.57090 99 107 104
0.58315 -5.10061 1.51970 94 102 99
0.56527 -5.10980 1.52506 96 101 99
0.54741 -5.11898 1.53043 94 98 97
0.52958 -5.12814 1.53578 92 100 100
0.51177 -5.13730 1.54112 94 103 104
0.49399 -5.14644 1.54646 97 104 107
0.47623 -5.15556 1.55179 97 106 108
0.56611 -5.08304 1.50079 100 109 103
0.54831 -5.09221 1.50615 102 109 103
0.53053 -5.10137 1.51150 101 104 101
0.51279 -5.11051 1.51685 101 106 104
0.49506 -5.11964 1.52218 103 110 111
0.47737 -5.12875 1.52751 102 107 111
0.45970 -5.13785 1.53283 98 104 105
0.44205 -5.14694 1.53815 95 103 99
0.42443 -5.15602 1.54345 94 96 89
0.33672 -5.20120 1.56986 76 86 81
0.54920 -5.06562 1.48203 106 113 109
0.53149 -5.07477 1.48739 105 110 107
0.51380 -5.08390 1.49273 106 109 104
0.49613 -5.09301 1.49807 105 111 106
0.47850 -5.10212 1.50340 105 115 112
0.46088 -5.11121 1.50872 102 109 108
0.44329 -5.12029 1.51403 95 98 100
0.42573 -5.12935 1.51934 92 95 96
0.40820 -5.13840 1.52463 95 93 92
0.39068 -5.14744 1.52992 97 92 89
0.37320 -5.15647 1.53521 91 90 87
0.35574 -5.16548 1.54048 87 88 86
0.33830 -5.17448 1.54575 80 84 82
0.32089 -5.18346 1.55101 74 83 77
0.30351 -5.19244 1.55626 75 81 75
0.56778 -5.03007 1.45272 97 103 105
0.53243 -5.04834 1.46343 110 117 111
0.51480 -5.05746 1.46878 106 114 104
0.49720 -5.06657 1.47411 104 111 102
0.47962 -5.07566 1.47944 104 110 102
0.46206 -5.08474 1.48476 103 110 101
0.44453 -5.09381 1.49007 100 101 96
0.42702 -5.10286 1.49538 91 92 93
0.40955 -5.11190 1.50068 87 90 92
0.39209 -5.12093 1.50597 91 90 90
0.37466 -5.12995 1.51125 92 91 91
0.35726 -5.13895 1.51652 89 89 87
0.33988 -5.14794 1.52179 90 89 84
0.32252 -5.15691 1.52705 86 86 84
0.30520 -5.16587 1.53230 82 83 83
0.28789 -5.17482 1.53755 81 83 78
0.27061 -5.18376 1.54278 83 88 78
0.58625 -4.99469 1.42356 104 119 109
0.56860 -5.00384 1.42893 107 117 115
0.55097 -5.01297 1.43429 96 99 105
0.53338 -5.02210 1.43964 91 100 103
0.49825 -5.04030 1.45032 101 109 95
0.48073 -5.04938 1.45564 100 109 98
0.46323 -5.05845 1.46096 100 108 103
0.44576 -5.06751 1.46628 103 110 101
0.42831 -5.07655 1.47158 101 108 96
0.41089 -5.08558 1.47688 93 102 96
0.39349 -5.09460 1.48217 91 98 97
0.37612 -5.10360 1.48745 97 100 98
0.35877 -5.11259 1.49272 98 100 96
0.34144 -5.12157 1.49799 93 95 88
0.32415 -5.13053 1.50325 94 93 86
0.30687 -5.13949 1.50850 93 92 86
0.28962 -5.14843 1.51375 92 94 86
0.27240 -5.15735 1.51898 91 94 85
0.25520 -5.16627 1.52421 93 96 89
0.23803 -5.17517 1.52943 87 92 94
0.58701 -4.96865 1.39992 105 113 113
0.56942 -4.97779 1.40529 106 113 115
0.55185 -4.98691 1.41065 113 120 123
0.53431 -4.99602 1.41600 98 98 102
0.46439 -5.03233 1.43732 104 108 103
0.44698 -5.04138 1.44263 106 108 106
0.42958 -5.05041 1.44794 104 108 103
0.41222 -5.05943 1.45324 101 107 98
0.39488 -5.06843 1.45853 98 106 93
0.37756 -5.07743 1.46381 99 108 96
0.36027 -5.08641 1.46908 104 113 107
0.34300 -5.09537 1.47435 105 111 108
0.32576 -5.10433 1.47961 99 99 97
0.30854 -5.11327 1.48486 97 95 95
0.29134 -5.12220 1.49010 97 97 93
0.27418 -5.13112 1.49534 96 98 90
0.25703 -5.14002 1.50057 92 96 90
0.23991 -5.14891 1.50579 87 90 87
0.22282 -5.15779 1.51100 81 85 85
0.20574 -5.16665 1.51621 84 83 83
0.64053 -4.91533 1.36030 113 115 103
0.58777 -4.94278 1.37644 104 109 105
0.57023 -4.95191 1.38181 108 109 112
0.55272 -4.96102 1.38717 105 105 108
0.53524 -4.97012 1.39251 106 108 112
0.51778 -4.97920 1.39786 107 107 103
0.44819 -5.01542 1.41915 105 111 113
0.43085 -5.02444 1.42445 108 112 110
0.41354 -5.03345 1.42975 106 108 105
0.39625 -5.04244 1.43504 102 105 99
0.37899 -5.05142 1.44032 98 100 83
0.36176 -5.06039 1.44559 102 104 84
0.34454 -5.06935 1.45086 107 111 101
0.32736 -5.07829 1.45612 104 104 102
0.31019 -5.08722 1.46137 96 97 100
0.29305 -5.09614 1.46661 99 102 100
0.27594 -5.10505 1.47185 98 102 97
0.25885 -5.11394 1.47708 96 97 87
0.24178 -5.12282 1.48230 93 94 91
0.22474 -5.13169 1.48751 90 91 89
0.20773 -5.14055 1.49272 89 92 84
0.19073 -5.14939 1.49792 91 93 84
0.60602 -4.90796 1.34774 97 106 108
0.58852 -4.91708 1.35312 98 107 101
0.57104 -4.92620 1.35848 105 118 110
0.55359 -4.93530 1.36384 112 122 120
0.53616 -4.94439 1.36919 104 106 105
0.51876 -4.95346 1.37453 102 101 105
0.50138 -4.96252 1.37986 114 120 113
0.43211 -4.99864 1.40112 104 107 112
0.41485 -5.00763 1.40641 106 107 105
0.39762 -5.01662 1.41170 106 111 103
0.38042 -5.02559 1.41698 102 110 105
0.36324 -5.03455 1.42226 101 107 107
0.34608 -5.04349 1.42752 105 110 106
0.32895 -5.05243 1.43278 110 112 101
0.31184 -5.06135 1.43803 106 106 95
0.29475 -5.07026 1.44327 95 99 93
0.27769 -5.07915 1.44851 100 102 93
0.26066 -5.08803 1.45374 100 100 94
0.24365 -5.09690 1.45896 101 100 91
0.22666 -5.10576 1.46417 97 98 91
0.20969 -5.11461 1.46938 92 93 89
0.19275 -5.12344 1.47458 88 92 88
0.17584 -5.13226 1.47977 90 91 89
0.15895 -5.14107 1.48495 92 92 89
