ply
format ascii 1.0
element face 0
property list uchar int vertex_indices
element vertex 1279
property float x
property float y
property float z
property uchar diffuse_red
property uchar diffuse_green
property uchar diffuse_blue
end_header
0.17697 -4.75911 1.94501 130 120 96
0.14534 -4.73122 1.94913 134 123 102
0.11424 -4.70380 1.95319 136 126 107
0.08365 -4.67684 1.95718 139 127 110
0.05357 -4.65032 1.96111 138 127 113
-0.14382 -4.47630 1.98685 138 131 115
-0.17027 -4.45298 1.99030 140 131 118
-0.19631 -4.43002 1.99370 143 133 115
-0.22195 -4.40741 1.99705 144 133 117
-0.24721 -4.38515 2.00034 144 133 123
-0.27209 -4.36322 2.00358 146 133 122
-0.29659 -4.34161 2.00678 147 133 120
-0.32073 -4.32033 2.00993 147 135 122
-0.34452 -4.29936 2.01303 148 137 124
-0.36796 -4.27869 2.01609 147 137 124
-0.39106 -4.25833 2.01910 146 136 125
-0.41382 -4.23826 2.02207 147 137 125
-0.43626 -4.21847 2.02500 147 138 126
-0.45839 -4.19897 2.02789 147 137 129
-0.48020 -4.17974 2.03073 149 137 130
-0.50171 -4.16078 2.03354 150 135 125
-0.52291 -4.14208 2.03630 150 134 119
-0.60488 -4.06982 2.04699 150 138 130
-0.62468 -4.05236 2.04958 152 138 125
0.30664 -4.88746 1.91094 120 117 102
0.27270 -4.85741 1.91552 130 119 108
0.23935 -4.82789 1.92002 126 115 103
0.20658 -4.79888 1.92444 127 117 101
0.17437 -4.77036 1.92879 133 121 106
0.14270 -4.74233 1.93306 135 123 107
0.11157 -4.71478 1.93726 135 125 110
0.08096 -4.68768 1.94138 137 127 111
0.05086 -4.66103 1.94545 137 128 113
-0.14668 -4.48616 1.97209 138 129 111
-0.17315 -4.46273 1.97566 140 130 116
-0.19920 -4.43966 1.97917 141 131 117
-0.22486 -4.41695 1.98264 143 132 120
-0.25013 -4.39458 1.98604 144 133 124
-0.27502 -4.37254 1.98940 146 133 122
-0.29954 -4.35084 1.99271 147 133 119
-0.32370 -4.32946 1.99597 147 134 122
-0.34749 -4.30839 1.99918 147 136 124
-0.37094 -4.28763 2.00234 147 137 125
-0.39405 -4.26717 2.00546 147 136 123
-0.41683 -4.24701 2.00853 147 137 118
-0.43928 -4.22714 2.01156 146 137 121
-0.46141 -4.20754 2.01454 148 137 128
-0.48323 -4.18823 2.01748 150 136 132
-0.50475 -4.16918 2.02039 149 135 128
-0.52596 -4.15040 2.02325 147 134 122
-0.54688 -4.13188 2.02607 147 135 123
-0.56752 -4.11362 2.02885 148 136 126
-0.58787 -4.09560 2.03160 149 137 126
-0.60795 -4.07782 2.03431 150 138 128
-0.62775 -4.06029 2.03698 150 136 122
0.30416 -4.89935 1.89406 123 121 98
0.27018 -4.86915 1.89879 128 119 101
0.23680 -4.83947 1.90345 124 114 101
0.20399 -4.81031 1.90802 126 117 104
0.17175 -4.78165 1.91251 132 122 107
0.14006 -4.75348 1.91693 136 124 108
0.10890 -4.72578 1.92127 136 124 111
0.07826 -4.69855 1.92554 136 127 112
0.04813 -4.67177 1.92974 136 128 115
-0.17603 -4.47251 1.96097 139 129 116
-0.20211 -4.44933 1.96461 140 130 119
-0.22778 -4.42651 1.96818 141 130 122
-0.25307 -4.40403 1.97171 144 131 123
-0.27797 -4.38190 1.97518 146 133 119
-0.30250 -4.36009 1.97859 148 133 116
-0.32667 -4.33861 1.98196 147 134 120
-0.35048 -4.31745 1.98528 146 135 125
-0.37394 -4.29659 1.98855 147 136 129
-0.39706 -4.27604 1.99177 147 136 125
-0.41984 -4.25579 1.99495 146 137 118
-0.44230 -4.23582 1.99808 145 136 121
-0.46444 -4.21614 2.00116 148 136 128
-0.48627 -4.19674 2.00420 150 136 133
-0.50779 -4.17761 2.00720 149 136 130
-0.52901 -4.15874 2.01016 148 136 124
-0.54994 -4.14014 2.01307 147 136 125
-0.57058 -4.12179 2.01595 148 136 128
-0.59094 -4.10370 2.01879 147 137 127
-0.61102 -4.08585 2.02159 148 138 130
-0.63084 -4.06823 2.02435 141 129 119
0.30166 -4.91128 1.87712 125 121 107
0.26765 -4.88092 1.88201 128 118 102
0.23424 -4.85109 1.88682 125 115 97
0.20140 -4.82179 1.89154 127 119 100
0.16913 -4.79298 1.89618 132 123 103
0.13741 -4.76467 1.90074 136 124 105
0.10622 -4.73683 1.90523 136 124 112
0.07556 -4.70946 1.90964 136 125 115
0.04540 -4.68255 1.91398 137 126 116
-0.20502 -4.45903 1.94999 138 130 120
-0.23071 -4.43610 1.95369 140 131 122
-0.25601 -4.41352 1.95733 142 131 121
-0.28092 -4.39128 1.96091 145 132 118
-0.30547 -4.36937 1.96444 147 133 116
-0.32965 -4.34779 1.96792 146 134 118
-0.35347 -4.32653 1.97134 145 135 124
-0.37694 -4.30558 1.97472 146 135 128
-0.40007 -4.28493 1.97805 147 135 125
-0.42287 -4.26459 1.98133 147 136 124
-0.44534 -4.24453 1.98456 146 136 127
-0.46748 -4.22476 1.98774 148 135 127
-0.48932 -4.20527 1.99088 150 136 130
-0.51085 -4.18606 1.99398 150 137 128
-0.53208 -4.16711 1.99703 150 137 125
-0.55301 -4.14842 2.00004 150 138 124
-0.57366 -4.12999 2.00301 149 138 122
-0.59402 -4.11182 2.00594 148 137 123
-0.61411 -4.09389 2.00883 149 139 127
-0.63393 -4.07620 2.01168 135 117 110
0.29916 -4.92325 1.86012 129 119 112
0.26512 -4.89273 1.86517 129 116 104
0.23167 -4.86275 1.87013 126 117 98
0.19880 -4.83330 1.87501 129 120 100
0.16650 -4.80434 1.87980 133 123 102
0.13475 -4.77589 1.88451 136 124 105
0.10353 -4.74791 1.88914 135 124 112
0.07284 -4.72040 1.89369 135 124 114
0.04266 -4.69336 1.89817 137 125 113
0.01298 -4.66675 1.90257 138 127 110
-0.23364 -4.44572 1.93915 140 131 122
-0.25896 -4.42303 1.94291 142 131 118
-0.28389 -4.40069 1.94660 144 132 116
-0.30844 -4.37868 1.95025 146 133 119
-0.33264 -4.35700 1.95383 146 134 121
-0.35647 -4.33564 1.95737 144 135 121
-0.37995 -4.31459 1.96085 144 135 123
-0.40309 -4.29385 1.96429 146 135 122
-0.42590 -4.27341 1.96767 147 136 126
-0.44837 -4.25326 1.97100 146 136 129
-0.47053 -4.23341 1.97429 146 136 125
-0.49238 -4.21383 1.97753 148 136 121
-0.51391 -4.19453 1.98072 149 137 122
-0.53515 -4.17550 1.98387 151 139 128
-0.55609 -4.15673 1.98698 151 139 126
-0.57674 -4.13822 1.99004 150 139 120
-0.59711 -4.11996 1.99307 149 138 118
-0.61720 -4.10195 1.99605 149 136 116
-0.63703 -4.08419 1.99899 126 103 94
0.29666 -4.93526 1.84306 130 119 105
0.26257 -4.90459 1.84827 128 116 100
0.22909 -4.87445 1.85339 128 117 99
0.19619 -4.84484 1.85842 132 121 102
0.16386 -4.81575 1.86336 135 124 106
0.13208 -4.78714 1.86822 136 125 109
0.10083 -4.75903 1.87299 135 125 112
0.07012 -4.73138 1.87769 136 126 115
0.03991 -4.70420 1.88231 139 125 113
0.01020 -4.67746 1.88685 139 126 110
-0.28686 -4.41012 1.93226 142 132 115
-0.31143 -4.38801 1.93601 145 133 120
-0.33563 -4.36623 1.93971 146 134 121
-0.35948 -4.34477 1.94336 145 134 118
-0.38297 -4.32363 1.94695 145 135 116
-0.40612 -4.30279 1.95049 145 134 117
-0.42894 -4.28226 1.95397 145 135 124
-0.45142 -4.26202 1.95741 145 136 128
-0.47359 -4.24207 1.96080 145 136 126
-0.49544 -4.22241 1.96414 147 135 122
-0.51698 -4.20302 1.96743 147 136 124
-0.53823 -4.18390 1.97068 149 138 129
-0.55917 -4.16505 1.97388 150 140 129
-0.57983 -4.14646 1.97704 150 141 125
-0.60021 -4.12812 1.98015 149 140 121
-0.62031 -4.11004 1.98323 144 130 108
0.29414 -4.94731 1.82594 127 118 97
0.26002 -4.91648 1.83131 127 116 96
0.22651 -4.88619 1.83659 129 119 98
0.19357 -4.85643 1.84177 133 123 101
0.16121 -4.82718 1.84687 134 125 107
0.12940 -4.79844 1.85188 135 125 109
0.09813 -4.77018 1.85680 136 126 111
0.06738 -4.74240 1.86164 136 127 113
0.03715 -4.71508 1.86640 138 126 112
0.00742 -4.68821 1.87108 137 126 112
-0.02182 -4.66179 1.87568 136 127 114
-0.31442 -4.39737 1.92174 145 133 118
-0.33864 -4.37549 1.92555 145 134 120
-0.36249 -4.35393 1.92930 145 135 118
-0.38600 -4.33269 1.93300 145 135 114
-0.40916 -4.31176 1.93665 145 134 116
-0.43198 -4.29113 1.94024 146 134 122
-0.45448 -4.27080 1.94378 146 134 127
-0.47665 -4.25077 1.94727 147 135 128
-0.49851 -4.23101 1.95071 149 135 129
-0.52006 -4.21154 1.95410 148 135 127
-0.54131 -4.19234 1.95745 148 137 124
-0.56227 -4.17340 1.96075 149 139 125
-0.58293 -4.15473 1.96400 150 141 126
-0.60331 -4.13631 1.96721 151 142 125
-0.62342 -4.11814 1.97037 137 122 105
0.29161 -4.95940 1.80877 126 117 97
0.25746 -4.92841 1.81430 126 116 97
0.22391 -4.89797 1.81974 129 120 100
0.19095 -4.86806 1.82508 132 125 101
0.15855 -4.83866 1.83032 134 127 105
0.12671 -4.80977 1.83548 136 126 104
0.09541 -4.78137 1.84055 136 127 105
0.06464 -4.75345 1.84553 136 128 106
0.03439 -4.72599 1.85043 136 127 110
0.00463 -4.69899 1.85525 135 127 116
-0.02463 -4.67244 1.85999 136 127 116
-0.05342 -4.64632 1.86466 138 127 113
-0.31743 -4.40676 1.90742 144 134 117
-0.34165 -4.38477 1.91134 145 134 118
-0.36552 -4.36311 1.91521 146 136 120
-0.38904 -4.34178 1.91902 146 136 119
-0.41221 -4.32075 1.92277 146 135 119
-0.43504 -4.30003 1.92647 147 134 121
-0.45755 -4.27961 1.93011 147 134 124
-0.47973 -4.25948 1.93371 149 135 126
-0.50159 -4.23964 1.93725 151 135 126
-0.52315 -4.22008 1.94074 151 135 124
-0.54441 -4.20079 1.94418 149 136 121
-0.56537 -4.18177 1.94758 149 137 122
-0.58604 -4.16301 1.95093 150 139 124
-0.62653 -4.12627 1.95749 128 111 95
0.28908 -4.97154 1.79154 126 117 99
0.25489 -4.94039 1.79723 126 116 99
0.22131 -4.90979 1.80283 129 120 101
0.18831 -4.87972 1.80832 132 125 103
0.15588 -4.85017 1.81372 135 127 104
0.12401 -4.82114 1.81903 137 127 104
0.09269 -4.79259 1.82425 137 127 104
0.06189 -4.76453 1.82938 136 128 104
0.03161 -4.73694 1.83442 135 128 108
0.00183 -4.70981 1.83938 135 129 116
-0.02746 -4.68312 1.84426 136 128 115
-0.05627 -4.65687 1.84906 137 128 112
-0.08461 -4.63105 1.85378 138 129 116
-0.32044 -4.41617 1.89306 143 136 120
-0.34468 -4.39408 1.89710 145 135 119
-0.36855 -4.37233 1.90107 146 136 120
-0.39208 -4.35089 1.90499 148 138 121
-0.41526 -4.32977 1.90885 148 137 121
-0.43810 -4.30895 1.91266 148 135 120
-0.46062 -4.28844 1.91641 147 135 122
-0.48281 -4.26822 1.92011 148 136 123
-0.50468 -4.24829 1.92375 150 136 123
-0.52625 -4.22864 1.92734 151 136 123
-0.54751 -4.20927 1.93088 149 138 124
-0.56848 -4.19016 1.93437 148 137 123
-0.62966 -4.13442 1.94456 116 97 83
0.28654 -4.98371 1.77424 124 117 100
0.25231 -4.95240 1.78010 125 117 100
0.21869 -4.92164 1.78586 129 122 102
0.18566 -4.89142 1.79151 134 125 105
0.15321 -4.86173 1.79707 136 126 103
0.12131 -4.83254 1.80253 137 127 104
0.08996 -4.80386 1.80789 137 127 107
0.05913 -4.77565 1.81317 137 127 107
0.02882 -4.74793 1.81836 135 128 109
-0.00098 -4.72066 1.82346 135 129 113
-0.03029 -4.69384 1.82848 137 128 111
-0.05912 -4.66746 1.83341 138 128 111
-0.08748 -4.64151 1.83827 139 129 112
-0.11539 -4.61598 1.84304 141 130 113
-0.14285 -4.59085 1.84775 142 131 115
-0.32346 -4.42561 1.87866 143 136 122
-0.34771 -4.40342 1.88281 144 137 121
-0.37160 -4.38156 1.88690 147 138 119
-0.39513 -4.36003 1.89093 148 139 121
-0.41833 -4.33881 1.89490 149 138 124
-0.44118 -4.31790 1.89881 149 136 122
-0.46370 -4.29730 1.90267 146 135 120
-0.48590 -4.27698 1.90647 147 135 122
-0.50778 -4.25696 1.91021 149 136 123
-0.52936 -4.23723 1.91390 149 137 124
-0.55062 -4.21776 1.91755 149 139 126
-0.57160 -4.19858 1.92114 148 138 124
0.28398 -4.99593 1.75689 122 116 102
0.24972 -4.96446 1.76292 124 118 99
0.21607 -4.93354 1.76883 130 123 102
0.18301 -4.90317 1.77464 135 126 106
0.15052 -4.87332 1.78036 136 126 102
0.11860 -4.84399 1.78597 137 128 102
0.08721 -4.81515 1.79149 138 128 109
0.05636 -4.78681 1.79691 138 127 112
0.02603 -4.75894 1.80224 137 128 116
-0.00380 -4.73154 1.80749 136 128 114
-0.03313 -4.70459 1.81264 138 128 110
-0.06198 -4.67808 1.81772 139 129 112
-0.09037 -4.65200 1.82271 140 129 111
-0.11829 -4.62635 1.82762 140 129 111
-0.14578 -4.60110 1.83245 142 130 116
-0.17282 -4.57625 1.83720 142 130 118
-0.30185 -4.45771 1.85989 142 134 124
-0.32648 -4.43508 1.86422 144 135 122
-0.35075 -4.41279 1.86848 145 136 119
-0.37465 -4.39083 1.87269 147 138 118
-0.39820 -4.36919 1.87683 149 138 121
-0.42140 -4.34788 1.88090 149 137 126
-0.44426 -4.32687 1.88492 148 137 126
-0.46679 -4.30617 1.88889 147 136 123
-0.48900 -4.28577 1.89279 148 135 123
-0.51089 -4.26566 1.89664 148 135 123
-0.53247 -4.24583 1.90043 149 137 124
-0.55375 -4.22629 1.90417 150 138 125
-0.57472 -4.20701 1.90786 149 139 124
0.28142 -5.00819 1.73948 122 116 100
0.24713 -4.97656 1.74567 125 118 100
0.21344 -4.94548 1.75175 133 123 104
0.18035 -4.91495 1.75772 135 127 106
0.14783 -4.88495 1.76359 135 128 105
0.11587 -4.85547 1.76936 137 129 105
0.08446 -4.82649 1.77503 138 128 110
0.05359 -4.79800 1.78060 139 128 116
0.02323 -4.77000 1.78608 139 128 121
-0.00662 -4.74246 1.79146 137 129 117
-0.03598 -4.71538 1.79676 138 129 112
-0.06486 -4.68874 1.80197 139 129 113
-0.09326 -4.66253 1.80710 139 130 112
-0.12121 -4.63675 1.81214 140 130 112
-0.14871 -4.61138 1.81710 141 130 119
-0.17577 -4.58642 1.82199 141 131 124
-0.20240 -4.56184 1.82679 141 131 122
-0.22862 -4.53766 1.83153 142 131 117
-0.25443 -4.51384 1.83618 142 131 119
-0.27985 -4.49040 1.84077 142 131 122
-0.30487 -4.46731 1.84529 142 132 122
-0.32952 -4.44457 1.84973 144 135 120
-0.35380 -4.42218 1.85412 144 137 116
-0.37771 -4.40012 1.85843 145 138 118
-0.40127 -4.37839 1.86268 148 138 122
-0.42448 -4.35697 1.86687 149 137 125
-0.44735 -4.33587 1.87100 147 137 126
-0.46989 -4.31508 1.87507 147 136 123
-0.49211 -4.29458 1.87908 149 135 121
-0.51400 -4.27438 1.88303 148 135 123
-0.53559 -4.25447 1.88692 148 136 125
-0.55687 -4.23483 1.89076 149 137 124
-0.57786 -4.21547 1.89455 150 139 123
0.27885 -5.02050 1.72201 124 117 97
0.24452 -4.98869 1.72836 127 118 101
0.21080 -4.95746 1.73461 134 123 107
0.17768 -4.92677 1.74074 135 127 104
0.14513 -4.89662 1.74677 135 128 106
0.11314 -4.86699 1.75269 138 128 109
0.08170 -4.83786 1.75851 139 128 112
0.05080 -4.80923 1.76423 140 129 116
0.02042 -4.78109 1.76986 140 130 119
-0.00946 -4.75341 1.77539 139 130 114
-0.03884 -4.72620 1.78083 138 129 111
-0.06774 -4.69943 1.78618 139 129 111
-0.09616 -4.67309 1.79144 140 130 110
-0.12413 -4.64719 1.79662 141 130 112
-0.15165 -4.62170 1.80171 140 130 118
-0.17873 -4.59661 1.80673 141 132 120
-0.20538 -4.57192 1.81166 142 132 119
-0.23161 -4.54762 1.81652 143 132 116
-0.25744 -4.52369 1.82130 143 132 116
-0.28287 -4.50014 1.82601 142 132 117
-0.30791 -4.47694 1.83064 142 133 115
-0.33257 -4.45410 1.83521 143 135 115
-0.35685 -4.43160 1.83971 143 137 115
-0.38078 -4.40944 1.84414 143 139 119
-0.40435 -4.38760 1.84850 147 139 123
-0.42757 -4.36609 1.85280 148 138 126
-0.45045 -4.34489 1.85703 147 138 126
-0.47300 -4.32401 1.86121 148 138 121
-0.49522 -4.30342 1.86532 149 137 117
-0.51713 -4.28313 1.86938 148 136 119
-0.53872 -4.26312 1.87338 147 136 122
-0.56001 -4.24340 1.87732 147 136 123
0.27628 -5.03284 1.70448 125 119 95
0.24191 -5.00087 1.71100 128 120 99
0.20816 -4.96947 1.71741 133 123 103
0.17500 -4.93863 1.72370 134 126 103
0.14242 -4.90832 1.72989 135 128 107
0.11040 -4.87854 1.73597 138 128 109
0.07893 -4.84927 1.74194 138 129 112
0.04800 -4.82050 1.74781 140 130 115
0.01760 -4.79221 1.75359 140 131 117
-0.01230 -4.76440 1.75926 140 131 112
-0.04171 -4.73705 1.76484 139 130 111
-0.07063 -4.71015 1.77033 139 130 113
-0.09907 -4.68369 1.77573 141 130 109
-0.12706 -4.65766 1.78105 142 129 111
-0.15459 -4.63204 1.78627 142 130 117
-0.18169 -4.60683 1.79142 142 132 114
-0.20836 -4.58203 1.79648 144 133 115
-0.23461 -4.55761 1.80147 145 134 120
-0.26045 -4.53357 1.80637 144 134 119
-0.28590 -4.50990 1.81120 142 134 118
-0.31095 -4.48660 1.81596 142 134 117
-0.33562 -4.46365 1.82064 143 135 118
-0.35992 -4.44104 1.82525 143 136 119
-0.38386 -4.41878 1.82980 144 137 119
-0.40744 -4.39685 1.83428 147 139 120
-0.43067 -4.37524 1.83869 149 138 125
-0.45356 -4.35394 1.84303 149 137 125
-0.47611 -4.33296 1.84731 148 138 121
-0.49835 -4.31228 1.85153 149 138 119
-0.52026 -4.29190 1.85569 149 137 119
-0.54186 -4.27180 1.85980 149 136 119
-0.56316 -4.25199 1.86384 148 136 123
0.23929 -5.01309 1.69358 129 123 101
0.20550 -4.98153 1.70015 133 124 105
0.17231 -4.95053 1.70661 134 126 107
0.13970 -4.92007 1.71295 135 127 108
0.10765 -4.89014 1.71919 136 129 109
0.07616 -4.86072 1.72532 136 130 111
0.04520 -4.83180 1.73134 138 129 114
0.01477 -4.80338 1.73726 141 130 113
-0.01516 -4.77542 1.74308 142 131 111
-0.04458 -4.74794 1.74881 141 131 112
-0.07352 -4.72091 1.75444 140 131 116
-0.10199 -4.69432 1.75998 141 130 112
-0.13000 -4.66816 1.76543 142 130 112
-0.15755 -4.64242 1.77079 141 130 115
-0.18467 -4.61709 1.77607 142 132 112
-0.21135 -4.59216 1.78126 143 133 115
-0.23762 -4.56763 1.78637 144 134 123
-0.26348 -4.54348 1.79140 144 135 123
-0.28893 -4.51970 1.79635 142 135 120
-0.31400 -4.49628 1.80123 143 134 119
-0.33868 -4.47323 1.80603 144 134 118
-0.36300 -4.45052 1.81076 144 134 121
-0.38694 -4.42815 1.81542 145 136 121
-0.41053 -4.40612 1.82001 148 137 117
-0.43377 -4.38441 1.82453 150 137 118
-0.45667 -4.36302 1.82899 150 137 119
-0.47924 -4.34194 1.83338 148 137 120
-0.50148 -4.32116 1.83771 148 138 121
-0.52340 -4.30069 1.84197 150 137 121
-0.54501 -4.28050 1.84618 149 136 119
-0.56631 -4.26061 1.85032 148 136 117
0.23665 -5.02536 1.67609 129 123 105
0.20283 -4.99364 1.68283 133 124 110
0.16961 -4.96247 1.68946 135 125 107
0.13697 -4.93186 1.69596 136 126 102
0.10489 -4.90177 1.70236 136 128 105
0.07337 -4.87220 1.70864 136 129 112
0.04239 -4.84314 1.71481 138 128 114
0.01193 -4.81457 1.72089 141 129 110
-0.01802 -4.78648 1.72685 143 130 111
-0.04747 -4.75886 1.73272 143 131 113
-0.07643 -4.73170 1.73850 141 132 115
-0.10492 -4.70498 1.74417 141 131 114
-0.13295 -4.67869 1.74976 141 131 113
-0.16052 -4.65283 1.75526 142 131 111
-0.18765 -4.62738 1.76066 143 132 109
-0.21436 -4.60233 1.76599 145 132 113
-0.24064 -4.57768 1.77122 145 133 120
-0.26651 -4.55341 1.77638 145 135 121
-0.29198 -4.52952 1.78146 144 135 121
-0.31706 -4.50600 1.78646 144 133 118
-0.34176 -4.48283 1.79138 145 133 113
-0.36608 -4.46002 1.79623 146 133 117
-0.39004 -4.43755 1.80100 146 134 121
-0.41364 -4.41541 1.80571 147 136 120
-0.43689 -4.39360 1.81034 149 136 121
-0.45980 -4.37212 1.81491 149 137 121
-0.48237 -4.35094 1.81941 148 137 123
-0.50462 -4.33007 1.82384 148 138 123
-0.52655 -4.30950 1.82821 149 138 124
-0.54816 -4.28923 1.83252 148 137 122
0.20016 -5.00578 1.66546 134 124 110
0.16690 -4.97445 1.67225 136 126 106
0.13423 -4.94368 1.67891 136 126 104
0.10212 -4.91344 1.68547 137 127 109
0.07057 -4.88373 1.69191 138 128 112
0.03956 -4.85452 1.69823 140 128 113
0.00908 -4.82581 1.70446 141 129 113
-0.02089 -4.79758 1.71057 143 130 117
-0.05037 -4.76982 1.71659 142 131 120
-0.07935 -4.74252 1.72250 142 131 117
-0.10786 -4.71567 1.72832 141 131 113
-0.13590 -4.68926 1.73404 141 131 111
-0.16350 -4.66327 1.73967 141 131 109
-0.19065 -4.63769 1.74522 144 131 111
-0.21737 -4.61253 1.75067 145 131 114
-0.24366 -4.58776 1.75604 145 131 117
-0.26955 -4.56338 1.76132 146 132 118
-0.29504 -4.53937 1.76652 146 134 122
-0.32013 -4.51574 1.77164 146 133 120
-0.34484 -4.49247 1.77668 147 133 115
-0.36917 -4.46955 1.78165 147 133 118
-0.39314 -4.44697 1.78654 146 134 121
-0.41675 -4.42473 1.79136 146 134 122
-0.44001 -4.40283 1.79611 146 135 126
-0.46293 -4.38124 1.80078 147 135 127
-0.48552 -4.35997 1.80539 147 137 127
-0.50777 -4.33901 1.80994 148 138 125
-0.52971 -4.31835 1.81441 149 138 124
-0.55133 -4.29798 1.81883 149 137 123
0.19747 -5.01796 1.64802 133 125 105
0.16418 -4.98648 1.65498 136 126 105
0.13148 -4.95555 1.66181 136 126 108
0.09935 -4.92515 1.66852 137 127 113
0.06777 -4.89529 1.67512 138 128 110
0.03673 -4.86593 1.68160 140 129 110
0.00622 -4.83708 1.68797 142 130 112
-0.02378 -4.80871 1.69424 143 130 116
-0.05327 -4.78081 1.70040 143 130 118
-0.08228 -4.75338 1.70646 143 131 114
-0.11081 -4.72640 1.71242 142 131 112
-0.13887 -4.69985 1.71828 140 132 111
-0.16648 -4.67374 1.72405 141 132 108
-0.19365 -4.64804 1.72972 144 131 109
-0.22039 -4.62276 1.73530 145 131 113
-0.24670 -4.59787 1.74080 146 131 115
-0.27260 -4.57337 1.74621 146 132 116
-0.29810 -4.54926 1.75154 146 133 119
-0.32321 -4.52551 1.75678 147 133 120
-0.34793 -4.50213 1.76195 147 134 118
-0.37228 -4.47910 1.76703 147 135 120
-0.39626 -4.45642 1.77204 146 134 120
-0.41988 -4.43408 1.77697 145 133 121
-0.44315 -4.41207 1.78183 145 134 126
-0.46608 -4.39039 1.78662 146 135 127
-0.48867 -4.36902 1.79134 146 137 125
-0.51093 -4.34797 1.79599 147 138 123
-0.53287 -4.32721 1.80058 148 137 122
-0.55450 -4.30676 1.80509 150 136 122
0.16146 -4.99854 1.63765 136 124 105
0.12872 -4.96745 1.64465 137 125 107
0.09656 -4.93690 1.65152 137 126 110
0.06495 -4.90689 1.65827 138 128 109
0.03389 -4.87738 1.66491 139 129 107
0.00335 -4.84839 1.67144 140 130 109
-0.02667 -4.81987 1.67785 141 130 112
-0.05618 -4.79184 1.68416 141 130 115
-0.08521 -4.76427 1.69036 143 131 112
-0.11376 -4.73716 1.69646 143 132 111
-0.14185 -4.71049 1.70246 141 131 114
-0.16948 -4.68425 1.70837 142 132 114
-0.19666 -4.65843 1.71418 142 132 113
-0.22341 -4.63302 1.71989 142 132 114
-0.24974 -4.60801 1.72552 144 131 116
-0.27566 -4.58340 1.73106 145 132 121
-0.30117 -4.55917 1.73651 145 132 124
-0.32629 -4.53531 1.74188 145 133 123
-0.35103 -4.51182 1.74716 146 135 121
-0.37539 -4.48869 1.75237 146 136 119
-0.39938 -4.46590 1.75750 146 136 118
-0.42301 -4.44346 1.76255 145 134 117
-0.44629 -4.42135 1.76752 145 134 121
-0.46923 -4.39957 1.77242 146 135 125
-0.49183 -4.37810 1.77725 146 137 124
-0.51410 -4.35695 1.78201 147 138 121
-0.53605 -4.33610 1.78670 147 137 122
-0.55769 -4.31555 1.79133 148 137 121
0.12596 -4.97939 1.62742 136 125 105
0.09376 -4.94869 1.63446 138 126 106
0.06213 -4.91852 1.64137 138 127 107
0.03104 -4.88887 1.64817 138 129 106
0.00048 -4.85973 1.65485 140 130 106
-0.02957 -4.83108 1.66141 142 130 110
-0.05911 -4.80290 1.66787 141 131 115
-0.08816 -4.77520 1.67421 142 132 113
-0.11673 -4.74795 1.68046 142 132 114
-0.14483 -4.72115 1.68660 142 132 119
-0.17248 -4.69478 1.69264 142 132 119
-0.19968 -4.66884 1.69859 141 133 117
-0.22645 -4.64331 1.70444 141 132 117
-0.25280 -4.61819 1.71019 144 131 115
-0.27873 -4.59346 1.71586 145 131 119
-0.30426 -4.56911 1.72144 145 131 123
-0.32939 -4.54514 1.72693 145 132 123
-0.35414 -4.52154 1.73234 146 134 121
-0.37851 -4.49830 1.73767 146 135 121
-0.40251 -4.47541 1.74291 147 136 118
-0.42615 -4.45286 1.74808 147 135 115
-0.44944 -4.43065 1.75317 147 135 118
-0.47239 -4.40877 1.75818 146 135 125
-0.49500 -4.38721 1.76312 146 137 126
-0.51728 -4.36596 1.76799 148 138 124
-0.53923 -4.34502 1.77279 148 138 124
0.12318 -4.99138 1.61015 136 126 102
0.09096 -4.96052 1.61734 136 127 104
0.05930 -4.93020 1.62442 136 128 108
0.02818 -4.90040 1.63137 137 129 108
-0.00241 -4.87111 1.63820 140 130 106
-0.03248 -4.84231 1.64492 141 131 110
-0.06204 -4.81400 1.65152 140 132 114
-0.09111 -4.78616 1.65802 141 132 113
-0.11970 -4.75878 1.66440 143 133 116
-0.14783 -4.73185 1.67069 143 134 121
-0.17549 -4.70535 1.67687 144 134 121
-0.20271 -4.67929 1.68295 143 133 118
-0.22950 -4.65363 1.68893 143 132 119
-0.25586 -4.62839 1.69482 144 131 117
-0.28181 -4.60354 1.70062 145 132 117
-0.30735 -4.57908 1.70632 145 132 122
-0.33250 -4.55500 1.71194 144 132 127
-0.35725 -4.53129 1.71747 146 132 126
-0.38164 -4.50794 1.72292 147 133 126
-0.40565 -4.48494 1.72828 148 134 122
-0.42930 -4.46229 1.73357 149 135 114
-0.45260 -4.43998 1.73877 147 135 115
-0.47556 -4.41800 1.74390 146 135 123
-0.49817 -4.39634 1.74895 146 136 125
-0.52046 -4.37499 1.75393 147 138 123
-0.54243 -4.35396 1.75884 147 138 121
0.08814 -4.97239 1.60017 135 127 107
0.05645 -4.94192 1.60740 136 128 111
0.02531 -4.91197 1.61451 138 129 108
-0.00530 -4.88253 1.62150 139 129 102
-0.03540 -4.85359 1.62837 139 131 107
-0.06498 -4.82514 1.63513 138 132 115
-0.09408 -4.79716 1.64177 139 132 115
-0.12269 -4.76964 1.64830 141 132 116
-0.15083 -4.74258 1.65472 142 134 120
-0.17852 -4.71596 1.66104 144 135 123
-0.20575 -4.68976 1.66726 144 132 121
-0.23256 -4.66399 1.67338 144 131 119
-0.25893 -4.63862 1.67940 144 131 117
-0.28489 -4.61366 1.68533 143 132 115
-0.31045 -4.58908 1.69116 143 133 119
-0.33561 -4.56489 1.69690 144 134 123
-0.36038 -4.54106 1.70256 144 132 122
-0.38478 -4.51761 1.70813 145 133 127
-0.40880 -4.49450 1.71361 146 136 128
-0.43246 -4.47175 1.71901 147 137 122
-0.45577 -4.44933 1.72434 147 137 122
-0.47873 -4.42725 1.72958 145 136 123
-0.50136 -4.40549 1.73474 144 135 125
-0.52366 -4.38405 1.73983 145 137 126
-0.54563 -4.36292 1.74485 146 139 123
0.08532 -4.98430 1.58294 134 126 108
0.05360 -4.95367 1.59034 137 127 107
0.02243 -4.92357 1.59760 137 128 107
-0.00821 -4.89398 1.60475 138 129 106
-0.03832 -4.86490 1.61177 138 129 107
-0.06793 -4.83631 1.61868 139 130 108
-0.09705 -4.80819 1.62547 140 130 112
-0.12568 -4.78054 1.63214 140 131 116
-0.15384 -4.75335 1.63871 140 133 118
-0.18155 -4.72659 1.64517 142 133 120
-0.20880 -4.70027 1.65153 144 131 119
-0.23562 -4.67438 1.65778 144 130 119
-0.26202 -4.64889 1.66393 144 131 119
-0.28799 -4.62380 1.66999 143 132 113
-0.31356 -4.59911 1.67595 142 133 114
-0.33873 -4.57480 1.68182 143 134 119
-0.36352 -4.55087 1.68760 143 134 119
-0.38792 -4.52730 1.69329 145 133 124
-0.41196 -4.50409 1.69890 146 136 128
-0.43563 -4.48123 1.70442 147 138 129
-0.45895 -4.45871 1.70986 146 138 127
-0.48192 -4.43653 1.71521 146 137 123
-0.50456 -4.41467 1.72049 145 135 123
-0.52686 -4.39313 1.72569 145 135 124
0.05074 -4.96546 1.57321 135 127 104
0.01954 -4.93521 1.58064 135 127 104
-0.01112 -4.90548 1.58794 137 128 107
-0.04126 -4.87625 1.59512 139 128 109
-0.07089 -4.84751 1.60217 139 129 111
-0.10003 -4.81926 1.60911 140 129 116
-0.12868 -4.79147 1.61594 140 130 118
-0.15687 -4.76415 1.62265 140 131 118
-0.18459 -4.73726 1.62925 142 132 120
-0.21186 -4.71082 1.63574 146 132 122
-0.23870 -4.68479 1.64213 147 133 120
-0.26511 -4.65918 1.64842 146 132 116
-0.29110 -4.63398 1.65461 143 133 114
-0.31668 -4.60917 1.66070 142 133 116
-0.34187 -4.58475 1.66670 143 132 119
-0.36666 -4.56070 1.67260 144 133 122
-0.39108 -4.53703 1.67842 145 133 124
-0.41513 -4.51371 1.68414 145 134 125
-0.43881 -4.49074 1.68978 144 136 127
-0.46214 -4.46812 1.69534 146 137 127
-0.48512 -4.44584 1.70081 147 137 125
-0.50776 -4.42388 1.70620 147 136 125
-0.53007 -4.40224 1.71152 147 134 122
0.01664 -4.94689 1.56362 135 125 103
-0.01404 -4.91701 1.57108 138 126 109
-0.04421 -4.88763 1.57841 140 127 112
-0.07386 -4.85876 1.58562 139 128 112
-0.10302 -4.83036 1.59271 140 128 115
-0.13170 -4.80244 1.59968 141 129 116
-0.15990 -4.77498 1.60653 142 130 113
-0.18764 -4.74797 1.61328 143 132 115
-0.21493 -4.72139 1.61991 145 133 121
-0.24178 -4.69524 1.62644 145 134 120
-0.26821 -4.66951 1.63286 145 133 112
-0.29421 -4.64419 1.63918 144 132 113
-0.31981 -4.61926 1.64540 144 132 116
-0.34501 -4.59473 1.65153 145 132 118
-0.36982 -4.57057 1.65756 145 132 122
-0.39425 -4.54678 1.66350 147 132 124
-0.41830 -4.52335 1.66935 148 132 123
-0.44200 -4.50028 1.67511 145 134 124
-0.46533 -4.47756 1.68078 146 136 128
-0.48832 -4.45517 1.68637 149 137 130
-0.51098 -4.43311 1.69187 149 136 131
-0.53329 -4.41138 1.69730 149 135 126
-0.01698 -4.92858 1.55416 136 127 109
-0.04717 -4.89906 1.56165 138 127 108
-0.07685 -4.87003 1.56901 139 128 109
-0.10603 -4.84150 1.57625 141 128 110
-0.13472 -4.81344 1.58337 141 129 113
-0.16294 -4.78585 1.59037 141 131 111
-0.19070 -4.75870 1.59725 141 132 113
-0.21801 -4.73200 1.60403 142 133 121
-0.24488 -4.70573 1.61069 144 134 125
-0.27132 -4.67987 1.61725 145 134 121
-0.29734 -4.65443 1.62371 145 134 116
-0.32295 -4.62938 1.63006 145 134 113
-0.34816 -4.60473 1.63631 145 133 112
-0.37298 -4.58046 1.64247 145 132 115
-0.39742 -4.55656 1.64853 145 131 120
-0.42149 -4.53303 1.65450 145 132 125
-0.44519 -4.50985 1.66038 145 134 123
-0.46854 -4.48702 1.66618 144 135 124
-0.49154 -4.46453 1.67188 147 135 126
-0.51420 -4.44237 1.67750 148 134 127
-0.53652 -4.42054 1.68304 151 134 125
-0.05013 -4.91051 1.54483 138 126 106
-0.07983 -4.88135 1.55235 139 128 107
-0.10904 -4.85268 1.55974 140 129 110
-0.13775 -4.82448 1.56700 140 130 112
-0.16599 -4.79675 1.57415 140 131 112
-0.19377 -4.76947 1.58118 140 132 113
-0.22110 -4.74264 1.58810 140 132 118
-0.24798 -4.71624 1.59490 142 134 122
-0.27444 -4.69026 1.60160 142 135 122
-0.30047 -4.66470 1.60818 143 134 119
-0.32610 -4.63954 1.61467 145 134 114
-0.35132 -4.61477 1.62105 145 134 112
-0.37615 -4.59038 1.62734 145 133 111
-0.40061 -4.56637 1.63353 144 131 114
-0.42468 -4.54273 1.63962 144 132 117
-0.44840 -4.51944 1.64562 146 134 113
-0.47175 -4.49651 1.65153 147 134 120
-0.49476 -4.47392 1.65735 146 134 128
-0.51743 -4.45166 1.66309 147 134 126
-0.05311 -4.92201 1.52796 139 127 107
-0.08283 -4.89270 1.53563 139 127 105
-0.11206 -4.86389 1.54317 139 128 105
-0.14079 -4.83555 1.55059 140 129 109
-0.16905 -4.80768 1.55788 141 130 114
-0.19685 -4.78028 1.56506 141 130 111
-0.22419 -4.75331 1.57212 141 131 112
-0.25109 -4.72679 1.57906 143 133 117
-0.27757 -4.70069 1.58589 144 134 118
-0.30361 -4.67500 1.59261 145 134 118
-0.32925 -4.64972 1.59923 146 134 117
-0.35449 -4.62483 1.60575 145 134 116
-0.37934 -4.60033 1.61216 145 133 115
-0.40380 -4.57621 1.61847 145 133 114
-0.42789 -4.55246 1.62469 144 134 114
-0.45161 -4.52906 1.63081 144 134 112
-0.47498 -4.50602 1.63685 146 134 115
-0.49800 -4.48333 1.64279 146 134 119
-0.52067 -4.46097 1.64864 147 135 120
-0.05610 -4.93355 1.51103 136 129 111
-0.08584 -4.90409 1.51886 138 128 106
-0.11509 -4.87513 1.52655 138 129 107
-0.14384 -4.84666 1.53412 139 131 109
-0.17212 -4.81866 1.54156 141 131 110
-0.19994 -4.79111 1.54888 143 130 110
-0.22730 -4.76402 1.55608 143 130 112
-0.25422 -4.73737 1.56317 142 131 114
-0.28070 -4.71114 1.57014 143 133 115
-0.30677 -4.68533 1.57700 145 134 117
-0.33242 -4.65993 1.58375 145 135 119
-0.35767 -4.63493 1.59039 145 134 118
-0.38253 -4.61031 1.59694 145 133 115
-0.40700 -4.58608 1.60338 145 133 115
-0.43110 -4.56221 1.60972 145 134 114
-0.45484 -4.53871 1.61597 146 133 112
-0.47821 -4.51557 1.62212 147 132 116
-0.50124 -4.49277 1.62818 147 133 119
-0.52392 -4.47031 1.63415 147 135 121
-0.08886 -4.91552 1.50203 139 128 106
-0.11813 -4.88642 1.50988 138 127 111
-0.14691 -4.85780 1.51760 138 129 113
-0.17521 -4.82966 1.52519 140 131 114
-0.20304 -4.80199 1.53266 140 131 113
-0.23042 -4.77476 1.54000 141 131 113
-0.25735 -4.74798 1.54723 141 130 111
-0.28385 -4.72163 1.55434 141 131 110
-0.30993 -4.69570 1.56133 143 133 110
-0.33560 -4.67017 1.56822 145 135 112
-0.36086 -4.64505 1.57500 145 135 113
-0.38573 -4.62032 1.58167 145 133 112
-0.41022 -4.59598 1.58824 145 132 112
-0.43433 -4.57200 1.59470 145 132 111
-0.45807 -4.54839 1.60107 146 132 111
-0.48146 -4.52514 1.60735 145 132 115
-0.50449 -4.50223 1.61353 145 133 123
-0.52718 -4.47967 1.61961 147 137 126
-0.12118 -4.89773 1.49316 138 127 114
-0.14998 -4.86898 1.50103 139 128 112
-0.17830 -4.84070 1.50877 139 129 114
-0.20615 -4.81289 1.51638 140 130 117
-0.23354 -4.78554 1.52387 140 130 118
-0.26049 -4.75863 1.53124 140 131 114
-0.28701 -4.73215 1.53849 142 132 113
-0.31310 -4.70609 1.54562 146 133 112
-0.33878 -4.68045 1.55264 147 133 115
-0.36406 -4.65521 1.55955 146 133 119
-0.38894 -4.63036 1.56635 146 133 115
-0.41344 -4.60590 1.57305 145 132 107
-0.43756 -4.58182 1.57964 145 133 108
-0.46131 -4.55810 1.58614 145 133 111
-0.48471 -4.53474 1.59253 145 132 111
-0.50775 -4.51173 1.59883 144 131 110
-0.53045 -4.48906 1.60504 146 135 116
-0.15306 -4.88019 1.48440 138 128 107
-0.18140 -4.85178 1.49230 139 127 109
-0.20927 -4.82383 1.50006 141 128 112
-0.23668 -4.79634 1.50769 142 130 113
-0.26365 -4.76930 1.51520 141 131 113
-0.29018 -4.74270 1.52259 140 132 112
-0.31629 -4.71652 1.52986 141 132 109
-0.34198 -4.69075 1.53702 143 132 111
-0.36727 -4.66540 1.54406 144 133 117
-0.39216 -4.64043 1.55099 148 134 117
-0.41667 -4.61586 1.55782 148 133 114
-0.44080 -4.59166 1.56454 145 133 112
-0.46457 -4.56783 1.57116 145 135 111
-0.48797 -4.54436 1.57768 145 134 109
-0.51102 -4.52125 1.58410 144 132 108
-0.53373 -4.49848 1.59042 143 131 110
-0.18451 -4.86289 1.47577 140 128 102
-0.21239 -4.83481 1.48368 141 129 104
-0.23982 -4.80719 1.49146 143 129 109
-0.26681 -4.78001 1.49911 143 128 112
-0.29335 -4.75328 1.50664 142 129 108
-0.31948 -4.72698 1.51405 143 131 103
-0.34518 -4.70109 1.52135 144 131 108
-0.37049 -4.67561 1.52852 144 132 114
-0.39539 -4.65053 1.53559 145 133 117
-0.41991 -4.62584 1.54254 145 134 117
-0.44405 -4.60153 1.54939 144 134 116
-0.46783 -4.57760 1.55614 145 135 114
-0.49124 -4.55402 1.56278 146 134 113
-0.51430 -4.53080 1.56932 147 133 111
-0.53702 -4.50793 1.57576 140 123 102
-0.21553 -4.84582 1.46725 139 130 108
-0.24298 -4.81806 1.47518 140 129 113
-0.26998 -4.79076 1.48298 142 128 120
-0.29654 -4.76390 1.49065 143 128 115
-0.32268 -4.73747 1.49820 145 128 108
-0.34840 -4.71146 1.50563 145 128 113
-0.37371 -4.68586 1.51294 143 130 117
-0.39863 -4.66066 1.52014 142 133 115
-0.42316 -4.63586 1.52722 144 135 115
-0.44732 -4.61143 1.53420 145 135 118
-0.47110 -4.58739 1.54107 146 134 113
-0.49452 -4.56370 1.54783 149 132 111
-0.51759 -4.54038 1.55450 150 133 113
-0.54031 -4.51740 1.56106 134 115 102
-0.21868 -4.85686 1.45077 138 130 116
-0.24614 -4.82897 1.45884 139 129 116
-0.27316 -4.80154 1.46679 141 129 116
-0.29974 -4.77455 1.47460 142 130 115
-0.32589 -4.74799 1.48229 142 130 113
-0.35162 -4.72186 1.48986 142 128 116
-0.37695 -4.69614 1.49731 140 129 118
-0.40188 -4.67083 1.50464 141 132 115
-0.42642 -4.64590 1.51186 144 134 113
-0.45059 -4.62137 1.51896 146 135 115
-0.47438 -4.59721 1.52596 147 135 113
-0.49781 -4.57341 1.53285 147 133 114
-0.54362 -4.52690 1.54632 122 107 93
-0.24932 -4.83992 1.44246 139 128 113
-0.27635 -4.81235 1.45055 139 128 113
-0.30295 -4.78523 1.45851 140 130 116
-0.32911 -4.75855 1.46634 141 131 115
-0.35486 -4.73229 1.47405 142 130 113
-0.38020 -4.70645 1.48163 142 130 118
-0.40514 -4.68102 1.48909 144 131 112
-0.42970 -4.65598 1.49644 145 132 107
-0.45387 -4.63133 1.50368 145 133 113
-0.47767 -4.60705 1.51080 146 134 115
-0.50111 -4.58315 1.51782 147 135 115
-0.54693 -4.53642 1.53153 112 95 76
-0.27955 -4.82320 1.43426 139 127 105
-0.30616 -4.79595 1.44236 142 128 111
-0.33234 -4.76914 1.45034 142 129 118
-0.35810 -4.74275 1.45818 143 130 117
-0.38346 -4.71679 1.46590 143 131 116
-0.40841 -4.69124 1.47350 142 130 111
-0.43298 -4.66608 1.48098 142 131 111
-0.45716 -4.64132 1.48835 143 133 115
-0.48097 -4.61693 1.49560 144 134 117
-0.50442 -4.59292 1.50274 149 137 118
-0.55026 -4.54598 1.51671 100 83 66
-0.28277 -4.83408 1.41792 140 128 107
-0.30939 -4.80670 1.42617 139 128 110
-0.33558 -4.77976 1.43428 140 129 116
-0.36136 -4.75325 1.44227 143 129 117
-0.38672 -4.72717 1.45013 145 130 118
-0.41169 -4.70149 1.45787 145 130 116
-0.43627 -4.67622 1.46548 143 131 118
-0.46046 -4.65134 1.47298 142 132 117
-0.48428 -4.62684 1.48036 144 132 121
-0.28599 -4.84499 1.40153 137 128 107
-0.31263 -4.81748 1.40992 139 128 107
-0.33884 -4.79041 1.41818 139 128 112
-0.36462 -4.76378 1.42631 141 129 113
-0.39000 -4.73757 1.43431 142 131 113
-0.41498 -4.71177 1.44218 144 130 112
-0.43957 -4.68638 1.44993 145 130 114
-0.46377 -4.66139 1.45756 144 131 116
-0.48760 -4.63677 1.46507 144 133 119
-0.31587 -4.82829 1.39362 139 129 108
-0.34210 -4.80110 1.40203 138 128 111
-0.36790 -4.77434 1.41030 138 128 107
-0.39329 -4.74801 1.41844 140 129 107
-0.41828 -4.72209 1.42645 143 130 109
-0.44288 -4.69658 1.43433 144 130 108
-0.46709 -4.67146 1.44209 144 131 109
-0.49093 -4.64674 1.44973 146 134 113
-0.34537 -4.81182 1.38583 141 128 109
-0.37118 -4.78493 1.39424 143 127 106
-0.39659 -4.75847 1.40252 143 128 108
-0.42159 -4.73243 1.41067 143 129 114
-0.44620 -4.70680 1.41869 144 130 112
-0.47042 -4.68157 1.42658 145 131 110
-0.34865 -4.82257 1.36958 136 130 107
-0.37448 -4.79556 1.37813 140 128 106
-0.39989 -4.76897 1.38655 142 128 109
-0.42491 -4.74281 1.39484 142 129 113
-0.44953 -4.71706 1.40300 142 130 111
-0.47376 -4.69171 1.41102 143 131 109
-0.37778 -4.80621 1.36197 137 129 112
-0.40321 -4.77950 1.37054 143 128 108
-0.42824 -4.75322 1.37896 143 129 108
-0.45287 -4.72735 1.38726 141 129 108
-0.47711 -4.70188 1.39542 145 131 113
-0.40654 -4.79007 1.35447 141 129 107
-0.43157 -4.76366 1.36304 143 129 106
-0.45622 -4.73767 1.37147 142 130 107
-0.43492 -4.77413 1.34707 142 129 108
-0.45958 -4.74802 1.35564 142 129 107
-0.46295 -4.75840 1.33976 141 130 107
0.52984 -5.14689 1.58080 98 103 98
0.51191 -5.15590 1.58613 101 104 102
0.53104 -5.12037 1.55630 91 100 96
0.51316 -5.12938 1.56163 94 101 95
0.49532 -5.13837 1.56696 97 104 100
0.47750 -5.14735 1.57227 99 107 104
0.56793 -5.07599 1.52127 94 102 99
0.55006 -5.08502 1.52662 96 101 99
0.53222 -5.09403 1.53196 94 98 97
0.51440 -5.10302 1.53729 92 100 100
0.49662 -5.11201 1.54262 94 103 104
0.47885 -5.12098 1.54793 97 104 107
0.46112 -5.12994 1.55324 97 106 108
0.55118 -5.05885 1.50244 100 109 103
0.53340 -5.06786 1.50778 102 109 103
0.51564 -5.07684 1.51311 101 104 101
0.49791 -5.08582 1.51844 101 106 104
0.48020 -5.09478 1.52375 103 110 111
0.46252 -5.10373 1.52906 102 107 111
0.44487 -5.11266 1.53436 98 104 105
0.42725 -5.12158 1.53966 95 103 99
0.40965 -5.13049 1.54494 94 96 89
0.32205 -5.17482 1.57125 76 86 81
0.53456 -5.04185 1.48375 106 113 109
0.51686 -5.05083 1.48909 105 110 107
0.49919 -5.05980 1.49441 106 109 104
0.48154 -5.06875 1.49973 105 111 106
0.46392 -5.07769 1.50504 105 115 112
0.44632 -5.08661 1.51034 102 109 108
0.42875 -5.09552 1.51564 95 98 100
0.41121 -5.10442 1.52092 92 95 96
0.39369 -5.11330 1.52620 95 93 92
0.37620 -5.12218 1.53147 97 92 89
0.35874 -5.13103 1.53673 91 90 87
0.34130 -5.13988 1.54199 87 88 86
0.32389 -5.14871 1.54724 80 84 82
0.30650 -5.15753 1.55247 74 83 77
0.28914 -5.16633 1.55771 75 81 75
0.55340 -5.00704 1.45454 97 103 105
0.51808 -5.02499 1.46522 110 117 111
0.50046 -5.03394 1.47054 106 114 104
0.48287 -5.04288 1.47586 104 111 102
0.46530 -5.05181 1.48117 104 110 102
0.44776 -5.06073 1.48648 103 110 101
0.43025 -5.06963 1.49177 100 101 96
0.41276 -5.07852 1.49706 91 92 93
0.39530 -5.08739 1.50234 87 90 92
0.37786 -5.09626 1.50761 91 90 90
0.36045 -5.10511 1.51287 92 91 91
0.34307 -5.11394 1.51813 89 89 87
0.32571 -5.12276 1.52338 90 89 84
0.30838 -5.13157 1.52862 86 86 84
0.29108 -5.14037 1.53385 82 83 83
0.27380 -5.14915 1.53907 81 83 78
0.25654 -5.15792 1.54429 83 88 78
0.57214 -4.97239 1.42547 104 119 109
0.55449 -4.98138 1.43082 107 117 115
0.53688 -4.99035 1.43617 96 99 105
0.51929 -4.99931 1.44150 91 100 103
0.48419 -5.01719 1.45215 101 109 95
0.46668 -5.02611 1.45746 100 109 98
0.44919 -5.03501 1.46276 100 108 103
0.43173 -5.04391 1.46806 103 110 101
0.41430 -5.05278 1.47335 101 108 96
0.39689 -5.06165 1.47863 93 102 96
0.37951 -5.07050 1.48390 91 98 97
0.36216 -5.07934 1.48916 97 100 98
0.34483 -5.08817 1.49442 98 100 96
0.32753 -5.09698 1.49967 93 95 88
0.31025 -5.10578 1.50491 94 93 86
0.29300 -5.11457 1.51014 93 92 86
0.27577 -5.12335 1.51537 92 94 86
0.25857 -5.13211 1.52058 91 94 85
0.24139 -5.14086 1.52579 93 96 89
0.22424 -5.14959 1.53100 87 92 94
0.57317 -4.94691 1.40191 105 113 113
0.55558 -4.95588 1.40726 106 113 115
0.53802 -4.96485 1.41260 113 120 123
0.52049 -4.97380 1.41794 98 98 102
0.45061 -5.00946 1.43920 104 108 103
0.43321 -5.01834 1.44450 106 108 106
0.41583 -5.02721 1.44979 104 108 103
0.39848 -5.03607 1.45507 101 107 98
0.38115 -5.04491 1.46034 98 106 93
0.36385 -5.05374 1.46560 99 108 96
0.34658 -5.06256 1.47086 104 113 107
0.32933 -5.07137 1.47611 105 111 108
0.31210 -5.08016 1.48135 99 99 97
0.29490 -5.08894 1.48659 97 95 95
0.27773 -5.09770 1.49181 97 97 93
0.26058 -5.10645 1.49703 96 98 90
0.24346 -5.11519 1.50224 92 96 90
0.22636 -5.12392 1.50744 87 90 87
0.20929 -5.13264 1.51264 81 85 85
0.19224 -5.14134 1.51783 84 83 83
0.62695 -4.89461 1.36239 113 115 103
0.57420 -4.92159 1.37849 104 109 105
0.55667 -4.93055 1.38385 108 109 112
0.53916 -4.93951 1.38919 105 105 108
0.52168 -4.94845 1.39453 106 108 112
0.50423 -4.95737 1.39985 107 107 103
0.43468 -4.99295 1.42109 105 111 113
0.41735 -5.00181 1.42638 108 112 110
0.40006 -5.01065 1.43166 106 108 105
0.38278 -5.01949 1.43693 102 105 99
0.36554 -5.02831 1.44220 98 100 83
0.34831 -5.03712 1.44745 102 104 84
0.33112 -5.04591 1.45270 107 111 101
0.31395 -5.05470 1.45795 104 104 102
0.29680 -5.06346 1.46318 96 97 100
0.27968 -5.07222 1.46841 99 102 100
0.26259 -5.08097 1.47363 98 102 97
0.24552 -5.08970 1.47884 96 97 87
0.22847 -5.09841 1.48404 93 94 91
0.21145 -5.10712 1.48924 90 91 89
0.19445 -5.11581 1.49443 89 92 84
0.17748 -5.12449 1.49961 91 93 84
0.59272 -4.88746 1.34987 97 106 108
0.57522 -4.89643 1.35523 98 107 101
0.55774 -4.90538 1.36058 105 118 110
0.54029 -4.91433 1.36592 112 122 120
0.52287 -4.92326 1.37126 104 106 105
0.50547 -4.93217 1.37659 102 101 105
0.48810 -4.94108 1.38191 114 120 113
0.41887 -4.97656 1.40311 104 107 112
0.40162 -4.98540 1.40840 106 107 105
0.38440 -4.99422 1.41367 106 111 103
0.36721 -5.00303 1.41893 102 110 105
0.35004 -5.01183 1.42419 101 107 107
0.33290 -5.02062 1.42944 105 110 106
0.31578 -5.02939 1.43469 110 112 101
0.29869 -5.03815 1.43992 106 106 95
0.28162 -5.04690 1.44515 95 99 93
0.26457 -5.05564 1.45037 100 102 93
0.24756 -5.06436 1.45558 100 100 94
0.23056 -5.07307 1.46078 101 100 91
0.21360 -5.08176 1.46598 97 98 91
0.19665 -5.09045 1.47117 92 93 89
0.17973 -5.09912 1.47635 88 92 88
0.16284 -5.10778 1.48153 90 91 89
0.14597 -5.11642 1.48669 92 92 89
0.57623 -4.87143 1.33211 105 110 109
0.55881 -4.88038 1.33746 104 112 108
0.54142 -4.88931 1.34281 102 113 115
0.52405 -4.89823 1.34815 104 115 109
0.50670 -4.90714 1.35347 97 101 87
0.48939 -4.91603 1.35879 100 102 98
0.47209 -4.92491 1.36411 111 117 114
0.40318 -4.96030 1.38528 108 114 122
0.38601 -4.96912 1.39055 107 114 120
0.36887 -4.97792 1.39582 110 117 112
0.35175 -4.98671 1.40108 112 117 109
0.33466 -4.99549 1.40633 112 116 113
0.31760 -5.00425 1.41157 107 116 111
0.30056 -5.01300 1.41681 105 113 105
0.28354 -5.02174 1.42204 101 107 105
0.26655 -5.03047 1.42726 97 106 107
0.24959 -5.03918 1.43247 97 106 105
0.23264 -5.04788 1.43767 98 105 96
0.21573 -5.05657 1.44287 102 104 92
0.19884 -5.06524 1.44806 98 98 90
0.18197 -5.07390 1.45324 91 93 86
0.16513 -5.08255 1.45842 86 91 85
0.14831 -5.09119 1.46358 91 94 93
0.13151 -5.09981 1.46874 95 98 88
0.11474 -5.10843 1.47390 97 97 78
0.09800 -5.11703 1.47904 87 93 72
0.55987 -4.85553 1.31449 113 114 104
0.54253 -4.86445 1.31984 104 109 102
0.52522 -4.87336 1.32518 101 105 106
0.50793 -4.88226 1.33050 104 105 103
0.49066 -4.89114 1.33582 103 104 97
0.47343 -4.90001 1.34114 106 109 108
0.45621 -4.90887 1.34644 117 118 110
0.38761 -4.94417 1.36759 111 113 115
0.37052 -4.95296 1.37285 102 110 111
0.35346 -4.96174 1.37811 105 110 99
0.33642 -4.97051 1.38336 113 111 95
0.31941 -4.97927 1.38861 114 110 103
0.30242 -4.98801 1.39384 107 104 105
0.28546 -4.99674 1.39907 103 103 103
0.26852 -5.00545 1.40429 102 106 103
0.25160 -5.01416 1.40950 99 104 97
0.23471 -5.02285 1.41471 97 100 94
0.21785 -5.03153 1.41991 98 100 102
0.20101 -5.04019 1.42510 98 103 101
0.18419 -5.04885 1.43028 96 99 93
0.16740 -5.05749 1.43545 94 97 91
0.15063 -5.06611 1.44062 93 93 90
0.13389 -5.07473 1.44578 92 96 94
0.11717 -5.08333 1.45093 98 101 90
0.10047 -5.09192 1.45608 105 108 83
0.08380 -5.10050 1.46122 97 100 85
0.54364 -4.83975 1.29701 117 118 94
0.52638 -4.84865 1.30235 102 100 89
0.50915 -4.85753 1.30768 102 102 100
0.49194 -4.86641 1.31300 105 106 104
0.47475 -4.87527 1.31831 106 110 103
0.45759 -4.88412 1.32362 109 110 109
0.44045 -4.89295 1.32891 120 124 118
0.37216 -4.92816 1.35003 105 110 112
0.35515 -4.93693 1.35529 105 112 110
0.33817 -4.94569 1.36054 108 110 107
0.32120 -4.95444 1.36578 111 110 106
0.30427 -4.96317 1.37102 110 108 106
0.28736 -4.97189 1.37625 104 103 110
0.27047 -4.98060 1.38147 101 105 113
0.25361 -4.98929 1.38668 111 115 108
0.23677 -4.99797 1.39189 113 112 101
0.21995 -5.00664 1.39708 103 99 97
0.20316 -5.01530 1.40227 97 98 98
0.18640 -5.02394 1.40746 95 98 94
0.16966 -5.03258 1.41263 97 99 90
0.15294 -5.04120 1.41780 97 104 101
0.13625 -5.04980 1.42296 99 107 100
0.11958 -5.05840 1.42811 97 98 98
0.10293 -5.06698 1.43326 99 105 99
0.08631 -5.07555 1.43840 100 106 94
0.06972 -5.08411 1.44353 99 103 89
0.63117 -4.77055 1.24753 114 126 106
0.52754 -4.82409 1.27967 104 101 100
0.51036 -4.83296 1.28500 107 106 94
0.49320 -4.84183 1.29032 108 112 101
0.47607 -4.85068 1.29563 110 110 108
0.45896 -4.85952 1.30094 117 115 106
0.44188 -4.86834 1.30623 117 113 115
0.42482 -4.87716 1.31152 123 126 119
0.40779 -4.88596 1.31680 96 89 95
0.37379 -4.90352 1.32735 109 120 122
0.35683 -4.91228 1.33260 111 119 113
0.33990 -4.92103 1.33786 107 115 102
0.32299 -4.92976 1.34310 108 116 105
0.30611 -4.93849 1.34834 111 115 112
0.28925 -4.94720 1.35356 112 112 107
0.27241 -4.95589 1.35879 104 106 103
0.25560 -4.96458 1.36400 95 101 107
0.23881 -4.97325 1.36920 108 116 111
0.22205 -4.98191 1.37440 117 117 109
0.20531 -4.99056 1.37959 111 107 103
0.18859 -4.99920 1.38478 108 108 94
0.17190 -5.00782 1.38995 102 101 93
0.15523 -5.01643 1.39512 100 103 94
0.13859 -5.02503 1.40028 96 109 104
0.12197 -5.03361 1.40544 104 112 102
0.10538 -5.04219 1.41058 114 109 97
0.08881 -5.05075 1.41572 104 100 97
0.07226 -5.05930 1.42085 95 97 88
0.63199 -4.74621 1.22500 116 125 115
0.56302 -4.78191 1.24645 110 118 122
0.47737 -4.82625 1.27309 117 119 114
0.46032 -4.83507 1.27840 115 123 119
0.44329 -4.84389 1.28369 105 113 103
0.42628 -4.85269 1.28898 109 117 117
0.40930 -4.86148 1.29426 119 127 111
0.39235 -4.87026 1.29954 101 90 72
0.37541 -4.87902 1.30480 100 104 103
0.35851 -4.88778 1.31006 108 119 116
0.34162 -4.89652 1.31532 114 120 112
0.32477 -4.90524 1.32056 115 118 107
0.30793 -4.91396 1.32579 114 117 107
0.29112 -4.92266 1.33102 112 116 114
0.27434 -4.93135 1.33624 111 118 113
0.25758 -4.94002 1.34146 109 116 104
0.24084 -4.94869 1.34666 105 108 101
0.22413 -4.95734 1.35186 109 114 111
0.20744 -4.96598 1.35705 115 119 118
0.19077 -4.97460 1.36224 119 112 104
0.17413 -4.98322 1.36741 121 119 96
0.15751 -4.99182 1.37258 114 119 102
0.14092 -5.00041 1.37774 111 119 109
0.12435 -5.00899 1.38290 107 117 106
0.10781 -5.01755 1.38804 107 111 103
0.09128 -5.02610 1.39318 105 108 99
0.07479 -5.03464 1.39831 96 99 97
0.05831 -5.04317 1.40344 90 96 92
0.63282 -4.72202 1.20260 114 126 116
0.56406 -4.75768 1.22405 113 121 111
0.54693 -4.76656 1.22940 114 119 114
0.49570 -4.79313 1.24538 107 115 115
0.47867 -4.80197 1.25069 114 125 118
0.46167 -4.81078 1.25600 114 119 119
0.44469 -4.81959 1.26129 115 119 120
0.42774 -4.82838 1.26658 111 116 111
0.41081 -4.83716 1.27186 109 118 124
0.39391 -4.84593 1.27714 117 124 121
0.37702 -4.85469 1.28240 100 92 84
0.36017 -4.86343 1.28766 103 111 108
0.34334 -4.87216 1.29291 108 119 116
0.32653 -4.88087 1.29816 114 117 113
0.30975 -4.88958 1.30339 113 116 111
0.29299 -4.89827 1.30862 112 115 110
0.27625 -4.90695 1.31384 114 120 118
0.25954 -4.91562 1.31906 116 124 117
0.24286 -4.92427 1.32426 115 122 103
0.22619 -4.93291 1.32946 112 116 102
0.20955 -4.94154 1.33465 110 112 110
0.19294 -4.95016 1.33984 112 116 113
0.17635 -4.95877 1.34501 115 117 105
0.15978 -4.96736 1.35018 115 117 98
0.14324 -4.97594 1.35534 112 115 102
0.12672 -4.98451 1.36050 110 118 111
0.11022 -4.99306 1.36564 107 114 109
0.09375 -5.00161 1.37078 105 104 104
0.07730 -5.01014 1.37591 103 102 99
0.06087 -5.01866 1.38104 99 98 97
0.04447 -5.02716 1.38616 96 99 97
0.02809 -5.03566 1.39127 95 95 92
-1.09296 -5.61709 1.74101 74 71 66
2.21035 -3.87865 0.68697 149 159 177
2.19080 -3.88880 0.69309 153 159 173
2.17129 -3.89894 0.69919 152 159 170
0.66806 -4.68009 1.16958 115 119 113
0.65083 -4.68904 1.17497 112 120 116
0.63363 -4.69798 1.18035 111 125 124
0.56509 -4.73360 1.20180 115 123 125
0.54801 -4.74247 1.20714 106 112 118
0.53096 -4.75133 1.21247 111 111 120
0.51394 -4.76018 1.21780 112 119 123
0.49694 -4.76901 1.22312 109 115 109
0.47996 -4.77784 1.22843 110 119 116
0.46301 -4.78664 1.23374 115 119 120
0.44609 -4.79544 1.23903 114 120 119
0.42919 -4.80422 1.24432 118 120 115
0.41231 -4.81299 1.24960 114 113 106
0.39545 -4.82175 1.25488 107 109 104
0.37863 -4.83050 1.26014 120 127 121
0.36182 -4.83923 1.26540 99 97 101
0.34504 -4.84795 1.27065 104 109 102
0.32828 -4.85666 1.27590 110 115 110
0.31155 -4.86535 1.28113 115 117 114
0.29484 -4.87403 1.28636 112 117 115
0.27816 -4.88270 1.29158 108 115 115
0.26150 -4.89136 1.29679 114 120 120
0.24486 -4.90001 1.30200 119 126 119
0.22825 -4.90864 1.30720 122 128 114
0.21166 -4.91726 1.31239 118 121 112
0.19509 -4.92587 1.31757 108 112 107
0.17855 -4.93446 1.32275 108 112 102
0.16203 -4.94305 1.32792 110 111 100
0.14554 -4.95162 1.33308 111 113 108
0.12907 -4.96018 1.33823 111 116 113
0.11262 -4.96873 1.34338 111 120 118
0.09619 -4.97726 1.34852 115 119 117
