ply
format ascii 1.0
element face 0
property list uchar int vertex_indices
element vertex 1288
property float x
property float y
property float z
property uchar diffuse_red
property uchar diffuse_green
property uchar diffuse_blue
end_header
1.40920 -2.49619 1.50374 146 130 108
1.39969 -2.50222 1.50911 149 131 109
1.39020 -2.50825 1.51447 151 133 114
1.38072 -2.51427 1.51982 154 135 115
1.37126 -2.52028 1.52517 154 134 112
1.36180 -2.52629 1.53051 155 134 109
1.35236 -2.53228 1.53585 155 135 108
1.34293 -2.53827 1.54117 155 134 110
1.45923 -2.47594 1.46665 152 128 101
1.44963 -2.48203 1.47207 151 127 98
1.44005 -2.48811 1.47749 149 127 101
1.43048 -2.49418 1.48290 149 129 107
1.42093 -2.50024 1.48831 150 130 108
1.41138 -2.50629 1.49371 153 131 107
1.40185 -2.51234 1.49910 156 133 106
1.39233 -2.51838 1.50448 156 135 110
1.38282 -2.52441 1.50986 154 136 116
1.37332 -2.53043 1.51522 153 136 117
1.36384 -2.53645 1.52059 155 135 115
1.35437 -2.54246 1.52594 155 135 111
1.34491 -2.54846 1.53129 156 135 110
1.51958 -2.44930 1.42360 157 134 110
1.50020 -2.46158 1.43458 151 131 109
1.49052 -2.46771 1.44005 151 129 106
1.48086 -2.47383 1.44552 151 130 107
1.47121 -2.47995 1.45098 153 130 106
1.46158 -2.48605 1.45644 153 130 105
1.45195 -2.49215 1.46189 152 129 103
1.44234 -2.49824 1.46733 150 129 104
1.43274 -2.50432 1.47276 149 131 105
1.42315 -2.51040 1.47819 151 132 101
1.41358 -2.51646 1.48361 154 133 104
1.40402 -2.52252 1.48902 154 133 109
1.39447 -2.52857 1.49443 154 135 111
1.38493 -2.53461 1.49983 156 136 114
1.37541 -2.54065 1.50522 156 136 115
1.36589 -2.54667 1.51060 156 135 112
1.35639 -2.55269 1.51598 156 136 109
1.34690 -2.55870 1.52135 156 136 108
1.53187 -2.45324 1.40767 155 135 109
1.52213 -2.45940 1.41319 155 135 110
1.51240 -2.46556 1.41871 153 133 108
1.50268 -2.47171 1.42421 151 131 109
1.49298 -2.47785 1.42971 151 130 111
1.48328 -2.48398 1.43521 150 131 109
1.47360 -2.49011 1.44069 151 130 111
1.46394 -2.49622 1.44617 151 130 107
1.45428 -2.50233 1.45164 151 130 103
1.44464 -2.50843 1.45711 152 129 105
1.43501 -2.51453 1.46256 151 130 107
1.42540 -2.52061 1.46801 152 131 103
1.41579 -2.52669 1.47345 155 133 105
1.40620 -2.53276 1.47889 156 134 112
1.39662 -2.53882 1.48432 157 135 114
1.38705 -2.54487 1.48974 157 136 116
1.37750 -2.55092 1.49515 157 136 113
1.36796 -2.55696 1.50056 158 136 108
1.35843 -2.56299 1.50596 159 135 110
1.34891 -2.56901 1.51136 158 135 111
1.53446 -2.46338 1.39718 155 136 108
1.52469 -2.46956 1.40272 156 135 107
1.51493 -2.47573 1.40826 153 132 106
1.50518 -2.48189 1.41379 151 131 107
1.49544 -2.48804 1.41931 152 131 108
1.48572 -2.49419 1.42483 152 130 107
1.47601 -2.50032 1.43034 152 130 106
1.46631 -2.50645 1.43584 151 130 102
1.45663 -2.51257 1.44133 152 130 102
1.44696 -2.51869 1.44682 153 130 104
1.43730 -2.52479 1.45230 152 131 103
1.42765 -2.53089 1.45777 153 132 98
1.41802 -2.53697 1.46324 155 134 102
1.40839 -2.54306 1.46870 155 135 109
1.39878 -2.54913 1.47415 155 135 112
1.38919 -2.55519 1.47959 156 135 112
1.37960 -2.56125 1.48503 156 136 109
1.37003 -2.56730 1.49046 157 137 107
1.36047 -2.57334 1.49588 158 136 106
1.53707 -2.47359 1.38662 155 134 115
1.52726 -2.47978 1.39219 154 135 110
1.51747 -2.48596 1.39775 152 132 111
1.50769 -2.49213 1.40330 152 131 113
1.49793 -2.49830 1.40885 151 131 108
1.48817 -2.50446 1.41439 150 131 106
1.47843 -2.51060 1.41992 151 131 104
1.46870 -2.51674 1.42545 150 130 96
1.45899 -2.52288 1.43096 150 131 101
1.44928 -2.52900 1.43647 152 131 107
1.43960 -2.53512 1.44198 151 132 107
1.42992 -2.54122 1.44747 153 133 106
1.42025 -2.54732 1.45296 155 133 108
1.41060 -2.55342 1.45844 153 134 106
1.40096 -2.55950 1.46392 153 135 107
1.39133 -2.56558 1.46938 155 135 111
1.38172 -2.57164 1.47484 157 135 111
1.37212 -2.57771 1.48030 159 136 114
1.36253 -2.58376 1.48574 160 137 112
1.53969 -2.48386 1.37600 154 134 113
1.52985 -2.49006 1.38159 153 134 109
1.52003 -2.49626 1.38718 151 132 108
1.51022 -2.50244 1.39276 150 131 108
1.50042 -2.50862 1.39833 150 130 104
1.49064 -2.51479 1.40389 151 129 98
1.48087 -2.52095 1.40944 152 130 103
1.47111 -2.52710 1.41499 148 130 103
1.46136 -2.53324 1.42053 149 130 106
1.45163 -2.53938 1.42607 152 131 109
1.44191 -2.54550 1.43159 154 131 110
1.43220 -2.55162 1.43711 153 131 110
1.42250 -2.55773 1.44262 154 131 109
1.41282 -2.56384 1.44813 155 133 106
1.40315 -2.56993 1.45362 157 135 103
1.39350 -2.57602 1.45911 157 135 103
1.38385 -2.58210 1.46460 157 136 105
1.37422 -2.58817 1.47007 160 137 109
1.36460 -2.59424 1.47554 162 138 105
1.54233 -2.49420 1.36532 153 134 106
1.53246 -2.50041 1.37093 153 134 109
1.52261 -2.50661 1.37654 151 131 105
1.51276 -2.51281 1.38214 151 131 102
1.50293 -2.51900 1.38774 149 130 106
1.49312 -2.52518 1.39332 151 128 106
1.48332 -2.53135 1.39890 152 129 110
1.47353 -2.53751 1.40447 150 130 108
1.46375 -2.54367 1.41004 150 129 111
1.45398 -2.54982 1.41559 153 130 115
1.44423 -2.55595 1.42114 154 131 111
1.43449 -2.56209 1.42669 153 130 107
1.42477 -2.56821 1.43222 154 132 107
1.41506 -2.57432 1.43775 156 134 104
1.40536 -2.58043 1.44327 157 135 103
1.39567 -2.58653 1.44878 157 137 106
1.38599 -2.59262 1.45429 157 138 109
1.37633 -2.59870 1.45979 160 139 110
1.36668 -2.60478 1.46528 161 139 106
1.54498 -2.50459 1.35457 154 135 109
1.53508 -2.51082 1.36021 153 134 116
1.52520 -2.51703 1.36584 150 130 107
1.51532 -2.52324 1.37146 152 130 107
1.50546 -2.52944 1.37708 151 131 112
1.49561 -2.53563 1.38269 152 129 110
1.48578 -2.54182 1.38830 151 130 108
1.47596 -2.54799 1.39389 149 130 104
1.46615 -2.55416 1.39948 149 131 109
1.45636 -2.56032 1.40506 152 132 112
1.44657 -2.56647 1.41063 154 133 109
1.43680 -2.57261 1.41620 154 134 106
1.42705 -2.57875 1.42176 154 134 111
1.41730 -2.58487 1.42731 155 135 115
1.40757 -2.59099 1.43285 157 137 113
1.39785 -2.59710 1.43839 158 138 111
1.38815 -2.60320 1.44392 160 138 115
1.37846 -2.60930 1.44944 162 138 117
1.36878 -2.61538 1.45496 162 138 113
1.54765 -2.51505 1.34375 156 135 107
1.53772 -2.52129 1.34942 154 135 108
1.52780 -2.52752 1.35507 150 131 101
1.51790 -2.53374 1.36072 152 131 107
1.50801 -2.53995 1.36636 151 129 113
1.49813 -2.54615 1.37200 150 129 110
1.48826 -2.55235 1.37763 150 129 107
1.47841 -2.55853 1.38325 150 130 104
1.46857 -2.56471 1.38886 151 132 103
1.45874 -2.57088 1.39446 154 134 109
1.44893 -2.57705 1.40006 155 134 113
1.43913 -2.58320 1.40565 153 133 107
1.42934 -2.58935 1.41123 153 133 107
1.41956 -2.59548 1.41681 154 134 114
1.40980 -2.60161 1.42237 157 136 114
1.40005 -2.60773 1.42794 160 137 113
1.39032 -2.61385 1.43349 161 137 115
1.38060 -2.61995 1.43903 163 138 114
1.37088 -2.62605 1.44457 164 139 108
1.55034 -2.52557 1.33287 155 135 106
1.54037 -2.53182 1.33856 152 134 106
1.53042 -2.53806 1.34424 150 132 105
1.52049 -2.54430 1.34991 152 132 111
1.51056 -2.55052 1.35558 150 130 117
1.50065 -2.55673 1.36124 150 129 111
1.49076 -2.56294 1.36689 150 130 107
1.48087 -2.56914 1.37253 151 131 105
1.47100 -2.57533 1.37817 151 134 101
1.46114 -2.58151 1.38380 153 136 109
1.45130 -2.58769 1.38942 154 134 115
1.44146 -2.59385 1.39503 153 132 111
1.43165 -2.60001 1.40064 153 133 110
1.42184 -2.60616 1.40624 156 135 115
1.41205 -2.61230 1.41183 159 137 116
1.40227 -2.61843 1.41742 161 137 116
1.39250 -2.62456 1.42299 162 138 116
1.38275 -2.63068 1.42856 162 139 112
1.37301 -2.63679 1.43412 161 139 107
1.55304 -2.53616 1.32192 155 137 111
1.54305 -2.54242 1.32763 152 134 107
1.53306 -2.54868 1.33334 149 132 109
1.52309 -2.55492 1.33904 151 131 112
1.51314 -2.56115 1.34473 149 129 111
1.50319 -2.56738 1.35041 149 129 105
1.49326 -2.57360 1.35609 150 130 108
1.48335 -2.57981 1.36176 152 131 108
1.47345 -2.58601 1.36742 152 133 105
1.46356 -2.59221 1.37307 153 135 110
1.45368 -2.59839 1.37872 153 134 112
1.44382 -2.60457 1.38436 153 134 109
1.43397 -2.61074 1.38999 154 134 111
1.42413 -2.61690 1.39561 157 135 114
1.41430 -2.62305 1.40123 160 136 113
1.40449 -2.62920 1.40683 161 138 113
1.39470 -2.63533 1.41243 162 139 114
1.38491 -2.64146 1.41803 162 139 112
1.37514 -2.64758 1.42361 161 139 108
1.55576 -2.54682 1.31090 152 134 111
1.54573 -2.55309 1.31664 150 133 105
1.53572 -2.55935 1.32237 148 131 103
1.52571 -2.56561 1.32810 148 129 106
1.51573 -2.57186 1.33381 147 128 105
1.50575 -2.57809 1.33952 147 128 104
1.49579 -2.58433 1.34522 150 130 110
1.48584 -2.59055 1.35092 151 131 113
1.47591 -2.59676 1.35660 152 132 111
1.46599 -2.60297 1.36228 154 134 114
1.45608 -2.60916 1.36795 153 133 111
1.44618 -2.61535 1.37361 153 133 106
1.43630 -2.62153 1.37927 155 134 109
1.42643 -2.62771 1.38491 157 135 113
1.41658 -2.63387 1.39055 160 137 115
1.40673 -2.64003 1.39619 161 139 115
1.39690 -2.64618 1.40181 162 139 112
1.38709 -2.65232 1.40743 162 139 110
1.37728 -2.65845 1.41304 162 139 107
1.55850 -2.55753 1.29982 153 132 114
1.54844 -2.56382 1.30558 151 132 108
1.53839 -2.57009 1.31134 150 131 103
1.52835 -2.57636 1.31709 149 129 100
1.51833 -2.58262 1.32283 145 129 96
1.50832 -2.58887 1.32856 146 129 100
1.49833 -2.59512 1.33429 149 131 104
1.48835 -2.60135 1.34001 149 132 105
1.47838 -2.60758 1.34572 152 133 106
1.46843 -2.61379 1.35142 154 134 110
1.45849 -2.62000 1.35711 154 133 109
1.44856 -2.62620 1.36280 154 132 108
1.43865 -2.63240 1.36848 156 133 111
1.42875 -2.63858 1.37415 157 135 115
1.41886 -2.64476 1.37982 159 137 116
1.40899 -2.65092 1.38547 161 139 115
1.39913 -2.65708 1.39112 162 141 116
1.38928 -2.66323 1.39677 162 140 116
1.37944 -2.66938 1.40240 160 138 108
1.56125 -2.56832 1.28867 152 133 108
1.55116 -2.57462 1.29446 150 132 106
1.54107 -2.58090 1.30024 150 131 100
1.53101 -2.58718 1.30601 148 129 99
1.52095 -2.59346 1.31178 147 129 97
1.51091 -2.59972 1.31754 147 130 99
1.50089 -2.60597 1.32329 149 130 102
1.49087 -2.61222 1.32903 150 132 103
1.48088 -2.61846 1.33477 153 133 105
1.47089 -2.62469 1.34049 155 134 110
1.46092 -2.63091 1.34621 154 133 109
1.45096 -2.63712 1.35193 154 132 108
1.44101 -2.64332 1.35763 155 133 110
1.43108 -2.64952 1.36333 157 136 112
1.42116 -2.65571 1.36901 158 138 113
1.41125 -2.66189 1.37470 159 139 114
1.40136 -2.66806 1.38037 161 141 116
1.39148 -2.67422 1.38604 162 141 114
1.38162 -2.68037 1.39169 160 138 108
1.56402 -2.57917 1.27745 151 134 111
1.55389 -2.58548 1.28326 149 132 102
1.54378 -2.59178 1.28907 149 130 94
1.53368 -2.59807 1.29487 149 130 102
1.52359 -2.60436 1.30066 149 130 107
1.51352 -2.61063 1.30644 150 130 103
1.50346 -2.61690 1.31222 150 130 104
1.49341 -2.62316 1.31799 151 132 106
1.48338 -2.62940 1.32375 152 134 103
1.47336 -2.63565 1.32950 153 134 106
1.46336 -2.64188 1.33524 153 132 104
1.45337 -2.64810 1.34098 152 133 106
1.44339 -2.65432 1.34671 153 135 109
1.43342 -2.66053 1.35243 156 137 110
1.42347 -2.66673 1.35815 158 138 108
1.41354 -2.67292 1.36385 159 139 113
1.40361 -2.67910 1.36955 160 140 116
1.39370 -2.68527 1.37524 161 140 112
1.38380 -2.69144 1.38092 159 137 107
1.56681 -2.59009 1.26616 149 135 111
1.55665 -2.59641 1.27200 148 132 102
1.54650 -2.60272 1.27783 149 131 97
1.53637 -2.60903 1.28365 149 131 101
1.52625 -2.61532 1.28947 150 130 101
1.51614 -2.62161 1.29528 150 131 103
1.50605 -2.62789 1.30108 151 131 109
1.49597 -2.63416 1.30688 152 131 114
1.48590 -2.64042 1.31266 153 134 108
1.47585 -2.64667 1.31844 154 135 105
1.46582 -2.65292 1.32421 154 132 104
1.45579 -2.65915 1.32997 153 132 107
1.44578 -2.66538 1.33572 153 135 111
1.43578 -2.67160 1.34147 156 137 110
1.42580 -2.67781 1.34721 158 138 110
1.41583 -2.68401 1.35294 159 138 114
1.40587 -2.69021 1.35866 160 138 116
1.39593 -2.69639 1.36438 161 138 111
1.38600 -2.70257 1.37009 159 137 107
1.56961 -2.60108 1.25479 150 134 109
1.55942 -2.60741 1.26066 147 131 102
1.54924 -2.61374 1.26652 149 130 99
1.53907 -2.62005 1.27237 150 131 100
1.52892 -2.62636 1.27821 149 131 101
1.51878 -2.63266 1.28405 150 132 105
1.50865 -2.63895 1.28987 151 132 110
1.49854 -2.64523 1.29569 153 132 115
1.48844 -2.65150 1.30150 155 133 112
1.47836 -2.65777 1.30731 154 134 107
1.46829 -2.66403 1.31310 153 133 101
1.45823 -2.67027 1.31889 153 132 105
1.44819 -2.67651 1.32467 154 135 109
1.43816 -2.68274 1.33044 156 137 108
1.42814 -2.68897 1.33621 157 138 108
1.41814 -2.69518 1.34196 158 138 112
1.40815 -2.70139 1.34771 160 137 118
1.39818 -2.70758 1.35345 161 136 117
1.38821 -2.71377 1.35918 159 135 109
1.57243 -2.61213 1.24336 150 134 110
1.56221 -2.61848 1.24925 149 131 105
1.55199 -2.62482 1.25514 150 130 102
1.54179 -2.63115 1.26102 152 131 104
1.53160 -2.63746 1.26688 151 132 109
1.52143 -2.64378 1.27275 151 132 107
1.51127 -2.65008 1.27860 152 132 108
1.50113 -2.65637 1.28444 154 132 112
1.49100 -2.66266 1.29028 157 132 114
1.48088 -2.66893 1.29611 156 134 111
1.47078 -2.67520 1.30193 153 133 105
1.46069 -2.68146 1.30774 152 133 108
1.45061 -2.68771 1.31355 155 135 110
1.44055 -2.69396 1.31935 157 137 109
1.43050 -2.70019 1.32513 157 139 108
1.42046 -2.70642 1.33092 158 139 110
1.41044 -2.71263 1.33669 159 137 115
1.40044 -2.71884 1.34246 161 136 116
1.39044 -2.72504 1.34821 160 134 109
1.57527 -2.62326 1.23186 150 134 111
1.56501 -2.62962 1.23777 150 130 109
1.55476 -2.63597 1.24369 149 130 106
1.54453 -2.64231 1.24959 150 131 107
1.53431 -2.64864 1.25548 151 132 110
1.52410 -2.65496 1.26137 150 131 108
1.51391 -2.66128 1.26725 151 131 107
1.50373 -2.66758 1.27312 153 131 111
1.49357 -2.67388 1.27898 155 132 113
1.48342 -2.68017 1.28484 155 134 113
1.47328 -2.68645 1.29069 152 134 108
1.46316 -2.69272 1.29652 152 133 107
1.45305 -2.69898 1.30236 155 134 105
1.44295 -2.70524 1.30818 157 138 103
1.43287 -2.71148 1.31399 157 139 104
1.42280 -2.71772 1.31980 158 139 106
1.41275 -2.72395 1.32560 160 138 110
1.40271 -2.73017 1.33139 161 137 110
1.39268 -2.73638 1.33718 161 136 104
1.57813 -2.63446 1.22028 150 134 115
1.56784 -2.64083 1.22622 147 131 112
1.55755 -2.64719 1.23216 147 130 110
1.54728 -2.65354 1.23809 148 131 112
1.53703 -2.65988 1.24401 149 132 109
1.52679 -2.66622 1.24993 149 132 105
1.51656 -2.67255 1.25583 150 131 103
1.50635 -2.67886 1.26173 151 132 108
1.49615 -2.68517 1.26762 154 133 113
1.48597 -2.69148 1.27350 154 134 117
1.47580 -2.69777 1.27937 152 134 112
1.46564 -2.70405 1.28524 152 133 106
1.45550 -2.71033 1.29109 155 135 104
1.44537 -2.71659 1.29694 156 138 106
1.43526 -2.72285 1.30278 156 139 107
1.42516 -2.72910 1.30862 158 138 108
1.41507 -2.73534 1.31444 160 138 112
1.40500 -2.74157 1.32026 161 138 112
1.39494 -2.74780 1.32607 161 137 104
1.58101 -2.64572 1.20863 150 133 114
1.57068 -2.65211 1.21460 146 131 110
1.56036 -2.65848 1.22056 145 131 107
1.55006 -2.66484 1.22652 147 132 110
1.53977 -2.67120 1.23247 148 132 106
1.52949 -2.67755 1.23841 149 132 104
1.51923 -2.68389 1.24434 150 133 101
1.50899 -2.69022 1.25026 151 133 105
1.49876 -2.69654 1.25618 154 135 111
1.48854 -2.70285 1.26209 154 135 115
1.47833 -2.70916 1.26799 153 134 111
1.46814 -2.71545 1.27388 152 133 105
1.45797 -2.72174 1.27976 154 135 105
1.44781 -2.72802 1.28564 156 137 108
1.43766 -2.73429 1.29150 157 138 108
1.42752 -2.74055 1.29736 158 138 107
1.41740 -2.74680 1.30321 159 138 111
1.40730 -2.75304 1.30906 159 138 112
1.39720 -2.75928 1.31489 159 137 108
1.58390 -2.65706 1.19690 151 132 110
1.57354 -2.66346 1.20290 147 130 109
1.56318 -2.66984 1.20889 146 130 106
1.55285 -2.67622 1.21488 147 131 107
1.54252 -2.68259 1.22085 147 130 104
1.53222 -2.68895 1.22682 148 130 103
1.52192 -2.69530 1.23278 150 132 103
1.51164 -2.70164 1.23873 152 134 105
1.50137 -2.70797 1.24467 154 135 111
1.49112 -2.71430 1.25060 154 136 116
1.48088 -2.72062 1.25653 152 134 109
1.47066 -2.72692 1.26245 152 133 103
1.46045 -2.73322 1.26836 154 134 105
1.45026 -2.73951 1.27426 157 136 107
1.44007 -2.74579 1.28015 158 137 107
1.42991 -2.75207 1.28604 158 138 108
1.41975 -2.75833 1.29191 159 138 112
1.40961 -2.76459 1.29778 159 137 114
1.39949 -2.77083 1.30364 159 136 112
1.58682 -2.66847 1.18510 150 131 103
1.57641 -2.67488 1.19113 148 129 107
1.56603 -2.68128 1.19715 146 130 109
1.55566 -2.68767 1.20316 148 129 111
1.54530 -2.69405 1.20916 146 129 105
1.53495 -2.70042 1.21516 147 128 104
1.52463 -2.70678 1.22114 149 129 106
1.51431 -2.71314 1.22712 152 132 108
1.50401 -2.71948 1.23309 155 134 112
1.49372 -2.72582 1.23905 154 135 115
1.48345 -2.73215 1.24500 152 133 108
1.47319 -2.73847 1.25094 153 133 104
1.46295 -2.74478 1.25688 155 134 106
1.45272 -2.75108 1.26281 157 136 109
1.44251 -2.75737 1.26873 159 137 109
1.43230 -2.76366 1.27464 160 137 110
1.42212 -2.76993 1.28054 160 137 113
1.41194 -2.77620 1.28644 160 137 115
1.40178 -2.78246 1.29233 158 135 112
1.58975 -2.67996 1.17323 151 132 100
1.57931 -2.68638 1.17928 148 130 104
1.56889 -2.69279 1.18533 146 130 109
1.55848 -2.69919 1.19137 147 130 113
1.54809 -2.70558 1.19740 147 128 105
1.53771 -2.71197 1.20342 148 126 103
1.52735 -2.71834 1.20943 150 128 108
1.51700 -2.72471 1.21543 152 131 111
1.50666 -2.73107 1.22143 155 134 112
1.49634 -2.73741 1.22742 154 135 109
1.48603 -2.74375 1.23340 152 133 101
1.47574 -2.75009 1.23937 153 133 102
1.46546 -2.75641 1.24533 156 134 106
1.45520 -2.76272 1.25129 158 135 110
1.44495 -2.76903 1.25723 158 136 111
1.43472 -2.77532 1.26317 159 137 109
1.42450 -2.78161 1.26910 160 137 110
1.41429 -2.78789 1.27502 160 137 113
1.40410 -2.79416 1.28094 157 135 112
1.59270 -2.69151 1.16128 151 132 103
1.58223 -2.69795 1.16736 148 131 103
1.57177 -2.70437 1.17343 146 131 107
1.56133 -2.71078 1.17950 146 130 112
1.55090 -2.71719 1.18556 146 128 107
1.54048 -2.72358 1.19160 148 127 103
1.53009 -2.72997 1.19764 150 128 107
1.51970 -2.73635 1.20368 153 131 111
1.50933 -2.74272 1.20970 154 135 112
1.49898 -2.74908 1.21572 153 136 108
1.48863 -2.75543 1.22172 152 134 102
1.47831 -2.76178 1.22772 152 134 104
1.46800 -2.76811 1.23371 154 134 109
1.45770 -2.77444 1.23969 156 134 112
1.44741 -2.78075 1.24566 156 135 115
1.43714 -2.78706 1.25163 156 136 112
1.42689 -2.79336 1.25759 159 137 108
1.41665 -2.79965 1.26353 160 137 111
1.40642 -2.80593 1.26948 158 135 111
1.59567 -2.70314 1.14925 148 132 104
1.58516 -2.70959 1.15536 147 130 105
1.57467 -2.71602 1.16146 146 131 110
1.56419 -2.72245 1.16756 146 129 116
1.55372 -2.72887 1.17364 145 128 110
1.54328 -2.73528 1.17972 147 128 103
1.53284 -2.74168 1.18578 149 130 105
1.52242 -2.74807 1.19184 152 133 111
1.51202 -2.75445 1.19789 153 136 116
1.50163 -2.76082 1.20394 153 137 114
1.49125 -2.76719 1.20997 151 135 109
1.48089 -2.77354 1.21600 151 133 110
1.47054 -2.77989 1.22201 153 133 112
1.46021 -2.78623 1.22802 154 134 115
1.44989 -2.79256 1.23402 154 134 118
1.43959 -2.79888 1.24001 155 136 115
1.42930 -2.80519 1.24600 157 137 110
1.41902 -2.81149 1.25197 158 137 112
1.40876 -2.81778 1.25794 158 136 112
1.59865 -2.71485 1.13714 147 131 104
1.58811 -2.72131 1.14328 147 130 107
1.57758 -2.72776 1.14941 148 130 113
1.56707 -2.73420 1.15553 147 129 118
1.55657 -2.74063 1.16165 145 128 112
1.54609 -2.74705 1.16775 147 128 105
1.53562 -2.75346 1.17385 150 131 106
1.52516 -2.75986 1.17993 152 133 114
1.51472 -2.76626 1.18601 153 136 119
1.50429 -2.77264 1.19208 152 136 113
1.49388 -2.77902 1.19814 151 134 106
1.48349 -2.78538 1.20420 151 132 107
1.47311 -2.79174 1.21024 152 133 110
1.46274 -2.79809 1.21628 154 134 113
1.45239 -2.80443 1.22231 154 134 113
1.44205 -2.81077 1.22833 155 135 111
1.43172 -2.81709 1.23434 155 136 110
1.42141 -2.82340 1.24034 157 137 112
1.41112 -2.82971 1.24633 156 136 113
1.60166 -2.72663 1.12496 147 130 106
1.59108 -2.73310 1.13113 147 129 108
1.58052 -2.73956 1.13729 148 129 113
1.56997 -2.74601 1.14344 147 128 116
1.55943 -2.75246 1.14958 147 127 114
1.54891 -2.75889 1.15571 148 128 113
1.53841 -2.76532 1.16183 150 131 111
1.52792 -2.77173 1.16795 153 133 114
1.51744 -2.77814 1.17406 153 135 115
1.50698 -2.78453 1.18015 152 134 108
1.49653 -2.79092 1.18624 150 132 100
1.48610 -2.79730 1.19232 149 131 101
1.47569 -2.80367 1.19840 151 132 105
1.46528 -2.81003 1.20446 153 133 108
1.45490 -2.81639 1.21052 154 134 109
1.44452 -2.82273 1.21656 154 135 108
1.43416 -2.82907 1.22260 155 136 107
1.42382 -2.83539 1.22863 156 137 108
1.41349 -2.84171 1.23465 155 137 111
1.60469 -2.73849 1.11270 147 129 108
1.59407 -2.74497 1.11889 148 129 106
1.58347 -2.75145 1.12508 147 129 110
1.57289 -2.75791 1.13126 146 128 111
1.56231 -2.76437 1.13743 146 128 111
1.55176 -2.77081 1.14359 148 129 114
1.54122 -2.77725 1.14974 150 131 110
1.53069 -2.78368 1.15589 152 132 112
1.52018 -2.79010 1.16202 153 134 110
1.50968 -2.79650 1.16815 152 134 105
1.49920 -2.80290 1.17426 149 132 101
1.48873 -2.80930 1.18037 148 130 101
1.47828 -2.81568 1.18647 150 130 103
1.46784 -2.82205 1.19256 151 132 106
1.45742 -2.82842 1.19865 153 133 109
1.44701 -2.83477 1.20472 154 133 109
1.43662 -2.84112 1.21079 154 134 106
1.42624 -2.84746 1.21685 155 136 106
1.41587 -2.85379 1.22290 155 136 106
1.60774 -2.75043 1.10036 146 130 110
1.59708 -2.75692 1.10658 147 130 104
1.58645 -2.76341 1.11280 148 129 108
1.57582 -2.76988 1.11900 147 129 107
1.56522 -2.77635 1.12520 144 128 105
1.55462 -2.78281 1.13139 145 129 105
1.54405 -2.78926 1.13757 149 131 106
1.53348 -2.79570 1.14374 151 132 110
1.52294 -2.80213 1.14991 153 133 110
1.51240 -2.80855 1.15606 152 133 104
1.50189 -2.81496 1.16221 149 130 101
1.49138 -2.82137 1.16834 149 129 104
1.48089 -2.82776 1.17447 150 130 104
1.47042 -2.83415 1.18059 151 130 106
1.45996 -2.84053 1.18670 153 131 111
1.44952 -2.84689 1.19281 153 131 111
1.43909 -2.85325 1.19890 152 131 107
1.42868 -2.85960 1.20499 153 133 106
1.41828 -2.86594 1.21106 153 133 104
1.61080 -2.76244 1.08793 146 130 110
1.60011 -2.76895 1.09419 147 131 107
1.58944 -2.77545 1.10043 148 129 110
1.57878 -2.78194 1.10667 147 128 105
1.56813 -2.78842 1.11289 143 128 105
1.55751 -2.79489 1.11911 144 128 104
1.54689 -2.80135 1.12532 147 131 105
1.53629 -2.80780 1.13152 150 133 111
1.52571 -2.81424 1.13772 152 134 113
1.51514 -2.82068 1.14390 151 132 106
1.50459 -2.82710 1.15007 148 129 100
1.49405 -2.83352 1.15624 149 129 106
1.48352 -2.83992 1.16240 150 130 108
1.47302 -2.84632 1.16854 151 130 107
1.46252 -2.85271 1.17468 151 130 109
1.45204 -2.85909 1.18081 150 130 109
1.44158 -2.86546 1.18694 149 130 107
1.43113 -2.87182 1.19305 150 130 106
1.42069 -2.87818 1.19915 148 128 106
1.61389 -2.77453 1.07543 145 130 106
1.60316 -2.78105 1.08171 146 131 107
1.59245 -2.78756 1.08799 147 129 112
1.58175 -2.79407 1.09425 147 128 105
1.57107 -2.80056 1.10051 145 127 104
1.56041 -2.80704 1.10676 145 127 104
1.54976 -2.81352 1.11299 147 130 105
1.53912 -2.81998 1.11922 149 133 110
1.52850 -2.82644 1.12544 152 133 112
1.51790 -2.83288 1.13166 151 132 107
1.50731 -2.83932 1.13786 148 129 102
1.49673 -2.84575 1.14405 149 129 105
1.48617 -2.85217 1.15024 150 129 108
1.47563 -2.85858 1.15642 150 130 108
1.46510 -2.86498 1.16258 150 129 108
1.45458 -2.87137 1.16874 148 129 106
1.44408 -2.87775 1.17489 146 129 106
1.43360 -2.88412 1.18104 145 127 106
1.61700 -2.78670 1.06284 146 130 101
1.60623 -2.79324 1.06915 145 130 102
1.59548 -2.79976 1.07546 147 128 108
1.58475 -2.80628 1.08175 147 127 103
1.57403 -2.81278 1.08804 145 127 103
1.56333 -2.81928 1.09432 145 128 103
1.55264 -2.82576 1.10058 146 130 105
1.54197 -2.83224 1.10684 149 133 109
1.53131 -2.83871 1.11309 152 133 111
1.52067 -2.84517 1.11933 150 131 107
1.51004 -2.85162 1.12557 148 129 103
1.49943 -2.85806 1.13179 148 129 106
1.48884 -2.86449 1.13800 147 129 108
1.47825 -2.87091 1.14421 147 129 106
1.46769 -2.87732 1.15041 147 128 104
1.45714 -2.88372 1.15660 146 127 104
1.44660 -2.89012 1.16277 144 127 105
1.43608 -2.89650 1.16894 142 125 102
1.62012 -2.79896 1.05017 148 130 102
1.60932 -2.80550 1.05651 146 130 106
1.59854 -2.81204 1.06285 147 129 105
1.58776 -2.81857 1.06917 148 128 103
1.57701 -2.82508 1.07549 145 129 104
1.56627 -2.83159 1.08180 145 130 105
1.55554 -2.83809 1.08809 146 131 105
1.54483 -2.84458 1.09438 150 132 108
1.53414 -2.85106 1.10066 151 133 114
1.52346 -2.85753 1.10693 148 132 111
1.51280 -2.86399 1.11319 146 130 106
1.50215 -2.87045 1.11945 147 130 107
1.49152 -2.87689 1.12569 146 129 107
1.48090 -2.88332 1.13192 145 128 104
1.47030 -2.88975 1.13815 145 127 102
1.45971 -2.89616 1.14437 144 125 102
1.44914 -2.90257 1.15057 143 125 103
1.43858 -2.90897 1.15677 141 124 100
1.62327 -2.81129 1.03742 149 129 105
1.61243 -2.81785 1.04379 147 130 112
1.60161 -2.82440 1.05015 147 128 107
1.59080 -2.83094 1.05651 149 129 105
1.58001 -2.83747 1.06286 148 129 106
1.56923 -2.84399 1.06919 147 129 108
1.55847 -2.85050 1.07552 148 131 105
1.54772 -2.85700 1.08184 152 131 108
1.53699 -2.86349 1.08815 152 132 114
1.52627 -2.86998 1.09445 149 130 112
1.51557 -2.87645 1.10074 147 129 109
1.50489 -2.88292 1.10702 148 128 108
1.49422 -2.88937 1.11329 147 128 107
1.48356 -2.89582 1.11956 146 128 105
1.47292 -2.90225 1.12581 144 127 107
1.46230 -2.90868 1.13206 143 125 107
1.45169 -2.91510 1.13830 142 125 103
1.44110 -2.92151 1.14452 141 124 101
1.62644 -2.82371 1.02458 146 131 106
1.61556 -2.83028 1.03098 145 130 107
1.60470 -2.83684 1.03738 146 129 104
1.59385 -2.84339 1.04376 148 129 106
1.58302 -2.84993 1.05014 146 129 108
1.57221 -2.85647 1.05651 147 130 109
1.56141 -2.86299 1.06286 148 131 105
1.55062 -2.86951 1.06921 149 131 111
1.53985 -2.87601 1.07555 150 132 119
1.52910 -2.88251 1.08188 149 130 113
1.51836 -2.88899 1.08820 147 128 107
1.50764 -2.89547 1.09451 147 128 107
1.49693 -2.90194 1.10082 147 128 106
1.48624 -2.90839 1.10711 146 127 104
1.47557 -2.91484 1.11339 144 126 105
1.46491 -2.92128 1.11967 141 125 105
1.45426 -2.92771 1.12594 141 124 102
1.44363 -2.93414 1.13219 140 123 103
1.62963 -2.83620 1.01166 148 130 105
1.61872 -2.84279 1.01809 146 130 104
1.60781 -2.84936 1.02451 146 130 103
1.59693 -2.85593 1.03093 147 130 106
1.58606 -2.86248 1.03734 146 129 108
1.57521 -2.86903 1.04373 145 131 108
1.56437 -2.87556 1.05012 147 130 107
1.55355 -2.88209 1.05650 148 131 111
1.54274 -2.88861 1.06287 149 131 114
1.53195 -2.89512 1.06923 148 130 109
1.52117 -2.90162 1.07558 147 128 105
1.51041 -2.90810 1.08192 146 126 105
1.49967 -2.91458 1.08826 146 126 105
1.48894 -2.92105 1.09458 146 126 104
1.47823 -2.92752 1.10089 145 125 104
1.46753 -2.93397 1.10720 144 125 106
1.45685 -2.94041 1.11349 141 124 107
1.44618 -2.94684 1.11978 139 123 109
1.63284 -2.84879 0.99865 149 129 108
1.62189 -2.85538 1.00511 147 129 103
1.61095 -2.86197 1.01157 146 129 102
1.60002 -2.86855 1.01801 145 130 108
1.58912 -2.87512 1.02445 145 129 107
1.57822 -2.88167 1.03088 144 130 107
1.56735 -2.88822 1.03730 146 129 112
1.55649 -2.89476 1.04371 148 129 114
1.54564 -2.90129 1.05011 149 129 111
1.53481 -2.90781 1.05650 148 128 108
1.52400 -2.91432 1.06288 145 127 105
1.51320 -2.92082 1.06925 145 126 103
1.50242 -2.92732 1.07561 145 126 105
1.49166 -2.93380 1.08197 144 125 106
1.48090 -2.94027 1.08831 144 126 108
1.47017 -2.94674 1.09465 143 127 109
1.45945 -2.95319 1.10097 141 124 107
1.44875 -2.95964 1.10729 140 123 109
1.63608 -2.86145 0.98555 145 129 104
1.62508 -2.86806 0.99204 146 127 100
1.61410 -2.87466 0.99853 146 130 95
1.60314 -2.88125 1.00501 145 130 101
1.59219 -2.88783 1.01148 146 129 104
1.58126 -2.89440 1.01794 147 128 102
1.57035 -2.90096 1.02439 147 127 110
1.55945 -2.90752 1.03083 148 128 114
1.54857 -2.91406 1.03726 150 129 110
1.53770 -2.92059 1.04368 148 127 107
1.52685 -2.92711 1.05009 144 126 105
1.51601 -2.93363 1.05649 143 125 102
1.50519 -2.94013 1.06288 143 124 100
1.49439 -2.94663 1.06927 143 124 101
1.48360 -2.95311 1.07564 144 126 104
1.47283 -2.95959 1.08201 144 127 103
1.46207 -2.96606 1.08836 142 125 103
1.45133 -2.97251 1.09471 142 123 106
1.63933 -2.87420 0.97236 144 128 103
1.62830 -2.88083 0.97889 144 128 102
1.61728 -2.88744 0.98541 146 130 99
1.60628 -2.89404 0.99192 147 129 103
1.59529 -2.90063 0.99842 147 128 102
1.58432 -2.90722 1.00491 148 130 102
1.57337 -2.91379 1.01139 147 129 108
1.56243 -2.92036 1.01786 148 130 111
1.55151 -2.92691 1.02432 149 130 108
1.54060 -2.93346 1.03077 147 127 105
1.52971 -2.93999 1.03722 145 125 103
1.51884 -2.94652 1.04365 144 123 102
1.50798 -2.95304 1.05007 142 124 102
1.49714 -2.95954 1.05649 142 125 103
1.48631 -2.96604 1.06289 143 127 105
1.47550 -2.97253 1.06929 144 127 104
1.46471 -2.97901 1.07567 144 126 103
1.45393 -2.98548 1.08205 143 125 106
1.64261 -2.88704 0.95909 146 130 106
1.63154 -2.89368 0.96565 144 127 107
1.62048 -2.90030 0.97220 144 127 108
1.60944 -2.90692 0.97874 147 130 108
1.59841 -2.91352 0.98527 145 130 97
1.58740 -2.92012 0.99179 146 130 105
1.57641 -2.92671 0.99830 147 130 109
1.56543 -2.93328 1.00481 147 130 112
1.55447 -2.93985 1.01130 148 131 108
1.54353 -2.94641 1.01778 146 128 107
1.53260 -2.95296 1.02426 144 126 109
1.52169 -2.95949 1.03072 142 124 107
1.51079 -2.96602 1.03717 141 124 105
1.49991 -2.97254 1.04362 142 125 107
1.48905 -2.97905 1.05006 143 126 109
1.47820 -2.98555 1.05648 144 126 108
1.46737 -2.99204 1.06290 144 126 102
1.45655 -2.99853 1.06931 142 126 104
1.64591 -2.89996 0.94572 147 129 105
1.63479 -2.90661 0.95231 144 128 107
1.62370 -2.91325 0.95890 143 128 109
1.61262 -2.91988 0.96547 145 129 108
1.60155 -2.92650 0.97203 143 130 101
1.59050 -2.93311 0.97859 144 130 106
1.57947 -2.93971 0.98513 146 129 109
1.56846 -2.94630 0.99166 146 130 110
1.55746 -2.95288 0.99819 146 130 106
1.54647 -2.95945 1.00470 144 128 104
1.53551 -2.96601 1.01121 142 125 105
1.52455 -2.97256 1.01770 141 125 104
1.51362 -2.97910 1.02419 140 125 103
1.50270 -2.98563 1.03067 141 125 103
1.49180 -2.99215 1.03713 143 127 105
1.48091 -2.99867 1.04359 145 127 107
1.47004 -3.00517 1.05004 142 127 105
1.45918 -3.01166 1.05648 140 128 107
1.64923 -2.91298 0.93227 145 128 110
1.63808 -2.91964 0.93889 143 128 110
1.62694 -2.92629 0.94551 144 129 116
1.61582 -2.93293 0.95211 147 127 107
1.60471 -2.93956 0.95871 145 128 102
1.59363 -2.94618 0.96529 145 128 101
1.58255 -2.95280 0.97187 145 127 106
1.57150 -2.95940 0.97843 145 129 109
1.56046 -2.96599 0.98499 146 129 110
1.54944 -2.97257 0.99154 144 127 105
1.53843 -2.97915 0.99807 142 126 101
1.52744 -2.98571 1.00460 141 125 99
1.51647 -2.99226 1.01112 141 125 103
1.50551 -2.99881 1.01763 142 125 106
1.49457 -3.00534 1.02412 144 127 106
1.48364 -3.01187 1.03061 145 128 106
1.47273 -3.01838 1.03709 143 127 105
1.46184 -3.02489 1.04356 144 127 108
1.65257 -2.92608 0.91872 144 128 107
1.64138 -2.93275 0.92538 146 128 105
1.63020 -2.93942 0.93202 146 128 109
1.61904 -2.94607 0.93866 146 126 103
1.60790 -2.95271 0.94529 144 128 103
1.59677 -2.95935 0.95191 143 128 105
1.58566 -2.96597 0.95851 145 127 105
1.57456 -2.97259 0.96511 145 128 106
1.56348 -2.97919 0.97170 147 129 107
1.55242 -2.98579 0.97828 146 127 105
1.54137 -2.99237 0.98485 143 126 101
1.53034 -2.99895 0.99141 141 125 99
1.51933 -3.00552 0.99796 141 125 104
1.50833 -3.01207 1.00450 143 126 109
1.49735 -3.01862 1.01103 145 129 109
1.48639 -3.02516 1.01755 146 130 107
1.47544 -3.03168 1.02406 145 128 103
1.46451 -3.03820 1.03056 146 128 106
1.65594 -2.93927 0.90508 143 127 106
1.64471 -2.94596 0.91177 143 127 101
1.63349 -2.95263 0.91845 144 127 104
1.62229 -2.95930 0.92512 145 127 99
1.61110 -2.96596 0.93178 144 128 103
1.59993 -2.97260 0.93843 143 128 106
1.58878 -2.97924 0.94507 145 127 105
1.57764 -2.98587 0.95170 145 128 104
1.56653 -2.99249 0.95832 145 130 103
1.55542 -2.99909 0.96493 144 128 102
1.54434 -3.00569 0.97153 143 127 100
1.53327 -3.01228 0.97813 141 125 98
1.52222 -3.01886 0.98471 142 125 101
1.51118 -3.02543 0.99128 143 127 105
1.50016 -3.03199 0.99784 146 129 107
1.48916 -3.03854 1.00439 147 129 108
1.47817 -3.04507 1.01094 147 128 107
1.65933 -2.95255 0.89135 143 126 104
1.64806 -2.95925 0.89807 144 126 101
1.63680 -2.96594 0.90478 146 127 105
1.62555 -2.97262 0.91149 145 128 107
1.61433 -2.97929 0.91818 143 127 108
1.60312 -2.98595 0.92486 142 127 109
1.59193 -2.99260 0.93154 144 126 108
1.58075 -2.99924 0.93820 146 128 109
1.56959 -3.00587 0.94485 146 129 104
1.55845 -3.01249 0.95150 143 128 101
1.54732 -3.01910 0.95813 142 126 102
1.53621 -3.02570 0.96475 141 124 101
1.52512 -3.03229 0.97137 141 125 103
1.51405 -3.03887 0.97797 144 128 110
1.50299 -3.04544 0.98457 146 129 111
1.49194 -3.05201 0.99115 145 129 108
1.48092 -3.05856 0.99772 145 128 107
1.66275 -2.96592 0.87752 144 124 102
1.65143 -2.97264 0.88427 143 125 98
1.64013 -2.97934 0.89102 147 125 101
1.62884 -2.98603 0.89776 144 125 105
1.61758 -2.99271 0.90448 140 125 107
1.60633 -2.99939 0.91120 140 124 107
1.59509 -3.00605 0.91791 143 126 107
1.58388 -3.01270 0.92460 145 128 108
1.57268 -3.01935 0.93129 145 128 106
1.56149 -3.02598 0.93797 143 127 104
1.55033 -3.03260 0.94463 142 124 103
1.53918 -3.03921 0.95129 141 124 103
1.52805 -3.04582 0.95794 141 126 105
1.51693 -3.05241 0.96457 144 128 109
1.50583 -3.05899 0.97120 146 129 109
1.49475 -3.06557 0.97782 144 129 107
1.48368 -3.07213 0.98442 144 128 106
1.57578 -3.03291 0.91763 144 128 104
1.56456 -3.03956 0.92434 143 128 102
1.55335 -3.04619 0.93104 141 126 100
1.54216 -3.05282 0.93773 141 126 101
1.53099 -3.05944 0.94441 142 127 104
1.51983 -3.06604 0.95108 144 129 104
1.50869 -3.07264 0.95774 147 129 105
1.49757 -3.07922 0.96439 147 128 104
1.48647 -3.08580 0.97103 146 128 103
1.53396 -3.07315 0.93080 142 128 105
1.52276 -3.07977 0.93750 145 129 103
1.51158 -3.08637 0.94419 147 129 102
1.50042 -3.09297 0.95087 148 128 98
1.48927 -3.09956 0.95755 148 129 98
1.53694 -3.08695 0.91709 144 128 107
1.52570 -3.09358 0.92382 146 130 105
1.51448 -3.10020 0.93055 147 130 104
1.50328 -3.10682 0.93726 148 129 102
1.49209 -3.11342 0.94397 147 129 103
1.53995 -3.10086 0.90328 144 128 108
1.52867 -3.10750 0.91005 147 129 111
1.51741 -3.11413 0.91681 147 128 108
1.50616 -3.12075 0.92356 146 128 104
1.49493 -3.12737 0.93030 146 128 106
1.54297 -3.11485 0.88938 144 127 107
1.53165 -3.12151 0.89618 147 127 109
1.52035 -3.12815 0.90298 146 126 106
1.50906 -3.13479 0.90976 145 125 102
1.49780 -3.14141 0.91653 146 126 104
1.54602 -3.12895 0.87538 144 126 107
1.53466 -3.13562 0.88222 146 126 104
1.52332 -3.14228 0.88905 144 125 102
1.51199 -3.14892 0.89586 143 124 99
1.50068 -3.15556 0.90267 145 125 99
1.54909 -3.14315 0.86129 144 126 106
1.53769 -3.14983 0.86816 146 126 102
1.52630 -3.15650 0.87502 144 125 100
1.51493 -3.16316 0.88187 143 123 97
1.50358 -3.16981 0.88871 146 124 96
1.55218 -3.15744 0.84709 145 126 104
1.54074 -3.16413 0.85400 146 125 102
1.52931 -3.17081 0.86090 145 123 101
1.51790 -3.17749 0.86778 145 123 97
1.50650 -3.18415 0.87466 147 124 96
1.55530 -3.17183 0.83280 145 125 105
1.54381 -3.17854 0.83974 145 124 105
1.53233 -3.18524 0.84667 145 123 103
1.52088 -3.19192 0.85359 145 123 98
1.50944 -3.19859 0.86050 147 125 99
1.55843 -3.18633 0.81840 143 125 103
1.54690 -3.19305 0.82538 144 124 103
1.53538 -3.19976 0.83235 144 123 101
1.52389 -3.20645 0.83930 145 123 100
1.51241 -3.21314 0.84625 147 125 102
1.55001 -3.20766 0.81092 145 124 100
1.53845 -3.21438 0.81792 144 124 96
1.52691 -3.22109 0.82491 144 123 95
1.51539 -3.22779 0.83189 148 125 99
1.55315 -3.22238 0.79635 143 125 100
1.54155 -3.22911 0.80339 143 124 94
1.52996 -3.23583 0.81042 144 124 91
1.51840 -3.24254 0.81744 149 126 95
1.55631 -3.23720 0.78168 142 124 99
1.54466 -3.24394 0.78876 142 124 95
1.53303 -3.25068 0.79582 145 124 96
1.52143 -3.25740 0.80288 149 126 98
1.55949 -3.25213 0.76691 141 124 97
1.54780 -3.25889 0.77402 142 124 95
1.53613 -3.26563 0.78112 145 125 97
1.52447 -3.27237 0.78821 149 127 98
1.56269 -3.26716 0.75203 142 123 96
1.55096 -3.27393 0.75918 142 123 95
1.53924 -3.28069 0.76632 145 125 94
1.52754 -3.28744 0.77344 149 128 96
1.55414 -3.28909 0.74423 142 123 96
1.54238 -3.29586 0.75140 144 125 99
1.54554 -3.31114 0.73638 144 123 99
1.54872 -3.32653 0.72125 143 123 99
1.55193 -3.34203 0.70601 143 122 100
1.55516 -3.35765 0.69066 145 122 101
1.55841 -3.37337 0.67519 144 122 102
2.46614 -3.33390 0.20501 148 155 143
0.58909 -5.00906 1.47622 104 103 98
0.57779 -5.01932 1.48403 102 98 103
0.56648 -5.02957 1.49184 100 97 95
2.48236 -3.26366 0.14167 158 156 141
2.47079 -3.27416 0.14967 153 150 146
0.58728 -4.98342 1.45185 97 102 96
0.57602 -4.99364 1.45963 95 94 95
0.56476 -5.00386 1.46742 101 101 102
0.55350 -5.01407 1.47520 109 106 100
0.54224 -5.02429 1.48299 113 109 96
0.53098 -5.03450 1.49077 108 105 86
0.51973 -5.04472 1.49855 102 100 92
0.50848 -5.05493 1.50633 99 99 96
0.49723 -5.06514 1.51411 97 99 97
0.48598 -5.07535 1.52188 100 100 102
0.47473 -5.08555 1.52966 105 100 104
2.47309 -3.24463 0.12231 150 147 142
0.59487 -4.92258 1.39595 104 113 111
0.35781 -5.05856 1.48552 93 87 87
0.64079 -4.74955 1.24086 112 108 103
0.62982 -4.75952 1.24846 108 108 105
0.61885 -4.76949 1.25606 105 106 98
0.63884 -4.72565 1.21811 109 109 95
0.76772 -4.58299 1.10487 97 99 85
0.75681 -4.59291 1.11244 95 99 89
0.74590 -4.60283 1.11999 101 99 88
0.73499 -4.61275 1.12755 103 102 89
0.72408 -4.62266 1.13511 104 102 97
0.71318 -4.63258 1.14267 104 103 97
0.70228 -4.64249 1.15022 103 106 95
0.69138 -4.65240 1.15778 106 104 92
0.68048 -4.66231 1.16533 107 100 90
0.66958 -4.67222 1.17288 106 101 97
0.65868 -4.68212 1.18043 107 105 98
0.64779 -4.69203 1.18798 108 105 93
0.33259 -4.97860 1.40639 97 96 88
0.76530 -4.55988 1.08278 94 94 83
0.75443 -4.56976 1.09031 91 93 83
0.74356 -4.57964 1.09785 90 93 90
0.73270 -4.58952 1.10538 94 98 88
0.72183 -4.59940 1.11291 96 101 86
0.71097 -4.60928 1.12044 101 101 91
0.70011 -4.61916 1.12797 106 104 94
0.68925 -4.62904 1.13550 104 106 98
0.67839 -4.63891 1.14302 106 105 93
0.66753 -4.64878 1.15055 107 100 85
0.65668 -4.65865 1.15807 104 101 91
0.64582 -4.66852 1.16559 106 105 97
0.32101 -4.96389 1.39073 97 95 85
0.76290 -4.53693 1.06085 96 91 83
0.75207 -4.54678 1.06836 99 99 87
0.74124 -4.55663 1.07587 100 100 86
0.73042 -4.56648 1.08337 100 97 83
0.71959 -4.57632 1.09088 98 93 77
0.70877 -4.58616 1.09838 93 89 82
0.69795 -4.59601 1.10588 99 96 91
0.68713 -4.60585 1.11338 108 106 96
0.67631 -4.61568 1.12088 108 108 97
0.66550 -4.62552 1.12838 106 107 91
0.76052 -4.51416 1.03909 104 102 85
0.74973 -4.52397 1.04657 102 99 85
0.73894 -4.53379 1.05405 102 101 88
0.72816 -4.54360 1.06153 103 104 87
0.71737 -4.55341 1.06901 107 104 86
0.70659 -4.56322 1.07648 106 103 80
0.69581 -4.57302 1.08396 102 97 83
0.75816 -4.49155 1.01748 107 109 87
0.74741 -4.50133 1.02494 110 109 90
0.73666 -4.51111 1.03239 105 102 82
0.72591 -4.52089 1.03985 101 100 84
0.71517 -4.53066 1.04730 100 103 88
0.70443 -4.54044 1.05475 99 97 84
0.69369 -4.55021 1.06220 100 96 83
0.68295 -4.55998 1.06965 104 100 87
0.67221 -4.56975 1.07709 105 99 88
0.58638 -4.64785 1.13663 103 105 95
0.57566 -4.65761 1.14407 109 108 96
0.70228 -4.51783 1.03318 100 102 90
0.69158 -4.52757 1.04060 99 99 87
0.64880 -4.56650 1.07028 103 100 79
1.99349 -2.86133 -0.31466 120 119 119
2.01729 -2.81838 -0.35116 102 102 102
2.00720 -2.82759 -0.34413 106 106 104
1.99712 -2.83680 -0.33710 105 107 108
1.97695 -2.85522 -0.32305 123 123 112
1.96687 -2.86443 -0.31602 125 126 107
2.01077 -2.80326 -0.36640 101 102 104
2.00072 -2.81244 -0.35940 105 101 106
1.99067 -2.82163 -0.35239 108 107 105
1.98063 -2.83081 -0.34538 106 111 108
1.96054 -2.84916 -0.33138 108 112 109
1.95049 -2.85834 -0.32437 123 125 118
1.99429 -2.79740 -0.37455 103 101 110
1.98428 -2.80655 -0.36757 106 105 111
1.97426 -2.81570 -0.36059 111 108 109
1.95424 -2.83400 -0.34663 123 123 118
1.94424 -2.84315 -0.33965 124 124 118
1.93423 -2.85229 -0.33267 124 121 117
1.97792 -2.79158 -0.38265 103 98 101
1.96794 -2.80070 -0.37569 107 106 110
1.95797 -2.80982 -0.36873 113 115 108
1.94799 -2.81894 -0.36177 121 126 108
1.93802 -2.82805 -0.35482 123 124 107
1.92805 -2.83717 -0.34786 120 115 106
1.91808 -2.84628 -0.34091 119 114 103
1.96167 -2.78580 -0.39069 107 112 106
1.95172 -2.79489 -0.38375 108 110 105
1.94178 -2.80398 -0.37682 109 108 103
1.93184 -2.81307 -0.36988 114 119 108
1.92191 -2.82215 -0.36295 116 121 104
1.91197 -2.83123 -0.35602 112 116 102
1.90204 -2.84032 -0.34909 112 116 104
1.95543 -2.77101 -0.40558 109 111 103
1.94552 -2.78006 -0.39867 109 108 106
1.93562 -2.78912 -0.39176 110 110 103
1.92571 -2.79818 -0.38485 111 115 102
1.91581 -2.80723 -0.37794 117 120 110
1.90591 -2.81629 -0.37103 120 126 113
1.89601 -2.82534 -0.36412 116 114 107
1.88611 -2.83439 -0.35721 115 108 100
1.94924 -2.75631 -0.42038 109 108 99
1.93937 -2.76534 -0.41349 108 106 102
1.92949 -2.77436 -0.40660 110 110 108
1.91962 -2.78339 -0.39971 118 119 110
1.90975 -2.79242 -0.39282 125 124 109
1.89988 -2.80144 -0.38593 127 122 113
1.89002 -2.81046 -0.37905 125 122 117
1.93325 -2.75071 -0.42821 120 117 102
1.92341 -2.75971 -0.42134 121 117 108
1.91357 -2.76870 -0.41447 120 119 113
1.90374 -2.77770 -0.40760 116 117 113
1.89390 -2.78670 -0.40074 114 113 109
1.88407 -2.79569 -0.39388 117 116 114
1.87424 -2.80468 -0.38701 125 126 122
1.89776 -2.76308 -0.42229 127 129 120
1.88796 -2.77205 -0.41545 130 127 116
1.87816 -2.78101 -0.40860 126 120 106
1.86836 -2.78998 -0.40176 123 120 111
1.85856 -2.79894 -0.39492 123 121 121
1.87229 -2.76644 -0.42323 139 143 126
1.86252 -2.77537 -0.41642 141 138 125
1.85276 -2.78430 -0.40960 134 132 127
1.84300 -2.79324 -0.40278 131 123 125
1.83324 -2.80217 -0.39596 133 127 128
1.82348 -2.81110 -0.38915 135 140 127
1.72554 -2.68990 -0.51868 119 121 116
1.71614 -2.69851 -0.51210 113 118 113
1.70674 -2.70713 -0.50553 118 121 109
1.69733 -2.71574 -0.49895 135 128 106
1.72039 -2.67618 -0.53239 116 118 115
1.71102 -2.68477 -0.52583 124 122 122
1.70165 -2.69336 -0.51927 127 124 123
1.69228 -2.70195 -0.51271 132 130 116
1.68291 -2.71054 -0.50616 142 141 118
1.77136 -2.61115 -0.58526 113 116 103
1.76201 -2.61972 -0.57871 118 116 109
1.75266 -2.62829 -0.57217 121 119 113
1.74331 -2.63686 -0.56563 121 122 113
1.73396 -2.64543 -0.55909 120 116 112
1.72462 -2.65399 -0.55255 120 116 111
1.71528 -2.66256 -0.54600 120 123 113
1.70593 -2.67112 -0.53947 121 123 116
1.69659 -2.67968 -0.53293 124 122 117
1.68725 -2.68824 -0.52639 120 116 116
1.67791 -2.69681 -0.51985 120 121 115
1.66858 -2.70536 -0.51332 130 135 125
1.65924 -2.71392 -0.50678 125 124 125
1.77541 -2.58923 -0.60519 138 144 137
1.76609 -2.59777 -0.59867 132 135 124
1.75677 -2.60631 -0.59214 123 122 108
1.74745 -2.61486 -0.58562 122 123 112
1.73814 -2.62340 -0.57910 123 127 119
1.72882 -2.63194 -0.57258 123 123 119
1.71951 -2.64048 -0.56605 124 121 120
1.71019 -2.64902 -0.55953 125 125 117
1.70088 -2.65756 -0.55301 123 124 114
1.69157 -2.66609 -0.54650 120 122 110
1.68226 -2.67463 -0.53998 121 120 107
1.67295 -2.68316 -0.53346 117 114 107
1.66364 -2.69169 -0.52695 114 113 110
1.65434 -2.70023 -0.52043 122 126 123
1.64503 -2.70876 -0.51392 121 125 120
1.63573 -2.71729 -0.50740 126 129 120
1.75157 -2.59299 -0.60549 133 132 136
1.68658 -2.65259 -0.55998 126 126 118
1.67730 -2.66109 -0.55348 125 124 112
1.66802 -2.66960 -0.54698 124 123 115
1.65874 -2.67811 -0.54049 126 126 122
1.64947 -2.68661 -0.53399 131 133 123
1.64019 -2.69512 -0.52750 132 134 119
1.63092 -2.70362 -0.52100 131 131 120
1.62164 -2.71212 -0.51451 131 132 123
1.61237 -2.72063 -0.50802 136 135 131
1.67237 -2.64765 -0.56690 126 123 111
1.66312 -2.65613 -0.56042 126 122 108
1.65387 -2.66461 -0.55394 126 123 118
1.64463 -2.67309 -0.54747 128 127 127
1.63538 -2.68157 -0.54099 131 136 129
1.62614 -2.69005 -0.53452 133 137 129
1.61689 -2.69852 -0.52805 141 139 131
1.60765 -2.70700 -0.52157 136 134 125
1.59841 -2.71547 -0.51510 136 135 130
1.58917 -2.72394 -0.50863 140 140 130
1.57993 -2.73241 -0.50216 140 140 131
1.65825 -2.64274 -0.57377 118 118 112
1.64903 -2.65120 -0.56732 120 117 109
1.63982 -2.65965 -0.56086 125 125 118
1.63060 -2.66810 -0.55440 128 127 125
1.62139 -2.67656 -0.54795 132 132 129
1.61217 -2.68501 -0.54150 133 135 130
1.60296 -2.69345 -0.53504 136 138 128
1.59375 -2.70190 -0.52859 133 134 123
1.58454 -2.71035 -0.52214 126 129 125
1.57533 -2.71880 -0.51569 122 124 118
1.56612 -2.72724 -0.50924 129 130 119
1.63504 -2.64630 -0.57417 131 131 115
1.62585 -2.65472 -0.56773 127 126 118
1.61667 -2.66315 -0.56130 126 125 119
1.60748 -2.67157 -0.55486 134 131 125
1.59830 -2.68000 -0.54843 132 132 122
1.58912 -2.68842 -0.54200 130 129 115
1.57994 -2.69684 -0.53556 132 127 112
1.57076 -2.70526 -0.52913 126 125 122
1.56158 -2.71368 -0.52270 121 121 115
1.55240 -2.72210 -0.51628 123 123 113
1.61197 -2.64983 -0.57456 124 131 122
1.60282 -2.65823 -0.56814 120 125 126
1.59367 -2.66663 -0.56173 131 132 128
1.58451 -2.67502 -0.55532 133 134 124
1.57536 -2.68342 -0.54890 135 134 123
1.56621 -2.69181 -0.54249 140 135 119
1.55706 -2.70021 -0.53608 134 132 125
1.54792 -2.70860 -0.52967 130 129 119
1.53877 -2.71699 -0.52326 129 126 116
1.52962 -2.72538 -0.51686 132 131 123
1.59819 -2.64496 -0.58134 124 129 120
1.58906 -2.65334 -0.57495 126 133 123
1.57994 -2.66171 -0.56855 133 133 127
1.57082 -2.67008 -0.56216 133 134 133
1.56170 -2.67845 -0.55577 132 137 135
1.55258 -2.68682 -0.54938 130 130 125
1.54346 -2.69518 -0.54299 135 135 129
1.53434 -2.70355 -0.53660 137 138 131
1.52522 -2.71191 -0.53021 135 132 121
1.51611 -2.72028 -0.52382 132 126 118
1.58449 -2.64013 -0.58808 120 123 116
1.57539 -2.64848 -0.58171 124 128 121
1.56630 -2.65682 -0.57533 122 126 126
1.55721 -2.66517 -0.56896 129 131 129
1.54812 -2.67351 -0.56259 127 130 124
1.53903 -2.68185 -0.55622 121 122 116
1.52994 -2.69019 -0.54984 128 131 129
1.52085 -2.69853 -0.54347 136 138 136
1.51176 -2.70687 -0.53711 141 135 126
1.50268 -2.71521 -0.53074 135 130 117
1.57087 -2.63533 -0.59478 115 105 110
1.56181 -2.64365 -0.58842 125 126 117
1.55275 -2.65197 -0.58207 126 125 119
1.54368 -2.66028 -0.57572 130 127 117
1.53462 -2.66860 -0.56936 128 123 116
1.52556 -2.67692 -0.56301 127 122 113
1.51650 -2.68523 -0.55666 128 131 122
1.50744 -2.69354 -0.55031 132 138 131
1.49839 -2.70186 -0.54396 138 138 131
1.48933 -2.71017 -0.53761 134 133 119
1.55735 -2.63056 -0.60143 106 91 92
1.54831 -2.63885 -0.59510 122 125 111
1.53928 -2.64714 -0.58876 131 131 118
1.53025 -2.65543 -0.58243 130 131 123
1.52121 -2.66372 -0.57610 129 126 116
1.51218 -2.67201 -0.56976 132 132 110
1.50315 -2.68030 -0.56343 128 128 114
1.49412 -2.68859 -0.55710 125 129 127
1.48510 -2.69688 -0.55077 129 130 127
1.47607 -2.70516 -0.54445 122 122 115
1.46705 -2.71344 -0.53812 138 135 127
1.54391 -2.62581 -0.60804 98 85 92
1.53490 -2.63408 -0.60173 117 116 113
1.52590 -2.64235 -0.59541 132 131 118
1.51689 -2.65061 -0.58910 129 128 122
1.50789 -2.65888 -0.58279 127 124 116
1.49889 -2.66714 -0.57648 128 130 117
1.48989 -2.67540 -0.57016 127 127 119
1.48089 -2.68367 -0.56385 125 129 126
1.47189 -2.69193 -0.55754 132 133 121
1.46289 -2.70019 -0.55123 128 125 117
1.45390 -2.70844 -0.54493 137 137 127
1.52157 -2.62934 -0.60832 114 108 103
1.51260 -2.63758 -0.60202 121 125 119
1.50362 -2.64582 -0.59573 125 126 119
1.49465 -2.65406 -0.58944 128 125 120
1.48568 -2.66230 -0.58314 134 135 126
1.47671 -2.67054 -0.57685 131 129 120
1.46774 -2.67877 -0.57056 129 129 116
1.45877 -2.68701 -0.56427 141 139 122
1.44980 -2.69524 -0.55798 139 135 122
1.44083 -2.70347 -0.55169 136 136 129
1.43187 -2.71171 -0.54540 133 136 130
1.49938 -2.63285 -0.60859 125 127 121
1.49044 -2.64106 -0.60232 128 130 118
1.48149 -2.64928 -0.59604 132 131 125
1.47255 -2.65749 -0.58977 137 138 130
1.46361 -2.66570 -0.58350 134 135 125
1.45467 -2.67391 -0.57723 136 137 122
1.44573 -2.68212 -0.57095 139 138 120
1.43679 -2.69033 -0.56468 136 134 115
1.42785 -2.69854 -0.55841 133 134 129
1.41891 -2.70674 -0.55215 129 136 131
1.40998 -2.71495 -0.54588 138 138 133
1.47733 -2.63634 -0.60886 129 128 117
1.46842 -2.64452 -0.60261 139 143 129
1.45950 -2.65271 -0.59636 138 141 127
1.45059 -2.66090 -0.59010 136 137 129
1.44168 -2.66908 -0.58385 144 144 131
1.43277 -2.67727 -0.57760 134 136 123
1.42386 -2.68545 -0.57135 124 124 116
1.41495 -2.69363 -0.56509 129 131 124
1.40604 -2.70181 -0.55885 133 135 123
1.39713 -2.70999 -0.55260 143 142 132
1.45543 -2.63980 -0.60913 131 133 130
1.44654 -2.64796 -0.60290 136 134 127
1.43765 -2.65612 -0.59666 134 135 129
1.42877 -2.66428 -0.59043 138 137 130
1.41989 -2.67244 -0.58420 132 135 123
1.41101 -2.68060 -0.57797 125 123 120
1.40213 -2.68875 -0.57173 131 133 125
1.39325 -2.69691 -0.56550 137 145 125
1.38437 -2.70506 -0.55927 142 142 133
1.37549 -2.71322 -0.55304 141 143 130
1.43366 -2.64324 -0.60940 134 132 133
