ply
format ascii 1.0
element face 0
property list uchar int vertex_indices
element vertex 1270
property float x
property float y
property float z
property uchar diffuse_red
property uchar diffuse_green
property uchar diffuse_blue
end_header
0.26421 -4.76274 1.17512 113 113 102
0.25165 -4.77319 1.18277 111 106 95
0.23909 -4.78364 1.19041 106 100 88
0.22654 -4.79410 1.19805 103 97 85
0.21399 -4.80454 1.20568 106 99 83
0.20144 -4.81499 1.21332 106 101 89
2.15114 -3.16530 0.00230 140 139 137
2.13830 -3.17599 0.01011 144 145 144
2.12547 -3.18667 0.01792 141 138 134
2.11264 -3.19735 0.02573 144 139 133
2.09982 -3.20804 0.03353 145 145 136
2.08699 -3.21871 0.04134 134 133 129
2.07417 -3.22939 0.04914 125 121 122
2.06135 -3.24007 0.05695 127 126 127
2.04853 -3.25074 0.06475 135 135 133
2.03571 -3.26141 0.07255 134 135 125
2.02290 -3.27208 0.08035 140 137 132
2.01009 -3.28275 0.08815 153 144 144
1.99728 -3.29342 0.09595 153 146 140
1.98447 -3.30408 0.10374 143 142 134
1.97166 -3.31474 0.11154 134 134 131
1.95886 -3.32541 0.11933 130 130 134
1.94606 -3.33606 0.12712 134 137 137
1.93326 -3.34672 0.13491 136 137 131
1.92047 -3.35738 0.14270 142 140 130
1.90767 -3.36803 0.15049 146 145 136
1.89488 -3.37868 0.15827 150 150 143
1.88209 -3.38933 0.16606 145 145 141
1.86930 -3.39998 0.17384 141 144 134
0.72736 -4.35085 0.86890 108 108 107
0.71477 -4.36134 0.87657 106 111 104
0.70218 -4.37182 0.88423 111 114 102
0.68959 -4.38230 0.89189 114 114 98
0.67701 -4.39278 0.89955 113 107 95
0.66443 -4.40325 0.90720 113 108 99
0.65185 -4.41373 0.91486 115 113 97
0.63927 -4.42420 0.92252 113 114 94
0.62670 -4.43467 0.93017 105 101 95
0.61412 -4.44514 0.93782 114 117 99
0.60155 -4.45561 0.94547 115 114 96
0.58899 -4.46607 0.95312 115 115 100
0.57642 -4.47653 0.96077 114 115 102
0.56386 -4.48700 0.96842 114 111 103
0.55129 -4.49746 0.97607 110 112 104
0.53873 -4.50791 0.98371 113 113 106
0.52618 -4.51837 0.99135 112 111 98
0.51362 -4.52883 0.99900 113 114 101
0.50107 -4.53928 1.00664 112 114 104
0.48852 -4.54973 1.01428 115 116 104
0.47597 -4.56018 1.02191 115 118 108
0.46342 -4.57063 1.02955 109 109 102
0.45088 -4.58107 1.03719 112 111 100
0.43833 -4.59152 1.04482 114 114 98
0.42579 -4.60196 1.05245 110 109 95
0.41325 -4.61240 1.06009 110 104 89
0.40072 -4.62284 1.06772 109 106 95
0.38818 -4.63327 1.07535 101 100 100
0.37565 -4.64371 1.08297 103 102 94
0.36312 -4.65414 1.09060 107 103 94
0.35059 -4.66457 1.09822 108 107 94
0.33807 -4.67500 1.10585 104 106 93
0.32555 -4.68543 1.11347 103 101 85
0.31302 -4.69586 1.12109 104 101 88
0.30050 -4.70628 1.12871 104 103 90
0.28799 -4.71670 1.13633 106 106 91
0.27547 -4.72713 1.14395 109 106 91
0.26296 -4.73755 1.15156 113 109 97
0.25045 -4.74796 1.15918 119 116 103
0.23794 -4.75838 1.16679 117 108 99
0.22543 -4.76879 1.17440 109 102 92
0.21293 -4.77920 1.18202 105 103 86
0.20043 -4.78961 1.18963 107 102 80
2.12988 -3.15664 -0.00921 138 132 133
2.11709 -3.16729 -0.00142 142 140 137
2.10431 -3.17793 0.00636 143 137 131
2.09154 -3.18857 0.01414 143 134 131
2.07876 -3.19921 0.02191 140 138 130
2.06599 -3.20985 0.02969 135 130 126
2.05322 -3.22049 0.03747 132 125 122
2.04045 -3.23112 0.04524 134 131 127
2.02768 -3.24175 0.05301 137 135 129
2.01492 -3.25239 0.06078 138 137 125
2.00216 -3.26301 0.06855 143 143 138
1.98940 -3.27364 0.07632 154 150 151
1.97664 -3.28427 0.08409 154 150 147
1.96388 -3.29489 0.09186 146 148 144
1.95113 -3.30551 0.09962 139 142 143
1.93838 -3.31613 0.10738 137 138 139
1.92563 -3.32675 0.11515 137 141 135
1.91288 -3.33737 0.12291 134 139 131
1.90014 -3.34798 0.13067 142 143 136
1.88739 -3.35859 0.13842 144 143 137
1.87465 -3.36920 0.14618 146 146 140
1.86192 -3.37981 0.15394 142 141 138
0.78709 -4.27498 0.80832 119 118 103
0.77454 -4.28544 0.81596 119 117 106
0.76199 -4.29589 0.82360 119 116 108
0.74944 -4.30634 0.83124 118 114 104
0.73690 -4.31679 0.83888 118 112 99
0.72435 -4.32724 0.84652 119 116 99
0.71181 -4.33768 0.85415 118 117 108
0.69927 -4.34813 0.86179 116 117 104
0.68673 -4.35857 0.86942 118 118 104
0.67420 -4.36901 0.87705 120 119 101
0.66167 -4.37945 0.88468 120 114 102
0.64913 -4.38989 0.89231 120 116 104
0.63660 -4.40032 0.89994 121 123 103
0.62408 -4.41075 0.90757 122 123 101
0.61155 -4.42118 0.91519 115 110 103
0.59903 -4.43161 0.92282 123 125 103
0.58651 -4.44204 0.93044 121 121 105
0.57399 -4.45247 0.93806 117 118 103
0.56148 -4.46289 0.94568 122 121 109
0.54896 -4.47331 0.95330 119 117 105
0.53645 -4.48374 0.96092 113 113 104
0.52394 -4.49415 0.96854 115 117 100
0.51143 -4.50457 0.97615 113 116 95
0.49893 -4.51499 0.98377 113 119 102
0.48642 -4.52540 0.99138 116 122 109
0.47392 -4.53581 0.99899 112 111 103
0.46142 -4.54622 1.00660 110 110 99
0.44892 -4.55663 1.01421 105 106 96
0.43643 -4.56704 1.02181 110 108 102
0.42394 -4.57744 1.02942 113 112 105
0.41145 -4.58785 1.03703 114 111 98
0.39896 -4.59825 1.04463 114 111 91
0.38647 -4.60865 1.05223 111 111 97
0.37399 -4.61904 1.05983 106 105 100
0.36150 -4.62944 1.06743 112 104 95
0.34902 -4.63983 1.07503 112 105 92
0.33655 -4.65023 1.08263 110 106 88
0.32407 -4.66062 1.09022 107 106 84
0.31160 -4.67101 1.09782 107 105 85
0.29912 -4.68139 1.10541 106 104 89
0.28665 -4.69178 1.11300 107 102 89
0.27419 -4.70216 1.12059 108 103 91
0.26172 -4.71254 1.12818 109 106 93
2.13425 -3.12684 -0.03613 136 132 117
2.12151 -3.13744 -0.02837 145 138 127
2.10878 -3.14805 -0.02062 135 132 126
2.09605 -3.15866 -0.01286 134 129 120
2.08332 -3.16926 -0.00511 136 131 125
2.07059 -3.17986 0.00264 139 135 136
2.05787 -3.19046 0.01039 135 134 132
2.04515 -3.20106 0.01813 133 129 124
2.03243 -3.21165 0.02588 138 134 127
2.01971 -3.22225 0.03362 142 142 133
2.00700 -3.23284 0.04137 143 140 130
1.99428 -3.24343 0.04911 141 136 126
1.98157 -3.25402 0.05685 138 137 129
1.96887 -3.26460 0.06459 142 144 139
1.95616 -3.27519 0.07233 145 150 146
1.94345 -3.28577 0.08006 142 146 146
1.93075 -3.29635 0.08780 139 138 142
1.91805 -3.30693 0.09553 140 139 138
1.90535 -3.31751 0.10327 142 142 135
1.89266 -3.32808 0.11100 141 143 137
1.87997 -3.33866 0.11873 143 146 143
1.86727 -3.34923 0.12646 141 141 137
1.85459 -3.35980 0.13418 143 145 139
1.84190 -3.37037 0.14191 140 143 138
0.80889 -4.23090 0.77100 137 133 114
0.79638 -4.24132 0.77862 130 122 106
0.75887 -4.27257 0.80147 122 124 113
0.74637 -4.28298 0.80908 125 124 114
0.73387 -4.29339 0.81669 125 121 111
0.72137 -4.30380 0.82430 126 119 106
0.70888 -4.31421 0.83191 129 122 105
0.69639 -4.32462 0.83952 125 124 109
0.68390 -4.33502 0.84713 124 120 108
0.67141 -4.34542 0.85473 125 126 107
0.65892 -4.35583 0.86233 126 124 105
0.64644 -4.36622 0.86994 125 122 106
0.63396 -4.37662 0.87754 124 122 104
0.62148 -4.38702 0.88514 122 126 101
0.60900 -4.39741 0.89274 128 128 109
0.59653 -4.40780 0.90033 123 122 108
0.58405 -4.41819 0.90793 124 125 107
0.57158 -4.42858 0.91552 119 118 108
0.55911 -4.43897 0.92312 111 112 103
0.54665 -4.44936 0.93071 118 120 110
0.53418 -4.45974 0.93830 118 115 105
0.52172 -4.47012 0.94589 111 111 98
0.50926 -4.48050 0.95348 104 104 97
0.49680 -4.49088 0.96107 104 102 90
0.48434 -4.50126 0.96865 106 106 98
0.47189 -4.51163 0.97624 117 123 113
0.45944 -4.52200 0.98382 109 111 109
0.44699 -4.53237 0.99140 106 104 95
0.43454 -4.54274 0.99898 101 98 85
0.42209 -4.55311 1.00656 107 106 100
0.40965 -4.56348 1.01414 112 112 107
0.39721 -4.57384 1.02172 118 114 101
0.38477 -4.58420 1.02929 115 115 100
0.37233 -4.59456 1.03687 113 115 108
0.35990 -4.60492 1.04444 112 108 99
0.34746 -4.61528 1.05201 110 104 93
2.12590 -3.10782 -0.05512 134 133 119
2.11321 -3.11839 -0.04739 138 136 120
2.10053 -3.12896 -0.03966 141 143 126
2.08785 -3.13953 -0.03194 136 137 129
2.07517 -3.15009 -0.02422 137 134 127
2.06249 -3.16065 -0.01649 137 135 129
2.04981 -3.17121 -0.00877 142 141 136
2.03714 -3.18177 -0.00105 135 136 133
2.02447 -3.19233 0.00666 130 130 124
2.01180 -3.20288 0.01438 133 128 123
1.99914 -3.21344 0.02210 138 135 132
1.98647 -3.22399 0.02981 147 141 132
1.97381 -3.23454 0.03752 145 140 130
1.96115 -3.24509 0.04524 131 132 126
1.94849 -3.25563 0.05295 132 133 126
1.93584 -3.26618 0.06066 137 141 136
1.92319 -3.27672 0.06836 137 139 136
1.91053 -3.28726 0.07607 140 134 133
1.89789 -3.29780 0.08377 141 138 135
1.88524 -3.30834 0.09148 145 145 137
1.87259 -3.31888 0.09918 147 147 143
1.85995 -3.32941 0.10688 146 145 144
1.84731 -3.33994 0.11458 145 140 136
1.83467 -3.35047 0.12228 145 146 141
1.82204 -3.36100 0.12998 140 144 141
0.79314 -4.21828 0.75673 133 133 120
0.78068 -4.22866 0.76432 129 127 109
0.76822 -4.23904 0.77191 124 121 106
0.75577 -4.24942 0.77950 122 122 109
0.74332 -4.25980 0.78709 126 128 117
0.73086 -4.27017 0.79467 131 130 119
0.71842 -4.28054 0.80225 131 128 119
0.70597 -4.29091 0.80984 130 128 118
0.69352 -4.30128 0.81742 131 129 116
0.68108 -4.31165 0.82500 133 132 119
0.66864 -4.32202 0.83257 129 128 115
0.65620 -4.33238 0.84015 129 133 113
0.64376 -4.34274 0.84773 131 130 108
0.63133 -4.35310 0.85530 126 125 108
0.61890 -4.36346 0.86288 125 123 107
0.60647 -4.37382 0.87045 124 123 102
0.59404 -4.38417 0.87802 127 124 110
0.58161 -4.39453 0.88559 123 125 112
0.56919 -4.40488 0.89316 119 122 109
0.55677 -4.41523 0.90072 118 121 104
0.54435 -4.42558 0.90829 113 113 100
0.53193 -4.43592 0.91585 113 114 98
0.51951 -4.44627 0.92341 113 109 100
0.50710 -4.45661 0.93098 110 105 90
0.49469 -4.46695 0.93854 106 103 97
0.48228 -4.47729 0.94610 103 97 91
0.46987 -4.48763 0.95365 99 99 98
0.45747 -4.49796 0.96121 111 120 110
0.44506 -4.50830 0.96877 113 119 112
0.35830 -4.58059 1.02162 110 109 102
0.34592 -4.59091 1.02916 115 112 93
2.11761 -3.08895 -0.07397 136 134 124
2.10497 -3.09948 -0.06627 129 129 116
2.09234 -3.11001 -0.05857 129 129 119
2.07970 -3.12054 -0.05087 130 134 125
2.06707 -3.13107 -0.04318 133 139 133
2.05445 -3.14159 -0.03548 139 140 134
2.04182 -3.15211 -0.02779 137 135 127
2.02920 -3.16263 -0.02010 136 136 129
2.01657 -3.17315 -0.01240 131 135 129
2.00395 -3.18367 -0.00472 129 130 122
1.99134 -3.19419 0.00297 131 124 117
1.97872 -3.20470 0.01066 132 126 127
1.96611 -3.21521 0.01834 142 136 132
1.95350 -3.22572 0.02603 146 145 133
1.94089 -3.23623 0.03371 138 142 133
1.92828 -3.24674 0.04139 136 137 131
1.91568 -3.25724 0.04907 138 138 133
1.90307 -3.26774 0.05675 137 138 132
1.89047 -3.27824 0.06443 142 138 130
1.87787 -3.28874 0.07211 141 135 129
1.86528 -3.29924 0.07978 140 137 132
1.85268 -3.30974 0.08746 141 138 138
1.84009 -3.32023 0.09513 146 143 142
1.82750 -3.33072 0.10280 153 148 139
1.80233 -3.35170 0.11814 145 148 139
0.77751 -4.20576 0.74257 132 132 120
0.76510 -4.21610 0.75014 131 131 116
0.75269 -4.22644 0.75770 130 128 113
0.74029 -4.23678 0.76526 130 127 115
0.72788 -4.24712 0.77281 130 131 116
0.71548 -4.25746 0.78037 133 131 117
0.70308 -4.26779 0.78793 133 131 121
0.69068 -4.27812 0.79548 133 131 124
0.67829 -4.28845 0.80303 134 133 121
0.66589 -4.29878 0.81059 135 134 126
0.65350 -4.30911 0.81814 129 128 123
0.64111 -4.31944 0.82569 128 131 119
0.62872 -4.32976 0.83323 128 130 112
0.61634 -4.34008 0.84078 123 124 114
0.60395 -4.35040 0.84833 126 125 115
0.59157 -4.36072 0.85587 130 129 113
0.57919 -4.37104 0.86341 127 122 109
0.56682 -4.38135 0.87095 130 129 118
0.55444 -4.39166 0.87849 122 121 110
0.54207 -4.40198 0.88603 114 118 100
0.52970 -4.41228 0.89357 115 118 101
0.51733 -4.42259 0.90111 112 112 97
0.50496 -4.43290 0.90864 112 109 102
0.49260 -4.44320 0.91618 114 109 96
0.48023 -4.45351 0.92371 119 115 105
0.46787 -4.46381 0.93124 111 104 97
0.45551 -4.47411 0.93877 105 104 102
2.09680 -3.08072 -0.08500 131 127 118
2.08421 -3.09121 -0.07733 128 125 112
2.07163 -3.10170 -0.06966 124 123 119
2.05904 -3.11219 -0.06199 125 127 126
2.04646 -3.12267 -0.05432 130 132 127
2.03389 -3.13316 -0.04666 137 137 129
2.02131 -3.14364 -0.03899 137 135 126
2.00874 -3.15412 -0.03133 132 131 123
1.99616 -3.16460 -0.02367 130 130 120
1.98359 -3.17508 -0.01601 129 127 117
1.97103 -3.18555 -0.00835 130 124 117
1.95846 -3.19603 -0.00069 128 125 125
1.94590 -3.20650 0.00697 132 132 129
1.93334 -3.21697 0.01462 139 139 128
1.92078 -3.22744 0.02228 141 138 127
1.90822 -3.23791 0.02993 143 140 130
1.89567 -3.24837 0.03758 144 141 135
1.88311 -3.25883 0.04523 144 141 134
1.87056 -3.26929 0.05288 145 143 130
1.85802 -3.27975 0.06053 143 137 126
1.84547 -3.29021 0.06818 139 132 127
1.83293 -3.30067 0.07582 139 134 135
1.82038 -3.31112 0.08346 147 143 141
0.77436 -4.18303 0.72099 133 129 116
0.76200 -4.19334 0.72852 129 129 117
0.74964 -4.20364 0.73606 130 131 119
0.73728 -4.21394 0.74359 132 129 117
0.72492 -4.22425 0.75112 131 129 118
0.71257 -4.23454 0.75865 127 127 112
0.70021 -4.24484 0.76618 123 122 110
0.68786 -4.25514 0.77371 126 125 114
0.67551 -4.26543 0.78123 133 129 124
0.66316 -4.27572 0.78876 133 129 118
0.65082 -4.28601 0.79628 131 129 122
0.63848 -4.29630 0.80381 130 127 124
0.62613 -4.30659 0.81133 127 127 116
0.61379 -4.31687 0.81885 125 125 113
0.60146 -4.32716 0.82637 123 123 116
0.58912 -4.33744 0.83389 126 130 119
0.57679 -4.34772 0.84140 128 131 119
0.56446 -4.35800 0.84892 127 123 112
0.55213 -4.36828 0.85643 133 129 122
0.53980 -4.37855 0.86394 122 120 107
0.52748 -4.38882 0.87146 105 102 95
0.51516 -4.39909 0.87897 116 120 102
0.50284 -4.40936 0.88648 114 117 106
0.49052 -4.41963 0.89398 115 112 107
0.47820 -4.42990 0.90149 119 116 105
0.46589 -4.44016 0.90900 121 116 106
0.45357 -4.45043 0.91650 115 107 93
2.07614 -3.07255 -0.09595 130 126 116
2.06361 -3.08300 -0.08831 131 126 111
2.05107 -3.09345 -0.08067 122 123 113
2.03854 -3.10390 -0.07303 125 125 123
2.02601 -3.11435 -0.06539 127 122 123
2.01348 -3.12479 -0.05775 131 128 125
2.00096 -3.13523 -0.05011 136 133 125
1.98843 -3.14567 -0.04248 137 134 120
1.97591 -3.15611 -0.03485 135 133 121
1.96339 -3.16655 -0.02721 125 123 116
1.95087 -3.17699 -0.01958 124 123 118
1.93836 -3.18742 -0.01195 128 130 126
1.92584 -3.19785 -0.00432 134 136 127
1.91333 -3.20829 0.00330 138 138 126
1.90082 -3.21871 0.01093 137 132 123
1.88832 -3.22914 0.01855 142 132 123
1.87581 -3.23957 0.02618 148 139 134
1.86331 -3.24999 0.03380 148 144 140
1.85081 -3.26041 0.04142 148 145 132
1.83831 -3.27083 0.04904 150 145 125
1.82581 -3.28125 0.05666 147 141 124
1.81332 -3.29167 0.06427 145 141 130
0.75892 -4.17074 0.70707 133 132 111
0.74661 -4.18101 0.71458 130 129 111
0.73429 -4.19127 0.72208 130 127 112
0.72198 -4.20154 0.72959 129 125 111
0.70967 -4.21180 0.73709 127 125 111
0.69737 -4.22206 0.74460 121 120 114
0.68506 -4.23232 0.75210 117 116 112
0.67276 -4.24258 0.75960 121 123 113
0.66046 -4.25283 0.76710 132 128 124
0.64816 -4.26309 0.77459 131 124 114
0.63586 -4.27334 0.78209 129 125 111
0.62356 -4.28359 0.78959 135 133 116
0.61127 -4.29384 0.79708 126 124 107
0.59898 -4.30409 0.80457 125 122 111
0.58669 -4.31433 0.81207 127 124 113
0.57441 -4.32458 0.81956 126 128 117
0.56212 -4.33482 0.82705 118 120 114
0.54984 -4.34506 0.83453 123 124 117
0.53756 -4.35530 0.84202 132 129 124
0.52528 -4.36554 0.84951 122 123 103
0.51300 -4.37577 0.85699 105 105 97
0.50073 -4.38600 0.86447 118 117 103
0.48845 -4.39624 0.87195 115 117 107
0.47618 -4.40647 0.87944 119 117 107
0.46391 -4.41670 0.88691 122 122 105
0.45165 -4.42692 0.89439 120 116 104
0.43938 -4.43715 0.90187 114 111 91
2.06814 -3.05403 -0.11443 126 124 114
2.01819 -3.09567 -0.08398 131 129 122
2.00571 -3.10608 -0.07637 126 123 127
1.99323 -3.11649 -0.06876 123 125 126
1.98076 -3.12689 -0.06115 136 132 122
1.96828 -3.13729 -0.05354 142 136 124
1.95581 -3.14769 -0.04594 139 138 128
1.94334 -3.15809 -0.03833 128 128 123
1.93087 -3.16849 -0.03073 123 125 123
1.91841 -3.17888 -0.02313 131 133 126
1.90594 -3.18928 -0.01553 140 139 126
1.89348 -3.19967 -0.00793 141 140 126
1.88102 -3.21006 -0.00033 139 136 125
1.86857 -3.22045 0.00726 141 134 124
1.85611 -3.23083 0.01486 144 137 132
1.84366 -3.24122 0.02245 143 138 139
1.83121 -3.25160 0.03005 142 137 130
1.81876 -3.26198 0.03764 150 146 124
1.80631 -3.27236 0.04523 152 148 127
1.79386 -3.28274 0.05282 145 141 131
0.67002 -4.21990 0.73812 128 128 122
0.65777 -4.23012 0.74559 126 127 114
0.64552 -4.24033 0.75307 131 125 116
0.63326 -4.25055 0.76054 131 125 110
0.62101 -4.26077 0.76801 128 124 102
0.60877 -4.27098 0.77547 131 128 107
0.59652 -4.28119 0.78294 123 118 108
0.58428 -4.29140 0.79041 124 123 114
0.57204 -4.30161 0.79787 132 125 117
0.55980 -4.31181 0.80534 128 125 118
0.54756 -4.32202 0.81280 118 116 108
0.53533 -4.33222 0.82026 121 124 114
0.52309 -4.34242 0.82772 128 126 117
0.51086 -4.35262 0.83518 122 119 100
0.49863 -4.36282 0.84263 109 115 104
0.48641 -4.37301 0.85009 118 114 103
0.47418 -4.38321 0.85754 117 114 105
0.46196 -4.39340 0.86500 125 123 108
0.44974 -4.40359 0.87245 122 122 104
0.43752 -4.41378 0.87990 121 121 110
0.42530 -4.42397 0.88735 117 118 96
2.03531 -3.05639 -0.11760 139 134 123
2.02287 -3.06677 -0.11001 138 130 123
2.01044 -3.07714 -0.10243 135 129 121
1.99800 -3.08751 -0.09484 137 135 126
1.98557 -3.09788 -0.08726 129 128 132
1.97314 -3.10824 -0.07968 125 130 131
1.96071 -3.11861 -0.07210 137 136 129
1.94829 -3.12897 -0.06452 141 135 127
1.93587 -3.13933 -0.05695 139 136 124
1.92344 -3.14969 -0.04937 140 135 125
1.91103 -3.16005 -0.04179 139 135 127
1.89861 -3.17041 -0.03422 138 136 125
1.88619 -3.18076 -0.02665 139 137 126
1.87378 -3.19112 -0.01908 141 138 126
1.86137 -3.20147 -0.01151 141 136 122
1.84896 -3.21182 -0.00394 140 136 121
1.83656 -3.22216 0.00363 139 134 124
1.82415 -3.23251 0.01119 140 132 124
1.81175 -3.24285 0.01876 141 134 123
1.79935 -3.25320 0.02632 143 139 123
1.78695 -3.26354 0.03388 150 149 132
1.77456 -3.27388 0.04145 146 141 134
0.63069 -4.22793 0.73914 130 124 111
0.61848 -4.23811 0.74658 132 130 113
0.60628 -4.24828 0.75403 127 128 105
0.59408 -4.25846 0.76147 120 119 106
0.58188 -4.26863 0.76891 121 117 117
0.56969 -4.27881 0.77635 125 124 117
0.55749 -4.28898 0.78378 131 124 118
0.54530 -4.29914 0.79122 127 125 118
0.53311 -4.30931 0.79866 125 122 103
0.52092 -4.31948 0.80609 117 119 103
0.50874 -4.32964 0.81352 118 115 104
0.49656 -4.33980 0.82095 120 112 103
0.48437 -4.34996 0.82838 113 117 112
0.47219 -4.36012 0.83581 118 115 103
0.43567 -4.39059 0.85809 117 116 103
0.42349 -4.40074 0.86552 117 118 112
2.01512 -3.04841 -0.12830 136 134 123
2.00273 -3.05874 -0.12074 138 135 128
1.99035 -3.06908 -0.11319 140 135 128
1.97796 -3.07941 -0.10563 138 136 130
1.96558 -3.08974 -0.09807 131 129 131
1.95320 -3.10007 -0.09052 127 127 128
1.94082 -3.11039 -0.08297 135 132 129
1.92845 -3.12072 -0.07542 143 137 127
1.91607 -3.13104 -0.06787 143 139 121
1.90370 -3.14136 -0.06032 149 141 129
1.89133 -3.15168 -0.05277 148 141 131
1.87896 -3.16200 -0.04523 141 137 128
1.86659 -3.17231 -0.03768 140 136 132
1.85423 -3.18263 -0.03014 146 142 135
1.84187 -3.19294 -0.02260 148 143 130
1.82951 -3.20325 -0.01506 144 138 128
1.81715 -3.21356 -0.00752 145 141 129
1.80480 -3.22387 0.00002 150 144 127
1.79244 -3.23417 0.00756 150 141 129
1.76774 -3.25478 0.02263 147 142 130
1.75539 -3.26508 0.03016 144 138 130
0.60381 -4.22576 0.73274 131 130 118
0.59166 -4.23590 0.74015 125 125 106
0.57951 -4.24603 0.74757 118 118 108
0.56736 -4.25617 0.75498 122 126 121
0.55521 -4.26631 0.76239 125 125 116
0.54306 -4.27644 0.76980 126 123 116
0.53092 -4.28657 0.77721 122 121 112
0.51877 -4.29670 0.78462 120 113 100
0.50663 -4.30683 0.79203 110 108 97
0.49449 -4.31696 0.79943 113 113 105
1.99509 -3.04048 -0.13892 131 130 126
1.98275 -3.05078 -0.13139 135 135 130
1.97041 -3.06107 -0.12386 139 137 130
1.95808 -3.07137 -0.11633 140 137 132
1.94574 -3.08166 -0.10881 135 133 130
1.93341 -3.09195 -0.10128 131 125 124
1.92108 -3.10224 -0.09376 135 128 125
1.90875 -3.11252 -0.08623 143 136 129
1.89643 -3.12281 -0.07871 147 142 134
1.88410 -3.13309 -0.07119 150 147 139
1.87178 -3.14337 -0.06367 144 141 135
1.85946 -3.15365 -0.05615 137 135 129
1.84714 -3.16393 -0.04864 141 138 135
1.83483 -3.17420 -0.04112 148 145 139
1.82251 -3.18448 -0.03361 151 148 136
1.81020 -3.19475 -0.02609 148 144 131
1.79789 -3.20502 -0.01858 147 143 131
1.78559 -3.21529 -0.01107 150 144 135
1.73638 -3.25635 0.01896 143 142 134
0.52873 -4.26400 0.75593 127 125 114
0.51664 -4.27409 0.76331 120 117 110
0.50454 -4.28418 0.77069 114 106 99
0.49244 -4.29428 0.77807 108 102 93
0.48035 -4.30437 0.78545 110 108 104
1.98750 -3.02236 -0.15697 131 129 124
1.97521 -3.03262 -0.14946 134 134 125
1.96292 -3.04288 -0.14196 134 130 124
1.95063 -3.05313 -0.13446 130 125 122
1.93834 -3.06339 -0.12696 134 133 129
1.92605 -3.07364 -0.11946 139 140 133
1.91377 -3.08389 -0.11196 138 134 128
1.90149 -3.09414 -0.10446 136 131 127
1.88921 -3.10439 -0.09697 134 131 135
1.87693 -3.11464 -0.08947 137 136 140
1.86465 -3.12488 -0.08198 143 143 139
1.85238 -3.13513 -0.07449 144 141 136
1.84011 -3.14537 -0.06699 142 138 134
1.82784 -3.15561 -0.05951 142 141 139
1.81557 -3.16584 -0.05202 140 141 137
1.80330 -3.17608 -0.04453 146 143 131
1.79104 -3.18632 -0.03704 153 147 125
1.77878 -3.19655 -0.02956 149 143 126
1.71750 -3.24769 0.00785 143 143 130
0.50246 -4.26170 0.74951 116 112 104
0.49041 -4.27176 0.75687 113 110 98
1.96772 -3.01459 -0.16740 131 129 127
1.95548 -3.02481 -0.15992 141 140 118
1.94323 -3.03503 -0.15245 143 138 117
1.93099 -3.04525 -0.14497 136 130 116
1.91875 -3.05547 -0.13750 136 133 126
1.90651 -3.06568 -0.13003 142 144 136
1.89428 -3.07590 -0.12256 144 144 131
1.88204 -3.08611 -0.11509 140 136 126
1.86981 -3.09632 -0.10762 133 134 134
1.85758 -3.10653 -0.10015 133 135 137
1.84535 -3.11674 -0.09268 138 136 136
1.83312 -3.12694 -0.08522 141 139 136
1.82090 -3.13714 -0.07776 142 139 137
1.80868 -3.14735 -0.07029 141 143 144
1.79646 -3.15755 -0.06283 141 144 144
1.78424 -3.16775 -0.05537 148 145 136
1.77202 -3.17794 -0.04791 153 151 132
1.75981 -3.18814 -0.04046 147 145 135
1.69877 -3.23909 -0.00319 146 148 135
1.94809 -3.00688 -0.17776 130 129 124
1.93589 -3.01706 -0.17031 141 137 115
1.92370 -3.02725 -0.16286 149 149 120
1.91150 -3.03743 -0.15541 145 142 122
1.89931 -3.04761 -0.14796 138 132 130
1.88712 -3.05778 -0.14052 140 141 140
1.87493 -3.06796 -0.13307 149 151 135
1.86274 -3.07814 -0.12563 147 143 126
1.85056 -3.08831 -0.11819 142 136 129
1.83837 -3.09848 -0.11075 138 135 130
1.82619 -3.10865 -0.10331 137 129 126
1.81401 -3.11882 -0.09587 139 134 125
1.80183 -3.12898 -0.08844 137 137 129
1.78966 -3.13915 -0.08100 134 137 136
1.77749 -3.14931 -0.07357 140 143 145
1.76532 -3.15947 -0.06613 147 148 144
1.75315 -3.16963 -0.05870 146 147 142
1.94076 -2.98908 -0.19546 134 127 118
1.92861 -2.99922 -0.18803 131 128 124
1.91645 -3.00937 -0.18061 131 128 120
1.90430 -3.01952 -0.17319 138 137 121
1.89216 -3.02966 -0.16577 139 133 121
1.88001 -3.03980 -0.15835 134 127 129
1.86787 -3.04995 -0.15093 138 133 132
1.85572 -3.06008 -0.14351 148 145 132
1.84358 -3.07022 -0.13610 146 143 131
1.83144 -3.08036 -0.12868 144 139 133
1.81931 -3.09049 -0.12127 141 138 133
1.80717 -3.10062 -0.11386 138 133 128
1.79504 -3.11075 -0.10645 138 136 124
1.78291 -3.12088 -0.09904 135 138 127
1.77078 -3.13101 -0.09163 135 138 133
1.75866 -3.14114 -0.08422 143 145 145
1.74653 -3.15126 -0.07681 149 150 149
1.73441 -3.16138 -0.06941 150 148 141
1.92137 -2.98152 -0.20563 141 136 123
1.90926 -2.99163 -0.19824 136 131 131
1.89716 -3.00174 -0.19084 138 132 132
1.88506 -3.01185 -0.18345 143 139 129
1.87295 -3.02195 -0.17605 141 139 131
1.86085 -3.03206 -0.16866 139 139 136
1.84876 -3.04216 -0.16127 143 145 137
1.83666 -3.05227 -0.15388 147 148 138
1.82457 -3.06237 -0.14649 143 141 133
1.81248 -3.07247 -0.13910 145 143 133
1.80039 -3.08256 -0.13171 145 143 132
1.78830 -3.09266 -0.12433 142 141 131
1.77621 -3.10275 -0.11694 141 138 127
1.76413 -3.11284 -0.10956 142 138 128
1.75205 -3.12294 -0.10218 152 148 136
1.73997 -3.13302 -0.09480 155 150 143
1.72789 -3.14311 -0.08742 151 147 144
1.71581 -3.15320 -0.08004 152 150 136
1.91419 -2.96394 -0.22311 142 145 137
1.90213 -2.97401 -0.21574 144 143 137
1.89007 -2.98409 -0.20836 149 140 136
1.87801 -2.99416 -0.20099 150 140 135
1.86595 -3.00423 -0.19363 148 141 133
1.85389 -3.01430 -0.18626 139 134 137
1.84184 -3.02437 -0.17889 136 136 139
1.82979 -3.03444 -0.17153 143 144 144
1.81774 -3.04451 -0.16416 148 150 148
1.80569 -3.05457 -0.15680 144 144 140
1.79365 -3.06463 -0.14944 146 145 132
1.78160 -3.07469 -0.14208 152 147 124
1.76956 -3.08475 -0.13472 152 147 126
1.75752 -3.09481 -0.12736 151 146 132
1.74549 -3.10486 -0.12000 147 138 136
1.73345 -3.11492 -0.11265 149 147 145
1.72142 -3.12497 -0.10529 149 152 145
1.90706 -2.94648 -0.24045 142 140 138
1.89504 -2.95652 -0.23311 143 144 144
1.88302 -2.96656 -0.22576 149 149 146
1.87101 -2.97660 -0.21842 149 144 142
1.85900 -2.98664 -0.21107 149 141 139
1.84698 -2.99668 -0.20373 148 139 134
1.83497 -3.00671 -0.19639 141 131 135
1.82297 -3.01674 -0.18905 139 137 138
1.81096 -3.02677 -0.18171 142 141 142
1.79896 -3.03680 -0.17437 144 143 140
1.78696 -3.04683 -0.16704 140 136 136
1.77496 -3.05686 -0.15970 144 142 136
1.76296 -3.06688 -0.15237 156 154 136
1.75096 -3.07690 -0.14503 154 150 141
1.73897 -3.08692 -0.13770 149 148 144
1.72698 -3.09694 -0.13037 150 148 143
1.71499 -3.10696 -0.12304 151 146 145
1.88800 -2.93916 -0.25035 139 134 137
1.87603 -2.94917 -0.24303 141 138 142
1.86406 -2.95917 -0.23571 143 140 140
1.85209 -2.96917 -0.22840 143 136 141
1.84012 -2.97917 -0.22108 146 139 144
1.82816 -2.98917 -0.21376 143 138 139
1.81619 -2.99917 -0.20645 149 141 138
1.80423 -3.00917 -0.19913 149 144 137
1.79227 -3.01916 -0.19182 141 140 138
1.78031 -3.02916 -0.18451 136 136 133
1.76836 -3.03915 -0.17720 135 138 130
1.75640 -3.04914 -0.16989 138 139 131
1.74445 -3.05912 -0.16258 143 142 136
1.73250 -3.06911 -0.15527 145 145 145
1.72055 -3.07910 -0.14797 147 147 149
1.70861 -3.08908 -0.14066 148 146 145
1.86909 -2.93189 -0.26018 138 137 137
1.85716 -2.94186 -0.25289 138 141 140
1.84524 -2.95183 -0.24559 132 134 132
1.83331 -2.96180 -0.23830 133 131 135
1.82139 -2.97176 -0.23101 136 135 138
1.80947 -2.98173 -0.22372 138 134 136
1.79755 -2.99169 -0.21643 146 142 139
1.78563 -3.00165 -0.20914 148 143 138
1.77372 -3.01161 -0.20186 142 140 135
1.76181 -3.02156 -0.19457 138 139 133
1.74990 -3.03152 -0.18729 139 139 128
1.73799 -3.04147 -0.18000 134 133 121
1.72608 -3.05143 -0.17272 132 129 128
1.71417 -3.06138 -0.16544 140 139 141
1.70227 -3.07133 -0.15816 144 145 145
1.83843 -2.93461 -0.26267 129 131 141
1.82655 -2.94455 -0.25540 132 133 140
1.81467 -2.95448 -0.24814 137 135 135
1.80279 -2.96441 -0.24087 137 136 132
1.79092 -2.97433 -0.23360 138 134 127
1.77904 -2.98426 -0.22634 146 141 130
1.76717 -2.99418 -0.21908 150 141 129
1.75530 -3.00411 -0.21182 146 138 132
1.74343 -3.01403 -0.20456 147 141 137
1.73157 -3.02395 -0.19730 150 145 135
1.71970 -3.03387 -0.19004 144 142 134
1.70784 -3.04378 -0.18279 141 139 136
1.69598 -3.05370 -0.17553 146 140 138
1.81983 -2.92742 -0.27238 130 132 145
1.80800 -2.93731 -0.26514 134 140 148
1.79616 -2.94721 -0.25790 141 144 142
1.78433 -2.95710 -0.25066 146 147 135
1.77250 -2.96699 -0.24342 144 148 134
1.76067 -2.97688 -0.23618 145 146 136
1.74884 -2.98677 -0.22894 149 149 136
1.73702 -2.99666 -0.22171 147 146 136
1.72519 -3.00655 -0.21447 142 142 139
1.71337 -3.01643 -0.20724 143 141 140
1.70155 -3.02631 -0.20001 153 147 142
1.68973 -3.03620 -0.19278 154 150 141
1.80137 -2.92027 -0.28202 142 139 134
1.78958 -2.93013 -0.27481 136 139 133
1.77779 -2.93999 -0.26759 137 138 136
1.76600 -2.94985 -0.26037 139 137 136
1.75421 -2.95971 -0.25316 138 136 131
1.74243 -2.96956 -0.24595 141 138 138
1.73065 -2.97942 -0.23874 147 146 146
1.71887 -2.98927 -0.23153 148 149 144
1.70709 -2.99912 -0.22432 142 145 139
1.69531 -3.00897 -0.21711 142 144 137
1.68353 -3.01882 -0.20990 155 152 145
1.67176 -3.02866 -0.20270 159 155 149
1.78304 -2.91318 -0.29159 137 135 123
1.77130 -2.92300 -0.28440 135 134 112
1.75955 -2.93283 -0.27721 138 136 129
1.74780 -2.94265 -0.27002 141 141 142
1.73606 -2.95247 -0.26283 148 149 141
1.72432 -2.96229 -0.25565 144 143 138
1.71258 -2.97211 -0.24846 138 135 136
1.70084 -2.98193 -0.24127 141 138 137
1.65391 -3.02118 -0.21255 154 150 151
1.77655 -2.89634 -0.30826 133 131 126
1.76485 -2.90613 -0.30110 137 132 125
1.75314 -2.91592 -0.29393 144 139 137
1.74144 -2.92571 -0.28676 143 141 141
1.72974 -2.93550 -0.27960 141 138 137
1.71804 -2.94529 -0.27244 142 137 137
1.70634 -2.95508 -0.26527 134 124 130
1.69465 -2.96486 -0.25811 134 125 127
1.63620 -3.01376 -0.22232 155 149 147
1.84014 -2.82102 -0.36771 138 135 129
1.82846 -2.83079 -0.36056 139 134 132
1.81679 -2.84056 -0.35341 139 130 126
1.75844 -2.88938 -0.31767 128 127 122
1.74678 -2.89914 -0.31053 132 123 114
1.73512 -2.90890 -0.30339 142 134 134
1.72346 -2.91865 -0.29625 145 141 141
1.71180 -2.92841 -0.28911 149 144 137
1.70015 -2.93816 -0.28197 153 148 143
1.68849 -2.94791 -0.27483 145 140 141
1.67684 -2.95766 -0.26770 142 137 135
1.63025 -2.99665 -0.23916 149 149 140
1.83349 -2.80462 -0.38400 138 131 125
1.82186 -2.81436 -0.37688 139 130 125
1.81022 -2.82409 -0.36975 133 127 129
1.79859 -2.83382 -0.36262 130 123 125
1.75208 -2.87275 -0.33414 133 132 125
1.74046 -2.88247 -0.32702 138 136 123
1.72884 -2.89220 -0.31990 143 139 124
1.71722 -2.90192 -0.31278 150 150 137
1.70561 -2.91164 -0.30567 150 147 140
1.69399 -2.92136 -0.29855 147 141 134
1.68238 -2.93108 -0.29144 147 141 137
1.67077 -2.94080 -0.28432 148 144 140
1.65916 -2.95051 -0.27721 149 146 136
1.81530 -2.79803 -0.39308 145 141 132
1.80370 -2.80773 -0.38598 142 140 139
1.79211 -2.81744 -0.37888 134 131 136
1.78052 -2.82714 -0.37178 135 129 125
1.74577 -2.85623 -0.35048 134 129 126
1.73419 -2.86592 -0.34339 138 134 128
1.72261 -2.87561 -0.33629 145 136 129
1.71103 -2.88530 -0.32920 153 143 130
1.69946 -2.89499 -0.32211 155 150 136
1.68788 -2.90468 -0.31502 143 143 136
1.67631 -2.91437 -0.30792 138 135 127
1.66474 -2.92405 -0.30084 145 141 128
1.65317 -2.93373 -0.29375 149 145 137
1.64160 -2.94342 -0.28666 146 140 139
1.79723 -2.79149 -0.40210 142 136 131
1.78568 -2.80116 -0.39502 138 130 134
1.77413 -2.81083 -0.38794 136 129 136
1.76259 -2.82049 -0.38087 147 131 125
1.75104 -2.83016 -0.37379 142 128 114
1.73950 -2.83982 -0.36672 135 126 120
1.72796 -2.84948 -0.35965 134 129 125
1.71642 -2.85914 -0.35257 137 132 128
1.70488 -2.86880 -0.34550 141 136 134
1.69335 -2.87846 -0.33843 145 140 137
1.68181 -2.88811 -0.33137 149 145 139
1.67028 -2.89777 -0.32430 147 146 143
1.65875 -2.90742 -0.31723 145 147 144
1.64722 -2.91707 -0.31017 148 149 142
1.63570 -2.92672 -0.30310 151 149 145
1.76778 -2.79463 -0.40400 135 132 137
1.75628 -2.80427 -0.39694 138 138 141
1.74477 -2.81390 -0.38989 143 137 133
1.73327 -2.82353 -0.38284 142 135 126
1.72177 -2.83316 -0.37579 139 131 129
1.71027 -2.84279 -0.36874 138 131 124
1.69878 -2.85241 -0.36170 137 130 121
1.68728 -2.86204 -0.35465 135 133 132
1.67579 -2.87166 -0.34760 137 136 138
1.66430 -2.88128 -0.34056 146 146 138
1.65281 -2.89090 -0.33352 147 147 142
1.64132 -2.90052 -0.32648 141 141 143
1.62983 -2.91014 -0.31944 142 141 138
1.73855 -2.79775 -0.40588 134 136 132
1.72709 -2.80735 -0.39885 141 140 131
1.71563 -2.81695 -0.39183 143 141 134
1.70417 -2.82654 -0.38480 141 138 137
1.69271 -2.83614 -0.37778 141 137 128
1.68126 -2.84573 -0.37075 139 133 127
1.66980 -2.85532 -0.36373 132 129 139
1.65835 -2.86491 -0.35671 131 132 142
1.64690 -2.87450 -0.34969 144 141 140
1.63545 -2.88409 -0.34267 149 145 137
1.62401 -2.89367 -0.33565 141 135 131
1.61256 -2.90326 -0.32864 140 138 134
1.72094 -2.79128 -0.41475 137 137 136
1.70952 -2.80085 -0.40775 138 137 130
1.69811 -2.81041 -0.40075 140 138 131
1.68669 -2.81997 -0.39375 141 136 134
1.67527 -2.82954 -0.38675 145 136 133
1.66386 -2.83910 -0.37975 145 138 130
1.65245 -2.84865 -0.37275 140 133 129
1.64104 -2.85821 -0.36575 138 133 136
1.62963 -2.86777 -0.35876 142 139 143
1.61822 -2.87732 -0.35176 147 149 139
1.60682 -2.88687 -0.34477 154 154 137
1.59541 -2.89643 -0.33777 156 156 145
1.58401 -2.90598 -0.33078 153 155 145
1.57261 -2.91552 -0.32379 151 146 138
1.70346 -2.78486 -0.42357 138 136 140
1.69208 -2.79439 -0.41659 128 131 126
1.68071 -2.80392 -0.40961 131 134 127
1.66933 -2.81345 -0.40263 137 135 132
1.65796 -2.82298 -0.39565 137 135 132
1.64658 -2.83251 -0.38868 139 139 133
1.63521 -2.84203 -0.38170 143 141 134
1.62384 -2.85156 -0.37473 145 144 140
1.61248 -2.86108 -0.36776 148 146 148
1.60111 -2.87060 -0.36079 148 142 142
1.58975 -2.88012 -0.35382 144 143 140
1.57839 -2.88964 -0.34685 143 148 144
1.56703 -2.89916 -0.33988 148 149 141
1.55567 -2.90867 -0.33291 148 145 138
1.54431 -2.91819 -0.32595 144 142 138
1.69744 -2.76897 -0.43927 143 137 135
1.68610 -2.77848 -0.43232 140 134 132
1.67476 -2.78798 -0.42536 131 130 128
1.66343 -2.79748 -0.41841 130 130 129
1.65209 -2.80697 -0.41145 136 134 133
1.64076 -2.81647 -0.40450 133 129 130
1.62943 -2.82596 -0.39755 137 132 135
1.61810 -2.83546 -0.39060 143 139 143
1.60677 -2.84495 -0.38365 145 143 142
1.59544 -2.85444 -0.37670 148 145 140
1.58412 -2.86393 -0.36975 147 144 140
1.57280 -2.87341 -0.36280 140 141 142
1.56147 -2.88290 -0.35586 139 139 137
1.55016 -2.89239 -0.34891 144 139 134
1.53884 -2.90187 -0.34197 144 140 135
1.52752 -2.91135 -0.33503 142 140 135
1.51621 -2.92083 -0.32809 145 140 135
1.50489 -2.93031 -0.32115 143 136 133
1.49358 -2.93979 -0.31421 139 133 132
1.68016 -2.76267 -0.44794 146 142 135
1.66886 -2.77214 -0.44101 151 147 139
1.65757 -2.78161 -0.43407 148 146 132
1.64627 -2.79107 -0.42714 139 135 130
1.63498 -2.80054 -0.42021 146 139 147
1.62368 -2.81000 -0.41328 149 145 147
1.61239 -2.81947 -0.40635 145 144 138
1.60110 -2.82893 -0.39943 141 143 136
1.58981 -2.83839 -0.39250 136 140 132
1.57853 -2.84784 -0.38557 132 132 129
1.56724 -2.85730 -0.37865 135 135 135
1.55596 -2.86675 -0.37173 142 146 139
1.54468 -2.87621 -0.36481 148 149 137
1.53340 -2.88566 -0.35788 148 146 136
1.52213 -2.89511 -0.35096 146 143 136
1.51085 -2.90456 -0.34405 144 144 137
1.49958 -2.91401 -0.33713 145 152 144
1.48830 -2.92345 -0.33021 148 153 147
1.47703 -2.93290 -0.32329 150 151 148
1.46576 -2.94234 -0.31638 155 158 151
1.66300 -2.75641 -0.45655 136 132 139
1.65174 -2.76585 -0.44964 145 140 141
1.64049 -2.77528 -0.44273 150 145 134
1.62923 -2.78472 -0.43582 147 142 134
1.61798 -2.79415 -0.42891 150 141 147
1.60672 -2.80358 -0.42201 148 142 145
1.59547 -2.81301 -0.41510 145 139 132
1.58422 -2.82244 -0.40820 151 143 130
1.57298 -2.83187 -0.40129 149 145 131
1.56173 -2.84129 -0.39439 153 146 142
1.55049 -2.85072 -0.38749 159 148 145
1.53925 -2.86014 -0.38059 156 148 142
1.52800 -2.86956 -0.37369 161 152 146
1.51677 -2.87898 -0.36679 161 153 152
1.50553 -2.88840 -0.35990 150 149 148
1.49429 -2.89782 -0.35300 144 145 140
1.48306 -2.90723 -0.34611 147 146 145
1.47183 -2.91665 -0.33921 157 152 150
1.46060 -2.92606 -0.33232 162 154 152
1.44937 -2.93547 -0.32543 157 150 151
1.43814 -2.94488 -0.31854 150 141 143
1.64596 -2.75020 -0.46510 137 136 134
1.63474 -2.75960 -0.45821 133 129 126
1.62352 -2.76900 -0.45132 140 133 128
1.61231 -2.77841 -0.44444 148 139 136
1.60109 -2.78781 -0.43755 156 150 145
1.58988 -2.79721 -0.43067 150 145 145
1.57867 -2.80660 -0.42379 143 138 145
1.56746 -2.81600 -0.41691 149 142 147
1.55625 -2.82540 -0.41003 147 140 143
1.54505 -2.83479 -0.40315 143 140 146
1.53384 -2.84418 -0.39627 148 147 149
1.52264 -2.85357 -0.38939 155 151 146
1.51144 -2.86296 -0.38252 162 156 147
1.50024 -2.87235 -0.37564 161 156 146
1.48905 -2.88174 -0.36877 151 148 141
1.47785 -2.89112 -0.36190 153 147 148
1.46666 -2.90051 -0.35502 155 147 153
1.45546 -2.90989 -0.34815 152 145 143
1.44427 -2.91927 -0.34128 155 153 154
1.43309 -2.92865 -0.33441 156 154 159
1.42190 -2.93803 -0.32755 156 150 154
1.41071 -2.94740 -0.32068 157 152 151
1.68496 -2.69713 -0.50792 138 137 132
1.67377 -2.70651 -0.50105 140 141 142
1.66258 -2.71589 -0.49418 131 129 132
1.65140 -2.72527 -0.48732 141 137 131
1.64022 -2.73465 -0.48045 149 145 135
1.62903 -2.74402 -0.47358 147 141 138
1.61786 -2.75339 -0.46672 143 137 133
1.60668 -2.76277 -0.45986 143 135 135
1.59550 -2.77214 -0.45299 142 140 140
1.58433 -2.78151 -0.44613 146 142 144
1.57315 -2.79087 -0.43927 153 145 145
1.56198 -2.80024 -0.43241 151 142 146
1.55081 -2.80960 -0.42556 145 135 146
1.53965 -2.81897 -0.41870 139 131 140
1.52848 -2.82833 -0.41184 139 134 146
1.51732 -2.83769 -0.40499 147 144 149
1.50615 -2.84705 -0.39813 154 151 146
1.49499 -2.85641 -0.39128 156 154 149
1.48383 -2.86576 -0.38443 151 150 150
1.47268 -2.87512 -0.37758 147 147 144
1.46152 -2.88447 -0.37073 150 150 147
1.45037 -2.89382 -0.36388 145 144 153
1.43921 -2.90318 -0.35703 144 139 149
1.42806 -2.91252 -0.35019 154 149 153
1.41691 -2.92187 -0.34334 157 152 155
1.40577 -2.93122 -0.33649 161 156 157
1.39462 -2.94056 -0.32965 165 160 159
1.70140 -2.66311 -0.53678 138 138 140
1.69025 -2.67246 -0.52993 137 135 131
1.67910 -2.68181 -0.52308 126 130 123
1.66795 -2.69116 -0.51624 129 135 130
1.65680 -2.70051 -0.50939 131 134 133
1.64565 -2.70986 -0.50255 134 133 130
1.63451 -2.71920 -0.49570 143 143 131
1.62337 -2.72855 -0.48886 148 144 139
1.61223 -2.73789 -0.48201 147 144 151
1.60109 -2.74723 -0.47517 139 142 149
1.58995 -2.75657 -0.46833 139 145 149
1.57881 -2.76591 -0.46149 137 145 147
1.56768 -2.77525 -0.45466 139 141 144
1.55654 -2.78458 -0.44782 148 142 142
1.54541 -2.79392 -0.44098 145 137 146
1.53428 -2.80325 -0.43415 142 136 146
1.52315 -2.81258 -0.42731 145 143 144
1.51203 -2.82191 -0.42048 155 152 150
1.50090 -2.83124 -0.41365 163 158 150
1.48978 -2.84057 -0.40682 161 158 148
1.47866 -2.84990 -0.39999 158 156 154
1.46754 -2.85922 -0.39316 155 152 154
1.45642 -2.86855 -0.38633 152 149 145
1.44530 -2.87787 -0.37950 152 145 140
1.43419 -2.88719 -0.37268 147 142 144
1.42307 -2.89651 -0.36585 142 141 150
1.41196 -2.90583 -0.35903 150 149 147
1.40085 -2.91514 -0.35220 156 154 146
1.38974 -2.92446 -0.34538 160 156 150
1.37864 -2.93377 -0.33856 154 155 155
1.73999 -2.61064 -0.57912 140 135 125
1.72887 -2.61997 -0.57229 137 135 130
1.71775 -2.62929 -0.56546 134 130 131
1.70663 -2.63862 -0.55863 136 133 132
1.69551 -2.64794 -0.55180 135 136 131
1.68440 -2.65727 -0.54497 129 134 134
1.67328 -2.66659 -0.53815 130 131 132
1.66217 -2.67591 -0.53132 124 127 130
1.65106 -2.68523 -0.52450 127 125 133
1.63995 -2.69454 -0.51767 126 124 131
1.62884 -2.70386 -0.51085 133 130 130
1.61774 -2.71318 -0.50403 145 142 133
1.60663 -2.72249 -0.49721 155 147 142
1.59553 -2.73180 -0.49039 152 146 143
1.58443 -2.74111 -0.48357 137 134 134
1.57333 -2.75042 -0.47675 137 141 137
1.56223 -2.75973 -0.46994 144 147 139
1.55114 -2.76903 -0.46312 143 139 139
1.54004 -2.77834 -0.45630 134 132 139
1.52895 -2.78764 -0.44949 131 128 137
1.51786 -2.79694 -0.44268 143 138 140
1.50677 -2.80624 -0.43587 149 146 142
1.49568 -2.81554 -0.42906 146 147 144
1.48460 -2.82484 -0.42225 148 147 148
1.47351 -2.83414 -0.41544 153 148 149
1.46243 -2.84343 -0.40863 153 151 150
1.45135 -2.85273 -0.40182 153 149 146
1.44027 -2.86202 -0.39502 152 144 147
1.42919 -2.87131 -0.38821 156 151 154
1.41812 -2.88060 -0.38141 159 159 150
1.40704 -2.88989 -0.37461 154 150 144
1.39597 -2.89917 -0.36781 151 148 145
1.38490 -2.90846 -0.36101 157 156 144
1.37383 -2.91774 -0.35421 159 158 147
1.36276 -2.92702 -0.34741 148 151 153
1.73399 -2.59570 -0.59396 141 149 146
1.67858 -2.64218 -0.55992 138 133 134
1.66750 -2.65147 -0.55311 133 138 141
1.65643 -2.66076 -0.54631 133 135 138
1.64535 -2.67005 -0.53950 141 137 135
1.63428 -2.67934 -0.53270 142 138 134
1.62321 -2.68862 -0.52590 142 135 135
1.61214 -2.69791 -0.51910 141 138 136
1.60108 -2.70719 -0.51230 145 144 141
1.59001 -2.71647 -0.50550 156 147 152
1.57895 -2.72575 -0.49870 159 148 145
1.56789 -2.73503 -0.49191 154 147 137
1.55683 -2.74431 -0.48511 148 145 135
1.54577 -2.75358 -0.47832 147 141 131
1.53471 -2.76286 -0.47153 146 135 127
1.52366 -2.77213 -0.46473 142 139 134
1.51260 -2.78141 -0.45794 140 141 144
1.50155 -2.79068 -0.45115 142 138 147
1.49050 -2.79995 -0.44436 144 144 142
1.47945 -2.80921 -0.43758 142 140 144
1.46841 -2.81848 -0.43079 148 140 146
1.45736 -2.82775 -0.42400 155 149 145
1.44632 -2.83701 -0.41722 153 151 147
1.43527 -2.84627 -0.41043 152 151 146
1.42423 -2.85553 -0.40365 152 150 149
1.41320 -2.86479 -0.39687 158 155 153
1.40216 -2.87405 -0.39009 157 151 148
1.39112 -2.88331 -0.38331 145 141 143
1.38009 -2.89256 -0.37653 146 149 144
1.36906 -2.90182 -0.36975 159 160 149
1.35803 -2.91107 -0.36297 159 156 153
1.34700 -2.92032 -0.35620 149 147 140
1.70593 -2.59939 -0.59512 143 147 147
1.66176 -2.63645 -0.56797 134 131 131
1.65072 -2.64571 -0.56119 129 127 134
1.63969 -2.65497 -0.55441 133 132 132
1.62865 -2.66423 -0.54763 141 132 135
1.61762 -2.67348 -0.54085 144 134 139
1.60659 -2.68274 -0.53407 151 143 135
1.59556 -2.69199 -0.52729 148 142 132
1.58453 -2.70124 -0.52052 141 134 133
1.57350 -2.71049 -0.51374 142 132 136
1.56248 -2.71974 -0.50696 147 143 140
1.55146 -2.72899 -0.50019 149 147 136
1.54043 -2.73824 -0.49342 146 142 134
1.52941 -2.74748 -0.48665 141 138 136
1.51840 -2.75673 -0.47988 144 148 143
1.50738 -2.76597 -0.47311 145 150 142
1.49637 -2.77521 -0.46634 139 138 138
1.48535 -2.78445 -0.45957 137 136 138
1.47434 -2.79369 -0.45280 137 138 134
1.46333 -2.80293 -0.44604 139 140 135
1.45232 -2.81216 -0.43927 141 141 133
1.44132 -2.82140 -0.43251 147 144 137
1.43031 -2.83063 -0.42575 152 152 148
1.41931 -2.83986 -0.41898 153 153 150
1.40831 -2.84909 -0.41222 153 156 153
1.39731 -2.85832 -0.40546 156 158 154
1.38631 -2.86755 -0.39870 154 149 145
1.37531 -2.87678 -0.39195 145 137 139
1.36431 -2.88600 -0.38519 140 138 137
1.35332 -2.89522 -0.37843 140 141 141
1.34233 -2.90445 -0.37168 138 136 145
1.63406 -2.63999 -0.56922 125 125 136
1.62306 -2.64922 -0.56246 133 131 133
1.61206 -2.65844 -0.55570 137 136 138
1.60107 -2.66767 -0.54894 139 142 146
1.59008 -2.67689 -0.54219 141 139 137
1.57908 -2.68612 -0.53543 141 137 128
1.56809 -2.69534 -0.52868 139 134 129
1.55711 -2.70456 -0.52192 133 132 129
1.54612 -2.71378 -0.51517 136 137 130
1.53514 -2.72299 -0.50842 136 134 129
1.52415 -2.73221 -0.50167 138 134 127
1.51317 -2.74143 -0.49492 141 136 127
1.50219 -2.75064 -0.48817 146 139 136
1.49121 -2.75985 -0.48142 144 137 137
1.48024 -2.76906 -0.47468 137 133 132
1.46926 -2.77827 -0.46793 139 137 131
1.45829 -2.78748 -0.46118 144 140 134
1.44732 -2.79668 -0.45444 147 145 143
1.43635 -2.80589 -0.44770 146 144 145
1.42538 -2.81509 -0.44096 152 146 139
1.41441 -2.82430 -0.43422 160 154 142
1.40345 -2.83350 -0.42748 157 151 141
1.39248 -2.84270 -0.42074 154 149 146
1.38152 -2.85190 -0.41400 155 151 155
1.37056 -2.86109 -0.40726 156 150 148
1.35960 -2.87029 -0.40053 149 145 141
1.34865 -2.87948 -0.39379 145 142 138
1.33769 -2.88867 -0.38706 146 142 139
1.60654 -2.64350 -0.57045 142 139 137
1.59559 -2.65270 -0.56372 137 133 125
1.58463 -2.66190 -0.55698 136 139 130
1.57367 -2.67109 -0.55025 140 139 134
1.56272 -2.68028 -0.54351 138 144 130
1.55177 -2.68947 -0.53678 140 143 133
1.54082 -2.69866 -0.53005 145 144 136
1.52987 -2.70785 -0.52332 148 147 134
1.51893 -2.71704 -0.51659 150 146 129
1.50798 -2.72622 -0.50986 149 144 127
1.49704 -2.73541 -0.50313 143 140 129
1.48610 -2.74459 -0.49641 136 135 134
1.47516 -2.75377 -0.48968 135 134 131
1.46422 -2.76295 -0.48296 137 136 128
1.45328 -2.77213 -0.47623 144 141 132
1.44235 -2.78131 -0.46951 151 143 138
1.43141 -2.79048 -0.46279 150 143 147
1.42048 -2.79966 -0.45607 150 144 149
1.40955 -2.80883 -0.44935 151 145 145
1.39862 -2.81800 -0.44263 151 148 144
1.38769 -2.82717 -0.43591 152 150 143
1.59014 -2.63783 -0.57839 134 137 131
1.57922 -2.64700 -0.57168 141 141 124
1.56830 -2.65616 -0.56497 143 142 131
1.55738 -2.66532 -0.55825 146 144 141
1.54647 -2.67449 -0.55154 137 137 139
1.53556 -2.68365 -0.54483 143 137 137
1.52464 -2.69281 -0.53812 151 147 137
1.51373 -2.70196 -0.53141 150 146 136
1.50282 -2.71112 -0.52471 138 136 131
1.49192 -2.72028 -0.51800 137 139 130
1.48101 -2.72943 -0.51129 141 145 137
1.47011 -2.73858 -0.50459 134 140 139
1.45921 -2.74773 -0.49789 133 134 134
1.44831 -2.75688 -0.49118 140 137 134
1.43741 -2.76603 -0.48448 149 144 134
1.42651 -2.77518 -0.47778 150 147 136
1.41561 -2.78432 -0.47108 145 145 138
1.40472 -2.79347 -0.46438 146 142 131
1.39383 -2.80261 -0.45769 148 141 128
1.38294 -2.81175 -0.45099 142 143 134
1.55208 -2.65046 -0.57290 131 139 137
1.54120 -2.65960 -0.56621 135 140 139
1.53032 -2.66873 -0.55952 135 131 131
1.51945 -2.67786 -0.55283 137 135 135
1.50857 -2.68699 -0.54614 144 147 137
1.49770 -2.69612 -0.53945 150 153 138
1.48683 -2.70524 -0.53277 147 147 132
1.47596 -2.71437 -0.52608 146 143 130
1.46509 -2.72349 -0.51940 143 140 132
1.45423 -2.73261 -0.51272 141 137 135
1.44336 -2.74173 -0.50604 143 138 138
1.53597 -2.64481 -0.58078 140 139 128
1.52513 -2.65391 -0.57411 136 137 131
1.51429 -2.66301 -0.56744 135 141 131
1.50345 -2.67211 -0.56077 137 137 138
1.49261 -2.68121 -0.55411 140 135 140
1.48178 -2.69031 -0.54744 141 141 136
1.47094 -2.69940 -0.54078 142 140 125
1.46011 -2.70850 -0.53411 144 144 136
1.44928 -2.71759 -0.52745 139 132 137
1.51996 -2.63918 -0.58860 146 148 143
1.50916 -2.64826 -0.58195 147 145 136
1.49836 -2.65733 -0.57531 146 141 122
1.48756 -2.66640 -0.56866 144 139 125
1.47676 -2.67547 -0.56202 140 133 136
1.46596 -2.68454 -0.55537 136 134 136
1.45516 -2.69360 -0.54873 139 140 129
1.44437 -2.70267 -0.54209 146 144 135
1.43357 -2.71173 -0.53545 145 140 138
1.42278 -2.72080 -0.52881 150 144 137
1.40120 -2.73892 -0.51553 143 136 132
1.39042 -2.74798 -0.50890 145 146 141
1.37963 -2.75703 -0.50226 154 151 137
1.36885 -2.76609 -0.49563 154 146 136
1.35806 -2.77514 -0.48899 155 140 142
1.34728 -2.78420 -0.48236 161 144 147
1.50407 -2.63360 -0.59638 135 132 128
1.49330 -2.64264 -0.58975 136 134 137
1.48253 -2.65169 -0.58313 146 143 136
1.47177 -2.66073 -0.57650 150 147 128
1.46101 -2.66977 -0.56988 148 141 127
1.45024 -2.67880 -0.56326 151 147 130
1.43948 -2.68784 -0.55664 151 150 135
1.42873 -2.69688 -0.55001 150 146 135
1.41797 -2.70591 -0.54340 149 144 135
1.40721 -2.71495 -0.53678 152 142 139
1.39646 -2.72398 -0.53016 158 149 139
1.38571 -2.73301 -0.52354 158 154 136
1.37496 -2.74204 -0.51693 153 150 137
1.36421 -2.75106 -0.51031 152 150 141
1.35346 -2.76009 -0.50370 153 154 147
1.34272 -2.76912 -0.49709 153 153 150
1.33197 -2.77814 -0.49048 153 152 150
1.48827 -2.62805 -0.60410 142 138 132
1.47754 -2.63707 -0.59749 146 141 137
1.46681 -2.64608 -0.59089 149 147 141
1.45608 -2.65509 -0.58429 148 145 140
1.44536 -2.66410 -0.57769 151 146 142
1.43463 -2.67311 -0.57109 151 145 140
1.42391 -2.68212 -0.56449 145 145 137
1.41319 -2.69112 -0.55789 144 142 131
1.40247 -2.70013 -0.55129 147 143 133
1.39175 -2.70913 -0.54469 151 145 139
1.38103 -2.71814 -0.53810 151 145 140
1.37032 -2.72714 -0.53150 144 145 138
1.35960 -2.73614 -0.52491 140 139 133
1.34889 -2.74514 -0.51831 142 138 132
1.33818 -2.75413 -0.51172 142 143 142
1.32747 -2.76313 -0.50513 145 146 150
1.31676 -2.77212 -0.49854 144 141 147
1.45119 -2.64051 -0.59861 149 148 143
1.44050 -2.64949 -0.59202 146 143 143
1.42981 -2.65847 -0.58544 152 148 142
1.41912 -2.66745 -0.57886 148 143 143
1.40844 -2.67643 -0.57229 136 136 140
1.39775 -2.68541 -0.56571 137 138 135
1.38707 -2.69439 -0.55913 147 146 141
1.37639 -2.70336 -0.55255 152 150 142
1.36571 -2.71233 -0.54598 151 146 136
1.35503 -2.72131 -0.53941 149 148 140
1.34435 -2.73028 -0.53283 148 150 144
1.33367 -2.73925 -0.52626 143 144 137
1.32300 -2.74821 -0.51969 137 139 138
1.31233 -2.75718 -0.51312 144 144 148
1.30166 -2.76615 -0.50655 150 149 146
1.29099 -2.77511 -0.49998 150 149 145
1.42502 -2.64393 -0.59971 141 142 135
1.41437 -2.65288 -0.59315 144 137 134
1.40372 -2.66183 -0.58659 144 136 132
1.39307 -2.67078 -0.58003 142 134 128
1.38242 -2.67973 -0.57348 143 138 129
1.37177 -2.68868 -0.56692 146 141 135
1.36112 -2.69762 -0.56037 150 144 144
1.35048 -2.70657 -0.55381 152 151 153
1.33984 -2.71551 -0.54726 153 154 152
1.32920 -2.72445 -0.54071 152 156 149
1.31856 -2.73339 -0.53416 150 154 146
1.30792 -2.74233 -0.52761 149 153 148
1.29728 -2.75127 -0.52106 157 156 151
1.28665 -2.76021 -0.51451 161 155 149
1.27601 -2.76914 -0.50796 152 148 155
1.26538 -2.77808 -0.50141 146 147 155
1.40965 -2.63841 -0.60734 145 138 134
1.39903 -2.64733 -0.60081 142 131 128
1.38841 -2.65625 -0.59427 143 142 138
