ply
format ascii 1.0
element face 0
property list uchar int vertex_indices
element vertex 1244
property float x
property float y
property float z
property uchar diffuse_red
property uchar diffuse_green
property uchar diffuse_blue
end_header
0.12880 -0.68459 -0.38885 254 254 252
0.13416 -0.68684 -0.38546 254 254 252
0.13953 -0.68908 -0.38207 254 254 253
0.14488 -0.69132 -0.37868 254 254 253
0.15024 -0.69356 -0.37529 254 254 254
0.15559 -0.69580 -0.37191 254 254 254
0.16093 -0.69804 -0.36853 254 254 254
-0.43461 -0.45692 -0.73707 250 249 251
-0.42881 -0.45934 -0.73340 250 249 251
-0.42302 -0.46177 -0.72974 250 249 251
-0.41723 -0.46419 -0.72609 250 249 251
-0.41145 -0.46660 -0.72243 250 249 251
-0.40567 -0.46902 -0.71878 250 249 251
-0.39989 -0.47143 -0.71513 251 249 251
-0.39412 -0.47384 -0.71149 251 249 251
-0.38836 -0.47625 -0.70785 251 249 251
-0.38260 -0.47866 -0.70421 251 250 251
-0.37684 -0.48107 -0.70057 251 249 252
-0.37109 -0.48347 -0.69694 251 249 251
-0.36535 -0.48587 -0.69331 251 250 252
-0.35961 -0.48827 -0.68968 251 250 251
-0.35387 -0.49067 -0.68606 251 249 251
-0.34814 -0.49307 -0.68244 251 250 251
-0.34241 -0.49546 -0.67882 251 250 252
-0.33669 -0.49786 -0.67520 251 249 251
-0.33097 -0.50025 -0.67159 251 250 251
-0.32525 -0.50263 -0.66798 251 250 251
-0.31954 -0.50502 -0.66437 251 250 252
-0.31384 -0.50740 -0.66077 251 250 252
-0.30814 -0.50979 -0.65717 251 250 251
-0.30244 -0.51217 -0.65357 251 250 250
-0.29675 -0.51455 -0.64998 251 250 250
-0.29107 -0.51692 -0.64639 251 250 251
-0.28539 -0.51930 -0.64280 251 250 251
-0.27971 -0.52167 -0.63921 252 250 251
-0.27404 -0.52404 -0.63563 252 250 251
-0.26837 -0.52641 -0.63205 252 250 251
-0.26271 -0.52878 -0.62847 252 251 251
-0.25705 -0.53114 -0.62489 252 251 251
-0.25139 -0.53351 -0.62132 252 251 251
-0.24574 -0.53587 -0.61775 252 251 251
-0.24010 -0.53823 -0.61419 252 251 251
-0.23446 -0.54059 -0.61062 252 252 252
-0.22882 -0.54294 -0.60706 252 252 252
-0.22319 -0.54530 -0.60351 252 252 252
-0.21757 -0.54765 -0.59995 252 252 252
-0.21194 -0.55000 -0.59640 252 252 252
-0.20633 -0.55235 -0.59285 253 252 253
-0.20071 -0.55469 -0.58931 253 253 253
-0.19510 -0.55704 -0.58576 253 253 253
-0.18950 -0.55938 -0.58222 253 253 253
-0.18390 -0.56172 -0.57868 253 253 254
-0.17830 -0.56406 -0.57515 254 254 254
-0.17271 -0.56640 -0.57162 254 254 254
-0.16713 -0.56873 -0.56809 254 254 254
-0.16155 -0.57107 -0.56456 254 254 254
-0.15597 -0.57340 -0.56104 254 254 254
-0.15040 -0.57573 -0.55752 254 254 254
-0.14483 -0.57805 -0.55400 254 254 254
-0.13926 -0.58038 -0.55049 254 254 254
-0.13370 -0.58270 -0.54697 254 254 254
-0.12815 -0.58503 -0.54347 254 254 254
-0.12260 -0.58735 -0.53996 254 254 254
-0.11705 -0.58966 -0.53645 254 254 254
-0.11151 -0.59198 -0.53295 254 254 254
-0.10597 -0.59430 -0.52946 254 254 254
-0.10044 -0.59661 -0.52596 254 254 254
-0.09491 -0.59892 -0.52247 254 254 254
-0.08939 -0.60123 -0.51898 254 254 254
-0.08387 -0.60354 -0.51549 254 254 254
-0.07835 -0.60584 -0.51201 254 254 254
-0.07284 -0.60815 -0.50853 254 254 254
-0.06733 -0.61045 -0.50505 254 254 254
-0.06183 -0.61275 -0.50157 254 254 254
-0.05633 -0.61505 -0.49810 254 254 254
-0.05084 -0.61734 -0.49463 254 254 254
-0.04535 -0.61964 -0.49116 254 254 253
-0.03987 -0.62193 -0.48770 254 254 254
-0.03439 -0.62422 -0.48423 254 254 254
-0.02891 -0.62651 -0.48077 254 254 254
-0.02344 -0.62880 -0.47732 254 254 254
-0.01797 -0.63108 -0.47386 254 254 254
-0.01251 -0.63337 -0.47041 254 254 254
-0.00705 -0.63565 -0.46696 254 254 254
-0.00160 -0.63793 -0.46352 254 254 253
0.00385 -0.64021 -0.46007 254 254 252
0.00930 -0.64248 -0.45663 254 254 254
0.01474 -0.64476 -0.45320 254 254 254
0.02018 -0.64703 -0.44976 254 254 254
0.02561 -0.64930 -0.44633 254 254 254
0.03104 -0.65157 -0.44290 254 254 254
0.03647 -0.65384 -0.43947 254 254 254
0.04189 -0.65610 -0.43605 254 254 254
0.04730 -0.65837 -0.43263 254 254 254
0.05271 -0.66063 -0.42921 254 254 254
0.05812 -0.66289 -0.42579 254 254 254
0.06352 -0.66515 -0.42238 254 254 254
0.06892 -0.66740 -0.41897 254 254 254
-0.44500 -0.46069 -0.73566 251 250 251
-0.43922 -0.46311 -0.73201 250 249 251
-0.43344 -0.46552 -0.72836 250 249 251
-0.42766 -0.46793 -0.72471 250 249 251
-0.42189 -0.47034 -0.72107 250 249 251
-0.41612 -0.47275 -0.71743 250 249 251
-0.41036 -0.47516 -0.71379 250 249 251
-0.40460 -0.47756 -0.71015 251 249 251
-0.39884 -0.47996 -0.70652 251 250 252
-0.39309 -0.48236 -0.70289 251 250 251
-0.38735 -0.48476 -0.69927 251 249 251
-0.38161 -0.48716 -0.69565 251 250 251
-0.37588 -0.48955 -0.69203 251 250 251
-0.37014 -0.49194 -0.68841 251 250 251
-0.36442 -0.49433 -0.68480 251 250 251
-0.35870 -0.49672 -0.68118 251 250 251
-0.35298 -0.49911 -0.67758 251 250 251
-0.34727 -0.50149 -0.67397 251 249 251
-0.34156 -0.50388 -0.67037 251 250 251
-0.33586 -0.50626 -0.66677 251 250 251
-0.33016 -0.50863 -0.66317 251 250 251
-0.32447 -0.51101 -0.65958 251 250 251
-0.31878 -0.51339 -0.65599 251 250 251
-0.31309 -0.51576 -0.65240 251 250 251
-0.30741 -0.51813 -0.64882 251 250 250
-0.30174 -0.52050 -0.64523 251 250 251
-0.29607 -0.52287 -0.64165 251 250 250
-0.29040 -0.52523 -0.63808 251 250 251
-0.28474 -0.52759 -0.63451 252 250 251
-0.27908 -0.52996 -0.63093 252 250 251
-0.27343 -0.53232 -0.62737 252 250 251
-0.26778 -0.53467 -0.62380 252 251 251
-0.26214 -0.53703 -0.62024 252 251 251
-0.25650 -0.53938 -0.61668 252 251 251
-0.25087 -0.54173 -0.61313 252 251 251
-0.24524 -0.54408 -0.60957 252 251 251
-0.23961 -0.54643 -0.60602 252 252 252
-0.23399 -0.54878 -0.60247 252 252 252
-0.22838 -0.55112 -0.59893 252 252 252
-0.22276 -0.55347 -0.59539 252 252 252
-0.21716 -0.55581 -0.59185 252 252 252
-0.21155 -0.55815 -0.58831 253 253 253
-0.20596 -0.56048 -0.58478 253 253 253
-0.20036 -0.56282 -0.58125 253 253 253
-0.19477 -0.56515 -0.57772 253 253 253
-0.18919 -0.56748 -0.57420 253 253 253
-0.18361 -0.56981 -0.57067 254 253 254
-0.17803 -0.57214 -0.56715 254 254 254
-0.17246 -0.57446 -0.56364 254 254 254
-0.16689 -0.57679 -0.56012 254 254 254
-0.16133 -0.57911 -0.55661 254 254 254
-0.15577 -0.58143 -0.55311 254 254 254
-0.15022 -0.58375 -0.54960 254 254 254
-0.14467 -0.58607 -0.54610 254 254 254
-0.13913 -0.58838 -0.54260 254 254 254
-0.13359 -0.59069 -0.53910 254 254 254
-0.12805 -0.59300 -0.53561 254 254 254
-0.12252 -0.59531 -0.53212 254 254 254
-0.11699 -0.59762 -0.52863 254 254 254
-0.11147 -0.59993 -0.52514 254 254 254
-0.10595 -0.60223 -0.52166 254 254 254
-0.10044 -0.60453 -0.51818 254 254 254
-0.09493 -0.60683 -0.51470 254 254 254
-0.08942 -0.60913 -0.51123 254 254 254
-0.08392 -0.61143 -0.50775 254 254 254
-0.07842 -0.61372 -0.50428 254 254 254
-0.07293 -0.61601 -0.50082 254 254 254
-0.06744 -0.61830 -0.49735 254 254 254
-0.06196 -0.62059 -0.49389 254 254 254
-0.05648 -0.62288 -0.49043 254 254 254
-0.05101 -0.62517 -0.48698 254 254 254
-0.04554 -0.62745 -0.48353 254 254 254
-0.04007 -0.62973 -0.48008 254 254 254
-0.03461 -0.63201 -0.47663 254 254 254
-0.02915 -0.63429 -0.47318 254 254 254
-0.02370 -0.63657 -0.46974 254 254 254
-0.01825 -0.63884 -0.46630 254 254 254
-0.01280 -0.64111 -0.46287 254 254 254
-0.00736 -0.64338 -0.45943 254 254 254
-0.00193 -0.64565 -0.45600 254 254 253
0.00350 -0.64792 -0.45257 254 254 254
0.00893 -0.65019 -0.44915 254 254 254
-0.45534 -0.46445 -0.73426 251 250 251
-0.44957 -0.46685 -0.73062 251 250 252
-0.44380 -0.46926 -0.72698 250 249 251
-0.43803 -0.47166 -0.72334 250 249 251
-0.43227 -0.47406 -0.71971 250 249 251
-0.42651 -0.47646 -0.71608 250 249 251
-0.42076 -0.47886 -0.71245 250 249 251
-0.41501 -0.48126 -0.70883 251 249 251
-0.40927 -0.48365 -0.70521 251 249 251
-0.40353 -0.48604 -0.70159 251 250 251
-0.39780 -0.48843 -0.69797 251 249 250
-0.39207 -0.49082 -0.69436 251 250 251
-0.38635 -0.49321 -0.69075 251 250 251
-0.38063 -0.49559 -0.68714 251 250 250
-0.37491 -0.49798 -0.68354 251 250 250
-0.36920 -0.50036 -0.67994 251 250 252
-0.36350 -0.50273 -0.67634 251 250 251
-0.35780 -0.50511 -0.67274 251 250 252
-0.35210 -0.50749 -0.66915 251 250 251
-0.34641 -0.50986 -0.66556 251 250 251
-0.34072 -0.51223 -0.66198 251 250 251
-0.33504 -0.51460 -0.65839 251 250 251
-0.32936 -0.51696 -0.65481 251 250 251
-0.32369 -0.51933 -0.65123 251 250 251
-0.31802 -0.52169 -0.64766 251 250 251
-0.31235 -0.52405 -0.64409 251 250 251
-0.30669 -0.52641 -0.64052 252 250 251
-0.30104 -0.52877 -0.63695 251 250 251
-0.29539 -0.53113 -0.63339 252 250 251
-0.28974 -0.53348 -0.62983 252 250 251
-0.28410 -0.53583 -0.62627 252 250 251
-0.27846 -0.53818 -0.62272 252 251 251
-0.27283 -0.54053 -0.61916 252 251 251
-0.26720 -0.54288 -0.61562 252 251 251
-0.26158 -0.54522 -0.61207 252 251 251
-0.25596 -0.54756 -0.60853 252 251 251
-0.25035 -0.54990 -0.60498 252 252 252
-0.24474 -0.55224 -0.60145 252 252 252
-0.23913 -0.55458 -0.59791 252 252 252
-0.23353 -0.55691 -0.59438 252 252 252
-0.22793 -0.55925 -0.59085 252 252 252
-0.22234 -0.56158 -0.58732 252 252 253
-0.21675 -0.56391 -0.58380 253 253 253
-0.21117 -0.56624 -0.58028 253 253 253
-0.20559 -0.56856 -0.57676 253 253 253
-0.20002 -0.57089 -0.57325 253 253 253
-0.19445 -0.57321 -0.56973 253 253 254
-0.18888 -0.57553 -0.56622 254 254 254
-0.18332 -0.57785 -0.56272 254 254 254
-0.17776 -0.58016 -0.55921 254 254 254
-0.17221 -0.58248 -0.55571 254 254 254
-0.16666 -0.58479 -0.55221 254 254 254
-0.16112 -0.58710 -0.54872 254 254 254
-0.15558 -0.58941 -0.54523 254 254 254
-0.15005 -0.59172 -0.54174 254 254 254
-0.14452 -0.59402 -0.53825 254 254 254
-0.13899 -0.59633 -0.53476 254 254 254
-0.13347 -0.59863 -0.53128 254 254 254
-0.12795 -0.60093 -0.52780 254 254 254
-0.12244 -0.60323 -0.52433 254 254 254
-0.11693 -0.60552 -0.52085 254 254 254
-0.11143 -0.60782 -0.51738 254 254 254
-0.10593 -0.61011 -0.51391 254 254 254
-0.10043 -0.61240 -0.51045 254 254 254
-0.09494 -0.61469 -0.50699 254 254 254
-0.45986 -0.47058 -0.72923 251 249 251
-0.45410 -0.47298 -0.72561 251 250 251
-0.44835 -0.47537 -0.72198 251 249 251
-0.44260 -0.47777 -0.71836 251 249 251
-0.43685 -0.48016 -0.71474 251 249 251
-0.43111 -0.48255 -0.71112 251 249 251
-0.42537 -0.48494 -0.70751 251 249 251
-0.41964 -0.48732 -0.70389 251 249 251
-0.41392 -0.48971 -0.70029 251 249 252
-0.40819 -0.49209 -0.69668 251 250 251
-0.40248 -0.49447 -0.69308 251 250 251
-0.39676 -0.49685 -0.68948 251 250 252
-0.39106 -0.49922 -0.68588 251 250 251
-0.38535 -0.50160 -0.68229 251 250 251
-0.37965 -0.50397 -0.67870 251 250 251
-0.37396 -0.50634 -0.67511 251 250 251
-0.36827 -0.50871 -0.67153 251 249 250
-0.36258 -0.51108 -0.66794 251 250 251
-0.35690 -0.51344 -0.66436 251 250 251
-0.35123 -0.51580 -0.66079 251 250 251
-0.34555 -0.51817 -0.65721 251 250 252
-0.33989 -0.52052 -0.65364 251 250 252
-0.33422 -0.52288 -0.65008 251 250 251
-0.32857 -0.52524 -0.64651 251 250 252
-0.32291 -0.52759 -0.64295 251 250 252
-0.31726 -0.52994 -0.63939 251 250 251
-0.31162 -0.53229 -0.63583 251 250 251
-0.30598 -0.53464 -0.63228 252 250 251
-0.30034 -0.53699 -0.62873 252 250 251
-0.29471 -0.53933 -0.62518 252 250 251
-0.28909 -0.54167 -0.62164 252 250 251
-0.28346 -0.54401 -0.61809 252 251 251
-0.27785 -0.54635 -0.61455 252 251 251
-0.27223 -0.54869 -0.61102 252 251 251
-0.26663 -0.55102 -0.60748 252 251 251
-0.26102 -0.55336 -0.60395 252 251 252
-0.25542 -0.55569 -0.60043 252 252 252
-0.24983 -0.55802 -0.59690 252 252 252
-0.24424 -0.56035 -0.59338 253 252 252
-0.23865 -0.56267 -0.58986 253 252 252
-0.23307 -0.56499 -0.58634 253 253 252
-0.22749 -0.56732 -0.58283 253 253 253
-0.22192 -0.56964 -0.57932 254 253 253
-0.21635 -0.57195 -0.57581 254 253 253
-0.21079 -0.57427 -0.57230 254 253 254
-0.20523 -0.57659 -0.56880 254 253 254
-0.19967 -0.57890 -0.56530 254 254 254
-0.19412 -0.58121 -0.56180 254 254 254
-0.46435 -0.47667 -0.72424 251 249 251
-0.45861 -0.47906 -0.72062 251 249 251
-0.45287 -0.48145 -0.71701 251 249 251
-0.44713 -0.48383 -0.71340 251 249 251
-0.44141 -0.48621 -0.70980 251 249 251
-0.43568 -0.48859 -0.70619 251 249 251
-0.42996 -0.49097 -0.70259 251 249 251
-0.42424 -0.49335 -0.69899 251 249 251
-0.41853 -0.49572 -0.69540 251 249 251
-0.41283 -0.49809 -0.69181 251 250 251
-0.40712 -0.50046 -0.68822 251 250 252
-0.40143 -0.50283 -0.68463 251 250 252
-0.39573 -0.50520 -0.68105 251 250 251
-0.39005 -0.50756 -0.67747 251 250 251
-0.38436 -0.50993 -0.67389 251 250 251
-0.37868 -0.51229 -0.67031 251 250 251
-0.37301 -0.51465 -0.66674 251 250 251
-0.36734 -0.51701 -0.66317 251 250 251
-0.36167 -0.51936 -0.65960 252 250 251
-0.35601 -0.52171 -0.65604 252 250 252
-0.35036 -0.52407 -0.65248 252 250 252
-0.34470 -0.52642 -0.64892 252 250 251
-0.33906 -0.52876 -0.64537 252 250 251
-0.33341 -0.53111 -0.64182 252 250 252
-0.32778 -0.53345 -0.63827 252 251 252
-0.32214 -0.53580 -0.63472 252 251 251
-0.31651 -0.53814 -0.63118 253 251 251
-0.31089 -0.54047 -0.62763 253 251 252
0.54027 -0.35969 -0.61450 254 254 254
0.54669 -0.36263 -0.61022 254 254 254
0.55309 -0.36556 -0.60594 254 254 254
0.55948 -0.36849 -0.60168 254 254 254
0.56587 -0.37141 -0.59742 254 254 254
0.57224 -0.37433 -0.59316 254 254 254
0.57860 -0.37725 -0.58892 254 254 254
0.58495 -0.38016 -0.58468 254 254 254
0.59130 -0.38307 -0.58045 254 254 254
0.59763 -0.38597 -0.57622 254 254 254
0.60395 -0.38886 -0.57200 254 254 254
0.61026 -0.39176 -0.56779 254 254 254
0.61656 -0.39464 -0.56358 254 254 254
0.62286 -0.39753 -0.55938 254 254 254
0.62914 -0.40040 -0.55519 254 254 254
0.63541 -0.40328 -0.55100 254 254 254
0.64167 -0.40615 -0.54682 254 254 254
0.42768 -0.32117 -0.67704 254 254 254
0.43424 -0.32416 -0.67267 254 254 254
0.44079 -0.32716 -0.66830 254 254 254
0.44733 -0.33014 -0.66395 254 254 254
0.45386 -0.33312 -0.65960 254 254 254
0.46038 -0.33610 -0.65526 254 254 254
0.46689 -0.33907 -0.65093 254 254 254
0.47339 -0.34204 -0.64660 254 254 254
0.47988 -0.34500 -0.64228 254 254 254
0.48636 -0.34796 -0.63796 254 254 254
0.49282 -0.35091 -0.63366 254 254 254
0.49928 -0.35386 -0.62936 254 254 254
0.50573 -0.35681 -0.62507 254 254 254
0.51216 -0.35974 -0.62078 254 254 254
0.51859 -0.36268 -0.61650 254 254 254
0.52501 -0.36561 -0.61223 254 254 254
0.53141 -0.36853 -0.60796 254 254 254
0.53781 -0.37145 -0.60370 254 254 254
0.54419 -0.37437 -0.59945 254 254 254
0.55057 -0.37728 -0.59521 254 254 254
0.55693 -0.38019 -0.59097 254 254 254
0.56329 -0.38309 -0.58674 254 254 254
0.56963 -0.38599 -0.58251 254 254 254
0.57597 -0.38888 -0.57829 254 254 254
0.58229 -0.39177 -0.57408 254 254 254
0.58861 -0.39465 -0.56988 254 254 254
0.59491 -0.39753 -0.56568 254 254 254
0.60121 -0.40040 -0.56149 254 254 254
0.60749 -0.40327 -0.55730 254 254 254
0.61377 -0.40614 -0.55313 254 254 254
0.62003 -0.40900 -0.54895 254 254 254
0.62629 -0.41185 -0.54479 254 254 254
0.63253 -0.41471 -0.54063 254 254 254
0.35316 -0.30021 -0.71405 254 254 254
0.35981 -0.30323 -0.70964 254 254 254
0.36645 -0.30625 -0.70523 254 254 254
0.37308 -0.30927 -0.70082 254 254 254
0.37969 -0.31228 -0.69643 254 254 254
0.38630 -0.31529 -0.69204 254 254 254
0.39290 -0.31829 -0.68765 254 254 254
0.39948 -0.32128 -0.68328 254 254 254
0.40606 -0.32428 -0.67891 254 254 254
0.41262 -0.32726 -0.67455 254 254 254
0.41918 -0.33024 -0.67020 254 254 254
0.42572 -0.33322 -0.66585 254 254 254
0.43225 -0.33619 -0.66151 254 254 254
0.43877 -0.33916 -0.65718 254 254 254
0.44529 -0.34212 -0.65285 254 254 254
0.45179 -0.34508 -0.64853 254 254 254
0.45828 -0.34804 -0.64422 254 254 254
0.46476 -0.35098 -0.63992 254 254 254
0.47123 -0.35393 -0.63562 254 254 254
0.47769 -0.35687 -0.63133 254 254 254
0.48414 -0.35980 -0.62704 254 254 254
0.49058 -0.36273 -0.62276 254 254 254
0.49701 -0.36566 -0.61849 254 254 254
0.50342 -0.36858 -0.61423 254 254 254
0.50983 -0.37149 -0.60997 254 254 254
0.51623 -0.37440 -0.60572 254 254 254
0.52262 -0.37731 -0.60148 254 254 254
0.52900 -0.38021 -0.59724 254 254 254
0.53537 -0.38311 -0.59301 254 254 254
0.54172 -0.38600 -0.58879 254 254 254
0.54807 -0.38889 -0.58457 254 254 254
0.55441 -0.39178 -0.58036 254 254 254
0.56074 -0.39465 -0.57616 254 254 254
0.56705 -0.39753 -0.57196 254 254 254
0.57336 -0.40040 -0.56777 254 254 254
0.57966 -0.40326 -0.56359 254 254 254
0.58595 -0.40613 -0.55941 254 254 254
0.59222 -0.40898 -0.55524 254 254 254
0.59849 -0.41183 -0.55107 254 254 254
0.60475 -0.41468 -0.54692 254 254 254
0.61100 -0.41752 -0.54277 254 254 254
0.61724 -0.42036 -0.53862 254 254 254
0.33828 -0.30639 -0.71144 254 254 254
0.34492 -0.30940 -0.70704 254 254 254
0.35155 -0.31241 -0.70265 254 254 254
0.35817 -0.31541 -0.69826 254 254 254
0.36477 -0.31841 -0.69388 254 254 254
0.37137 -0.32140 -0.68951 254 254 254
0.37796 -0.32439 -0.68514 254 254 254
0.38454 -0.32737 -0.68078 254 254 254
0.39110 -0.33035 -0.67643 254 254 254
0.39766 -0.33332 -0.67208 254 254 254
0.40421 -0.33629 -0.66774 254 254 254
0.41074 -0.33925 -0.66341 254 254 254
0.41727 -0.34221 -0.65909 254 254 254
0.42378 -0.34516 -0.65477 254 254 254
0.43028 -0.34811 -0.65046 254 254 254
0.43678 -0.35105 -0.64616 254 254 254
0.44326 -0.35399 -0.64186 254 254 254
0.44973 -0.35693 -0.63757 254 254 254
0.45619 -0.35986 -0.63329 254 254 254
0.46265 -0.36278 -0.62901 254 254 254
0.46909 -0.36571 -0.62474 254 254 254
0.47552 -0.36862 -0.62048 254 254 254
0.48194 -0.37153 -0.61622 254 254 254
0.48835 -0.37444 -0.61197 254 254 254
0.49475 -0.37734 -0.60773 254 254 254
0.50114 -0.38024 -0.60349 254 254 254
0.50752 -0.38313 -0.59927 254 254 254
0.51389 -0.38602 -0.59504 254 254 254
0.52025 -0.38891 -0.59083 254 254 254
0.52660 -0.39179 -0.58662 254 254 254
0.53294 -0.39466 -0.58242 254 254 254
0.53927 -0.39753 -0.57822 254 254 254
0.54560 -0.40040 -0.57403 254 254 254
0.55191 -0.40326 -0.56985 254 254 254
0.55821 -0.40611 -0.56567 254 254 254
0.56450 -0.40897 -0.56150 254 254 254
0.57078 -0.41181 -0.55734 254 254 254
0.57705 -0.41466 -0.55318 254 254 254
0.58331 -0.41750 -0.54903 254 254 254
0.58956 -0.42033 -0.54489 254 254 254
0.59580 -0.42316 -0.54075 254 254 254
0.60203 -0.42599 -0.53662 254 254 254
0.60825 -0.42881 -0.53250 254 254 254
0.33011 -0.31553 -0.70446 254 254 254
0.33674 -0.31853 -0.70008 254 254 254
0.34335 -0.32151 -0.69571 254 254 254
0.34995 -0.32450 -0.69135 254 254 254
0.35654 -0.32747 -0.68699 254 254 254
0.36312 -0.33045 -0.68264 254 254 254
0.36969 -0.33342 -0.67830 254 254 254
0.37624 -0.33638 -0.67396 254 254 254
0.38279 -0.33934 -0.66963 254 254 254
0.38933 -0.34229 -0.66531 254 254 254
0.39585 -0.34524 -0.66099 254 254 254
0.40237 -0.34819 -0.65668 254 254 254
0.40888 -0.35113 -0.65238 254 254 254
0.41537 -0.35406 -0.64808 254 254 254
0.42186 -0.35699 -0.64379 254 254 254
0.42833 -0.35992 -0.63951 254 254 254
0.43480 -0.36284 -0.63524 254 254 254
0.44125 -0.36575 -0.63097 254 254 254
0.44770 -0.36867 -0.62671 254 254 254
0.45413 -0.37157 -0.62245 254 254 254
0.46055 -0.37448 -0.61821 254 254 254
0.46697 -0.37737 -0.61396 254 254 254
0.47337 -0.38027 -0.60973 254 254 254
0.47976 -0.38316 -0.60550 254 254 254
0.48615 -0.38604 -0.60128 254 254 254
0.49252 -0.38892 -0.59707 254 254 254
0.49888 -0.39180 -0.59286 254 254 254
0.50523 -0.39467 -0.58866 254 254 254
0.51158 -0.39753 -0.58446 254 254 254
0.51791 -0.40039 -0.58027 254 254 254
0.52423 -0.40325 -0.57609 254 254 254
0.53055 -0.40610 -0.57192 254 254 254
0.53685 -0.40895 -0.56775 254 254 254
0.54314 -0.41180 -0.56359 254 254 254
0.54943 -0.41463 -0.55943 254 254 254
0.55570 -0.41747 -0.55529 254 254 254
0.56196 -0.42030 -0.55114 254 254 254
0.56822 -0.42313 -0.54701 254 254 254
0.57446 -0.42595 -0.54288 254 254 254
0.58070 -0.42876 -0.53876 254 254 254
0.58692 -0.43158 -0.53464 254 254 254
0.59313 -0.43439 -0.53053 254 254 254
0.32202 -0.32461 -0.69754 254 254 254
0.32862 -0.32758 -0.69318 254 254 254
0.33521 -0.33055 -0.68883 254 254 254
0.34179 -0.33351 -0.68449 254 254 254
0.34836 -0.33647 -0.68015 254 254 254
0.35492 -0.33943 -0.67583 254 254 254
0.36147 -0.34237 -0.67150 254 254 254
0.36801 -0.34532 -0.66719 254 254 254
0.37454 -0.34826 -0.66288 254 254 254
0.38106 -0.35120 -0.65858 254 254 254
0.38757 -0.35413 -0.65429 254 254 254
0.39407 -0.35705 -0.65000 254 254 254
0.40055 -0.35997 -0.64572 254 254 254
0.40703 -0.36289 -0.64145 254 254 254
0.41350 -0.36580 -0.63718 254 254 254
0.41995 -0.36871 -0.63292 254 254 254
0.42640 -0.37161 -0.62867 254 254 254
0.43284 -0.37451 -0.62442 254 254 254
0.43926 -0.37740 -0.62018 254 254 254
0.44568 -0.38029 -0.61595 254 254 254
0.45208 -0.38318 -0.61172 254 254 254
0.45848 -0.38606 -0.60750 254 254 254
0.46486 -0.38893 -0.60329 254 254 254
0.47124 -0.39180 -0.59908 254 254 254
0.47761 -0.39467 -0.59488 254 254 254
0.48396 -0.39753 -0.59069 254 254 254
0.49031 -0.40039 -0.58650 254 254 254
0.49664 -0.40324 -0.58232 254 254 254
0.50297 -0.40609 -0.57815 254 254 254
0.50928 -0.40894 -0.57398 254 254 254
0.51559 -0.41178 -0.56982 254 254 254
0.52188 -0.41461 -0.56567 254 254 254
0.52817 -0.41744 -0.56152 254 254 254
0.53445 -0.42027 -0.55738 254 254 254
0.54071 -0.42309 -0.55324 254 254 254
0.54697 -0.42591 -0.54911 254 254 254
0.55322 -0.42872 -0.54499 254 254 254
0.55945 -0.43153 -0.54088 254 254 254
0.56568 -0.43433 -0.53677 254 254 254
0.57190 -0.43713 -0.53267 254 254 254
0.57811 -0.43993 -0.52857 254 254 254
0.58430 -0.44272 -0.52448 254 254 254
0.31398 -0.33361 -0.69067 254 254 254
0.32057 -0.33656 -0.68633 254 254 254
0.32714 -0.33951 -0.68201 254 254 254
0.33370 -0.34246 -0.67769 254 254 254
0.34025 -0.34540 -0.67337 254 254 254
0.34679 -0.34833 -0.66907 254 254 254
0.35333 -0.35126 -0.66477 254 254 254
0.35985 -0.35419 -0.66047 254 254 254
0.36636 -0.35711 -0.65619 254 254 254
0.37286 -0.36003 -0.65191 254 254 254
0.37935 -0.36294 -0.64764 254 254 254
0.38582 -0.36585 -0.64337 254 254 254
0.39229 -0.36875 -0.63911 254 254 254
0.39875 -0.37165 -0.63486 254 254 254
0.40520 -0.37455 -0.63062 254 254 254
0.41164 -0.37744 -0.62638 254 254 254
0.41807 -0.38032 -0.62215 254 254 254
0.42449 -0.38320 -0.61792 254 254 254
0.43089 -0.38608 -0.61370 254 254 254
0.43729 -0.38895 -0.60949 254 254 254
0.44368 -0.39181 -0.60528 254 254 254
0.45006 -0.39468 -0.60109 254 254 254
0.45642 -0.39753 -0.59689 254 254 254
0.46278 -0.40039 -0.59271 254 254 254
0.46913 -0.40324 -0.58853 254 254 254
0.47547 -0.40608 -0.58436 254 254 254
0.48180 -0.40892 -0.58019 254 254 254
0.48811 -0.41176 -0.57603 254 254 254
0.49442 -0.41459 -0.57188 254 254 254
0.50072 -0.41741 -0.56773 254 254 254
0.50701 -0.42024 -0.56359 254 254 254
0.51329 -0.42305 -0.55946 254 254 254
0.51956 -0.42587 -0.55533 254 254 254
0.52581 -0.42868 -0.55121 254 254 254
0.53206 -0.43148 -0.54710 254 254 254
0.53830 -0.43428 -0.54299 254 254 254
0.54453 -0.43708 -0.53889 254 254 254
0.55075 -0.43987 -0.53479 254 254 254
0.55696 -0.44266 -0.53071 254 254 254
0.56317 -0.44544 -0.52662 254 254 254
0.56936 -0.44822 -0.52255 254 254 254
0.29944 -0.33960 -0.68817 254 254 254
0.30601 -0.34254 -0.68385 254 254 254
0.31258 -0.34548 -0.67954 254 254 254
0.31913 -0.34841 -0.67523 254 254 254
0.32567 -0.35133 -0.67093 254 254 254
0.33221 -0.35426 -0.66664 254 254 254
0.33873 -0.35717 -0.66236 254 254 254
0.34524 -0.36009 -0.65808 254 254 254
0.35174 -0.36299 -0.65381 254 254 254
0.35823 -0.36590 -0.64954 254 254 254
0.36471 -0.36880 -0.64529 254 254 254
0.37119 -0.37169 -0.64104 254 254 254
0.37765 -0.37458 -0.63679 254 254 254
0.38410 -0.37747 -0.63256 254 254 254
0.39054 -0.38035 -0.62833 254 254 254
0.39697 -0.38322 -0.62410 254 254 254
0.40339 -0.38609 -0.61988 254 254 254
0.40980 -0.38896 -0.61567 254 254 254
0.41620 -0.39182 -0.61147 254 254 254
0.42259 -0.39468 -0.60727 254 254 254
0.42897 -0.39754 -0.60308 254 254 254
0.43534 -0.40039 -0.59890 254 254 254
0.44170 -0.40323 -0.59472 254 254 254
0.44805 -0.40607 -0.59055 254 254 254
0.45439 -0.40891 -0.58638 254 254 254
0.46072 -0.41174 -0.58223 254 254 254
0.46704 -0.41456 -0.57807 254 254 254
0.47335 -0.41739 -0.57393 254 254 254
0.47965 -0.42021 -0.56979 254 254 254
0.48594 -0.42302 -0.56566 254 254 254
0.49222 -0.42583 -0.56153 254 254 254
0.49849 -0.42863 -0.55741 254 254 254
0.50475 -0.43143 -0.55330 254 254 254
0.51101 -0.43423 -0.54919 254 254 254
0.51725 -0.43702 -0.54509 254 254 254
0.52348 -0.43981 -0.54100 254 254 254
0.52970 -0.44259 -0.53691 254 254 254
0.53592 -0.44537 -0.53283 254 254 254
0.54212 -0.44815 -0.52876 254 254 254
0.54831 -0.45092 -0.52469 254 254 254
0.55450 -0.45368 -0.52063 254 254 254
0.56067 -0.45645 -0.51657 254 254 254
0.28498 -0.34555 -0.68568 254 254 254
0.29155 -0.34848 -0.68138 254 254 254
0.29810 -0.35140 -0.67708 254 254 254
0.30465 -0.35432 -0.67279 254 254 254
0.31118 -0.35723 -0.66851 254 254 254
0.31771 -0.36014 -0.66423 254 254 254
0.32422 -0.36305 -0.65996 254 254 254
0.33072 -0.36595 -0.65570 254 254 254
0.33722 -0.36884 -0.65144 254 254 254
0.34370 -0.37173 -0.64720 254 254 254
0.35017 -0.37462 -0.64295 254 254 254
0.35664 -0.37750 -0.63872 254 254 254
0.36309 -0.38037 -0.63449 254 254 254
0.36953 -0.38325 -0.63027 254 254 254
0.37596 -0.38611 -0.62605 254 254 254
0.38239 -0.38898 -0.62184 254 254 254
0.38880 -0.39183 -0.61764 254 254 254
0.39520 -0.39469 -0.61344 254 254 254
0.40159 -0.39754 -0.60925 254 254 254
0.40797 -0.40038 -0.60507 254 254 254
0.41435 -0.40322 -0.60089 254 254 254
0.42071 -0.40606 -0.59672 254 254 254
0.42706 -0.40889 -0.59256 254 254 254
0.43340 -0.41172 -0.58840 254 254 254
0.43974 -0.41454 -0.58425 254 254 254
0.44606 -0.41736 -0.58011 254 254 254
0.45237 -0.42017 -0.57597 254 254 254
0.45867 -0.42298 -0.57184 254 254 254
0.46497 -0.42579 -0.56771 254 254 254
0.47125 -0.42859 -0.56360 254 254 254
0.47752 -0.43139 -0.55948 254 254 254
0.48379 -0.43418 -0.55538 254 254 254
0.49004 -0.43697 -0.55128 254 254 254
0.49629 -0.43975 -0.54719 254 254 254
0.50252 -0.44253 -0.54310 254 254 254
0.50875 -0.44530 -0.53902 254 254 254
0.51496 -0.44808 -0.53495 254 254 254
0.52117 -0.45084 -0.53088 254 254 254
0.52737 -0.45360 -0.52682 254 254 254
0.53355 -0.45636 -0.52276 254 254 254
0.53973 -0.45912 -0.51871 254 254 254
0.54590 -0.46187 -0.51467 254 254 254
0.55206 -0.46461 -0.51064 254 254 254
0.27061 -0.35147 -0.68321 254 254 254
0.27717 -0.35439 -0.67892 254 254 254
0.28372 -0.35730 -0.67464 254 254 254
0.29025 -0.36020 -0.67037 254 254 254
0.29678 -0.36310 -0.66610 254 254 254
0.30329 -0.36599 -0.66184 254 254 254
0.30980 -0.36888 -0.65758 254 254 254
0.31629 -0.37177 -0.65334 254 254 254
0.32278 -0.37465 -0.64909 254 254 254
0.32925 -0.37753 -0.64486 254 254 254
0.33572 -0.38040 -0.64063 254 254 254
0.34217 -0.38327 -0.63641 254 254 254
0.34862 -0.38613 -0.63220 254 254 254
0.35505 -0.38899 -0.62799 254 254 254
0.36148 -0.39184 -0.62379 254 254 254
0.36789 -0.39469 -0.61959 254 254 254
0.37430 -0.39754 -0.61540 254 254 254
0.38069 -0.40038 -0.61122 254 254 254
0.38707 -0.40322 -0.60705 254 254 254
0.39345 -0.40605 -0.60288 254 254 254
0.39981 -0.40888 -0.59872 254 254 254
0.40617 -0.41170 -0.59456 254 254 254
0.41251 -0.41452 -0.59041 254 254 254
0.41885 -0.41733 -0.58627 254 254 254
0.42517 -0.42014 -0.58213 254 254 254
0.43149 -0.42295 -0.57800 254 254 254
0.43779 -0.42575 -0.57388 254 254 254
0.44409 -0.42855 -0.56976 254 254 254
0.45665 -0.43413 -0.56155 254 254 254
0.46291 -0.43691 -0.55745 254 254 254
0.46917 -0.43969 -0.55336 254 254 254
0.47542 -0.44247 -0.54927 254 254 254
0.48166 -0.44524 -0.54519 254 254 254
0.48788 -0.44800 -0.54112 254 254 254
0.49410 -0.45077 -0.53705 254 254 254
0.50031 -0.45353 -0.53299 254 254 254
0.50651 -0.45628 -0.52894 254 254 254
0.51270 -0.45903 -0.52489 254 254 254
0.51888 -0.46178 -0.52085 254 254 254
0.53121 -0.46725 -0.51279 254 254 254
0.53736 -0.46999 -0.50876 254 254 254
0.24977 -0.35445 -0.68504 254 254 254
0.25633 -0.35736 -0.68076 254 254 254
0.26288 -0.36026 -0.67648 254 254 254
0.26942 -0.36315 -0.67222 254 254 254
0.27594 -0.36604 -0.66796 254 254 254
0.28246 -0.36893 -0.66370 254 254 254
0.50429 -0.46716 -0.51895 254 254 254
0.51045 -0.46989 -0.51493 254 254 254
0.52889 -0.47805 -0.50290 254 254 254
0.21587 -0.35161 -0.69542 254 254 254
0.22245 -0.35452 -0.69113 254 254 254
0.22902 -0.35742 -0.68685 254 254 254
0.23558 -0.36031 -0.68258 254 254 254
0.24213 -0.36320 -0.67832 254 254 254
0.24867 -0.36609 -0.67406 254 254 254
0.25520 -0.36897 -0.66981 254 254 254
0.26172 -0.37185 -0.66556 254 254 254
0.26823 -0.37472 -0.66132 254 254 254
0.27473 -0.37759 -0.65709 254 254 254
0.18862 -0.35168 -0.70150 254 254 254
0.19522 -0.35458 -0.69721 254 254 254
0.20180 -0.35748 -0.69293 254 254 254
0.20837 -0.36037 -0.68866 254 254 254
0.21493 -0.36325 -0.68440 254 254 254
0.22148 -0.36614 -0.68014 254 254 254
0.22803 -0.36901 -0.67589 254 254 254
0.23456 -0.37189 -0.67165 254 254 254
0.24108 -0.37476 -0.66741 254 254 254
0.24759 -0.37762 -0.66318 254 254 254
0.25409 -0.38048 -0.65896 254 254 254
0.26058 -0.38333 -0.65474 254 254 254
0.26706 -0.38618 -0.65053 254 254 254
0.16806 -0.35464 -0.70327 254 254 254
0.17465 -0.35754 -0.69900 254 254 254
0.18124 -0.36042 -0.69473 254 254 254
0.18781 -0.36331 -0.69047 254 254 254
0.19437 -0.36618 -0.68621 254 254 254
0.20093 -0.36906 -0.68196 254 254 254
0.20747 -0.37193 -0.67772 254 254 254
0.21400 -0.37479 -0.67348 254 254 254
0.22052 -0.37765 -0.66925 254 254 254
0.22704 -0.38051 -0.66503 254 254 254
0.23354 -0.38336 -0.66082 254 254 254
0.24003 -0.38620 -0.65661 254 254 254
0.24651 -0.38904 -0.65240 254 254 254
0.25298 -0.39188 -0.64821 254 254 254
0.25945 -0.39472 -0.64402 254 254 254
0.46718 -0.48580 -0.50933 254 254 254
0.47331 -0.48849 -0.50535 254 254 254
0.15418 -0.36048 -0.70077 254 254 254
0.16077 -0.36336 -0.69651 254 254 254
0.16734 -0.36623 -0.69226 254 254 254
0.17391 -0.36910 -0.68801 254 254 254
0.18046 -0.37196 -0.68377 254 254 254
0.18700 -0.37482 -0.67954 254 254 254
0.19354 -0.37768 -0.67531 254 254 254
0.20006 -0.38053 -0.67109 254 254 254
0.20658 -0.38338 -0.66687 254 254 254
0.21308 -0.38622 -0.66267 254 254 254
0.21957 -0.38906 -0.65846 254 254 254
0.22606 -0.39189 -0.65427 254 254 254
0.23253 -0.39472 -0.65008 254 254 254
0.23899 -0.39755 -0.64590 254 254 254
0.24545 -0.40037 -0.64172 254 254 254
0.25189 -0.40318 -0.63756 254 254 254
0.47127 -0.49907 -0.49561 254 254 254
0.01346 -0.31098 -0.78024 254 254 254
0.02023 -0.31393 -0.77587 254 254 254
0.02700 -0.31688 -0.77150 254 254 254
0.03375 -0.31982 -0.76714 254 254 254
0.04050 -0.32276 -0.76279 254 254 254
0.04723 -0.32569 -0.75844 254 254 254
0.05395 -0.32862 -0.75410 254 254 254
0.06066 -0.33154 -0.74976 254 254 254
0.06736 -0.33446 -0.74544 254 254 254
0.07406 -0.33738 -0.74112 254 254 254
0.08074 -0.34029 -0.73680 254 254 254
0.08741 -0.34319 -0.73250 254 254 254
0.09406 -0.34610 -0.72820 254 254 254
0.10071 -0.34899 -0.72391 254 254 254
0.10735 -0.35188 -0.71962 254 254 254
0.11398 -0.35477 -0.71534 254 254 254
0.12060 -0.35766 -0.71107 254 254 254
0.12720 -0.36053 -0.70680 254 254 254
0.13380 -0.36341 -0.70254 254 254 254
0.14039 -0.36628 -0.69829 254 254 254
0.14696 -0.36914 -0.69404 254 254 254
0.15353 -0.37200 -0.68980 254 254 254
0.16009 -0.37486 -0.68557 254 254 254
0.16663 -0.37771 -0.68135 254 254 254
0.17317 -0.38056 -0.67713 254 254 254
0.17969 -0.38340 -0.67291 254 254 254
0.18621 -0.38624 -0.66871 254 254 254
0.19271 -0.38907 -0.66451 254 254 254
0.19921 -0.39190 -0.66031 254 254 254
0.20569 -0.39473 -0.65613 254 254 254
0.21217 -0.39755 -0.65195 254 254 254
0.21863 -0.40036 -0.64777 254 254 254
0.22509 -0.40318 -0.64360 254 254 254
0.23153 -0.40598 -0.63944 254 254 254
0.23796 -0.40879 -0.63529 254 254 254
0.24439 -0.41159 -0.63114 254 254 254
0.46925 -0.50955 -0.48596 254 254 254
0.47532 -0.51219 -0.48204 254 254 254
-0.00007 -0.31700 -0.77749 254 254 254
0.00669 -0.31994 -0.77313 254 254 254
0.01345 -0.32287 -0.76878 254 254 254
0.02019 -0.32580 -0.76443 254 254 254
0.02693 -0.32872 -0.76009 254 254 254
0.03365 -0.33164 -0.75576 254 254 254
0.04036 -0.33456 -0.75143 254 254 254
0.04707 -0.33747 -0.74712 254 254 254
0.05376 -0.34037 -0.74280 254 254 254
0.06044 -0.34328 -0.73850 254 254 254
0.06711 -0.34617 -0.73420 254 254 254
0.07377 -0.34906 -0.72991 254 254 254
0.08042 -0.35195 -0.72563 254 254 254
0.08706 -0.35484 -0.72135 254 254 254
0.09369 -0.35771 -0.71708 254 254 254
0.10031 -0.36059 -0.71281 254 254 254
0.10691 -0.36346 -0.70855 254 254 254
0.11351 -0.36632 -0.70430 254 254 254
0.12010 -0.36918 -0.70006 254 254 254
0.12668 -0.37204 -0.69582 254 254 254
0.13324 -0.37489 -0.69159 254 254 254
0.13980 -0.37774 -0.68736 254 254 254
0.14635 -0.38058 -0.68315 254 254 254
0.15289 -0.38342 -0.67893 254 254 254
0.15941 -0.38626 -0.67473 254 254 254
0.16593 -0.38909 -0.67053 254 254 254
0.17243 -0.39191 -0.66634 254 254 254
0.17893 -0.39473 -0.66215 254 254 254
0.18542 -0.39755 -0.65797 254 254 254
0.19189 -0.40036 -0.65380 254 254 254
0.19836 -0.40317 -0.64964 254 254 254
0.20481 -0.40597 -0.64548 254 254 254
0.21126 -0.40877 -0.64132 254 254 254
0.21770 -0.41157 -0.63718 254 254 254
0.22412 -0.41436 -0.63304 254 254 254
0.23054 -0.41714 -0.62890 254 254 254
-0.00676 -0.32590 -0.77040 254 254 254
-0.00002 -0.32882 -0.76607 254 254 254
0.00672 -0.33174 -0.76174 254 254 254
0.01344 -0.33465 -0.75741 254 254 254
0.02015 -0.33756 -0.75310 254 254 254
0.02686 -0.34046 -0.74879 254 254 254
0.03355 -0.34336 -0.74448 254 254 254
0.04023 -0.34625 -0.74019 254 254 254
0.04690 -0.34914 -0.73590 254 254 254
0.05357 -0.35202 -0.73161 254 254 254
0.06022 -0.35490 -0.72734 254 254 254
0.06686 -0.35777 -0.72307 254 254 254
0.07349 -0.36064 -0.71881 254 254 254
0.08011 -0.36351 -0.71455 254 254 254
0.08672 -0.36637 -0.71030 254 254 254
0.09331 -0.36923 -0.70606 254 254 254
0.09990 -0.37208 -0.70182 254 254 254
0.10648 -0.37493 -0.69759 254 254 254
0.11305 -0.37777 -0.69337 254 254 254
0.11961 -0.38061 -0.68915 254 254 254
0.12616 -0.38344 -0.68494 254 254 254
0.13269 -0.38627 -0.68074 254 254 254
0.13922 -0.38910 -0.67654 254 254 254
0.14574 -0.39192 -0.67235 254 254 254
0.15225 -0.39474 -0.66816 254 254 254
0.15874 -0.39755 -0.66399 254 254 254
0.16523 -0.40036 -0.65982 254 254 254
0.17171 -0.40316 -0.65565 254 254 254
0.17818 -0.40596 -0.65149 254 254 254
0.18463 -0.40876 -0.64734 254 254 254
0.19108 -0.41155 -0.64319 254 254 254
0.19752 -0.41434 -0.63906 254 254 254
0.20395 -0.41712 -0.63492 254 254 254
0.21036 -0.41990 -0.63080 254 254 254
0.21677 -0.42267 -0.62668 254 254 254
-0.01340 -0.33474 -0.76338 254 254 254
-0.00668 -0.33765 -0.75906 254 254 254
0.00004 -0.34054 -0.75475 254 254 254
0.00674 -0.34344 -0.75045 254 254 254
0.01343 -0.34632 -0.74616 254 254 254
0.02012 -0.34921 -0.74187 254 254 254
0.02679 -0.35209 -0.73759 254 254 254
0.03345 -0.35496 -0.73331 254 254 254
0.04010 -0.35783 -0.72904 254 254 254
0.04674 -0.36070 -0.72478 254 254 254
0.05337 -0.36356 -0.72053 254 254 254
0.05999 -0.36642 -0.71628 254 254 254
0.06661 -0.36927 -0.71204 254 254 254
0.07321 -0.37212 -0.70780 254 254 254
0.07979 -0.37496 -0.70357 254 254 254
0.08637 -0.37780 -0.69935 254 254 254
0.09294 -0.38063 -0.69514 254 254 254
0.09950 -0.38347 -0.69093 254 254 254
0.10605 -0.38629 -0.68672 254 254 254
0.11259 -0.38911 -0.68253 254 254 254
0.11912 -0.39193 -0.67834 254 254 254
0.12564 -0.39474 -0.67416 254 254 254
0.13215 -0.39755 -0.66998 254 254 254
0.13865 -0.40036 -0.66581 254 254 254
0.14513 -0.40316 -0.66165 254 254 254
0.15161 -0.40595 -0.65749 254 254 254
0.15808 -0.40874 -0.65334 254 254 254
0.16454 -0.41153 -0.64920 254 254 254
0.17099 -0.41431 -0.64506 254 254 254
0.17743 -0.41709 -0.64093 254 254 254
0.18386 -0.41987 -0.63680 254 254 254
0.19028 -0.42264 -0.63268 254 254 254
0.19668 -0.42540 -0.62857 254 254 254
0.20308 -0.42816 -0.62446 254 254 254
-0.03343 -0.33773 -0.76501 254 254 254
-0.02671 -0.34063 -0.76070 254 254 254
-0.01999 -0.34352 -0.75640 254 254 254
-0.01329 -0.34640 -0.75211 254 254 254
-0.00659 -0.34928 -0.74782 254 254 254
0.00009 -0.35215 -0.74354 254 254 254
0.00676 -0.35503 -0.73927 254 254 254
0.01343 -0.35789 -0.73500 254 254 254
0.02008 -0.36075 -0.73074 254 254 254
0.02672 -0.36361 -0.72649 254 254 254
0.03335 -0.36646 -0.72224 254 254 254
0.03997 -0.36931 -0.71800 254 254 254
0.04658 -0.37216 -0.71377 254 254 254
0.05319 -0.37499 -0.70954 254 254 254
0.05978 -0.37783 -0.70532 254 254 254
0.06636 -0.38066 -0.70110 254 254 254
0.07293 -0.38349 -0.69690 254 254 254
0.07949 -0.38631 -0.69270 254 254 254
0.08604 -0.38913 -0.68850 254 254 254
0.09258 -0.39194 -0.68431 254 254 254
0.09911 -0.39475 -0.68013 254 254 254
0.10563 -0.39755 -0.67596 254 254 254
0.11214 -0.40035 -0.67179 254 254 254
0.11864 -0.40315 -0.66763 254 254 254
0.12513 -0.40594 -0.66347 254 254 254
0.13161 -0.40873 -0.65932 254 254 254
0.13807 -0.41151 -0.65518 254 254 254
0.14453 -0.41429 -0.65104 254 254 254
0.15098 -0.41706 -0.64691 254 254 254
0.15742 -0.41983 -0.64279 254 254 254
0.16385 -0.42260 -0.63867 254 254 254
0.17028 -0.42536 -0.63456 254 254 254
0.17669 -0.42812 -0.63045 254 254 254
0.18309 -0.43087 -0.62636 254 254 254
0.18948 -0.43362 -0.62226 254 254 254
-0.04665 -0.34360 -0.76233 254 254 254
-0.03993 -0.34648 -0.75804 254 254 254
-0.03323 -0.34935 -0.75375 254 254 254
-0.02653 -0.35222 -0.74948 254 254 254
-0.01985 -0.35509 -0.74520 254 254 254
-0.01317 -0.35795 -0.74094 254 254 254
-0.00651 -0.36081 -0.73668 254 254 254
0.00014 -0.36366 -0.73243 254 254 254
0.00679 -0.36651 -0.72818 254 254 254
0.01342 -0.36935 -0.72395 254 254 254
0.02004 -0.37219 -0.71971 254 254 254
0.02665 -0.37503 -0.71549 254 254 254
0.03325 -0.37786 -0.71127 254 254 254
0.03985 -0.38069 -0.70706 254 254 254
0.04643 -0.38351 -0.70285 254 254 254
0.05300 -0.38633 -0.69865 254 254 254
0.05956 -0.38914 -0.69446 254 254 254
0.06611 -0.39195 -0.69027 254 254 254
0.07265 -0.39475 -0.68609 254 254 254
0.07918 -0.39755 -0.68192 254 254 254
0.08570 -0.40035 -0.67775 254 254 254
0.09221 -0.40314 -0.67359 254 254 254
0.09871 -0.40593 -0.66944 254 254 254
0.10520 -0.40871 -0.66529 254 254 254
0.11169 -0.41149 -0.66115 254 254 254
0.11816 -0.41427 -0.65701 254 254 254
0.12462 -0.41704 -0.65288 254 254 254
0.13107 -0.41980 -0.64876 254 254 254
0.13751 -0.42257 -0.64464 254 254 254
0.14394 -0.42532 -0.64053 254 254 254
0.15036 -0.42808 -0.63643 254 254 254
0.15677 -0.43083 -0.63233 254 254 254
0.16318 -0.43357 -0.62824 254 254 254
0.16957 -0.43631 -0.62416 254 254 254
-0.05978 -0.34942 -0.75967 253 253 253
-0.05308 -0.35229 -0.75540 253 253 253
-0.04638 -0.35515 -0.75113 254 254 254
-0.03970 -0.35801 -0.74686 254 254 254
-0.03302 -0.36086 -0.74261 254 254 254
-0.02636 -0.36371 -0.73836 254 254 254
-0.01970 -0.36656 -0.73411 254 254 254
-0.01306 -0.36940 -0.72987 254 254 254
-0.00643 -0.37223 -0.72564 254 254 254
0.00020 -0.37506 -0.72142 254 254 254
0.00681 -0.37789 -0.71720 254 254 254
0.01341 -0.38071 -0.71299 254 254 254
0.02000 -0.38353 -0.70879 254 254 254
0.02659 -0.38634 -0.70459 254 254 254
0.03316 -0.38915 -0.70040 254 254 254
0.03972 -0.39196 -0.69621 254 254 254
0.04627 -0.39476 -0.69203 254 254 254
0.05281 -0.39756 -0.68786 254 254 254
0.05934 -0.40035 -0.68370 254 254 254
0.06587 -0.40314 -0.67954 254 254 254
0.07238 -0.40592 -0.67538 254 254 254
0.07888 -0.40870 -0.67124 254 254 254
0.08537 -0.41147 -0.66710 254 254 254
0.09185 -0.41425 -0.66296 254 254 254
0.09832 -0.41701 -0.65883 254 254 254
0.10479 -0.41977 -0.65471 254 254 254
0.11124 -0.42253 -0.65060 254 254 254
0.11768 -0.42529 -0.64649 254 254 254
0.12411 -0.42804 -0.64239 254 254 254
0.13054 -0.43078 -0.63829 254 254 254
0.13695 -0.43352 -0.63420 254 254 254
0.14335 -0.43626 -0.63012 254 254 254
0.14975 -0.43899 -0.62604 254 254 254
-0.07954 -0.35236 -0.76130 253 253 253
-0.07284 -0.35521 -0.75703 253 253 253
-0.06614 -0.35807 -0.75277 253 253 253
-0.05946 -0.36092 -0.74851 253 253 253
-0.05278 -0.36376 -0.74426 253 253 254
-0.04612 -0.36660 -0.74002 254 254 254
-0.03946 -0.36944 -0.73579 254 254 254
-0.03282 -0.37227 -0.73156 254 254 254
-0.02619 -0.37510 -0.72733 254 254 254
-0.01956 -0.37792 -0.72312 254 254 254
-0.01295 -0.38074 -0.71891 254 254 254
-0.00635 -0.38355 -0.71471 254 254 254
0.00025 -0.38636 -0.71051 254 254 254
0.00683 -0.38917 -0.70632 254 254 254
0.01340 -0.39197 -0.70214 254 254 254
0.01997 -0.39476 -0.69796 254 254 254
0.02652 -0.39756 -0.69379 254 254 254
0.03306 -0.40035 -0.68962 254 254 254
0.03959 -0.40313 -0.68547 254 254 254
0.04612 -0.40591 -0.68131 254 254 254
0.05263 -0.40868 -0.67717 254 254 254
0.05913 -0.41146 -0.67303 254 254 254
0.06562 -0.41422 -0.66890 254 254 254
0.07211 -0.41699 -0.66477 254 254 254
0.07858 -0.41974 -0.66065 254 254 254
0.08504 -0.42250 -0.65654 254 254 254
0.09150 -0.42525 -0.65243 254 254 254
0.09794 -0.42799 -0.64833 254 254 254
0.10437 -0.43074 -0.64423 254 254 254
0.11080 -0.43347 -0.64014 254 254 254
0.11721 -0.43621 -0.63606 254 254 254
0.12361 -0.43894 -0.63199 254 254 254
-0.10594 -0.35242 -0.76718 252 252 253
-0.09922 -0.35528 -0.76292 253 253 253
-0.09251 -0.35813 -0.75866 253 253 253
-0.08582 -0.36097 -0.75440 253 253 253
-0.07913 -0.36381 -0.75016 253 253 253
-0.07246 -0.36665 -0.74591 253 253 253
-0.06579 -0.36948 -0.74168 253 253 253
-0.05914 -0.37231 -0.73745 253 253 253
-0.05249 -0.37513 -0.73323 253 253 254
-0.04586 -0.37795 -0.72902 254 254 254
-0.03923 -0.38076 -0.72481 254 254 254
-0.03262 -0.38357 -0.72061 254 254 254
-0.02601 -0.38638 -0.71641 254 254 254
-0.01942 -0.38918 -0.71222 254 254 254
-0.01284 -0.39198 -0.70804 254 254 254
-0.00626 -0.39477 -0.70387 254 254 254
0.00030 -0.39756 -0.69970 254 254 254
0.00685 -0.40034 -0.69553 254 254 254
0.01340 -0.40312 -0.69138 254 254 254
0.01993 -0.40590 -0.68723 254 254 254
0.02645 -0.40867 -0.68308 254 254 254
0.03297 -0.41144 -0.67895 254 254 254
0.03947 -0.41420 -0.67481 254 254 254
0.04596 -0.41696 -0.67069 254 254 254
0.05245 -0.41971 -0.66657 254 254 254
0.05892 -0.42246 -0.66246 254 254 254
0.06538 -0.42521 -0.65835 254 254 254
0.07184 -0.42795 -0.65425 254 254 254
0.07828 -0.43069 -0.65016 254 254 254
0.08472 -0.43342 -0.64607 254 254 254
0.09114 -0.43615 -0.64199 254 254 254
0.09756 -0.43888 -0.63791 254 254 254
0.10396 -0.44160 -0.63385 254 254 254
-0.13225 -0.35249 -0.77305 252 252 252
-0.12552 -0.35534 -0.76879 252 252 252
-0.11881 -0.35818 -0.76453 252 252 252
-0.11210 -0.36102 -0.76028 252 252 252
-0.10540 -0.36386 -0.75603 252 252 253
-0.09872 -0.36669 -0.75179 253 253 253
-0.09204 -0.36952 -0.74756 253 253 253
-0.08538 -0.37234 -0.74333 253 253 253
-0.07872 -0.37516 -0.73911 253 253 253
-0.07208 -0.37798 -0.73490 253 253 253
-0.06544 -0.38079 -0.73069 253 253 253
-0.05882 -0.38359 -0.72649 253 253 253
-0.05220 -0.38640 -0.72230 254 254 254
-0.04560 -0.38919 -0.71811 254 254 254
-0.03900 -0.39199 -0.71393 254 254 254
-0.03242 -0.39478 -0.70976 254 254 254
-0.02585 -0.39756 -0.70559 254 254 254
-0.01928 -0.40034 -0.70143 254 254 254
-0.01273 -0.40312 -0.69727 254 254 254
-0.00618 -0.40589 -0.69312 254 254 254
0.00035 -0.40866 -0.68898 254 254 254
0.00687 -0.41142 -0.68485 254 254 254
0.01339 -0.41418 -0.68072 254 254 254
0.01989 -0.41693 -0.67659 254 254 254
0.02639 -0.41968 -0.67247 254 254 254
0.03287 -0.42243 -0.66836 254 254 254
0.03935 -0.42517 -0.66426 254 254 254
0.04581 -0.42791 -0.66016 254 254 254
0.05227 -0.43065 -0.65607 254 254 254
0.05871 -0.43338 -0.65198 254 254 254
0.06515 -0.43610 -0.64790 254 254 254
0.07157 -0.43882 -0.64383 254 254 254
0.07799 -0.44154 -0.63976 254 254 254
0.08439 -0.44425 -0.63570 254 254 254
0.09079 -0.44696 -0.63164 254 254 254
-0.15175 -0.35540 -0.77464 252 252 252
-0.14503 -0.35824 -0.77038 252 252 252
-0.13831 -0.36108 -0.76613 252 252 252
-0.13160 -0.36391 -0.76189 252 252 252
-0.12490 -0.36674 -0.75765 252 252 252
-0.11822 -0.36956 -0.75342 252 252 252
-0.11154 -0.37238 -0.74920 252 252 252
-0.10488 -0.37520 -0.74498 252 252 253
-0.09822 -0.37801 -0.74077 253 253 253
-0.09158 -0.38081 -0.73656 253 253 253
-0.08494 -0.38362 -0.73236 253 253 253
-0.07831 -0.38641 -0.72817 253 253 253
-0.07170 -0.38921 -0.72398 253 253 253
-0.06509 -0.39200 -0.71981 253 253 253
-0.05850 -0.39478 -0.71563 254 254 254
-0.05192 -0.39756 -0.71147 254 254 254
-0.04534 -0.40034 -0.70731 254 254 254
-0.03878 -0.40311 -0.70315 254 254 254
-0.03222 -0.40588 -0.69900 254 254 254
-0.02568 -0.40864 -0.69486 254 254 254
-0.01914 -0.41140 -0.69073 254 254 254
-0.01262 -0.41416 -0.68660 254 254 254
-0.00610 -0.41691 -0.68248 254 254 254
0.00040 -0.41965 -0.67836 254 254 254
0.00690 -0.42240 -0.67425 254 254 254
0.01338 -0.42514 -0.67015 254 254 254
0.01986 -0.42787 -0.66605 254 254 254
0.02632 -0.43060 -0.66196 254 254 254
0.03278 -0.43333 -0.65787 254 254 254
0.03922 -0.43605 -0.65380 254 254 254
0.04566 -0.43877 -0.64972 254 254 254
0.05209 -0.44148 -0.64566 254 254 254
0.05850 -0.44419 -0.64160 254 254 254
0.06491 -0.44690 -0.63754 254 254 254
0.07131 -0.44960 -0.63349 254 254 254
-0.17117 -0.35830 -0.77622 252 251 251
-0.16444 -0.36113 -0.77197 252 251 251
-0.15772 -0.36396 -0.76773 252 251 252
-0.15102 -0.36678 -0.76349 252 252 252
-0.14432 -0.36960 -0.75926 252 252 252
-0.13763 -0.37242 -0.75504 252 252 252
-0.13096 -0.37523 -0.75082 252 252 252
-0.12429 -0.37804 -0.74661 252 252 252
-0.11763 -0.38084 -0.74241 252 252 252
-0.11099 -0.38364 -0.73821 252 252 252
-0.10435 -0.38643 -0.73402 252 252 253
-0.09773 -0.38922 -0.72984 253 253 253
-0.09111 -0.39200 -0.72566 253 253 253
-0.08451 -0.39479 -0.72149 253 253 253
-0.07791 -0.39756 -0.71732 253 253 253
-0.07133 -0.40034 -0.71317 253 253 253
-0.06475 -0.40310 -0.70901 253 253 254
-0.05819 -0.40587 -0.70487 254 254 254
-0.05163 -0.40863 -0.70073 254 254 254
-0.04509 -0.41138 -0.69659 254 254 254
-0.03855 -0.41413 -0.69247 254 254 254
-0.03203 -0.41688 -0.68835 254 254 254
0.22110 -0.52345 -0.52849 254 254 254
0.22724 -0.52604 -0.52461 254 254 254
0.23337 -0.52862 -0.52074 254 254 254
0.23949 -0.53119 -0.51688 254 254 254
-0.24470 -0.33843 -0.81196 251 250 252
-0.23789 -0.34129 -0.80767 251 250 252
-0.23109 -0.34415 -0.80338 251 250 252
-0.22430 -0.34700 -0.79910 251 250 252
-0.21752 -0.34984 -0.79482 251 250 252
-0.21075 -0.35269 -0.79056 251 250 252
-0.20399 -0.35552 -0.78630 251 250 252
-0.19724 -0.35836 -0.78204 251 250 252
-0.19050 -0.36119 -0.77780 252 250 252
-0.18377 -0.36401 -0.77355 252 250 252
-0.17705 -0.36683 -0.76932 252 250 252
-0.17035 -0.36964 -0.76509 252 251 251
-0.16365 -0.37246 -0.76087 252 251 251
-0.15696 -0.37526 -0.75666 252 251 252
-0.15029 -0.37807 -0.75245 252 252 252
-0.14362 -0.38086 -0.74825 252 252 252
-0.13696 -0.38366 -0.74405 252 252 252
-0.13032 -0.38645 -0.73986 252 252 252
-0.12368 -0.38923 -0.73568 252 252 252
-0.11706 -0.39201 -0.73150 252 252 252
-0.11044 -0.39479 -0.72733 252 252 252
-0.10383 -0.39756 -0.72317 252 252 253
-0.09724 -0.40033 -0.71901 253 253 253
-0.09065 -0.40310 -0.71486 253 253 253
-0.08408 -0.40586 -0.71071 253 253 253
-0.07751 -0.40861 -0.70658 253 253 253
-0.07096 -0.41136 -0.70244 253 253 253
-0.06441 -0.41411 -0.69832 253 253 254
-0.05788 -0.41686 -0.69420 254 254 254
-0.05135 -0.41960 -0.69009 254 254 254
0.20795 -0.52844 -0.52664 254 254 254
0.21408 -0.53101 -0.52278 254 254 254
0.22020 -0.53358 -0.51892 254 254 254
0.22631 -0.53615 -0.51507 254 254 254
0.23242 -0.53871 -0.51122 254 254 254
0.23851 -0.54127 -0.50738 254 254 254
-0.32573 -0.31552 -0.85233 251 249 251
-0.31882 -0.31841 -0.84798 251 249 251
-0.31192 -0.32130 -0.84364 251 249 251
-0.30504 -0.32418 -0.83931 251 249 251
-0.29816 -0.32706 -0.83499 251 249 251
-0.29130 -0.32993 -0.83067 251 249 251
-0.28444 -0.33280 -0.82636 251 250 251
-0.27760 -0.33566 -0.82205 251 250 251
-0.27077 -0.33852 -0.81775 251 250 251
-0.26395 -0.34138 -0.81346 251 250 251
-0.25713 -0.34423 -0.80917 251 250 251
-0.25033 -0.34707 -0.80490 251 250 252
-0.24354 -0.34991 -0.80062 251 250 252
-0.23676 -0.35275 -0.79636 251 250 252
-0.22999 -0.35558 -0.79210 251 250 252
-0.22323 -0.35841 -0.78785 251 250 252
-0.21649 -0.36124 -0.78360 251 250 252
-0.20975 -0.36406 -0.77936 251 250 252
-0.20302 -0.36687 -0.77513 251 250 252
-0.19630 -0.36969 -0.77090 251 250 252
-0.18959 -0.37249 -0.76668 252 250 252
-0.18290 -0.37530 -0.76247 252 250 252
-0.17621 -0.37809 -0.75826 252 250 252
-0.16953 -0.38089 -0.75406 252 251 251
-0.16287 -0.38368 -0.74987 252 251 251
-0.15621 -0.38646 -0.74568 252 251 252
-0.14956 -0.38925 -0.74150 252 252 252
-0.14293 -0.39202 -0.73732 252 252 252
-0.13630 -0.39480 -0.73316 252 252 252
