ply
format ascii 1.0
element face 0
property list uchar int vertex_indices
element vertex 1236
property float x
property float y
property float z
property uchar diffuse_red
property uchar diffuse_green
property uchar diffuse_blue
end_header
0.17319 -0.65398 -0.42200 254 254 254
0.17806 -0.65615 -0.41895 254 254 254
0.18292 -0.65832 -0.41589 254 254 254
0.18779 -0.66048 -0.41284 254 253 252
0.19265 -0.66265 -0.40979 253 251 250
0.19751 -0.66481 -0.40674 252 251 250
0.20236 -0.66697 -0.40370 252 251 250
0.20721 -0.66913 -0.40065 252 251 250
0.21206 -0.67129 -0.39761 250 250 249
0.21691 -0.67345 -0.39457 249 248 246
0.22176 -0.67561 -0.39153 250 248 247
0.22660 -0.67776 -0.38849 249 247 246
0.23143 -0.67991 -0.38545 249 248 247
0.23627 -0.68207 -0.38242 251 249 248
0.24110 -0.68422 -0.37939 250 248 247
0.24593 -0.68637 -0.37635 249 246 246
0.25076 -0.68852 -0.37333 247 246 245
0.25558 -0.69067 -0.37030 246 245 243
-0.35793 -0.42437 -0.74881 234 233 232
-0.35276 -0.42667 -0.74557 233 230 229
-0.34759 -0.42897 -0.74233 232 229 226
-0.34243 -0.43126 -0.73910 231 228 225
-0.33727 -0.43356 -0.73586 230 227 226
-0.33211 -0.43585 -0.73263 230 227 225
-0.32696 -0.43815 -0.72939 231 228 227
-0.32181 -0.44044 -0.72616 232 229 228
-0.31666 -0.44273 -0.72294 231 229 229
-0.31152 -0.44501 -0.71971 232 229 229
-0.30638 -0.44730 -0.71649 232 229 231
-0.30124 -0.44959 -0.71326 233 230 232
-0.29611 -0.45187 -0.71004 234 230 230
-0.29097 -0.45415 -0.70682 233 230 230
-0.28584 -0.45644 -0.70361 232 230 230
-0.28072 -0.45872 -0.70039 232 231 230
-0.27560 -0.46099 -0.69718 233 231 231
-0.27048 -0.46327 -0.69397 234 232 231
-0.26536 -0.46555 -0.69076 234 231 231
-0.26025 -0.46782 -0.68755 234 230 231
-0.25514 -0.47010 -0.68435 234 231 232
-0.25003 -0.47237 -0.68115 237 234 236
-0.24492 -0.47464 -0.67794 236 234 235
-0.23982 -0.47691 -0.67475 236 235 234
-0.23472 -0.47917 -0.67155 237 235 237
-0.22963 -0.48144 -0.66835 238 235 239
-0.22454 -0.48371 -0.66516 237 236 238
-0.21945 -0.48597 -0.66197 238 237 238
-0.21436 -0.48823 -0.65878 238 237 239
-0.20928 -0.49049 -0.65559 238 238 238
-0.20420 -0.49275 -0.65240 238 238 239
-0.19912 -0.49501 -0.64922 239 238 239
-0.19404 -0.49727 -0.64604 239 240 240
-0.18897 -0.49953 -0.64286 241 241 241
-0.18391 -0.50178 -0.63968 241 241 241
-0.17884 -0.50403 -0.63650 241 240 241
-0.17378 -0.50628 -0.63333 242 241 241
-0.16872 -0.50853 -0.63015 243 241 241
-0.16366 -0.51078 -0.62698 243 242 241
-0.15861 -0.51303 -0.62381 242 242 242
-0.15356 -0.51528 -0.62065 244 242 241
-0.14851 -0.51752 -0.61748 245 244 243
-0.14347 -0.51977 -0.61432 245 245 245
-0.13843 -0.52201 -0.61116 246 245 245
-0.13339 -0.52425 -0.60800 247 246 246
-0.12835 -0.52649 -0.60484 249 247 247
-0.12332 -0.52873 -0.60168 249 249 250
-0.11829 -0.53097 -0.59853 249 248 249
-0.11326 -0.53320 -0.59538 250 250 250
-0.10824 -0.53544 -0.59223 251 249 249
-0.10322 -0.53767 -0.58908 251 250 250
-0.09820 -0.53990 -0.58593 250 250 249
-0.09319 -0.54213 -0.58279 251 251 250
-0.08818 -0.54436 -0.57964 252 252 251
-0.08317 -0.54659 -0.57650 252 252 252
-0.07816 -0.54882 -0.57336 253 253 253
-0.07316 -0.55104 -0.57023 254 253 253
-0.06816 -0.55327 -0.56709 254 252 253
-0.06316 -0.55549 -0.56396 254 253 253
-0.05817 -0.55771 -0.56083 254 253 253
-0.05318 -0.55993 -0.55770 254 254 254
-0.04819 -0.56215 -0.55457 254 254 254
-0.04321 -0.56437 -0.55144 254 254 254
-0.03822 -0.56658 -0.54832 254 254 254
-0.03324 -0.56880 -0.54519 254 254 254
-0.02827 -0.57101 -0.54207 254 254 254
-0.02329 -0.57322 -0.53895 254 254 254
-0.01832 -0.57543 -0.53584 253 252 252
-0.01336 -0.57764 -0.53272 252 251 250
-0.00839 -0.57985 -0.52961 254 252 252
-0.00343 -0.58206 -0.52650 254 254 254
0.00153 -0.58426 -0.52339 254 254 254
0.00648 -0.58647 -0.52028 254 254 254
0.01144 -0.58867 -0.51717 254 254 254
0.01639 -0.59087 -0.51407 254 254 254
0.02133 -0.59307 -0.51097 254 254 254
0.02628 -0.59527 -0.50787 254 254 254
0.03122 -0.59747 -0.50477 254 254 254
0.03616 -0.59967 -0.50167 254 254 254
0.04109 -0.60186 -0.49857 254 254 254
0.04603 -0.60406 -0.49548 254 254 254
0.05096 -0.60625 -0.49239 254 254 254
0.05588 -0.60844 -0.48930 254 254 254
0.06081 -0.61063 -0.48621 254 254 254
0.06573 -0.61282 -0.48313 254 254 254
0.07065 -0.61501 -0.48004 254 254 254
0.07556 -0.61720 -0.47696 254 254 254
0.08047 -0.61938 -0.47388 254 254 254
0.08538 -0.62156 -0.47080 254 254 254
0.09029 -0.62375 -0.46772 254 254 254
0.09519 -0.62593 -0.46465 254 254 254
0.10010 -0.62811 -0.46157 254 254 254
0.10499 -0.63029 -0.45850 254 254 254
0.10989 -0.63246 -0.45543 254 254 254
0.11478 -0.63464 -0.45236 254 254 254
0.11967 -0.63682 -0.44930 254 254 254
0.12456 -0.63899 -0.44623 254 254 253
0.12944 -0.64116 -0.44317 254 254 254
0.13432 -0.64333 -0.44011 254 254 254
0.13920 -0.64550 -0.43705 254 253 253
0.14408 -0.64767 -0.43399 254 254 254
0.14895 -0.64984 -0.43093 254 253 254
0.15382 -0.65201 -0.42788 254 254 254
0.15869 -0.65417 -0.42483 253 253 253
0.16355 -0.65633 -0.42178 253 252 252
0.16841 -0.65850 -0.41873 254 253 253
0.17327 -0.66066 -0.41568 254 253 254
0.17813 -0.66282 -0.41264 254 254 253
0.18298 -0.66498 -0.40959 254 253 253
0.18783 -0.66713 -0.40655 251 250 251
0.19268 -0.66929 -0.40351 250 249 249
0.19752 -0.67144 -0.40047 250 250 250
0.20236 -0.67360 -0.39744 249 248 248
0.20720 -0.67575 -0.39440 248 248 247
0.21204 -0.67790 -0.39137 249 249 247
0.21687 -0.68005 -0.38834 250 250 248
0.22170 -0.68220 -0.38531 250 249 248
0.22653 -0.68435 -0.38228 250 250 249
0.23135 -0.68649 -0.37926 250 249 248
0.23617 -0.68864 -0.37623 249 247 248
0.24099 -0.69078 -0.37321 247 246 248
0.24581 -0.69292 -0.37019 247 247 246
-0.36145 -0.42962 -0.74459 235 232 229
-0.35630 -0.43191 -0.74136 233 229 229
-0.35114 -0.43420 -0.73813 232 229 228
-0.34599 -0.43649 -0.73490 231 228 227
-0.34085 -0.43877 -0.73168 231 227 226
-0.33570 -0.44106 -0.72845 231 227 226
-0.33056 -0.44334 -0.72523 231 227 227
-0.32542 -0.44563 -0.72201 232 228 227
-0.32029 -0.44791 -0.71879 231 229 228
-0.31516 -0.45019 -0.71557 231 229 229
-0.31003 -0.45247 -0.71236 232 229 230
-0.30490 -0.45475 -0.70915 233 229 230
-0.29978 -0.45702 -0.70594 233 229 229
-0.29466 -0.45930 -0.70273 233 230 232
-0.28954 -0.46157 -0.69952 232 231 233
-0.28443 -0.46385 -0.69632 232 231 232
-0.27932 -0.46612 -0.69311 235 233 232
-0.27421 -0.46839 -0.68991 235 233 233
-0.26911 -0.47066 -0.68671 235 234 234
-0.26400 -0.47292 -0.68351 236 233 232
-0.25891 -0.47519 -0.68032 235 233 233
-0.25381 -0.47745 -0.67713 237 236 236
-0.24872 -0.47972 -0.67393 237 235 237
-0.24363 -0.48198 -0.67074 237 237 236
-0.23854 -0.48424 -0.66756 238 237 238
-0.23346 -0.48650 -0.66437 237 236 238
-0.22838 -0.48876 -0.66119 238 236 237
-0.22330 -0.49101 -0.65800 238 237 237
-0.21823 -0.49327 -0.65482 238 237 238
-0.21316 -0.49552 -0.65165 237 236 237
-0.20809 -0.49777 -0.64847 237 237 237
-0.20302 -0.50003 -0.64529 238 238 239
-0.19796 -0.50228 -0.64212 238 238 239
-0.19290 -0.50452 -0.63895 239 238 239
-0.18785 -0.50677 -0.63578 240 238 240
-0.18279 -0.50902 -0.63261 240 239 241
-0.17774 -0.51126 -0.62945 241 241 241
-0.17269 -0.51350 -0.62629 242 241 241
-0.16765 -0.51575 -0.62312 242 241 241
-0.16261 -0.51799 -0.61996 242 241 241
-0.15757 -0.52023 -0.61681 244 243 242
-0.15253 -0.52246 -0.61365 246 245 245
-0.14750 -0.52470 -0.61050 245 245 246
-0.14247 -0.52694 -0.60734 246 246 247
-0.13745 -0.52917 -0.60419 246 246 247
-0.13242 -0.53140 -0.60104 247 246 246
-0.12740 -0.53363 -0.59790 248 247 248
-0.12238 -0.53586 -0.59475 248 249 250
-0.11737 -0.53809 -0.59161 249 250 251
-0.11236 -0.54032 -0.58847 250 249 249
-0.10735 -0.54254 -0.58533 250 249 249
-0.10234 -0.54477 -0.58219 250 249 249
-0.09734 -0.54699 -0.57906 251 251 251
-0.09234 -0.54921 -0.57592 252 252 252
-0.08734 -0.55144 -0.57279 253 253 253
-0.08235 -0.55366 -0.56966 254 253 254
-0.07736 -0.55587 -0.56653 254 253 253
-0.07237 -0.55809 -0.56341 254 253 253
-0.06739 -0.56031 -0.56028 254 253 253
-0.06240 -0.56252 -0.55716 254 254 253
-0.05742 -0.56473 -0.55404 254 254 254
-0.05245 -0.56694 -0.55092 254 254 254
-0.04747 -0.56915 -0.54780 254 254 254
-0.04250 -0.57136 -0.54469 254 254 254
-0.03754 -0.57357 -0.54157 254 254 254
-0.03257 -0.57578 -0.53846 254 254 253
-0.02761 -0.57798 -0.53535 254 254 254
-0.02265 -0.58019 -0.53224 253 253 253
-0.01769 -0.58239 -0.52914 252 252 252
-0.01274 -0.58459 -0.52603 253 253 253
-0.00779 -0.58679 -0.52293 254 254 254
-0.00284 -0.58899 -0.51983 254 254 254
0.00210 -0.59119 -0.51673 254 254 254
0.00704 -0.59338 -0.51363 254 254 254
0.01198 -0.59558 -0.51054 254 254 254
0.01692 -0.59777 -0.50744 254 254 254
0.02185 -0.59996 -0.50435 254 254 254
0.02678 -0.60215 -0.50126 254 254 254
0.03171 -0.60434 -0.49818 254 254 254
0.03663 -0.60653 -0.49509 254 254 254
0.04155 -0.60872 -0.49200 254 254 254
0.04647 -0.61091 -0.48892 254 254 254
0.05139 -0.61309 -0.48584 254 254 254
0.05630 -0.61527 -0.48276 254 254 254
0.06121 -0.61746 -0.47968 254 254 254
0.06612 -0.61964 -0.47661 254 254 254
0.07102 -0.62182 -0.47354 254 254 254
0.07592 -0.62399 -0.47046 254 254 254
0.08082 -0.62617 -0.46739 254 254 254
0.08572 -0.62835 -0.46432 254 254 254
0.09061 -0.63052 -0.46126 254 254 254
0.09550 -0.63270 -0.45819 254 254 254
0.10039 -0.63487 -0.45513 254 254 254
0.10527 -0.63704 -0.45207 254 254 254
0.11015 -0.63921 -0.44901 254 254 254
0.11503 -0.64138 -0.44595 254 254 254
0.11990 -0.64354 -0.44290 254 254 254
0.12478 -0.64571 -0.43984 254 254 254
0.12965 -0.64787 -0.43679 254 254 254
0.13452 -0.65004 -0.43374 254 254 254
0.13938 -0.65220 -0.43069 254 254 254
0.14424 -0.65436 -0.42764 254 254 254
0.14910 -0.65652 -0.42460 254 254 254
0.15396 -0.65868 -0.42155 254 253 251
0.15881 -0.66083 -0.41851 252 252 250
0.16366 -0.66299 -0.41547 253 252 252
0.16851 -0.66514 -0.41243 253 253 252
0.17335 -0.66730 -0.40940 254 253 252
0.17819 -0.66945 -0.40636 253 252 251
0.18303 -0.67160 -0.40333 250 249 250
0.18787 -0.67375 -0.40030 250 249 248
0.19270 -0.67589 -0.39727 250 249 248
0.19753 -0.67804 -0.39424 248 246 244
0.20236 -0.68019 -0.39122 247 246 244
0.20719 -0.68233 -0.38819 247 245 243
0.21201 -0.68448 -0.38517 247 244 245
0.21683 -0.68662 -0.38215 247 247 247
0.22164 -0.68876 -0.37913 248 247 247
0.22646 -0.69090 -0.37611 248 247 245
0.23127 -0.69304 -0.37310 249 247 246
0.23608 -0.69517 -0.37008 248 246 246
0.24088 -0.69731 -0.36707 247 245 245
-0.37011 -0.43255 -0.74362 237 234 231
-0.36496 -0.43483 -0.74039 235 232 230
-0.35982 -0.43712 -0.73717 234 231 230
-0.35467 -0.43940 -0.73395 233 230 229
-0.34954 -0.44168 -0.73073 232 229 227
-0.34440 -0.44396 -0.72751 231 228 226
-0.33927 -0.44624 -0.72430 230 228 227
-0.33414 -0.44852 -0.72109 231 228 227
-0.32902 -0.45079 -0.71788 231 228 227
-0.32389 -0.45307 -0.71467 232 228 227
-0.31877 -0.45534 -0.71146 232 230 229
-0.31366 -0.45761 -0.70826 232 230 231
-0.30854 -0.45988 -0.70505 233 230 230
-0.30343 -0.46215 -0.70185 233 230 229
-0.29833 -0.46442 -0.69865 233 231 232
-0.29322 -0.46669 -0.69545 233 231 233
-0.28812 -0.46895 -0.69226 232 231 232
-0.28302 -0.47122 -0.68907 235 233 232
-0.27793 -0.47348 -0.68587 235 233 233
-0.27283 -0.47574 -0.68268 235 236 234
-0.26774 -0.47800 -0.67950 235 233 233
-0.26266 -0.48026 -0.67631 235 233 233
-0.25757 -0.48251 -0.67313 237 234 234
-0.25249 -0.48477 -0.66994 236 234 235
-0.24742 -0.48702 -0.66676 235 234 234
-0.24234 -0.48928 -0.66359 236 235 236
-0.23727 -0.49153 -0.66041 236 234 236
-0.23220 -0.49378 -0.65723 237 235 236
-0.22714 -0.49603 -0.65406 237 236 238
-0.22208 -0.49828 -0.65089 238 236 237
-0.21702 -0.50052 -0.64772 238 236 237
-0.21196 -0.50277 -0.64455 239 238 238
-0.20691 -0.50501 -0.64139 239 238 239
-0.20186 -0.50726 -0.63823 238 238 238
-0.19681 -0.50950 -0.63506 239 238 238
-0.19176 -0.51174 -0.63190 240 239 239
-0.18672 -0.51397 -0.62875 240 239 239
-0.18168 -0.51621 -0.62559 241 240 240
-0.17665 -0.51845 -0.62244 241 241 241
-0.17162 -0.52068 -0.61928 241 241 241
-0.16659 -0.52292 -0.61613 242 241 241
-0.16156 -0.52515 -0.61298 244 243 243
-0.15654 -0.52738 -0.60984 245 244 245
-0.15152 -0.52961 -0.60669 245 245 246
-0.14650 -0.53184 -0.60355 246 245 246
-0.14148 -0.53406 -0.60041 247 246 246
-0.13647 -0.53629 -0.59727 247 246 246
-0.13146 -0.53851 -0.59413 248 247 247
-0.12646 -0.54073 -0.59100 249 249 249
-0.12145 -0.54296 -0.58786 250 249 251
-0.11646 -0.54518 -0.58473 249 249 249
-0.11146 -0.54739 -0.58160 250 250 249
-0.10646 -0.54961 -0.57847 251 250 250
-0.10147 -0.55183 -0.57535 251 251 251
-0.09648 -0.55404 -0.57222 252 251 252
-0.09150 -0.55626 -0.56910 253 252 252
-0.08652 -0.55847 -0.56598 253 253 252
-0.08154 -0.56068 -0.56286 253 253 253
-0.07656 -0.56289 -0.55974 254 253 254
-0.07159 -0.56510 -0.55663 253 253 254
-0.06662 -0.56731 -0.55351 253 253 253
-0.06165 -0.56951 -0.55040 254 254 254
-0.05668 -0.57172 -0.54729 254 254 254
-0.05172 -0.57392 -0.54418 254 254 254
-0.04676 -0.57612 -0.54108 254 254 254
-0.04181 -0.57832 -0.53797 254 254 254
-0.03685 -0.58052 -0.53487 254 254 254
-0.03190 -0.58272 -0.53177 254 254 254
-0.02696 -0.58492 -0.52867 254 254 254
-0.02201 -0.58711 -0.52557 253 253 254
-0.01707 -0.58931 -0.52248 254 254 254
-0.01213 -0.59150 -0.51938 254 254 254
-0.00719 -0.59369 -0.51629 254 254 254
-0.00226 -0.59588 -0.51320 254 254 254
0.00267 -0.59807 -0.51011 254 254 254
0.00760 -0.60026 -0.50703 254 254 254
0.01252 -0.60245 -0.50394 254 254 254
0.01744 -0.60463 -0.50086 254 254 254
0.02236 -0.60681 -0.49778 253 253 253
0.02728 -0.60900 -0.49470 253 254 254
0.03219 -0.61118 -0.49162 254 254 254
0.03710 -0.61336 -0.48855 254 254 254
0.04201 -0.61554 -0.48547 254 254 254
0.04691 -0.61772 -0.48240 254 254 254
0.05181 -0.61989 -0.47933 254 254 254
0.05671 -0.62207 -0.47626 254 254 254
0.06161 -0.62424 -0.47319 254 254 254
0.06650 -0.62641 -0.47013 254 254 254
0.07139 -0.62859 -0.46707 254 254 254
0.07628 -0.63076 -0.46400 254 254 254
0.08116 -0.63292 -0.46095 254 254 254
0.08604 -0.63509 -0.45789 254 254 254
0.09092 -0.63726 -0.45483 254 254 254
0.09580 -0.63942 -0.45178 254 254 254
0.10067 -0.64159 -0.44872 254 254 254
0.10554 -0.64375 -0.44567 254 254 254
0.11041 -0.64591 -0.44262 254 254 254
0.11528 -0.64807 -0.43958 254 254 254
0.12014 -0.65023 -0.43653 253 253 254
0.12500 -0.65239 -0.43349 254 253 254
0.12985 -0.65454 -0.43045 254 254 254
0.13471 -0.65670 -0.42741 253 253 253
0.13956 -0.65885 -0.42437 253 253 253
0.14440 -0.66101 -0.42133 254 253 253
0.14925 -0.66316 -0.41830 254 253 252
0.15409 -0.66531 -0.41526 251 252 252
0.15893 -0.66746 -0.41223 252 252 253
0.16377 -0.66960 -0.40920 253 252 252
0.16860 -0.67175 -0.40617 254 253 254
0.17343 -0.67389 -0.40315 253 254 252
0.17826 -0.67604 -0.40012 251 250 251
0.18309 -0.67818 -0.39710 251 250 250
0.18791 -0.68032 -0.39408 252 251 250
0.19273 -0.68246 -0.39106 250 249 247
0.19755 -0.68460 -0.38804 248 248 246
0.20236 -0.68674 -0.38503 249 247 245
0.20717 -0.68888 -0.38202 248 247 246
0.21198 -0.69101 -0.37900 247 247 247
0.21679 -0.69315 -0.37599 247 246 246
0.22159 -0.69528 -0.37298 247 245 245
0.22639 -0.69741 -0.36998 247 246 244
0.23119 -0.69954 -0.36697 249 246 244
0.23598 -0.70167 -0.36397 248 245 242
-0.36845 -0.44002 -0.73621 236 233 232
-0.36332 -0.44230 -0.73300 235 232 232
-0.35819 -0.44457 -0.72979 234 232 233
-0.35306 -0.44685 -0.72658 233 231 231
-0.34794 -0.44912 -0.72337 232 230 228
-0.34282 -0.45139 -0.72017 232 230 229
-0.33770 -0.45366 -0.71697 232 230 229
-0.33259 -0.45593 -0.71377 232 229 228
-0.32748 -0.45820 -0.71057 232 230 229
-0.32237 -0.46046 -0.70737 232 230 231
-0.31727 -0.46273 -0.70417 232 232 232
-0.31217 -0.46499 -0.70098 232 232 230
-0.30707 -0.46725 -0.69779 233 231 230
-0.30197 -0.46951 -0.69460 232 230 230
-0.29688 -0.47177 -0.69141 232 229 230
-0.29179 -0.47403 -0.68822 231 229 230
-0.28670 -0.47629 -0.68504 231 228 230
-0.28162 -0.47854 -0.68186 233 228 229
-0.27654 -0.48080 -0.67868 231 231 229
-0.27146 -0.48305 -0.67550 233 231 233
-0.26639 -0.48530 -0.67232 234 233 234
-0.26132 -0.48755 -0.66915 235 232 233
-0.25625 -0.48980 -0.66598 235 234 234
-0.25118 -0.49204 -0.66280 235 233 235
-0.24612 -0.49429 -0.65964 235 233 234
-0.24106 -0.49653 -0.65647 235 233 233
-0.23601 -0.49878 -0.65330 237 235 233
-0.23095 -0.50102 -0.65014 237 234 234
-0.22590 -0.50326 -0.64698 237 235 236
-0.22086 -0.50550 -0.64382 238 236 236
-0.21581 -0.50774 -0.64066 239 237 238
-0.21077 -0.50997 -0.63750 238 237 238
-0.20573 -0.51221 -0.63435 238 236 237
-0.20070 -0.51444 -0.63120 239 238 238
-0.19566 -0.51668 -0.62805 240 239 240
-0.19063 -0.51891 -0.62490 241 240 240
-0.18561 -0.52114 -0.62175 241 240 240
-0.18058 -0.52337 -0.61861 242 241 241
-0.17556 -0.52559 -0.61546 241 241 242
-0.17055 -0.52782 -0.61232 242 241 241
-0.16553 -0.53004 -0.60918 244 243 241
-0.16052 -0.53227 -0.60605 245 243 244
-0.15551 -0.53449 -0.60291 246 244 245
-0.15050 -0.53671 -0.59978 247 246 246
-0.14550 -0.53893 -0.59664 248 247 247
-0.14050 -0.54115 -0.59351 248 247 247
-0.13550 -0.54337 -0.59039 248 247 247
-0.13051 -0.54558 -0.58726 248 248 247
-0.12552 -0.54780 -0.58413 249 248 249
-0.12053 -0.55001 -0.58101 249 248 248
-0.11554 -0.55222 -0.57789 251 250 250
-0.11056 -0.55443 -0.57477 252 251 251
-0.10558 -0.55664 -0.57165 251 250 250
-0.10061 -0.55885 -0.56854 251 251 251
-0.09563 -0.56105 -0.56543 252 252 251
-0.09066 -0.56326 -0.56231 253 253 252
-0.08569 -0.56546 -0.55920 253 253 253
-0.08073 -0.56767 -0.55609 254 254 254
-0.07577 -0.56987 -0.55299 254 253 254
-0.07081 -0.57207 -0.54988 253 253 254
-0.06585 -0.57427 -0.54678 254 254 254
-0.06090 -0.57646 -0.54368 254 254 254
-0.05595 -0.57866 -0.54058 254 254 254
-0.05100 -0.58086 -0.53748 254 254 254
-0.04605 -0.58305 -0.53439 254 254 254
-0.04111 -0.58524 -0.53129 254 254 254
-0.03617 -0.58743 -0.52820 254 254 254
-0.03124 -0.58962 -0.52511 254 254 254
-0.02630 -0.59181 -0.52202 254 253 253
-0.02137 -0.59400 -0.51894 254 254 253
-0.01645 -0.59618 -0.51585 254 254 254
-0.01152 -0.59837 -0.51277 254 254 254
-0.00660 -0.60055 -0.50969 254 254 254
-0.00168 -0.60273 -0.50661 254 254 254
0.00324 -0.60492 -0.50353 254 254 254
0.00815 -0.60710 -0.50046 254 254 254
0.01306 -0.60927 -0.49738 254 254 253
0.01797 -0.61145 -0.49431 253 252 252
0.02287 -0.61363 -0.49124 252 253 253
0.02777 -0.61580 -0.48817 253 253 253
0.03267 -0.61797 -0.48510 254 254 254
0.03757 -0.62015 -0.48204 254 254 254
0.04246 -0.62232 -0.47898 254 254 254
0.04735 -0.62449 -0.47591 254 254 254
0.05224 -0.62666 -0.47285 254 254 254
0.05712 -0.62882 -0.46980 254 254 254
0.06201 -0.63099 -0.46674 254 254 254
0.06688 -0.63315 -0.46369 254 254 254
0.07176 -0.63532 -0.46063 254 254 254
0.07663 -0.63748 -0.45758 254 254 254
0.08150 -0.63964 -0.45453 254 254 254
0.08637 -0.64180 -0.45149 254 254 254
0.09124 -0.64396 -0.44844 254 254 254
0.09610 -0.64611 -0.44540 254 254 254
0.10096 -0.64827 -0.44236 254 254 254
0.10582 -0.65042 -0.43931 254 254 254
0.11067 -0.65258 -0.43628 254 254 254
0.11552 -0.65473 -0.43324 254 253 254
0.12037 -0.65688 -0.43020 254 254 254
0.12521 -0.65903 -0.42717 254 254 254
0.13006 -0.66118 -0.42414 253 253 254
0.13490 -0.66333 -0.42111 253 253 254
0.13973 -0.66547 -0.41808 253 252 254
0.14457 -0.66762 -0.41506 254 252 254
0.14940 -0.66976 -0.41203 253 254 253
0.15423 -0.67190 -0.40901 254 253 253
0.15905 -0.67404 -0.40599 254 253 254
0.16388 -0.67618 -0.40297 254 252 253
0.16870 -0.67832 -0.39995 254 252 251
0.17351 -0.68046 -0.39693 253 252 253
0.17833 -0.68259 -0.39392 253 252 252
0.18314 -0.68473 -0.39091 254 253 252
0.18795 -0.68686 -0.38790 252 250 249
0.19275 -0.68899 -0.38489 250 250 248
0.19756 -0.69113 -0.38188 248 247 246
0.20236 -0.69326 -0.37888 248 247 245
0.20716 -0.69538 -0.37587 248 248 248
0.21195 -0.69751 -0.37287 248 248 248
0.21675 -0.69964 -0.36987 248 248 247
0.22153 -0.70176 -0.36687 248 248 248
0.22632 -0.70389 -0.36388 248 248 248
0.23111 -0.70601 -0.36088 247 247 244
-0.37192 -0.44518 -0.73206 235 233 232
-0.36680 -0.44745 -0.72885 234 231 231
-0.36168 -0.44972 -0.72565 233 231 231
-0.35657 -0.45199 -0.72245 233 231 230
-0.35146 -0.45425 -0.71926 232 230 228
-0.34635 -0.45652 -0.71606 232 232 229
-0.34125 -0.45878 -0.71287 232 232 229
-0.33615 -0.46104 -0.70968 231 230 228
-0.33105 -0.46330 -0.70649 232 229 228
-0.32595 -0.46556 -0.70330 231 228 229
-0.32086 -0.46782 -0.70011 230 227 228
-0.31577 -0.47007 -0.69693 230 228 226
-0.31068 -0.47233 -0.69375 231 229 229
-0.30560 -0.47458 -0.69057 230 228 228
-0.30052 -0.47683 -0.68739 230 227 228
-0.29544 -0.47908 -0.68421 230 227 229
-0.29037 -0.48133 -0.68104 229 226 230
-0.28530 -0.48358 -0.67786 233 228 229
-0.28023 -0.48583 -0.67469 231 229 229
-0.27516 -0.48807 -0.67152 232 230 232
-0.27010 -0.49031 -0.66836 234 233 232
-0.26504 -0.49256 -0.66519 234 232 232
-0.25999 -0.49480 -0.66203 235 234 234
-0.25493 -0.49704 -0.65886 234 233 236
-0.24988 -0.49928 -0.65571 234 233 233
-0.24484 -0.50151 -0.65255 235 233 232
-0.23979 -0.50375 -0.64939 236 234 232
-0.23475 -0.50598 -0.64624 235 234 233
-0.22971 -0.50822 -0.64308 236 235 236
-0.22468 -0.51045 -0.63993 237 235 237
-0.21964 -0.51268 -0.63679 238 237 238
-0.21461 -0.51491 -0.63364 238 237 238
-0.20959 -0.51714 -0.63049 238 237 238
-0.20456 -0.51936 -0.62735 240 239 239
-0.19954 -0.52159 -0.62421 240 240 240
-0.19453 -0.52381 -0.62107 240 240 241
-0.18951 -0.52604 -0.61793 241 240 241
-0.18450 -0.52826 -0.61480 241 241 242
-0.17949 -0.53048 -0.61166 241 241 243
-0.17448 -0.53270 -0.60853 241 241 242
-0.16948 -0.53492 -0.60540 243 242 242
-0.16448 -0.53713 -0.60227 245 243 244
-0.15948 -0.53935 -0.59915 246 244 245
-0.15449 -0.54156 -0.59602 246 246 246
-0.14950 -0.54377 -0.59290 247 246 247
-0.14451 -0.54598 -0.58978 247 246 247
-0.13952 -0.54819 -0.58666 248 248 247
-0.13454 -0.55040 -0.58354 247 247 247
-0.12956 -0.55261 -0.58043 249 248 248
-0.12458 -0.55482 -0.57731 249 249 249
-0.11961 -0.55702 -0.57420 251 251 250
-0.11464 -0.55922 -0.57109 251 252 251
-0.10967 -0.56143 -0.56798 251 251 251
-0.10471 -0.56363 -0.56487 252 252 251
-0.09974 -0.56583 -0.56177 252 252 252
-0.09479 -0.56802 -0.55867 253 252 252
-0.08983 -0.57022 -0.55557 254 253 253
-0.08488 -0.57242 -0.55247 254 253 253
-0.07992 -0.57461 -0.54937 254 254 254
-0.07498 -0.57680 -0.54627 254 254 254
-0.07003 -0.57900 -0.54318 254 254 254
-0.06509 -0.58119 -0.54009 254 254 254
-0.06015 -0.58338 -0.53700 254 254 254
-0.05521 -0.58556 -0.53391 254 254 254
-0.05028 -0.58775 -0.53082 254 254 254
-0.04535 -0.58994 -0.52774 254 254 254
-0.04042 -0.59212 -0.52466 254 254 254
-0.03550 -0.59430 -0.52157 254 254 254
-0.03058 -0.59649 -0.51849 254 253 253
-0.02566 -0.59867 -0.51542 254 254 254
-0.02074 -0.60084 -0.51234 254 254 254
-0.01583 -0.60302 -0.50927 254 254 254
-0.01092 -0.60520 -0.50619 254 254 254
-0.00601 -0.60737 -0.50312 254 254 254
-0.00110 -0.60955 -0.50006 254 254 254
0.00380 -0.61172 -0.49699 254 254 254
0.00870 -0.61389 -0.49392 254 254 254
0.01359 -0.61606 -0.49086 253 253 252
0.01849 -0.61823 -0.48780 253 253 253
0.02338 -0.62040 -0.48474 254 254 253
0.02827 -0.62257 -0.48168 253 253 254
0.03315 -0.62473 -0.47862 254 254 254
0.03803 -0.62690 -0.47557 254 254 254
0.04291 -0.62906 -0.47252 254 254 254
0.04779 -0.63122 -0.46947 254 254 254
0.05266 -0.63338 -0.46642 254 254 254
0.05753 -0.63554 -0.46337 254 254 254
0.06240 -0.63770 -0.46032 254 254 254
0.06727 -0.63985 -0.45728 254 254 254
0.07213 -0.64201 -0.45424 254 254 254
0.07699 -0.64416 -0.45120 254 254 254
0.08184 -0.64632 -0.44816 254 254 254
0.08670 -0.64847 -0.44512 254 254 254
0.09155 -0.65062 -0.44209 254 254 254
0.09640 -0.65277 -0.43905 254 254 254
0.10124 -0.65491 -0.43602 254 254 254
0.10609 -0.65706 -0.43299 254 254 254
0.11093 -0.65921 -0.42996 254 254 254
0.11576 -0.66135 -0.42694 254 254 254
0.12060 -0.66349 -0.42391 254 254 254
0.12543 -0.66564 -0.42089 254 254 254
0.13026 -0.66778 -0.41787 254 254 254
0.13508 -0.66991 -0.41485 253 253 254
0.13991 -0.67205 -0.41183 254 253 254
0.14473 -0.67419 -0.40881 254 254 254
0.14955 -0.67632 -0.40580 254 254 254
0.15436 -0.67846 -0.40279 254 254 254
0.15917 -0.68059 -0.39978 254 253 254
0.16398 -0.68272 -0.39677 254 253 253
0.16879 -0.68485 -0.39376 254 254 254
0.17359 -0.68698 -0.39076 253 253 253
0.17839 -0.68911 -0.38775 253 253 252
0.18319 -0.69124 -0.38475 252 251 251
0.18799 -0.69336 -0.38175 250 250 250
0.19278 -0.69549 -0.37875 250 250 248
0.19757 -0.69761 -0.37575 250 249 247
0.20236 -0.69973 -0.37276 250 250 249
0.20714 -0.70186 -0.36976 251 250 249
0.21193 -0.70397 -0.36677 250 250 248
0.21670 -0.70609 -0.36378 250 249 249
0.22148 -0.70821 -0.36079 250 249 248
0.22625 -0.71033 -0.35781 247 245 243
-0.38048 -0.44806 -0.73112 234 233 233
-0.36006 -0.45710 -0.71835 230 227 224
-0.35496 -0.45936 -0.71516 229 225 223
-0.34986 -0.46162 -0.71197 228 225 225
-0.34477 -0.46387 -0.70879 228 224 224
-0.33968 -0.46613 -0.70561 229 225 225
-0.33460 -0.46838 -0.70243 230 226 226
-0.32951 -0.47063 -0.69925 230 227 226
-0.32443 -0.47288 -0.69607 229 226 227
-0.31936 -0.47513 -0.69290 230 227 226
-0.31428 -0.47737 -0.68972 232 230 229
-0.30921 -0.47962 -0.68655 230 227 226
-0.30414 -0.48186 -0.68338 230 227 226
-0.29908 -0.48411 -0.68022 230 227 228
-0.29402 -0.48635 -0.67705 229 228 228
-0.28896 -0.48859 -0.67389 232 229 227
-0.28390 -0.49083 -0.67073 231 230 232
-0.27885 -0.49307 -0.66757 231 229 230
-0.27380 -0.49530 -0.66441 234 229 229
-0.26875 -0.49754 -0.66125 233 231 229
-0.26370 -0.49977 -0.65810 235 233 232
-0.25866 -0.50201 -0.65495 235 232 234
-0.25362 -0.50424 -0.65180 235 233 234
-0.24859 -0.50647 -0.64865 235 233 233
-0.24356 -0.50870 -0.64550 235 234 233
-0.23853 -0.51092 -0.64235 236 234 234
-0.23350 -0.51315 -0.63921 236 236 237
-0.22848 -0.51537 -0.63607 237 235 237
-0.22346 -0.51760 -0.63293 238 236 238
-0.21844 -0.51982 -0.62979 238 237 238
-0.21342 -0.52204 -0.62666 239 238 239
-0.20841 -0.52426 -0.62352 240 240 239
-0.20340 -0.52648 -0.62039 241 240 240
-0.19840 -0.52870 -0.61726 240 239 239
-0.19339 -0.53091 -0.61413 241 240 239
-0.18839 -0.53313 -0.61101 242 241 242
-0.18340 -0.53534 -0.60788 242 241 242
-0.17840 -0.53755 -0.60476 242 241 241
-0.17341 -0.53976 -0.60164 243 242 243
-0.16842 -0.54197 -0.59852 245 244 245
-0.16344 -0.54418 -0.59540 245 245 245
-0.15845 -0.54639 -0.59229 245 245 244
-0.15347 -0.54859 -0.58917 246 245 244
-0.14850 -0.55080 -0.58606 247 246 247
-0.14352 -0.55300 -0.58295 248 247 247
-0.13855 -0.55520 -0.57984 248 247 247
-0.13358 -0.55740 -0.57674 249 249 249
-0.12862 -0.55960 -0.57363 251 250 250
-0.12366 -0.56180 -0.57053 251 250 250
-0.11870 -0.56399 -0.56743 252 252 251
-0.11374 -0.56619 -0.56433 252 252 251
-0.10879 -0.56838 -0.56123 253 253 252
-0.10384 -0.57057 -0.55813 253 253 253
-0.09889 -0.57277 -0.55504 252 251 252
-0.09394 -0.57496 -0.55195 253 252 253
-0.08900 -0.57714 -0.54886 254 253 254
-0.08406 -0.57933 -0.54577 254 254 254
-0.07912 -0.58152 -0.54268 254 254 254
-0.07419 -0.58370 -0.53960 254 254 254
-0.06926 -0.58589 -0.53651 254 254 254
-0.06433 -0.58807 -0.53343 254 254 254
-0.05941 -0.59025 -0.53035 254 254 254
-0.05449 -0.59243 -0.52728 254 254 254
-0.04957 -0.59461 -0.52420 254 254 254
-0.04465 -0.59679 -0.52113 254 254 254
-0.03974 -0.59896 -0.51805 254 254 254
-0.03483 -0.60114 -0.51498 254 254 254
-0.02992 -0.60331 -0.51191 254 254 254
-0.02501 -0.60548 -0.50885 254 254 254
-0.02011 -0.60765 -0.50578 254 254 253
-0.01521 -0.60982 -0.50272 254 254 254
-0.01032 -0.61199 -0.49966 254 254 254
-0.00542 -0.61416 -0.49660 254 254 254
-0.00053 -0.61632 -0.49354 254 254 254
0.00436 -0.61849 -0.49048 254 254 254
0.00924 -0.62065 -0.48743 254 254 253
0.01412 -0.62281 -0.48437 254 254 254
0.01900 -0.62498 -0.48132 254 254 254
0.02388 -0.62714 -0.47827 254 254 254
0.02875 -0.62929 -0.47523 254 254 254
0.03363 -0.63145 -0.47218 254 254 254
0.03849 -0.63361 -0.46914 254 254 254
0.04336 -0.63576 -0.46609 254 254 254
0.04822 -0.63792 -0.46305 254 254 254
0.05308 -0.64007 -0.46001 254 254 254
0.05794 -0.64222 -0.45698 254 254 254
0.06279 -0.64437 -0.45394 254 254 254
0.06764 -0.64652 -0.45091 254 254 254
0.07249 -0.64866 -0.44788 254 254 254
0.07734 -0.65081 -0.44485 254 254 254
0.08218 -0.65296 -0.44182 254 254 254
0.08702 -0.65510 -0.43879 254 254 254
0.09186 -0.65724 -0.43577 254 254 254
0.09669 -0.65938 -0.43274 254 254 254
0.10153 -0.66152 -0.42972 254 254 254
0.10636 -0.66366 -0.42670 254 254 254
0.11118 -0.66580 -0.42369 254 254 254
0.11601 -0.66793 -0.42067 254 254 254
0.12083 -0.67007 -0.41766 254 254 254
0.12564 -0.67220 -0.41464 254 254 254
0.13046 -0.67434 -0.41163 254 254 254
0.13527 -0.67647 -0.40862 254 254 254
0.14008 -0.67860 -0.40562 254 254 254
0.14489 -0.68073 -0.40261 254 254 254
0.14969 -0.68285 -0.39961 254 254 254
0.15449 -0.68498 -0.39660 254 254 254
0.15929 -0.68711 -0.39360 254 254 253
0.16409 -0.68923 -0.39060 254 253 252
0.16888 -0.69135 -0.38761 252 252 253
0.17367 -0.69347 -0.38461 252 252 253
0.17846 -0.69559 -0.38162 252 251 252
0.18325 -0.69771 -0.37863 250 250 251
0.18803 -0.69983 -0.37563 252 251 251
0.19281 -0.70195 -0.37265 251 250 250
0.19758 -0.70406 -0.36966 252 251 249
0.20236 -0.70618 -0.36667 251 250 250
0.20713 -0.70829 -0.36369 250 249 250
0.21190 -0.71040 -0.36071 250 249 249
0.21666 -0.71251 -0.35773 250 250 248
0.22619 -0.71673 -0.35177 246 245 244
0.23094 -0.71884 -0.34880 247 247 243
0.23570 -0.72094 -0.34583 247 246 242
-0.37371 -0.45768 -0.72062 228 225 224
-0.36862 -0.45994 -0.71744 228 225 222
-0.36353 -0.46219 -0.71426 228 224 222
-0.35844 -0.46444 -0.71108 227 224 223
-0.35336 -0.46669 -0.70791 228 225 225
-0.34828 -0.46894 -0.70473 229 223 224
-0.34320 -0.47118 -0.70156 229 224 226
-0.33813 -0.47343 -0.69839 229 225 225
-0.33306 -0.47567 -0.69522 229 226 225
-0.32799 -0.47792 -0.69205 229 226 227
-0.32292 -0.48016 -0.68889 230 227 227
-0.31786 -0.48240 -0.68572 231 229 229
-0.31280 -0.48464 -0.68256 230 228 227
-0.30775 -0.48687 -0.67940 229 227 226
-0.30269 -0.48911 -0.67624 230 229 228
-0.29764 -0.49134 -0.67309 230 229 228
-0.29260 -0.49358 -0.66993 232 230 227
-0.28755 -0.49581 -0.66678 232 231 233
-0.28251 -0.49804 -0.66363 232 230 230
-0.27747 -0.50027 -0.66048 233 229 229
-0.27244 -0.50250 -0.65733 233 231 230
-0.26740 -0.50472 -0.65419 235 233 231
-0.26237 -0.50695 -0.65105 235 232 232
-0.25735 -0.50917 -0.64791 235 233 234
-0.25232 -0.51140 -0.64477 235 233 233
-0.24730 -0.51362 -0.64163 235 233 234
-0.24228 -0.51584 -0.63849 236 235 235
-0.23727 -0.51806 -0.63536 237 236 236
-0.23226 -0.52027 -0.63223 238 236 236
-0.22725 -0.52249 -0.62910 238 236 237
-0.22224 -0.52471 -0.62597 238 237 238
-0.21724 -0.52692 -0.62284 239 238 239
-0.21224 -0.52913 -0.61972 240 239 239
-0.20724 -0.53134 -0.61659 241 240 240
-0.20225 -0.53355 -0.61347 241 240 239
-0.19726 -0.53576 -0.61035 242 240 239
-0.19227 -0.53797 -0.60724 243 242 241
-0.18728 -0.54018 -0.60412 243 243 242
-0.18230 -0.54238 -0.60101 243 243 242
-0.17732 -0.54458 -0.59789 244 243 244
-0.17234 -0.54679 -0.59478 246 245 246
-0.16737 -0.54899 -0.59168 246 246 246
-0.16240 -0.55119 -0.58857 246 244 244
-0.15743 -0.55338 -0.58546 246 245 243
-0.15246 -0.55558 -0.58236 248 248 248
-0.14750 -0.55778 -0.57926 248 248 248
-0.14254 -0.55997 -0.57616 249 249 248
-0.13759 -0.56217 -0.57306 250 250 250
-0.13263 -0.56436 -0.56997 252 251 250
-0.12768 -0.56655 -0.56687 252 251 251
-0.12273 -0.56874 -0.56378 252 252 251
-0.11779 -0.57093 -0.56069 253 253 252
-0.11285 -0.57311 -0.55760 254 254 253
-0.10791 -0.57530 -0.55452 253 253 254
-0.10297 -0.57748 -0.55143 253 253 253
-0.09804 -0.57967 -0.54835 253 253 254
-0.09311 -0.58185 -0.54527 254 254 254
-0.08818 -0.58403 -0.54219 254 254 254
-0.08325 -0.58621 -0.53911 254 254 254
-0.07833 -0.58839 -0.53603 254 254 254
-0.07341 -0.59056 -0.53296 254 254 254
-0.06849 -0.59274 -0.52989 254 254 254
-0.06358 -0.59491 -0.52682 254 254 254
-0.05867 -0.59708 -0.52375 254 254 254
-0.05376 -0.59926 -0.52068 254 254 254
-0.04886 -0.60143 -0.51761 254 254 254
-0.04395 -0.60360 -0.51455 254 254 254
-0.03905 -0.60576 -0.51149 254 254 254
-0.03416 -0.60793 -0.50843 254 254 254
-0.02926 -0.61010 -0.50537 254 254 254
-0.02437 -0.61226 -0.50231 254 254 254
-0.01949 -0.61442 -0.49926 254 254 254
-0.01460 -0.61658 -0.49621 254 254 254
-0.00972 -0.61875 -0.49316 254 254 254
-0.00484 -0.62090 -0.49011 254 254 254
0.00004 -0.62306 -0.48706 254 254 254
0.00491 -0.62522 -0.48401 254 254 254
0.00978 -0.62737 -0.48097 254 254 254
0.01465 -0.62953 -0.47793 254 254 254
0.01952 -0.63168 -0.47488 254 254 254
0.02438 -0.63383 -0.47185 254 254 254
0.02924 -0.63598 -0.46881 254 254 254
0.03410 -0.63813 -0.46577 254 254 254
0.03895 -0.64028 -0.46274 254 254 254
0.04380 -0.64243 -0.45971 254 254 254
0.04865 -0.64457 -0.45668 254 254 254
0.05350 -0.64672 -0.45365 254 254 254
0.05834 -0.64886 -0.45062 254 254 254
0.06318 -0.65100 -0.44760 254 254 254
0.06802 -0.65314 -0.44457 254 254 254
0.07286 -0.65528 -0.44155 254 254 254
0.07769 -0.65742 -0.43853 254 254 254
0.08252 -0.65956 -0.43552 254 254 254
0.08734 -0.66169 -0.43250 254 254 254
0.09217 -0.66383 -0.42948 254 254 254
0.09699 -0.66596 -0.42647 254 254 254
0.10181 -0.66809 -0.42346 254 254 254
0.10662 -0.67022 -0.42045 254 254 254
0.11144 -0.67235 -0.41744 254 254 254
0.11625 -0.67448 -0.41444 254 254 254
0.12105 -0.67661 -0.41143 254 254 254
0.12586 -0.67873 -0.40843 254 254 254
0.13066 -0.68086 -0.40543 254 254 254
0.13546 -0.68298 -0.40243 254 254 254
0.14025 -0.68511 -0.39943 254 254 254
0.14505 -0.68723 -0.39644 254 254 254
0.14984 -0.68935 -0.39344 254 254 254
0.15463 -0.69146 -0.39045 254 254 254
0.15941 -0.69358 -0.38746 254 253 252
0.16419 -0.69570 -0.38447 253 253 254
0.16897 -0.69781 -0.38149 253 253 254
0.17375 -0.69993 -0.37850 253 252 253
0.17853 -0.70204 -0.37552 252 252 252
0.18330 -0.70415 -0.37253 253 253 253
0.18807 -0.70626 -0.36955 253 252 252
0.19283 -0.70837 -0.36658 252 251 251
0.19760 -0.71048 -0.36360 252 252 252
0.20236 -0.71258 -0.36062 251 251 251
0.20712 -0.71469 -0.35765 249 249 249
0.21187 -0.71679 -0.35468 250 250 249
0.22612 -0.72310 -0.34577 248 248 245
0.23086 -0.72520 -0.34281 248 249 246
-0.38222 -0.46051 -0.71971 229 226 227
-0.37714 -0.46276 -0.71654 229 226 225
-0.37206 -0.46501 -0.71337 228 225 223
-0.36698 -0.46725 -0.71020 228 225 223
-0.36191 -0.46949 -0.70703 229 226 225
-0.35684 -0.47174 -0.70386 229 227 226
-0.35177 -0.47398 -0.70069 228 225 225
-0.34670 -0.47622 -0.69753 229 226 226
-0.34164 -0.47845 -0.69437 229 226 225
-0.33658 -0.48069 -0.69121 229 226 225
-0.33153 -0.48293 -0.68805 229 226 227
-0.32647 -0.48516 -0.68490 229 227 227
-0.32142 -0.48739 -0.68174 230 228 228
-0.31637 -0.48962 -0.67859 231 229 229
-0.31133 -0.49185 -0.67544 231 229 230
-0.30629 -0.49408 -0.67229 231 230 230
-0.30125 -0.49631 -0.66914 231 230 230
-0.29622 -0.49854 -0.66600 232 229 229
-0.29118 -0.50076 -0.66286 231 230 231
-0.28615 -0.50299 -0.65971 232 230 230
-0.28113 -0.50521 -0.65658 233 231 231
-0.27610 -0.50743 -0.65344 234 232 232
-0.27108 -0.50965 -0.65030 234 232 231
-0.26606 -0.51187 -0.64717 235 233 232
-0.26105 -0.51408 -0.64404 235 233 233
-0.25604 -0.51630 -0.64091 234 233 232
-0.25103 -0.51851 -0.63778 234 233 234
-0.24602 -0.52073 -0.63465 235 234 236
-0.24102 -0.52294 -0.63153 236 235 235
-0.23602 -0.52515 -0.62840 238 236 235
-0.23102 -0.52736 -0.62528 239 237 237
-0.22603 -0.52957 -0.62216 239 238 239
-0.22104 -0.53177 -0.61904 240 238 239
-0.21605 -0.53398 -0.61593 241 239 239
-0.21106 -0.53618 -0.61282 241 240 240
-0.20608 -0.53839 -0.60970 242 241 241
-0.20110 -0.54059 -0.60659 243 242 242
-0.19612 -0.54279 -0.60348 244 244 243
-0.19115 -0.54499 -0.60038 245 244 244
-0.18618 -0.54718 -0.59727 245 244 244
-0.18121 -0.54938 -0.59417 245 244 246
-0.17624 -0.55158 -0.59107 247 246 247
-0.17128 -0.55377 -0.58797 248 248 247
-0.16632 -0.55596 -0.58487 247 246 247
-0.16137 -0.55815 -0.58178 247 247 246
-0.15641 -0.56034 -0.57868 248 249 249
-0.15146 -0.56253 -0.57559 249 248 248
-0.14651 -0.56472 -0.57250 249 249 250
-0.14157 -0.56691 -0.56941 250 250 250
-0.13662 -0.56909 -0.56632 251 251 250
-0.13169 -0.57128 -0.56324 251 250 251
-0.12675 -0.57346 -0.56016 252 252 251
-0.12181 -0.57564 -0.55707 253 253 253
-0.11688 -0.57782 -0.55399 254 254 253
-0.11196 -0.58000 -0.55092 254 254 254
-0.10703 -0.58218 -0.54784 254 254 254
-0.10211 -0.58435 -0.54477 254 254 254
-0.09719 -0.58653 -0.54169 254 254 254
-0.09227 -0.58870 -0.53862 254 254 254
-0.08736 -0.59087 -0.53555 254 254 254
-0.08245 -0.59304 -0.53249 254 254 254
-0.07754 -0.59521 -0.52942 254 254 254
-0.07263 -0.59738 -0.52636 254 254 254
-0.06773 -0.59955 -0.52330 254 254 254
-0.06283 -0.60172 -0.52024 254 254 254
-0.05794 -0.60388 -0.51718 254 254 254
-0.05304 -0.60604 -0.51412 254 254 254
-0.04815 -0.60821 -0.51107 254 254 254
-0.04326 -0.61037 -0.50801 254 254 254
-0.03838 -0.61253 -0.50496 254 254 254
-0.03349 -0.61469 -0.50191 254 254 254
-0.02861 -0.61684 -0.49886 254 254 254
-0.02374 -0.61900 -0.49582 254 254 254
-0.01886 -0.62115 -0.49277 254 254 254
-0.01399 -0.62331 -0.48973 254 254 254
-0.00912 -0.62546 -0.48669 254 254 254
-0.00426 -0.62761 -0.48365 254 254 254
0.00061 -0.62976 -0.48061 254 254 254
0.00547 -0.63191 -0.47758 254 254 254
0.01032 -0.63406 -0.47454 254 254 254
0.01518 -0.63620 -0.47151 254 254 254
0.02003 -0.63835 -0.46848 254 254 254
0.02488 -0.64049 -0.46545 254 254 254
0.02973 -0.64264 -0.46243 254 254 254
0.03457 -0.64478 -0.45940 254 254 254
0.03941 -0.64692 -0.45638 254 254 254
0.04425 -0.64906 -0.45336 254 254 254
0.04908 -0.65119 -0.45034 254 254 254
0.05392 -0.65333 -0.44732 254 254 254
0.05875 -0.65547 -0.44430 254 254 254
0.06357 -0.65760 -0.44129 254 254 254
0.06840 -0.65973 -0.43827 254 254 254
0.07322 -0.66186 -0.43526 254 254 254
0.07804 -0.66399 -0.43225 254 254 254
0.08285 -0.66612 -0.42925 254 254 254
0.08766 -0.66825 -0.42624 254 254 254
0.09247 -0.67038 -0.42324 254 254 254
0.09728 -0.67250 -0.42023 254 254 254
0.10209 -0.67463 -0.41723 254 254 254
0.10689 -0.67675 -0.41423 254 254 254
0.11169 -0.67887 -0.41124 254 254 254
0.11649 -0.68099 -0.40824 254 254 254
0.12128 -0.68311 -0.40525 254 254 254
0.12607 -0.68523 -0.40225 254 254 254
0.13086 -0.68735 -0.39926 254 254 254
0.13564 -0.68946 -0.39627 254 254 254
0.14043 -0.69158 -0.39329 254 253 254
0.14521 -0.69369 -0.39030 254 254 253
0.14998 -0.69580 -0.38732 254 253 253
0.15476 -0.69791 -0.38434 254 253 253
0.15953 -0.70002 -0.38136 254 254 253
0.16430 -0.70213 -0.37838 254 254 254
0.16907 -0.70424 -0.37540 253 252 252
0.17383 -0.70634 -0.37242 253 252 252
0.17859 -0.70845 -0.36945 253 252 252
-0.39069 -0.46333 -0.71881 229 226 227
-0.38562 -0.46557 -0.71564 228 224 225
-0.38055 -0.46781 -0.71248 229 225 225
-0.37548 -0.47005 -0.70931 228 225 224
-0.37042 -0.47229 -0.70615 228 225 224
-0.36535 -0.47452 -0.70299 229 226 224
-0.36029 -0.47676 -0.69984 229 226 225
-0.35524 -0.47899 -0.69668 229 226 225
-0.35019 -0.48122 -0.69353 229 226 226
-0.34514 -0.48345 -0.69037 230 226 226
-0.34009 -0.48568 -0.68722 230 226 225
-0.33504 -0.48791 -0.68407 230 226 227
-0.33000 -0.49014 -0.68093 230 227 227
-0.32496 -0.49236 -0.67778 230 228 228
-0.31993 -0.49459 -0.67464 232 229 231
-0.31490 -0.49681 -0.67150 232 231 231
-0.30987 -0.49903 -0.66836 232 230 230
-0.30484 -0.50125 -0.66522 232 231 231
-0.29982 -0.50347 -0.66208 232 229 229
-0.29480 -0.50569 -0.65895 232 229 228
-0.28978 -0.50791 -0.65582 232 230 229
-0.28476 -0.51012 -0.65269 233 231 232
-0.27975 -0.51233 -0.64956 234 232 233
-0.27474 -0.51455 -0.64643 234 232 232
-0.26974 -0.51676 -0.64331 235 233 233
-0.26473 -0.51897 -0.64019 235 233 235
-0.25973 -0.52118 -0.63706 234 233 232
-0.25474 -0.52338 -0.63395 235 233 233
-0.24974 -0.52559 -0.63083 236 233 234
-0.24475 -0.52780 -0.62771 236 234 235
-0.23976 -0.53000 -0.62460 237 235 236
-0.23478 -0.53220 -0.62149 239 236 237
-0.22979 -0.53440 -0.61838 239 238 238
-0.22481 -0.53660 -0.61527 240 238 239
-0.21984 -0.53880 -0.61216 241 240 240
-0.21486 -0.54100 -0.60906 241 240 241
-0.20989 -0.54319 -0.60595 242 241 242
-0.20492 -0.54539 -0.60285 244 243 243
-0.19996 -0.54758 -0.59975 245 244 244
-0.19500 -0.54977 -0.59665 245 244 243
-0.19004 -0.55196 -0.59356 245 244 244
-0.18508 -0.55415 -0.59046 246 244 245
-0.18013 -0.55634 -0.58737 246 246 246
-0.17517 -0.55853 -0.58428 248 247 247
-0.17023 -0.56071 -0.58119 247 245 246
-0.16528 -0.56290 -0.57811 246 245 245
-0.16034 -0.56508 -0.57502 246 246 246
-0.15540 -0.56726 -0.57194 247 245 245
-0.15046 -0.56944 -0.56886 247 246 248
-0.14553 -0.57162 -0.56578 248 247 248
-0.14060 -0.57380 -0.56270 250 248 249
-0.13567 -0.57598 -0.55962 249 248 249
-0.13074 -0.57815 -0.55655 251 250 250
-0.12582 -0.58033 -0.55348 253 252 252
-0.12090 -0.58250 -0.55040 254 253 252
-0.11599 -0.58467 -0.54734 254 254 254
-0.11107 -0.58684 -0.54427 254 254 254
-0.10616 -0.58901 -0.54120 254 254 254
-0.10125 -0.59118 -0.53814 254 254 254
-0.09635 -0.59335 -0.53508 254 254 254
-0.09144 -0.59551 -0.53202 254 254 254
-0.08654 -0.59768 -0.52896 254 254 254
-0.08165 -0.59984 -0.52590 254 254 254
-0.07675 -0.60200 -0.52285 254 254 254
-0.07186 -0.60416 -0.51979 254 254 254
-0.06697 -0.60632 -0.51674 254 254 254
-0.06209 -0.60848 -0.51369 254 254 254
-0.05721 -0.61064 -0.51064 254 254 254
-0.05233 -0.61279 -0.50760 254 254 254
-0.04745 -0.61495 -0.50455 254 254 254
-0.04257 -0.61710 -0.50151 254 254 254
-0.03770 -0.61925 -0.49847 254 254 254
-0.03283 -0.62140 -0.49543 254 254 254
-0.02797 -0.62355 -0.49239 254 254 254
-0.02310 -0.62570 -0.48936 254 254 254
-0.01824 -0.62785 -0.48632 254 254 254
-0.01339 -0.62999 -0.48329 254 254 254
-0.00853 -0.63214 -0.48026 254 254 254
-0.00368 -0.63428 -0.47723 254 254 254
0.00117 -0.63642 -0.47421 254 254 254
0.00602 -0.63857 -0.47118 254 254 254
0.01086 -0.64070 -0.46816 254 254 254
0.01570 -0.64284 -0.46514 254 254 254
0.02054 -0.64498 -0.46212 254 254 254
0.02537 -0.64712 -0.45910 254 254 254
0.03021 -0.64925 -0.45608 254 254 254
0.03504 -0.65138 -0.45307 254 254 254
0.03986 -0.65352 -0.45005 254 254 254
0.04469 -0.65565 -0.44704 254 254 254
0.04951 -0.65778 -0.44403 254 254 254
0.05433 -0.65991 -0.44102 254 254 254
0.05914 -0.66203 -0.43802 254 254 254
0.06396 -0.66416 -0.43501 254 254 254
0.06877 -0.66628 -0.43201 254 254 254
0.07358 -0.66841 -0.42901 254 254 254
0.07838 -0.67053 -0.42601 254 254 254
0.08318 -0.67265 -0.42301 254 254 254
0.08798 -0.67477 -0.42002 254 254 254
0.09278 -0.67689 -0.41702 254 254 254
0.09757 -0.67901 -0.41403 254 254 254
0.10237 -0.68112 -0.41104 254 254 254
0.10715 -0.68324 -0.40805 254 254 254
0.11194 -0.68535 -0.40506 254 254 254
0.11672 -0.68747 -0.40208 254 254 254
0.12150 -0.68958 -0.39909 254 254 254
0.12628 -0.69169 -0.39611 254 254 254
0.13106 -0.69380 -0.39313 254 254 254
0.13583 -0.69591 -0.39015 254 254 254
0.14060 -0.69801 -0.38717 253 253 254
0.14536 -0.70012 -0.38420 254 252 253
0.15013 -0.70222 -0.38122 254 254 254
0.15489 -0.70433 -0.37825 254 254 254
0.15965 -0.70643 -0.37528 254 254 254
0.16440 -0.70853 -0.37231 252 252 253
0.16916 -0.71063 -0.36935 252 253 253
0.17391 -0.71273 -0.36638 251 252 252
0.17866 -0.71482 -0.36342 249 251 252
0.18340 -0.71692 -0.36046 247 250 251
0.18814 -0.71901 -0.35750 246 249 250
0.19288 -0.72111 -0.35454 244 249 249
0.19762 -0.72320 -0.35158 241 248 247
0.20236 -0.72529 -0.34862 239 246 245
0.20709 -0.72738 -0.34567 236 242 241
0.21182 -0.72947 -0.34272 232 238 239
0.21654 -0.73156 -0.33977 228 233 233
0.22127 -0.73365 -0.33682 226 232 233
-0.43466 -0.45045 -0.74008 232 229 230
-0.39913 -0.46613 -0.71791 229 225 226
-0.39406 -0.46837 -0.71475 228 224 225
-0.38900 -0.47060 -0.71159 228 223 223
-0.38394 -0.47283 -0.70844 228 223 224
-0.37889 -0.47507 -0.70528 228 225 227
-0.37383 -0.47730 -0.70213 228 225 226
-0.36878 -0.47953 -0.69898 228 225 223
-0.36374 -0.48175 -0.69583 230 226 223
-0.35869 -0.48398 -0.69268 230 226 223
-0.35365 -0.48620 -0.68954 230 226 225
-0.34861 -0.48843 -0.68640 230 226 225
-0.34358 -0.49065 -0.68325 230 226 223
-0.33855 -0.49287 -0.68012 230 226 226
-0.33352 -0.49509 -0.67698 230 228 228
-0.32849 -0.49731 -0.67384 230 228 229
-0.32347 -0.49953 -0.67071 232 229 231
-0.31845 -0.50174 -0.66758 232 230 230
-0.31343 -0.50396 -0.66445 231 230 229
-0.30841 -0.50617 -0.66132 231 231 230
-0.30340 -0.50838 -0.65819 232 229 228
-0.29839 -0.51059 -0.65507 232 231 229
-0.29339 -0.51280 -0.65194 232 231 229
-0.28838 -0.51501 -0.64882 234 231 231
-0.28338 -0.51722 -0.64570 233 231 232
-0.27839 -0.51942 -0.64258 233 231 231
-0.27339 -0.52163 -0.63947 234 233 233
-0.26840 -0.52383 -0.63636 234 233 235
-0.26341 -0.52603 -0.63324 234 232 233
-0.25843 -0.52823 -0.63013 235 232 232
-0.25344 -0.53043 -0.62702 236 234 234
-0.24846 -0.53263 -0.62392 237 235 235
-0.24349 -0.53482 -0.62081 238 235 237
-0.23851 -0.53702 -0.61771 238 236 237
-0.23354 -0.53921 -0.61461 238 236 236
-0.22857 -0.54141 -0.61151 238 237 238
-0.22361 -0.54360 -0.60841 239 238 240
-0.21864 -0.54579 -0.60532 241 239 241
-0.21368 -0.54798 -0.60222 241 240 241
-0.20873 -0.55016 -0.59913 242 241 242
-0.20377 -0.55235 -0.59604 244 242 243
-0.19882 -0.55454 -0.59295 243 242 241
-0.19387 -0.55672 -0.58986 244 242 242
-0.18893 -0.55890 -0.58678 244 242 242
-0.18399 -0.56108 -0.58369 244 243 243
-0.17905 -0.56326 -0.58061 245 244 244
-0.17411 -0.56544 -0.57753 245 243 243
-0.16918 -0.56762 -0.57445 244 242 242
-0.16425 -0.56980 -0.57138 245 244 244
-0.15932 -0.57197 -0.56830 245 243 243
-0.15439 -0.57415 -0.56523 245 245 246
-0.14947 -0.57632 -0.56216 247 246 247
-0.14455 -0.57849 -0.55909 248 248 247
-0.13963 -0.58066 -0.55602 247 247 247
-0.13472 -0.58283 -0.55296 249 248 249
-0.12981 -0.58500 -0.54989 252 252 251
-0.12490 -0.58716 -0.54683 253 253 252
-0.11999 -0.58933 -0.54377 254 253 253
-0.11509 -0.59149 -0.54071 254 254 254
-0.11019 -0.59365 -0.53766 254 254 254
-0.10529 -0.59581 -0.53460 254 254 254
-0.10040 -0.59797 -0.53155 254 254 254
-0.09551 -0.60013 -0.52850 254 254 254
-0.09062 -0.60229 -0.52545 254 254 254
-0.08573 -0.60445 -0.52240 254 254 254
-0.08085 -0.60660 -0.51935 254 254 254
-0.07597 -0.60876 -0.51631 254 254 254
-0.07109 -0.61091 -0.51327 254 254 254
-0.06622 -0.61306 -0.51022 254 254 254
-0.06135 -0.61521 -0.50719 254 254 254
-0.05648 -0.61736 -0.50415 254 254 254
-0.05161 -0.61951 -0.50111 254 254 254
-0.04675 -0.62165 -0.49808 254 254 254
-0.04189 -0.62380 -0.49505 254 254 254
-0.03703 -0.62594 -0.49202 254 254 254
-0.03218 -0.62808 -0.48899 254 254 254
-0.02732 -0.63023 -0.48596 254 254 254
-0.02247 -0.63237 -0.48293 254 254 254
-0.01763 -0.63451 -0.47991 254 254 254
-0.01278 -0.63664 -0.47689 254 254 254
-0.00794 -0.63878 -0.47387 254 254 254
-0.00310 -0.64092 -0.47085 254 254 254
0.00173 -0.64305 -0.46783 254 254 254
0.00656 -0.64518 -0.46482 254 254 254
0.01139 -0.64731 -0.46181 254 254 254
0.01622 -0.64944 -0.45879 254 254 254
0.02105 -0.65157 -0.45578 254 254 254
0.02587 -0.65370 -0.45278 254 254 254
0.03069 -0.65583 -0.44977 254 254 254
0.03550 -0.65795 -0.44677 254 254 254
0.04032 -0.66008 -0.44376 254 254 254
0.04513 -0.66220 -0.44076 254 254 254
0.04993 -0.66432 -0.43776 254 254 254
0.05474 -0.66644 -0.43476 254 254 254
0.05954 -0.66856 -0.43177 254 254 254
0.06434 -0.67068 -0.42877 254 254 254
0.06914 -0.67280 -0.42578 254 254 254
0.07393 -0.67492 -0.42279 254 254 254
-0.44300 -0.45328 -0.73913 229 224 226
-0.43792 -0.45552 -0.73597 230 226 228
-0.43285 -0.45776 -0.73280 231 227 228
-0.42778 -0.45999 -0.72964 230 226 227
-0.42271 -0.46223 -0.72648 230 226 226
-0.41764 -0.46446 -0.72332 230 226 225
-0.41258 -0.46669 -0.72017 230 226 225
-0.40752 -0.46892 -0.71701 230 226 227
-0.40247 -0.47115 -0.71386 229 225 227
-0.39742 -0.47338 -0.71071 229 225 226
-0.39237 -0.47561 -0.70756 229 225 223
-0.38732 -0.47783 -0.70442 229 224 223
-0.38227 -0.48006 -0.70127 228 224 224
-0.37723 -0.48228 -0.69813 227 224 224
-0.37220 -0.48450 -0.69499 227 224 224
-0.36716 -0.48672 -0.69185 228 225 224
-0.36213 -0.48894 -0.68871 230 226 225
-0.35710 -0.49116 -0.68557 230 227 227
-0.35207 -0.49338 -0.68244 230 226 224
-0.34705 -0.49559 -0.67931 230 226 223
-0.34203 -0.49780 -0.67618 229 226 227
-0.33701 -0.50002 -0.67305 230 227 229
-0.33200 -0.50223 -0.66992 231 229 230
-0.32698 -0.50444 -0.66680 231 230 231
