ply
format ascii 1.0
element face 0
property list uchar int vertex_indices
element vertex 1255
property float x
property float y
property float z
property uchar diffuse_red
property uchar diffuse_green
property uchar diffuse_blue
end_header
0.44748 -0.39018 -0.60847 250 246 240
0.45361 -0.39294 -0.60452 250 246 235
0.45974 -0.39570 -0.60057 250 246 238
0.46587 -0.39846 -0.59662 250 246 240
0.47199 -0.40121 -0.59267 251 248 240
0.47811 -0.40396 -0.58872 251 247 234
0.48423 -0.40671 -0.58478 250 246 237
0.49034 -0.40946 -0.58084 250 247 237
0.49645 -0.41221 -0.57690 250 247 237
0.50256 -0.41495 -0.57296 251 246 234
0.50866 -0.41770 -0.56903 250 246 237
0.51476 -0.42044 -0.56510 248 245 237
0.52085 -0.42318 -0.56117 249 245 237
0.52694 -0.42592 -0.55724 250 245 235
0.53303 -0.42866 -0.55332 250 245 234
0.53912 -0.43139 -0.54939 250 246 237
0.54520 -0.43413 -0.54547 250 246 239
0.55128 -0.43686 -0.54156 250 247 240
0.55735 -0.43959 -0.53764 249 246 240
0.56342 -0.44232 -0.53373 250 247 241
0.56949 -0.44505 -0.52981 250 247 242
0.29799 -0.33374 -0.69463 251 249 243
0.30418 -0.33652 -0.69064 251 249 245
0.31037 -0.33930 -0.68665 250 248 241
0.31656 -0.34208 -0.68267 250 247 241
0.32275 -0.34486 -0.67868 251 248 243
0.32893 -0.34763 -0.67470 251 249 243
0.33510 -0.35041 -0.67072 251 248 243
0.34128 -0.35318 -0.66674 251 248 244
0.34745 -0.35595 -0.66277 251 248 245
0.35361 -0.35872 -0.65879 251 248 241
0.35978 -0.36149 -0.65482 251 248 240
0.36594 -0.36426 -0.65086 251 249 241
0.37209 -0.36702 -0.64689 251 249 240
0.37825 -0.36979 -0.64293 250 248 242
0.38439 -0.37255 -0.63897 250 247 243
0.39054 -0.37531 -0.63501 251 248 242
0.39668 -0.37807 -0.63105 251 248 242
0.40282 -0.38083 -0.62709 251 249 245
0.40896 -0.38358 -0.62314 251 248 242
0.41509 -0.38634 -0.61919 251 248 240
0.42122 -0.38909 -0.61524 251 248 243
0.42734 -0.39184 -0.61130 251 248 243
0.43346 -0.39459 -0.60736 250 248 243
0.43958 -0.39734 -0.60341 250 247 241
0.44569 -0.40009 -0.59948 250 246 236
0.45180 -0.40283 -0.59554 250 248 240
0.45791 -0.40557 -0.59160 251 247 239
0.46401 -0.40832 -0.58767 251 249 241
0.47011 -0.41106 -0.58374 251 247 238
0.47621 -0.41380 -0.57982 250 247 236
0.48230 -0.41653 -0.57589 250 247 235
0.48839 -0.41927 -0.57197 251 248 239
0.49448 -0.42200 -0.56805 251 247 239
0.50056 -0.42473 -0.56413 250 245 237
0.50664 -0.42747 -0.56021 249 244 235
0.51272 -0.43019 -0.55630 250 245 238
0.51879 -0.43292 -0.55238 249 245 236
0.52486 -0.43565 -0.54847 249 245 235
0.53093 -0.43837 -0.54457 250 246 233
0.53699 -0.44110 -0.54066 250 246 236
0.54305 -0.44382 -0.53676 250 246 236
0.54910 -0.44654 -0.53286 249 244 236
0.55515 -0.44926 -0.52896 249 245 238
0.56120 -0.45197 -0.52506 250 245 239
0.28442 -0.33834 -0.69323 250 247 239
0.29059 -0.34111 -0.68925 250 247 241
0.29677 -0.34388 -0.68528 250 248 243
0.30294 -0.34665 -0.68130 250 247 241
0.30911 -0.34942 -0.67733 250 247 241
0.31527 -0.35219 -0.67336 250 248 243
0.32143 -0.35495 -0.66940 250 248 242
0.32759 -0.35771 -0.66543 250 247 242
0.33375 -0.36048 -0.66147 250 247 243
0.33990 -0.36324 -0.65751 250 248 244
0.34604 -0.36599 -0.65356 250 247 242
0.35219 -0.36875 -0.64960 251 248 241
0.35833 -0.37151 -0.64565 251 249 240
0.36446 -0.37426 -0.64170 251 249 240
0.37060 -0.37701 -0.63775 251 249 243
0.37673 -0.37976 -0.63380 250 248 244
0.38285 -0.38251 -0.62986 251 248 244
0.38897 -0.38526 -0.62592 250 248 243
0.39509 -0.38800 -0.62198 250 248 244
0.40121 -0.39075 -0.61804 250 247 244
0.40732 -0.39349 -0.61411 250 247 242
0.41343 -0.39623 -0.61018 250 247 242
0.41953 -0.39897 -0.60625 250 247 242
0.42564 -0.40171 -0.60232 249 247 241
0.43173 -0.40444 -0.59839 250 247 241
0.43783 -0.40718 -0.59447 251 247 239
0.44392 -0.40991 -0.59055 249 246 242
0.45001 -0.41264 -0.58663 249 245 237
0.45609 -0.41537 -0.58271 249 246 240
0.46217 -0.41810 -0.57880 248 244 239
0.46825 -0.42083 -0.57488 248 245 239
0.47432 -0.42355 -0.57097 248 246 238
0.48040 -0.42628 -0.56707 249 246 239
0.48646 -0.42900 -0.56316 250 245 241
0.49253 -0.43172 -0.55926 249 245 239
0.49859 -0.43444 -0.55536 248 245 237
0.50464 -0.43716 -0.55146 249 246 236
0.51070 -0.43988 -0.54756 249 245 236
0.51675 -0.44259 -0.54367 250 246 237
0.52279 -0.44530 -0.53977 251 247 236
0.52884 -0.44801 -0.53588 251 247 237
0.53488 -0.45072 -0.53200 251 248 239
0.54091 -0.45343 -0.52811 250 247 239
0.54694 -0.45614 -0.52423 251 247 240
0.55297 -0.45885 -0.52034 251 248 241
0.27093 -0.34292 -0.69184 250 247 241
0.27710 -0.34568 -0.68787 250 248 242
0.28325 -0.34844 -0.68391 250 247 241
0.28941 -0.35120 -0.67995 250 248 243
0.29556 -0.35395 -0.67599 250 248 243
0.30171 -0.35671 -0.67204 250 247 242
0.30785 -0.35946 -0.66808 251 249 243
0.31400 -0.36222 -0.66413 251 248 242
0.32013 -0.36497 -0.66019 251 248 242
0.32627 -0.36772 -0.65624 250 246 241
0.33240 -0.37047 -0.65230 250 247 243
0.33853 -0.37321 -0.64835 250 247 243
0.34465 -0.37596 -0.64441 250 248 242
0.35077 -0.37870 -0.64048 250 248 243
0.35689 -0.38144 -0.63654 251 249 245
0.36300 -0.38418 -0.63261 251 249 245
0.36911 -0.38692 -0.62868 250 249 245
0.37522 -0.38966 -0.62475 250 249 245
0.38132 -0.39239 -0.62083 250 249 244
0.38742 -0.39513 -0.61690 250 249 244
0.39352 -0.39786 -0.61298 250 248 247
0.39961 -0.40059 -0.60906 250 248 244
0.40570 -0.40332 -0.60514 251 249 243
0.41178 -0.40605 -0.60123 251 249 242
0.41787 -0.40877 -0.59732 250 248 243
0.42395 -0.41150 -0.59341 251 249 240
0.43002 -0.41422 -0.58950 251 248 239
0.43609 -0.41694 -0.58559 251 247 244
0.44216 -0.41966 -0.58169 250 246 242
0.44823 -0.42238 -0.57779 251 249 242
0.45429 -0.42510 -0.57389 250 246 242
0.46035 -0.42781 -0.56999 250 247 243
0.46640 -0.43053 -0.56609 250 247 243
0.47245 -0.43324 -0.56220 250 248 243
0.47850 -0.43595 -0.55831 251 247 242
0.48455 -0.43866 -0.55442 251 248 241
0.49059 -0.44137 -0.55054 252 249 239
0.49662 -0.44407 -0.54665 251 250 239
0.50266 -0.44678 -0.54277 250 248 239
0.50869 -0.44948 -0.53889 251 249 242
0.51472 -0.45218 -0.53501 252 250 245
0.52074 -0.45488 -0.53114 252 250 244
0.52676 -0.45758 -0.52726 252 252 246
0.53278 -0.46028 -0.52339 252 250 247
0.53879 -0.46298 -0.51953 252 250 245
0.54480 -0.46567 -0.51566 252 250 246
0.25754 -0.34746 -0.69045 250 248 246
0.26369 -0.35021 -0.68650 250 248 244
0.26983 -0.35296 -0.68255 250 248 242
0.27597 -0.35571 -0.67861 250 247 240
0.28210 -0.35846 -0.67466 250 248 243
0.28823 -0.36120 -0.67072 250 248 244
0.29436 -0.36395 -0.66678 250 248 244
0.30049 -0.36669 -0.66284 251 249 245
0.30661 -0.36943 -0.65891 251 249 244
0.31273 -0.37217 -0.65497 252 249 245
0.31884 -0.37491 -0.65104 251 248 243
0.32495 -0.37764 -0.64712 251 248 241
0.33106 -0.38038 -0.64319 251 249 244
0.33717 -0.38311 -0.63927 251 249 244
0.34327 -0.38584 -0.63534 252 250 245
0.34937 -0.38857 -0.63142 252 250 246
0.35546 -0.39130 -0.62751 251 249 247
0.36155 -0.39403 -0.62359 252 250 247
0.36764 -0.39675 -0.61968 251 250 247
0.37372 -0.39948 -0.61577 252 249 244
0.37980 -0.40220 -0.61186 251 250 242
0.38588 -0.40492 -0.60795 252 250 246
0.39195 -0.40764 -0.60405 252 250 246
0.39802 -0.41036 -0.60015 252 251 246
0.40409 -0.41308 -0.59625 252 251 246
0.41015 -0.41579 -0.59235 252 251 249
0.41621 -0.41850 -0.58845 253 251 246
0.42227 -0.42121 -0.58456 253 251 246
0.42832 -0.42392 -0.58067 253 253 248
0.43437 -0.42663 -0.57678 253 252 249
0.44042 -0.42934 -0.57289 254 253 246
0.44646 -0.43205 -0.56901 254 253 247
0.45250 -0.43475 -0.56513 253 252 249
0.45853 -0.43745 -0.56125 252 251 248
0.46457 -0.44015 -0.55737 252 251 248
0.47059 -0.44285 -0.55349 251 249 245
0.47662 -0.44555 -0.54962 252 251 242
0.48264 -0.44825 -0.54575 253 251 241
0.48866 -0.45094 -0.54188 253 252 243
0.49468 -0.45363 -0.53801 252 251 241
0.50069 -0.45633 -0.53415 252 250 242
0.50670 -0.45902 -0.53029 252 250 243
0.51270 -0.46171 -0.52643 252 251 246
0.51871 -0.46439 -0.52257 253 252 247
0.52470 -0.46708 -0.51871 252 251 247
0.53070 -0.46976 -0.51486 251 250 246
0.53669 -0.47245 -0.51101 252 250 248
0.26261 -0.36020 -0.67727 252 249 241
0.26873 -0.36293 -0.67334 251 249 241
0.27485 -0.36567 -0.66941 252 250 246
0.28096 -0.36840 -0.66548 252 250 246
0.28707 -0.37113 -0.66156 252 250 247
0.29317 -0.37387 -0.65764 251 250 248
0.29928 -0.37659 -0.65372 252 251 246
0.30538 -0.37932 -0.64980 252 251 246
0.31147 -0.38205 -0.64588 251 250 244
0.31756 -0.38477 -0.64197 251 249 241
0.32365 -0.38750 -0.63806 252 251 246
0.32974 -0.39022 -0.63415 252 251 246
0.33582 -0.39294 -0.63025 253 251 246
0.34190 -0.39566 -0.62634 252 251 247
0.34797 -0.39837 -0.62244 252 251 249
0.35404 -0.40109 -0.61854 253 252 248
0.36011 -0.40380 -0.61464 253 252 249
0.36617 -0.40651 -0.61074 254 252 247
0.37224 -0.40923 -0.60685 253 252 246
0.37829 -0.41193 -0.60296 254 252 248
0.38435 -0.41464 -0.59907 253 252 247
0.39040 -0.41735 -0.59518 252 252 249
0.39645 -0.42005 -0.59130 252 252 246
0.40249 -0.42276 -0.58742 253 253 247
0.40853 -0.42546 -0.58354 254 253 247
0.41457 -0.42816 -0.57966 253 252 249
0.42060 -0.43086 -0.57578 253 251 246
0.42663 -0.43355 -0.57191 252 251 247
0.43266 -0.43625 -0.56804 252 251 246
0.43868 -0.43894 -0.56417 253 251 245
0.44470 -0.44164 -0.56030 251 250 247
0.45072 -0.44433 -0.55644 250 248 247
0.45673 -0.44702 -0.55257 251 250 248
0.46274 -0.44971 -0.54871 252 250 245
0.46875 -0.45239 -0.54485 251 249 243
0.47475 -0.45508 -0.54100 251 248 242
0.48075 -0.45776 -0.53714 252 250 243
0.48675 -0.46044 -0.53329 252 249 243
0.49274 -0.46312 -0.52944 251 248 242
0.49873 -0.46580 -0.52559 250 248 240
0.50472 -0.46848 -0.52175 250 249 245
0.51070 -0.47116 -0.51790 251 250 245
0.51668 -0.47383 -0.51406 251 250 243
0.52266 -0.47650 -0.51022 251 249 240
0.52863 -0.47917 -0.50639 253 251 243
0.21265 -0.34826 -0.69950 252 250 246
0.21877 -0.35100 -0.69557 252 250 247
0.22489 -0.35373 -0.69164 252 251 249
0.23101 -0.35646 -0.68771 253 252 250
0.23712 -0.35919 -0.68379 253 253 251
0.24323 -0.36192 -0.67986 254 253 250
0.24934 -0.36465 -0.67594 254 253 249
0.25544 -0.36738 -0.67203 254 252 248
0.26154 -0.37010 -0.66811 253 252 248
0.26764 -0.37283 -0.66420 254 253 249
0.27373 -0.37555 -0.66029 254 254 249
0.27982 -0.37827 -0.65638 254 253 249
0.28591 -0.38099 -0.65247 254 254 250
0.29199 -0.38371 -0.64856 254 253 248
0.29807 -0.38642 -0.64466 253 253 249
0.30415 -0.38914 -0.64076 253 253 248
0.31022 -0.39185 -0.63686 253 252 246
0.31629 -0.39456 -0.63297 253 252 248
0.32236 -0.39727 -0.62907 253 252 247
0.32842 -0.39998 -0.62518 252 251 247
0.33448 -0.40269 -0.62129 251 251 246
0.34053 -0.40539 -0.61741 251 251 246
0.34659 -0.40810 -0.61352 251 250 245
0.35263 -0.41080 -0.60964 251 251 246
0.35868 -0.41350 -0.60576 252 251 246
0.36472 -0.41620 -0.60188 252 251 247
0.37076 -0.41890 -0.59800 253 251 247
0.37680 -0.42160 -0.59413 252 250 246
0.38283 -0.42429 -0.59026 252 251 247
0.38886 -0.42698 -0.58639 253 252 245
0.39488 -0.42968 -0.58252 252 251 244
0.40090 -0.43237 -0.57865 253 251 242
0.40692 -0.43505 -0.57479 252 250 241
0.41294 -0.43774 -0.57093 251 249 243
0.41895 -0.44043 -0.56707 252 250 244
0.42496 -0.44311 -0.56321 251 250 243
0.43096 -0.44579 -0.55936 251 248 241
0.43696 -0.44848 -0.55551 251 248 244
0.44296 -0.45116 -0.55166 251 249 245
0.44896 -0.45383 -0.54781 252 251 245
0.45495 -0.45651 -0.54396 252 250 243
0.46094 -0.45919 -0.54012 251 248 242
0.46692 -0.46186 -0.53628 251 248 240
0.47290 -0.46453 -0.53244 251 249 241
0.47888 -0.46720 -0.52860 252 250 240
0.48485 -0.46987 -0.52476 251 248 240
0.49083 -0.47254 -0.52093 251 247 239
0.49679 -0.47521 -0.51710 250 248 241
0.50276 -0.47787 -0.51327 251 248 241
0.50872 -0.48053 -0.50945 251 249 241
0.51468 -0.48320 -0.50562 251 248 240
0.18733 -0.34729 -0.70594 254 253 250
0.19345 -0.35002 -0.70202 254 253 250
0.19956 -0.35275 -0.69810 254 254 250
0.20567 -0.35547 -0.69418 254 254 249
0.21177 -0.35820 -0.69027 254 253 249
0.21787 -0.36092 -0.68635 253 253 249
0.22397 -0.36364 -0.68244 254 253 250
0.23007 -0.36636 -0.67853 254 253 250
0.23616 -0.36908 -0.67463 254 253 250
0.24224 -0.37180 -0.67072 254 253 250
0.24833 -0.37451 -0.66682 254 253 251
0.25441 -0.37723 -0.66292 254 253 251
0.26049 -0.37994 -0.65902 254 253 249
0.26656 -0.38265 -0.65512 254 253 248
0.27263 -0.38536 -0.65123 254 253 247
0.27870 -0.38807 -0.64734 253 252 248
0.28476 -0.39077 -0.64345 252 251 248
0.29082 -0.39348 -0.63956 253 251 248
0.29688 -0.39618 -0.63567 254 252 248
0.30293 -0.39888 -0.63179 254 253 248
0.30898 -0.40158 -0.62791 253 252 248
0.31503 -0.40428 -0.62403 253 252 248
0.32107 -0.40698 -0.62016 252 252 248
0.32711 -0.40967 -0.61628 251 250 245
0.33315 -0.41237 -0.61241 251 249 245
0.33918 -0.41506 -0.60854 251 249 242
0.34521 -0.41775 -0.60467 251 249 242
0.35124 -0.42044 -0.60080 251 249 245
0.35726 -0.42313 -0.59694 251 250 245
0.36328 -0.42581 -0.59308 251 250 244
0.36930 -0.42850 -0.58922 252 250 245
0.37531 -0.43118 -0.58536 251 250 244
0.38132 -0.43387 -0.58151 251 249 244
0.38733 -0.43655 -0.57766 251 248 242
0.39333 -0.43922 -0.57381 251 248 241
0.39933 -0.44190 -0.56996 252 249 242
0.40533 -0.44458 -0.56611 251 249 244
0.41132 -0.44725 -0.56227 251 248 241
0.41731 -0.44993 -0.55842 251 248 242
0.42329 -0.45260 -0.55458 251 248 243
0.42928 -0.45527 -0.55075 252 249 244
0.43526 -0.45794 -0.54691 252 248 242
0.44123 -0.46060 -0.54308 252 248 242
0.44721 -0.46327 -0.53925 251 248 241
0.45317 -0.46593 -0.53542 251 247 237
0.45914 -0.46860 -0.53159 251 246 231
0.46510 -0.47126 -0.52777 251 246 236
0.47106 -0.47392 -0.52394 251 247 236
0.47702 -0.47657 -0.52012 250 245 234
0.48297 -0.47923 -0.51630 249 245 236
0.48892 -0.48189 -0.51249 248 245 236
0.49487 -0.48454 -0.50867 250 246 239
0.50081 -0.48719 -0.50486 250 247 239
0.50675 -0.48984 -0.50105 250 247 237
0.16826 -0.34905 -0.70844 252 251 245
0.17436 -0.35177 -0.70453 253 252 248
0.18046 -0.35449 -0.70062 253 253 250
0.18655 -0.35721 -0.69671 253 252 251
0.19265 -0.35992 -0.69281 254 253 251
0.19874 -0.36264 -0.68891 254 254 251
0.20482 -0.36535 -0.68500 254 253 250
0.21090 -0.36806 -0.68111 254 253 250
0.21698 -0.37077 -0.67721 253 252 249
0.22306 -0.37348 -0.67332 253 252 248
0.22913 -0.37619 -0.66942 253 251 247
0.23520 -0.37889 -0.66553 253 251 247
0.24126 -0.38160 -0.66165 253 251 248
0.24732 -0.38430 -0.65776 252 251 248
0.25338 -0.38700 -0.65388 253 251 247
0.25944 -0.38970 -0.65000 253 251 247
0.26549 -0.39240 -0.64612 252 250 246
0.27154 -0.39509 -0.64224 251 249 245
0.27758 -0.39779 -0.63837 251 249 245
0.28362 -0.40048 -0.63449 251 249 246
0.28966 -0.40317 -0.63062 252 250 247
0.29569 -0.40586 -0.62675 253 252 248
0.30173 -0.40855 -0.62289 252 252 247
0.30775 -0.41124 -0.61902 252 251 247
0.31378 -0.41392 -0.61516 252 250 246
0.31980 -0.41661 -0.61130 251 250 246
0.32582 -0.41929 -0.60745 252 249 246
0.33183 -0.42197 -0.60359 252 249 243
0.33784 -0.42465 -0.59974 250 248 244
0.34385 -0.42733 -0.59589 251 249 246
0.34985 -0.43001 -0.59204 251 249 242
0.35585 -0.43268 -0.58819 252 250 241
0.36185 -0.43536 -0.58435 252 248 242
0.36785 -0.43803 -0.58050 251 249 242
0.37384 -0.44070 -0.57666 251 249 243
0.37982 -0.44337 -0.57283 250 247 240
0.38581 -0.44604 -0.56899 250 246 238
0.39179 -0.44870 -0.56516 250 247 242
0.39777 -0.45137 -0.56132 250 248 241
0.40374 -0.45403 -0.55750 250 246 238
0.40971 -0.45669 -0.55367 249 246 240
0.41568 -0.45935 -0.54984 250 246 241
0.42164 -0.46201 -0.54602 250 248 242
0.42760 -0.46467 -0.54220 250 246 240
0.43356 -0.46733 -0.53838 250 246 237
0.43952 -0.46998 -0.53456 250 247 240
0.44547 -0.47263 -0.53075 251 246 239
0.45142 -0.47529 -0.52694 250 246 236
0.45736 -0.47794 -0.52312 249 246 237
0.46330 -0.48058 -0.51932 249 245 238
0.46924 -0.48323 -0.51551 248 245 238
0.47517 -0.48588 -0.51171 248 245 239
0.48110 -0.48852 -0.50790 249 246 239
0.48703 -0.49116 -0.50410 250 246 239
0.49296 -0.49381 -0.50031 251 247 240
0.49888 -0.49645 -0.49651 252 248 243
0.15538 -0.35351 -0.70702 252 251 247
0.16147 -0.35622 -0.70313 252 251 246
0.16755 -0.35893 -0.69923 252 251 247
0.17363 -0.36164 -0.69533 252 251 249
0.17971 -0.36434 -0.69144 252 250 249
0.18578 -0.36705 -0.68755 252 250 248
0.19185 -0.36975 -0.68366 253 252 248
0.19792 -0.37245 -0.67978 252 252 247
0.20398 -0.37515 -0.67590 252 250 247
0.21004 -0.37785 -0.67201 251 250 246
0.21610 -0.38055 -0.66813 251 249 245
0.22215 -0.38324 -0.66426 251 249 244
0.22820 -0.38594 -0.66038 251 249 245
0.23424 -0.38863 -0.65651 251 249 246
0.24029 -0.39132 -0.65264 252 250 245
0.24633 -0.39401 -0.64877 253 251 245
0.25236 -0.39670 -0.64490 252 251 243
0.25839 -0.39938 -0.64104 251 249 242
0.26442 -0.40207 -0.63718 251 248 241
0.27045 -0.40475 -0.63332 250 248 240
0.27647 -0.40743 -0.62946 251 249 244
0.28249 -0.41011 -0.62561 250 248 245
0.28851 -0.41279 -0.62175 251 248 247
0.29452 -0.41547 -0.61790 251 249 246
0.30053 -0.41815 -0.61405 250 247 244
0.30653 -0.42082 -0.61021 250 248 241
0.31253 -0.42350 -0.60636 251 249 245
0.31853 -0.42617 -0.60252 251 248 244
0.32453 -0.42884 -0.59868 250 248 242
0.33052 -0.43151 -0.59484 250 247 241
0.33651 -0.43417 -0.59100 250 248 244
0.34250 -0.43684 -0.58717 251 247 242
0.34848 -0.43950 -0.58334 250 247 241
0.35446 -0.44217 -0.57951 250 246 240
0.36043 -0.44483 -0.57568 250 247 242
0.36640 -0.44749 -0.57185 249 249 245
0.37237 -0.45014 -0.56803 250 248 241
0.37834 -0.45280 -0.56421 251 248 241
0.38430 -0.45546 -0.56039 251 248 243
0.39026 -0.45811 -0.55657 250 248 241
0.39622 -0.46076 -0.55276 250 247 240
0.40217 -0.46341 -0.54894 250 247 242
0.40812 -0.46606 -0.54513 251 248 244
0.41406 -0.46871 -0.54132 250 248 245
0.42001 -0.47136 -0.53752 250 247 241
0.42594 -0.47400 -0.53371 250 247 240
0.43188 -0.47665 -0.52991 249 246 242
0.43781 -0.47929 -0.52611 250 246 239
0.44374 -0.48193 -0.52231 249 246 239
0.44967 -0.48457 -0.51852 250 245 237
0.45559 -0.48721 -0.51472 250 246 240
0.46151 -0.48984 -0.51093 250 247 242
0.46743 -0.49248 -0.50714 250 247 242
0.47334 -0.49511 -0.50335 250 248 242
0.47925 -0.49774 -0.49957 251 248 242
0.48516 -0.50037 -0.49578 251 248 243
0.49106 -0.50300 -0.49200 252 249 244
0.13044 -0.35253 -0.71339 251 249 245
0.13652 -0.35524 -0.70950 251 250 247
0.14259 -0.35794 -0.70562 251 249 247
0.14866 -0.36064 -0.70173 251 250 246
0.15473 -0.36334 -0.69785 252 250 246
0.16080 -0.36604 -0.69396 252 250 246
0.16686 -0.36873 -0.69009 251 249 247
0.17291 -0.37143 -0.68621 251 249 247
0.17897 -0.37412 -0.68233 251 249 246
0.18502 -0.37681 -0.67846 251 248 246
0.19106 -0.37950 -0.67459 250 248 245
0.19711 -0.38219 -0.67072 250 248 244
0.20315 -0.38488 -0.66685 250 248 244
0.20919 -0.38757 -0.66299 250 248 243
0.21522 -0.39025 -0.65913 251 248 240
0.22125 -0.39293 -0.65527 251 248 242
0.22728 -0.39561 -0.65141 250 248 244
0.23330 -0.39829 -0.64755 250 247 242
0.23932 -0.40097 -0.64370 251 248 242
0.24534 -0.40365 -0.63985 251 249 240
0.25135 -0.40632 -0.63600 251 248 240
0.25736 -0.40900 -0.63215 251 249 243
0.26337 -0.41167 -0.62831 251 249 242
0.26937 -0.41434 -0.62446 251 249 245
0.27537 -0.41701 -0.62062 249 247 244
0.28137 -0.41968 -0.61678 250 248 245
0.28736 -0.42234 -0.61295 251 249 245
0.29335 -0.42501 -0.60911 250 248 245
0.31130 -0.43300 -0.59762 251 249 244
0.31728 -0.43565 -0.59380 251 247 241
0.32325 -0.43831 -0.58997 250 246 238
0.32922 -0.44097 -0.58615 249 247 242
0.33519 -0.44362 -0.58233 250 247 240
0.34115 -0.44628 -0.57851 249 246 240
0.34711 -0.44893 -0.57470 250 245 236
0.35307 -0.45158 -0.57089 249 245 241
0.35902 -0.45423 -0.56708 251 249 244
0.36497 -0.45687 -0.56327 251 248 243
0.37092 -0.45952 -0.55946 252 250 241
0.37686 -0.46216 -0.55565 251 247 239
0.38281 -0.46481 -0.55185 251 247 239
0.38874 -0.46745 -0.54805 251 248 237
0.39468 -0.47009 -0.54425 251 248 242
0.40061 -0.47273 -0.54046 251 248 244
0.40653 -0.47536 -0.53666 251 250 244
0.41246 -0.47800 -0.53287 250 247 241
0.41838 -0.48063 -0.52908 251 248 241
0.42430 -0.48327 -0.52529 251 249 242
0.43021 -0.48590 -0.52151 251 248 240
0.43612 -0.48853 -0.51772 249 247 241
0.44203 -0.49115 -0.51394 251 248 241
0.44794 -0.49378 -0.51016 252 250 244
0.45384 -0.49641 -0.50638 252 250 245
0.45974 -0.49903 -0.50261 251 249 246
0.46563 -0.50165 -0.49883 251 249 243
0.47152 -0.50427 -0.49506 251 248 241
0.47741 -0.50689 -0.49129 251 249 241
0.03255 -0.31908 -0.76648 249 247 243
0.03866 -0.32180 -0.76257 247 245 242
0.04476 -0.32451 -0.75867 247 245 241
0.05086 -0.32723 -0.75477 247 246 242
0.05696 -0.32994 -0.75086 248 246 242
0.06306 -0.33264 -0.74696 248 246 242
0.06915 -0.33535 -0.74307 249 246 242
0.07524 -0.33806 -0.73917 249 247 243
0.08132 -0.34076 -0.73528 248 247 241
0.08741 -0.34347 -0.73139 248 246 243
0.09348 -0.34617 -0.72750 248 246 241
0.09956 -0.34887 -0.72362 248 247 240
0.10563 -0.35157 -0.71973 250 248 245
0.11170 -0.35426 -0.71585 250 248 243
0.11776 -0.35696 -0.71197 249 247 242
0.12383 -0.35965 -0.70809 251 249 245
0.12988 -0.36234 -0.70422 251 249 246
0.13594 -0.36503 -0.70034 251 249 245
0.14199 -0.36772 -0.69647 250 249 245
0.14804 -0.37041 -0.69260 251 249 244
0.15408 -0.37310 -0.68874 251 249 245
0.16013 -0.37578 -0.68487 250 249 246
0.16616 -0.37847 -0.68101 250 249 247
0.17220 -0.38115 -0.67715 250 249 246
0.17823 -0.38383 -0.67329 251 249 245
0.18426 -0.38651 -0.66944 250 249 245
0.19028 -0.38919 -0.66558 250 249 243
0.19630 -0.39186 -0.66173 250 248 243
0.20232 -0.39454 -0.65788 250 248 244
0.20834 -0.39721 -0.65403 251 248 242
0.21435 -0.39988 -0.65019 251 248 241
0.22036 -0.40255 -0.64634 250 248 241
0.22636 -0.40522 -0.64250 251 248 240
0.23236 -0.40789 -0.63866 251 249 243
0.23836 -0.41055 -0.63483 252 249 242
0.24435 -0.41322 -0.63099 252 249 241
0.25035 -0.41588 -0.62716 251 248 242
0.25633 -0.41854 -0.62333 250 248 242
0.26232 -0.42120 -0.61950 251 249 246
0.26830 -0.42386 -0.61568 250 248 246
0.27428 -0.42651 -0.61185 250 248 247
0.28025 -0.42917 -0.60803 251 249 247
0.31008 -0.44242 -0.58895 251 250 244
0.31603 -0.44507 -0.58514 251 249 243
0.32198 -0.44772 -0.58133 252 250 246
0.32793 -0.45036 -0.57753 252 251 244
0.33388 -0.45300 -0.57373 252 249 243
0.33982 -0.45564 -0.56993 251 247 241
0.34576 -0.45828 -0.56613 250 248 243
0.35169 -0.46092 -0.56233 251 249 245
0.35762 -0.46356 -0.55854 250 250 245
0.36355 -0.46619 -0.55474 251 250 245
0.36948 -0.46882 -0.55095 252 249 241
0.37540 -0.47146 -0.54716 252 249 241
0.38132 -0.47409 -0.54338 252 249 242
0.38724 -0.47672 -0.53959 252 250 246
0.39315 -0.47934 -0.53581 251 249 244
0.39906 -0.48197 -0.53203 252 250 244
0.40496 -0.48459 -0.52825 251 248 241
0.41087 -0.48722 -0.52448 251 248 239
0.41677 -0.48984 -0.52070 251 247 241
0.42266 -0.49246 -0.51693 250 247 240
0.42856 -0.49508 -0.51316 250 246 240
0.43444 -0.49770 -0.50939 251 248 240
0.44033 -0.50031 -0.50563 250 247 240
0.44621 -0.50293 -0.50187 249 247 239
0.45209 -0.50554 -0.49810 250 247 239
0.45797 -0.50815 -0.49434 251 247 241
0.46385 -0.51076 -0.49059 250 247 241
0.46972 -0.51337 -0.48683 250 247 242
0.02017 -0.32362 -0.76489 250 249 245
0.02627 -0.32632 -0.76099 249 247 244
0.03236 -0.32903 -0.75710 248 246 243
0.03844 -0.33173 -0.75321 248 246 241
0.04452 -0.33443 -0.74932 248 246 241
0.05060 -0.33713 -0.74543 249 247 242
0.05668 -0.33983 -0.74155 250 247 240
0.06275 -0.34252 -0.73767 250 248 240
0.06882 -0.34522 -0.73379 251 249 243
0.07489 -0.34791 -0.72991 251 249 242
0.08095 -0.35060 -0.72603 250 248 244
0.08701 -0.35329 -0.72216 250 248 244
0.09307 -0.35598 -0.71829 250 248 243
0.09912 -0.35867 -0.71442 252 249 245
0.10517 -0.36135 -0.71055 251 248 245
0.11121 -0.36404 -0.70669 250 248 244
0.11726 -0.36672 -0.70283 251 250 246
0.12330 -0.36940 -0.69897 252 250 247
0.12933 -0.37208 -0.69511 252 250 247
0.13536 -0.37476 -0.69125 251 249 245
0.14139 -0.37744 -0.68740 251 248 242
0.14742 -0.38011 -0.68355 250 248 245
0.15344 -0.38278 -0.67970 251 249 247
0.15946 -0.38546 -0.67585 251 250 248
0.16548 -0.38813 -0.67200 251 249 247
0.17149 -0.39080 -0.66816 251 250 244
0.17750 -0.39346 -0.66432 251 250 246
0.18350 -0.39613 -0.66048 251 249 246
0.18951 -0.39880 -0.65664 251 248 245
0.19550 -0.40146 -0.65281 250 249 247
0.20150 -0.40412 -0.64897 251 249 246
0.20749 -0.40678 -0.64514 251 248 244
0.21348 -0.40944 -0.64131 251 248 243
0.21947 -0.41210 -0.63749 251 249 244
0.22545 -0.41475 -0.63366 252 250 246
0.23143 -0.41741 -0.62984 252 250 246
0.23741 -0.42006 -0.62602 252 250 243
0.24338 -0.42271 -0.62220 251 249 242
0.24935 -0.42536 -0.61839 251 249 243
0.25531 -0.42801 -0.61457 252 250 247
0.26128 -0.43066 -0.61076 253 252 250
0.26724 -0.43330 -0.60695 253 253 250
0.30292 -0.44915 -0.58414 253 251 246
0.30886 -0.45178 -0.58034 251 251 248
0.31479 -0.45442 -0.57655 252 251 249
0.32072 -0.45705 -0.57276 252 250 245
0.32665 -0.45968 -0.56897 251 249 245
0.33257 -0.46231 -0.56518 251 248 246
0.33850 -0.46494 -0.56140 251 248 244
0.34441 -0.46757 -0.55762 252 249 245
0.35033 -0.47019 -0.55384 252 249 244
0.35624 -0.47282 -0.55006 252 249 244
0.36214 -0.47544 -0.54628 252 251 242
0.36805 -0.47806 -0.54251 252 249 244
0.37395 -0.48068 -0.53874 251 248 243
0.37985 -0.48330 -0.53497 251 248 243
0.38574 -0.48592 -0.53120 250 246 241
0.39163 -0.48853 -0.52743 249 246 240
0.39752 -0.49115 -0.52367 249 247 239
0.40340 -0.49376 -0.51991 248 246 239
0.40929 -0.49637 -0.51615 248 245 238
0.41516 -0.49898 -0.51239 249 247 237
0.42104 -0.50159 -0.50863 249 246 239
0.42691 -0.50419 -0.50488 249 247 241
0.43278 -0.50680 -0.50113 249 246 239
0.43864 -0.50940 -0.49738 247 245 239
0.44451 -0.51201 -0.49363 248 246 239
0.45037 -0.51461 -0.48989 249 246 242
0.45622 -0.51721 -0.48614 249 246 241
0.46207 -0.51981 -0.48240 249 245 240
0.01395 -0.33082 -0.75942 251 249 246
0.02003 -0.33351 -0.75554 251 249 246
0.02610 -0.33620 -0.75166 251 249 246
0.03217 -0.33889 -0.74779 251 249 244
0.03823 -0.34158 -0.74391 251 249 244
0.04429 -0.34427 -0.74004 251 249 245
0.05035 -0.34696 -0.73617 251 250 244
0.05640 -0.34964 -0.73230 252 251 245
0.06245 -0.35233 -0.72844 253 251 246
0.06850 -0.35501 -0.72458 252 251 246
0.07454 -0.35769 -0.72072 252 250 247
0.08058 -0.36037 -0.71686 251 250 246
0.08662 -0.36304 -0.71300 251 250 245
0.09265 -0.36572 -0.70915 251 249 245
0.09868 -0.36839 -0.70529 250 248 244
0.10471 -0.37107 -0.70144 251 249 246
0.11073 -0.37374 -0.69760 253 251 247
0.11675 -0.37641 -0.69375 253 252 249
0.12277 -0.37908 -0.68991 252 250 248
0.12878 -0.38174 -0.68607 252 250 246
0.13479 -0.38441 -0.68223 251 249 245
0.14080 -0.38707 -0.67839 250 250 247
0.14680 -0.38974 -0.67455 251 250 247
0.15280 -0.39240 -0.67072 251 250 247
0.15880 -0.39506 -0.66689 251 250 247
0.16479 -0.39772 -0.66306 251 250 246
0.17078 -0.40037 -0.65923 251 250 247
0.17677 -0.40303 -0.65541 251 249 246
0.18275 -0.40568 -0.65159 251 248 245
0.18873 -0.40833 -0.64777 251 248 244
0.19471 -0.41098 -0.64395 251 248 244
0.20069 -0.41363 -0.64013 251 249 244
0.20666 -0.41628 -0.63632 251 249 243
0.21262 -0.41893 -0.63251 252 249 243
0.21859 -0.42157 -0.62870 252 249 244
0.22455 -0.42422 -0.62489 252 249 244
0.23051 -0.42686 -0.62108 252 249 244
0.23646 -0.42950 -0.61728 252 249 243
0.24241 -0.43214 -0.61348 251 248 244
0.24836 -0.43478 -0.60968 251 250 247
0.25430 -0.43741 -0.60588 252 252 250
0.29582 -0.45583 -0.57936 252 249 244
0.30174 -0.45845 -0.57558 251 248 242
0.30765 -0.46108 -0.57180 251 249 244
0.31357 -0.46370 -0.56802 251 248 242
0.31948 -0.46632 -0.56425 251 248 241
0.32538 -0.46894 -0.56047 251 248 243
0.33128 -0.47155 -0.55670 250 247 242
0.33718 -0.47417 -0.55294 250 247 243
0.34308 -0.47679 -0.54917 251 248 242
0.34897 -0.47940 -0.54541 250 247 244
0.35486 -0.48201 -0.54164 251 248 242
0.36074 -0.48462 -0.53788 250 248 241
0.36663 -0.48723 -0.53413 250 246 241
0.37251 -0.48984 -0.53037 250 248 240
0.37838 -0.49244 -0.52662 249 246 239
0.38426 -0.49505 -0.52286 248 244 235
0.39013 -0.49765 -0.51911 248 246 238
0.39599 -0.50025 -0.51537 248 245 240
0.40186 -0.50285 -0.51162 249 244 237
0.40772 -0.50545 -0.50788 248 244 235
0.41357 -0.50805 -0.50414 248 243 234
0.41943 -0.51065 -0.50040 247 243 235
0.42528 -0.51324 -0.49666 248 245 235
0.43113 -0.51584 -0.49292 247 244 236
0.43697 -0.51843 -0.48919 248 244 236
0.44281 -0.52102 -0.48546 247 244 237
0.44865 -0.52361 -0.48173 248 245 236
0.45448 -0.52620 -0.47800 248 245 239
-0.00434 -0.33260 -0.76173 251 251 248
0.00172 -0.33528 -0.75786 251 250 247
0.00778 -0.33797 -0.75399 251 250 248
0.01383 -0.34065 -0.75013 251 250 247
0.01988 -0.34333 -0.74626 252 251 246
0.02593 -0.34601 -0.74240 252 250 246
0.03198 -0.34869 -0.73854 253 251 247
0.03802 -0.35136 -0.73469 253 251 249
0.04406 -0.35404 -0.73083 252 251 248
0.05009 -0.35671 -0.72698 252 252 249
0.05612 -0.35939 -0.72313 252 251 248
0.06215 -0.36206 -0.71928 251 250 248
0.06817 -0.36473 -0.71543 250 249 247
0.07419 -0.36739 -0.71159 252 250 247
0.08021 -0.37006 -0.70775 252 251 248
0.08623 -0.37272 -0.70391 251 249 246
0.09224 -0.37539 -0.70007 251 249 246
0.09825 -0.37805 -0.69624 251 249 246
0.10425 -0.38071 -0.69240 253 251 246
0.11025 -0.38337 -0.68857 253 251 248
0.11625 -0.38603 -0.68474 251 251 249
0.12225 -0.38868 -0.68092 252 249 246
0.12824 -0.39134 -0.67709 252 250 246
0.13422 -0.39399 -0.67327 252 251 247
0.14021 -0.39664 -0.66945 252 250 245
0.14619 -0.39929 -0.66563 251 249 245
0.15217 -0.40194 -0.66181 250 249 245
0.15814 -0.40459 -0.65800 250 249 246
0.16412 -0.40723 -0.65419 251 249 246
0.17008 -0.40988 -0.65038 250 248 244
0.17605 -0.41252 -0.64657 250 248 242
0.18201 -0.41516 -0.64276 250 248 237
0.18797 -0.41780 -0.63896 249 247 237
0.19392 -0.42044 -0.63516 250 247 240
0.19988 -0.42308 -0.63136 250 246 239
0.20583 -0.42571 -0.62756 250 246 241
0.21177 -0.42835 -0.62376 250 247 241
0.21771 -0.43098 -0.61997 250 247 240
0.22365 -0.43361 -0.61618 249 247 242
0.22959 -0.43624 -0.61239 250 248 243
0.23552 -0.43887 -0.60860 251 249 245
0.24145 -0.44150 -0.60482 252 250 247
0.28877 -0.46246 -0.57461 251 249 245
0.29467 -0.46507 -0.57084 251 248 243
0.30056 -0.46769 -0.56708 251 248 242
0.30646 -0.47030 -0.56332 251 247 239
0.31235 -0.47291 -0.55956 251 247 240
0.31823 -0.47552 -0.55580 250 246 237
0.32412 -0.47812 -0.55204 250 246 234
0.33000 -0.48073 -0.54829 250 246 238
0.33588 -0.48333 -0.54454 250 246 240
0.34175 -0.48594 -0.54079 250 247 243
0.34762 -0.48854 -0.53704 250 247 240
0.35349 -0.49114 -0.53329 250 246 230
0.35936 -0.49373 -0.52955 250 247 238
0.36522 -0.49633 -0.52581 249 247 239
0.37108 -0.49893 -0.52206 248 245 238
0.37693 -0.50152 -0.51833 248 244 235
0.38278 -0.50411 -0.51459 247 243 236
0.38863 -0.50671 -0.51086 248 244 233
0.39448 -0.50930 -0.50713 247 244 235
0.40032 -0.51188 -0.50340 247 243 233
0.40616 -0.51447 -0.49967 248 242 228
0.41200 -0.51706 -0.49594 247 241 231
0.41783 -0.51964 -0.49222 248 243 234
0.42366 -0.52222 -0.48850 248 245 235
0.42948 -0.52481 -0.48478 249 245 234
0.43531 -0.52739 -0.48106 249 245 234
0.44113 -0.52996 -0.47734 249 246 235
0.44695 -0.53254 -0.47363 250 246 239
-0.01648 -0.33705 -0.76016 251 250 247
-0.01044 -0.33972 -0.75631 250 249 245
-0.00439 -0.34240 -0.75245 249 248 246
0.00165 -0.34507 -0.74860 250 248 247
0.00768 -0.34774 -0.74475 251 249 247
0.01371 -0.35041 -0.74090 251 250 246
0.01974 -0.35308 -0.73705 251 250 245
0.02577 -0.35574 -0.73321 251 250 246
0.03179 -0.35841 -0.72937 251 250 248
0.03781 -0.36107 -0.72553 251 250 247
0.04382 -0.36374 -0.72169 252 250 247
0.04984 -0.36640 -0.71785 251 251 248
0.05584 -0.36906 -0.71402 251 250 249
0.06185 -0.37172 -0.71019 250 250 248
0.06785 -0.37437 -0.70636 251 249 246
0.07385 -0.37703 -0.70253 252 250 246
0.07985 -0.37968 -0.69871 252 249 244
0.08584 -0.38233 -0.69488 252 250 246
0.09183 -0.38498 -0.69106 251 250 247
0.09782 -0.38763 -0.68724 252 249 245
0.10380 -0.39028 -0.68343 251 248 245
0.10978 -0.39293 -0.67961 250 248 243
0.11575 -0.39557 -0.67580 250 247 243
0.12173 -0.39822 -0.67199 251 248 243
0.12770 -0.40086 -0.66818 251 249 245
0.13366 -0.40350 -0.66438 252 250 243
0.13962 -0.40614 -0.66057 251 248 242
0.14558 -0.40878 -0.65677 249 247 243
0.15154 -0.41141 -0.65297 249 248 245
0.15749 -0.41405 -0.64917 250 248 245
0.16344 -0.41668 -0.64538 249 248 244
0.16939 -0.41931 -0.64158 250 248 243
0.17533 -0.42194 -0.63779 250 248 241
0.18127 -0.42457 -0.63400 249 247 241
0.18721 -0.42720 -0.63021 249 248 244
0.19314 -0.42983 -0.62643 250 247 243
0.19907 -0.43245 -0.62265 250 248 243
0.20500 -0.43507 -0.61886 250 248 244
0.21092 -0.43770 -0.61508 249 247 242
0.21685 -0.44032 -0.61131 249 247 243
0.22276 -0.44294 -0.60753 250 249 245
0.22868 -0.44555 -0.60376 252 251 248
0.27587 -0.46644 -0.57365 252 250 245
0.28176 -0.46905 -0.56989 250 249 246
0.28764 -0.47165 -0.56614 250 248 245
0.29352 -0.47425 -0.56239 250 247 242
0.29940 -0.47685 -0.55864 250 246 240
0.30527 -0.47945 -0.55490 249 246 241
0.31114 -0.48205 -0.55115 251 246 238
0.31700 -0.48465 -0.54741 250 247 236
0.32287 -0.48724 -0.54367 250 246 237
0.32873 -0.48984 -0.53993 250 246 237
0.33458 -0.49243 -0.53620 250 246 241
0.34044 -0.49502 -0.53246 250 248 242
0.34629 -0.49761 -0.52873 248 246 236
0.35213 -0.50020 -0.52500 249 246 239
0.35798 -0.50278 -0.52127 250 246 239
0.36382 -0.50537 -0.51754 250 246 239
0.36965 -0.50795 -0.51382 250 246 239
0.37549 -0.51053 -0.51010 247 244 239
0.38132 -0.51311 -0.50638 247 243 235
0.38715 -0.51569 -0.50266 247 244 235
0.39297 -0.51827 -0.49894 248 245 235
0.39879 -0.52085 -0.49523 248 244 233
0.40461 -0.52342 -0.49152 248 244 235
0.41043 -0.52600 -0.48781 248 245 238
0.41624 -0.52857 -0.48410 249 246 238
0.42205 -0.53114 -0.48039 249 245 233
0.42785 -0.53371 -0.47669 250 246 236
0.43366 -0.53628 -0.47299 250 247 238
0.43946 -0.53885 -0.46929 251 248 239
0.44525 -0.54141 -0.46559 250 248 241
-0.02855 -0.34146 -0.75861 250 248 241
-0.02252 -0.34413 -0.75476 249 247 243
-0.01649 -0.34680 -0.75092 249 247 243
-0.01047 -0.34946 -0.74708 250 248 244
-0.00445 -0.35212 -0.74324 250 248 246
0.00157 -0.35478 -0.73941 250 248 248
0.00758 -0.35744 -0.73557 250 248 247
0.01359 -0.36010 -0.73174 248 247 245
0.01960 -0.36275 -0.72791 248 248 245
0.02560 -0.36541 -0.72408 249 248 246
0.03160 -0.36806 -0.72026 250 249 248
0.03760 -0.37071 -0.71644 251 250 247
0.04359 -0.37336 -0.71261 251 249 247
0.04958 -0.37601 -0.70880 252 249 246
0.05557 -0.37866 -0.70498 251 250 246
0.06155 -0.38130 -0.70116 251 250 246
0.06753 -0.38395 -0.69735 250 249 245
0.07351 -0.38659 -0.69354 251 248 242
0.07949 -0.38923 -0.68973 250 249 244
0.08546 -0.39187 -0.68593 249 248 245
0.09142 -0.39451 -0.68212 250 248 244
0.09739 -0.39715 -0.67832 250 248 243
0.10335 -0.39978 -0.67452 249 246 240
0.10931 -0.40242 -0.67072 248 246 241
0.11526 -0.40505 -0.66692 249 246 240
0.12121 -0.40768 -0.66313 249 246 242
0.12716 -0.41031 -0.65934 250 247 240
0.13310 -0.41294 -0.65555 251 247 241
0.13904 -0.41557 -0.65176 251 248 243
0.14498 -0.41819 -0.64798 251 248 243
0.15092 -0.42082 -0.64419 250 247 241
0.15685 -0.42344 -0.64041 250 248 240
0.16278 -0.42606 -0.63663 250 248 240
0.16870 -0.42868 -0.63285 251 248 240
0.17462 -0.43130 -0.62908 251 248 243
0.18054 -0.43391 -0.62531 250 248 243
0.18646 -0.43653 -0.62153 249 247 241
0.19237 -0.43914 -0.61776 248 247 241
0.19828 -0.44176 -0.61400 249 248 244
0.20418 -0.44437 -0.61023 250 248 245
0.21009 -0.44698 -0.60647 250 249 246
0.21598 -0.44959 -0.60271 251 250 246
0.26306 -0.47040 -0.57269 252 251 248
0.26893 -0.47300 -0.56895 252 249 246
0.27480 -0.47559 -0.56521 252 250 246
0.28066 -0.47818 -0.56147 251 250 247
0.28652 -0.48078 -0.55774 251 249 247
0.29238 -0.48337 -0.55400 250 247 243
0.29824 -0.48595 -0.55027 249 248 242
0.30409 -0.48854 -0.54654 250 247 241
0.30994 -0.49113 -0.54281 249 247 241
0.31578 -0.49371 -0.53908 251 248 241
0.32162 -0.49630 -0.53536 251 248 239
0.32746 -0.49888 -0.53164 250 247 238
0.33330 -0.50146 -0.52792 250 248 238
0.33913 -0.50404 -0.52420 249 247 240
0.34496 -0.50661 -0.52048 250 248 240
0.35078 -0.50919 -0.51677 251 247 240
0.35661 -0.51176 -0.51306 250 246 238
0.36243 -0.51434 -0.50934 250 246 236
0.36824 -0.51691 -0.50564 248 245 239
0.37406 -0.51948 -0.50193 248 245 238
0.37987 -0.52205 -0.49823 249 246 238
0.38567 -0.52462 -0.49452 250 247 238
0.39148 -0.52718 -0.49082 250 247 239
0.39728 -0.52975 -0.48712 250 247 239
0.40308 -0.53231 -0.48343 250 246 240
0.40887 -0.53487 -0.47973 250 245 240
0.41466 -0.53743 -0.47604 249 246 238
0.42045 -0.53999 -0.47235 250 247 241
0.42624 -0.54255 -0.46866 251 248 241
0.43202 -0.54511 -0.46498 251 249 241
0.43780 -0.54766 -0.46129 250 248 242
0.44357 -0.55022 -0.45761 251 248 241
-0.04655 -0.34320 -0.76089 250 248 245
-0.04053 -0.34586 -0.75706 251 248 243
-0.03452 -0.34851 -0.75323 251 249 243
-0.02851 -0.35117 -0.74940 249 248 244
-0.02250 -0.35382 -0.74557 249 248 244
-0.01650 -0.35647 -0.74175 249 248 244
-0.01050 -0.35912 -0.73792 249 248 244
-0.00450 -0.36177 -0.73410 249 248 246
0.00150 -0.36442 -0.73028 249 249 246
0.00749 -0.36707 -0.72647 249 248 244
0.01348 -0.36971 -0.72265 249 247 243
0.01946 -0.37236 -0.71884 249 248 245
0.02544 -0.37500 -0.71503 250 249 246
0.03142 -0.37764 -0.71122 250 250 248
0.03739 -0.38028 -0.70741 252 251 249
0.04337 -0.38292 -0.70361 250 250 247
0.04933 -0.38555 -0.69980 251 250 246
0.05530 -0.38819 -0.69600 250 248 242
0.06126 -0.39082 -0.69221 250 248 244
0.06722 -0.39345 -0.68841 251 249 243
0.07317 -0.39608 -0.68462 250 248 242
0.07913 -0.39871 -0.68082 249 247 242
0.08507 -0.40134 -0.67703 250 248 244
0.09102 -0.40397 -0.67325 250 248 243
0.09696 -0.40659 -0.66946 248 247 242
0.10290 -0.40921 -0.66568 248 246 242
0.10884 -0.41184 -0.66189 249 245 241
0.11477 -0.41446 -0.65811 250 247 243
0.12070 -0.41708 -0.65434 250 248 243
0.12662 -0.41969 -0.65056 251 249 243
0.13255 -0.42231 -0.64679 250 248 242
0.13847 -0.42492 -0.64302 251 249 244
0.14438 -0.42754 -0.63925 250 249 244
0.15030 -0.43015 -0.63548 250 249 245
0.15621 -0.43276 -0.63171 251 249 244
0.16211 -0.43537 -0.62795 251 249 244
0.16802 -0.43798 -0.62419 252 249 246
0.17392 -0.44058 -0.62043 251 249 246
0.17981 -0.44319 -0.61667 251 248 244
0.18571 -0.44579 -0.61292 250 247 243
0.19160 -0.44839 -0.60916 250 248 244
0.19749 -0.45099 -0.60541 251 248 245
0.20337 -0.45359 -0.60166 252 250 246
0.25619 -0.47692 -0.56801 251 250 246
0.26204 -0.47951 -0.56429 252 250 243
0.26789 -0.48209 -0.56056 252 251 245
0.27373 -0.48467 -0.55683 251 250 245
0.27958 -0.48725 -0.55311 251 250 245
0.28542 -0.48983 -0.54939 252 249 245
0.29125 -0.49241 -0.54567 251 249 246
0.29709 -0.49499 -0.54196 251 250 243
0.30292 -0.49756 -0.53824 252 248 242
0.30874 -0.50014 -0.53453 253 250 243
0.31457 -0.50271 -0.53082 251 249 244
0.32039 -0.50528 -0.52711 252 249 240
0.32621 -0.50785 -0.52340 251 248 240
0.33202 -0.51042 -0.51970 251 249 242
0.33783 -0.51299 -0.51599 251 249 241
0.34364 -0.51555 -0.51229 252 249 242
0.34945 -0.51812 -0.50860 251 247 241
0.35525 -0.52068 -0.50490 250 247 239
0.36105 -0.52324 -0.50120 250 247 239
0.36684 -0.52580 -0.49751 251 248 238
0.37264 -0.52836 -0.49382 251 248 240
0.37843 -0.53092 -0.49013 250 248 241
0.38421 -0.53347 -0.48645 250 248 240
0.39000 -0.53603 -0.48276 250 248 241
0.39578 -0.53858 -0.47908 251 248 243
0.40155 -0.54113 -0.47540 251 248 244
0.40733 -0.54368 -0.47172 251 248 242
0.41310 -0.54623 -0.46804 252 249 243
0.41887 -0.54878 -0.46437 252 250 243
0.42463 -0.55133 -0.46069 252 250 245
0.43039 -0.55387 -0.45702 252 250 244
0.43615 -0.55642 -0.45335 251 248 242
0.44191 -0.55896 -0.44969 250 248 240
-0.05845 -0.34757 -0.75935 250 249 246
-0.05245 -0.35022 -0.75552 251 249 246
-0.04645 -0.35287 -0.75171 252 250 246
-0.04045 -0.35551 -0.74789 252 249 246
-0.03446 -0.35816 -0.74407 250 248 245
-0.02847 -0.36080 -0.74026 248 247 243
-0.02249 -0.36344 -0.73645 249 247 241
-0.01650 -0.36608 -0.73264 248 246 241
-0.01053 -0.36872 -0.72883 248 247 243
-0.00455 -0.37136 -0.72503 249 248 243
0.00142 -0.37399 -0.72123 250 248 244
0.00739 -0.37663 -0.71743 249 248 245
0.01336 -0.37926 -0.71363 250 248 245
0.01932 -0.38189 -0.70983 251 249 246
0.02528 -0.38452 -0.70604 250 249 247
0.03124 -0.38715 -0.70224 251 249 245
0.03719 -0.38977 -0.69845 251 250 247
0.04314 -0.39240 -0.69467 250 249 247
0.04909 -0.39502 -0.69088 250 249 246
0.05503 -0.39765 -0.68710 250 248 245
0.06097 -0.40027 -0.68331 250 248 244
0.06690 -0.40289 -0.67953 248 247 242
0.07284 -0.40551 -0.67576 249 247 240
0.07877 -0.40812 -0.67198 250 249 246
0.08470 -0.41074 -0.66821 250 248 244
0.09062 -0.41335 -0.66443 250 249 246
0.09654 -0.41596 -0.66066 249 248 244
0.10246 -0.41858 -0.65690 250 249 245
0.10837 -0.42119 -0.65313 250 250 247
0.11428 -0.42379 -0.64937 251 250 248
0.12019 -0.42640 -0.64561 252 250 247
0.12609 -0.42901 -0.64185 252 250 246
0.13200 -0.43161 -0.63809 252 250 248
0.13789 -0.43421 -0.63433 251 251 249
0.14379 -0.43681 -0.63058 251 251 248
0.14968 -0.43941 -0.62683 252 251 248
0.15557 -0.44201 -0.62308 252 250 247
0.16145 -0.44461 -0.61933 252 249 246
0.16734 -0.44721 -0.61559 252 249 245
0.17322 -0.44980 -0.61184 251 248 242
0.17909 -0.45239 -0.60810 250 248 241
0.18496 -0.45498 -0.60436 250 248 244
0.19083 -0.45757 -0.60063 251 249 245
0.19670 -0.46016 -0.59689 253 250 247
0.24352 -0.48082 -0.56708 253 252 249
0.24935 -0.48340 -0.56337 252 252 247
0.25519 -0.48597 -0.55965 252 252 245
0.26102 -0.48855 -0.55594 252 250 245
0.26685 -0.49112 -0.55223 252 250 243
0.27267 -0.49369 -0.54852 251 249 242
0.27850 -0.49626 -0.54481 251 250 245
0.28432 -0.49883 -0.54111 252 250 246
0.29013 -0.50139 -0.53740 252 251 242
0.29594 -0.50396 -0.53370 252 250 240
0.30175 -0.50652 -0.53000 252 249 242
0.30756 -0.50908 -0.52631 251 250 244
0.31336 -0.51164 -0.52261 251 250 243
0.31916 -0.51420 -0.51892 251 248 243
0.32496 -0.51676 -0.51523 252 250 242
0.33075 -0.51932 -0.51154 252 249 240
0.33655 -0.52187 -0.50785 251 248 243
0.34233 -0.52443 -0.50417 251 248 244
0.34812 -0.52698 -0.50048 250 247 244
0.35390 -0.52953 -0.49680 251 248 242
0.35968 -0.53208 -0.49312 251 248 240
0.36545 -0.53463 -0.48945 250 249 242
0.37123 -0.53718 -0.48577 251 249 243
0.37699 -0.53972 -0.48210 250 248 242
0.38276 -0.54227 -0.47843 250 248 243
0.38852 -0.54481 -0.47476 251 248 243
0.39428 -0.54735 -0.47109 251 248 244
0.40004 -0.54989 -0.46742 251 248 244
0.40579 -0.55243 -0.46376 251 248 243
0.41154 -0.55497 -0.46010 251 249 243
0.41729 -0.55751 -0.45644 252 250 245
0.42304 -0.56004 -0.45278 252 249 244
0.42878 -0.56257 -0.44913 251 248 242
0.43452 -0.56511 -0.44547 250 248 241
0.44025 -0.56764 -0.44182 248 247 240
-0.07626 -0.34928 -0.76162 250 249 247
-0.07027 -0.35192 -0.75781 248 247 245
-0.06428 -0.35456 -0.75400 248 248 245
-0.05830 -0.35719 -0.75019 249 248 246
-0.05232 -0.35983 -0.74639 251 249 246
-0.04635 -0.36247 -0.74258 251 249 246
-0.04037 -0.36510 -0.73878 250 248 246
-0.03440 -0.36773 -0.73498 249 248 246
-0.02844 -0.37036 -0.73119 248 247 244
-0.02247 -0.37299 -0.72739 248 247 242
-0.01651 -0.37562 -0.72360 248 247 243
-0.01055 -0.37824 -0.71981 249 247 242
-0.00460 -0.38087 -0.71602 250 246 241
0.00135 -0.38349 -0.71224 249 247 242
0.00730 -0.38611 -0.70845 249 247 246
0.01324 -0.38873 -0.70467 250 248 247
0.01918 -0.39135 -0.70089 251 249 247
0.02512 -0.39397 -0.69711 250 249 247
0.03105 -0.39659 -0.69333 250 249 246
0.03699 -0.39920 -0.68956 250 249 246
0.04291 -0.40181 -0.68579 250 249 247
0.04884 -0.40443 -0.68202 251 249 245
0.05476 -0.40704 -0.67825 250 249 245
0.06068 -0.40965 -0.67449 251 249 245
0.06659 -0.41225 -0.67072 251 250 243
0.07251 -0.41486 -0.66696 249 249 246
0.07841 -0.41747 -0.66320 250 250 246
0.08432 -0.42007 -0.65944 252 251 247
0.09022 -0.42267 -0.65569 250 249 247
0.09612 -0.42527 -0.65193 250 250 247
0.10202 -0.42787 -0.64818 251 250 248
0.10791 -0.43047 -0.64443 251 251 247
0.11380 -0.43306 -0.64068 251 250 247
0.11969 -0.43566 -0.63694 251 249 246
0.12557 -0.43825 -0.63320 252 250 247
0.13145 -0.44085 -0.62945 251 251 248
0.13733 -0.44344 -0.62571 251 250 248
0.14320 -0.44603 -0.62198 251 250 247
0.14907 -0.44861 -0.61824 251 249 246
0.15494 -0.45120 -0.61451 251 248 244
0.16080 -0.45379 -0.61078 252 250 244
0.16666 -0.45637 -0.60705 251 250 244
0.17252 -0.45895 -0.60332 251 249 244
0.17838 -0.46153 -0.59960 251 249 245
0.18423 -0.46411 -0.59587 252 250 247
0.23093 -0.48470 -0.56616 254 254 250
0.23675 -0.48727 -0.56245 253 252 250
0.24257 -0.48983 -0.55875 253 252 249
0.24839 -0.49240 -0.55505 253 252 247
0.25420 -0.49496 -0.55135 253 252 246
0.26001 -0.49752 -0.54765 252 250 245
0.26582 -0.50008 -0.54396 252 250 244
0.27162 -0.50264 -0.54026 252 251 245
0.27742 -0.50520 -0.53657 252 251 246
0.28322 -0.50775 -0.53288 252 251 245
0.28902 -0.51031 -0.52919 253 252 244
0.29481 -0.51286 -0.52551 253 251 247
0.30060 -0.51541 -0.52182 252 251 246
0.30638 -0.51796 -0.51814 252 250 245
0.31217 -0.52051 -0.51446 252 250 244
0.31795 -0.52306 -0.51079 251 250 243
0.32372 -0.52561 -0.50711 252 249 241
0.32950 -0.52815 -0.50344 252 250 243
0.33527 -0.53070 -0.49977 251 249 244
0.34103 -0.53324 -0.49610 251 249 242
0.34680 -0.53578 -0.49243 251 248 242
0.35256 -0.53832 -0.48876 250 248 240
0.35832 -0.54086 -0.48510 250 248 240
0.36407 -0.54340 -0.48144 251 247 238
0.36983 -0.54593 -0.47778 249 247 240
0.37557 -0.54847 -0.47412 249 247 243
0.38132 -0.55100 -0.47046 249 247 243
0.38706 -0.55353 -0.46681 250 247 243
0.39280 -0.55606 -0.46316 250 247 243
0.39854 -0.55859 -0.45951 249 247 242
0.40427 -0.56112 -0.45586 250 248 242
0.41000 -0.56364 -0.45221 251 248 243
0.41573 -0.56617 -0.44857 250 248 242
0.42145 -0.56869 -0.44493 250 248 241
0.42718 -0.57121 -0.44128 249 247 240
0.43289 -0.57374 -0.43765 248 246 239
-0.09397 -0.35097 -0.76388 249 248 245
-0.08800 -0.35361 -0.76008 251 249 246
-0.08202 -0.35624 -0.75628 250 249 247
-0.07605 -0.35887 -0.75248 249 248 245
-0.07008 -0.36150 -0.74869 248 248 245
-0.06412 -0.36412 -0.74489 249 248 244
-0.05816 -0.36675 -0.74110 250 249 245
-0.05220 -0.36937 -0.73732 250 250 245
-0.04624 -0.37199 -0.73353 250 249 244
-0.04029 -0.37461 -0.72974 249 248 245
-0.03434 -0.37723 -0.72596 249 247 245
-0.02840 -0.37985 -0.72218 249 247 244
-0.02246 -0.38247 -0.71840 249 248 244
-0.01652 -0.38509 -0.71463 250 248 244
-0.01058 -0.38770 -0.71085 251 248 243
-0.00465 -0.39031 -0.70708 250 248 244
0.00128 -0.39292 -0.70331 249 249 247
0.00720 -0.39553 -0.69954 250 249 246
0.01313 -0.39814 -0.69578 252 250 246
0.01905 -0.40075 -0.69201 250 250 248
0.02496 -0.40335 -0.68825 251 249 246
0.03087 -0.40596 -0.68449 251 249 245
0.03678 -0.40856 -0.68073 251 250 248
0.04269 -0.41116 -0.67698 250 249 243
0.04859 -0.41376 -0.67322 250 249 246
0.05449 -0.41636 -0.66947 252 251 248
0.06039 -0.41896 -0.66572 251 251 246
0.06628 -0.42155 -0.66197 252 251 248
0.07217 -0.42415 -0.65823 252 252 249
0.07806 -0.42674 -0.65448 252 252 248
0.08395 -0.42933 -0.65074 252 252 249
0.08983 -0.43192 -0.64700 252 251 248
0.09571 -0.43451 -0.64327 253 252 249
0.10158 -0.43710 -0.63953 254 253 248
0.10745 -0.43968 -0.63580 253 252 248
0.11332 -0.44227 -0.63206 252 251 247
0.11919 -0.44485 -0.62833 253 251 247
0.12505 -0.44743 -0.62461 253 250 247
0.13091 -0.45001 -0.62088 252 250 246
0.13676 -0.45259 -0.61716 252 250 244
0.14261 -0.45517 -0.61344 252 250 245
0.14846 -0.45775 -0.60972 252 250 246
0.15431 -0.46032 -0.60600 252 250 246
0.16015 -0.46289 -0.60228 252 251 247
0.16599 -0.46547 -0.59857 252 251 247
0.17183 -0.46804 -0.59486 253 252 247
0.22422 -0.49111 -0.56154 254 254 250
0.23003 -0.49367 -0.55785 254 253 251
0.23583 -0.49622 -0.55416 254 253 248
0.24163 -0.49878 -0.55047 254 253 247
0.24743 -0.50133 -0.54679 254 252 248
0.25322 -0.50388 -0.54310 253 252 248
0.25901 -0.50643 -0.53942 252 251 246
0.26480 -0.50898 -0.53574 253 251 247
0.27058 -0.51153 -0.53207 253 251 246
0.27636 -0.51407 -0.52839 252 251 246
0.28214 -0.51662 -0.52472 252 251 246
0.28791 -0.51916 -0.52104 252 252 248
0.29368 -0.52170 -0.51737 252 252 247
0.29945 -0.52424 -0.51371 252 250 247
0.30522 -0.52678 -0.51004 252 251 244
0.31098 -0.52932 -0.50638 252 250 244
0.31674 -0.53186 -0.50271 252 250 244
0.32250 -0.53439 -0.49905 253 251 244
0.32825 -0.53692 -0.49539 252 250 243
0.33400 -0.53946 -0.49174 252 250 241
0.33975 -0.54199 -0.48808 251 249 241
0.34549 -0.54452 -0.48443 250 248 242
0.35123 -0.54705 -0.48078 250 248 243
0.35697 -0.54957 -0.47713 250 247 239
0.36270 -0.55210 -0.47349 249 247 240
