ply
format ascii 1.0
element face 0
property list uchar int vertex_indices
element vertex 1243
property float x
property float y
property float z
property uchar diffuse_red
property uchar diffuse_green
property uchar diffuse_blue
end_header
0.29388 -0.58255 -0.45551 254 254 254
0.29579 -0.58880 -0.44906 254 254 254
0.29769 -0.59505 -0.44260 254 254 254
0.29959 -0.60130 -0.43615 254 254 254
0.20993 -0.34776 -0.70078 254 254 254
0.21190 -0.35420 -0.69412 254 254 254
0.21386 -0.36064 -0.68747 254 254 254
0.21583 -0.36707 -0.68083 254 254 254
0.21779 -0.37350 -0.67420 254 254 254
0.21975 -0.37992 -0.66757 254 254 254
0.27966 -0.57616 -0.46495 254 254 254
0.28156 -0.58240 -0.45851 254 254 254
0.28346 -0.58864 -0.45207 254 254 254
0.28537 -0.59487 -0.44563 254 254 254
0.28727 -0.60109 -0.43921 254 254 254
0.19774 -0.34842 -0.70296 254 254 254
0.19970 -0.35485 -0.69633 254 254 254
0.20167 -0.36126 -0.68970 254 254 254
0.20363 -0.36767 -0.68308 254 254 254
0.20559 -0.37408 -0.67647 254 254 254
0.27123 -0.58848 -0.45506 254 254 254
0.27313 -0.59469 -0.44865 254 254 254
0.27503 -0.60089 -0.44224 254 254 254
0.18563 -0.34908 -0.70513 254 254 254
0.18760 -0.35548 -0.69852 254 254 254
0.18956 -0.36188 -0.69192 254 254 254
0.19152 -0.36826 -0.68532 254 254 254
0.19348 -0.37465 -0.67873 254 254 254
0.17361 -0.34974 -0.70728 254 254 254
0.17557 -0.35612 -0.70070 254 254 254
0.17753 -0.36249 -0.69411 254 254 254
0.17949 -0.36885 -0.68754 254 254 254
0.16362 -0.35675 -0.70286 254 254 254
0.16558 -0.36309 -0.69630 254 254 254
0.16754 -0.36944 -0.68974 254 254 254
0.15176 -0.35737 -0.70500 254 254 254
0.15372 -0.36370 -0.69847 254 254 254
0.25885 -0.70334 -0.34745 254 254 254
0.13998 -0.35799 -0.70714 254 254 254
0.14194 -0.36430 -0.70062 254 254 254
0.24513 -0.69679 -0.35692 254 254 254
0.24699 -0.70281 -0.35071 254 254 254
0.24886 -0.70881 -0.34450 254 254 254
0.12632 -0.35232 -0.71576 254 254 254
0.12828 -0.35861 -0.70925 254 254 254
0.13023 -0.36489 -0.70276 254 254 254
0.22962 -0.68428 -0.37255 254 254 254
0.23148 -0.69028 -0.36635 254 254 254
0.23335 -0.69628 -0.36015 254 254 254
0.23521 -0.70227 -0.35395 254 254 254
0.23708 -0.70826 -0.34776 254 254 254
0.23894 -0.71424 -0.34157 254 254 254
0.11470 -0.35295 -0.71784 254 254 254
0.11665 -0.35922 -0.71136 254 254 254
0.21605 -0.67782 -0.38191 254 254 254
0.21792 -0.68380 -0.37572 254 254 254
0.21979 -0.68979 -0.36953 254 254 254
0.22165 -0.69577 -0.36335 254 254 254
0.22352 -0.70174 -0.35717 254 254 254
0.22538 -0.70771 -0.35100 254 254 254
0.22724 -0.71367 -0.34483 254 254 254
0.22910 -0.71963 -0.33867 254 254 254
0.10119 -0.34733 -0.72637 254 254 254
0.20069 -0.66541 -0.39740 254 254 254
0.20256 -0.67139 -0.39121 254 254 254
0.20443 -0.67737 -0.38503 254 254 254
0.20630 -0.68333 -0.37886 254 254 254
0.20817 -0.68930 -0.37269 254 254 254
0.21003 -0.69526 -0.36653 254 254 254
0.21189 -0.70121 -0.36037 254 254 254
0.21375 -0.70716 -0.35422 254 254 254
0.21561 -0.71311 -0.34807 254 254 254
0.08777 -0.34174 -0.73486 254 254 254
0.18541 -0.65307 -0.41281 254 254 254
0.18728 -0.65904 -0.40663 254 254 254
0.18915 -0.66500 -0.40046 254 254 254
0.19102 -0.67096 -0.39430 254 254 254
0.19289 -0.67692 -0.38814 254 254 254
0.19476 -0.68287 -0.38198 254 254 254
0.19662 -0.68881 -0.37583 254 254 254
0.19848 -0.69475 -0.36969 254 254 254
0.20035 -0.70069 -0.36355 254 254 254
0.20221 -0.70662 -0.35741 254 254 254
0.20406 -0.71254 -0.35128 254 254 254
0.07443 -0.33618 -0.74330 254 254 254
0.17208 -0.64675 -0.42198 254 254 254
0.17395 -0.65270 -0.41582 254 254 254
0.17582 -0.65865 -0.40966 254 254 254
0.17769 -0.66460 -0.40351 254 254 254
0.17956 -0.67054 -0.39736 254 254 254
0.18142 -0.67647 -0.39122 254 254 254
0.18329 -0.68241 -0.38508 254 254 254
0.18515 -0.68833 -0.37895 254 254 254
0.18701 -0.69425 -0.37283 254 254 254
0.18887 -0.70017 -0.36671 254 254 254
0.19073 -0.70608 -0.36059 254 254 254
0.06116 -0.33065 -0.75168 254 254 254
0.15694 -0.63451 -0.43725 254 254 254
0.15882 -0.64046 -0.43110 254 254 254
0.16069 -0.64640 -0.42495 254 254 254
0.16256 -0.65234 -0.41880 254 254 254
0.16443 -0.65827 -0.41267 254 254 254
0.16630 -0.66420 -0.40653 254 254 254
0.16817 -0.67012 -0.40040 254 254 254
0.17003 -0.67603 -0.39428 254 254 254
0.17190 -0.68195 -0.38816 254 254 254
0.17376 -0.68785 -0.38205 254 254 254
0.17562 -0.69375 -0.37594 254 254 254
0.17748 -0.69965 -0.36984 254 254 254
0.04601 -0.31896 -0.76643 254 254 254
0.14376 -0.62827 -0.44630 254 254 254
0.14563 -0.63421 -0.44016 254 254 254
0.14751 -0.64013 -0.43403 254 254 254
0.14938 -0.64606 -0.42790 254 254 254
0.15125 -0.65197 -0.42177 254 254 254
0.15312 -0.65789 -0.41565 254 254 254
0.15498 -0.66379 -0.40954 254 254 254
0.15685 -0.66970 -0.40343 254 254 254
0.15871 -0.67560 -0.39732 254 254 254
0.16058 -0.68149 -0.39123 254 254 254
0.16244 -0.68738 -0.38513 254 254 254
0.16429 -0.69326 -0.37904 254 254 254
0.16615 -0.69914 -0.37296 254 254 254
0.12877 -0.61615 -0.46144 254 254 254
0.13065 -0.62207 -0.45530 254 254 254
0.13252 -0.62799 -0.44918 254 254 254
0.13440 -0.63390 -0.44306 254 254 254
0.13627 -0.63981 -0.43694 254 254 254
0.13814 -0.64572 -0.43083 254 254 254
0.14001 -0.65161 -0.42472 254 254 254
0.14188 -0.65751 -0.41862 254 254 254
0.14374 -0.66340 -0.41252 254 254 254
0.14560 -0.66928 -0.40643 254 254 254
0.14747 -0.67516 -0.40035 254 254 254
0.14933 -0.68103 -0.39427 254 254 254
0.15119 -0.68690 -0.38819 254 254 254
0.15305 -0.69277 -0.38212 254 254 254
0.11574 -0.61000 -0.47037 254 254 254
0.11761 -0.61590 -0.46425 254 254 254
0.11949 -0.62181 -0.45814 254 254 254
0.12136 -0.62771 -0.45203 254 254 254
0.12323 -0.63360 -0.44593 254 254 254
0.12510 -0.63949 -0.43983 254 254 254
0.12697 -0.64538 -0.43374 254 254 254
0.12884 -0.65126 -0.42765 254 254 254
0.13071 -0.65713 -0.42157 254 254 254
0.13257 -0.66300 -0.41549 254 254 254
0.13443 -0.66887 -0.40942 254 254 254
0.13629 -0.67473 -0.40335 254 254 254
0.13815 -0.68058 -0.39729 254 254 254
0.14001 -0.68643 -0.39123 254 254 254
0.10089 -0.59798 -0.48537 254 254 254
0.10277 -0.60388 -0.47926 254 254 254
0.10465 -0.60977 -0.47316 254 254 254
0.10652 -0.61566 -0.46706 254 254 254
0.10840 -0.62155 -0.46096 254 254 254
0.11027 -0.62743 -0.45487 254 254 254
0.11214 -0.63330 -0.44879 254 254 254
0.11401 -0.63918 -0.44271 254 254 254
0.11588 -0.64504 -0.43663 254 254 254
0.11774 -0.65090 -0.43056 254 254 254
0.11961 -0.65676 -0.42450 254 254 254
0.12147 -0.66261 -0.41844 254 254 254
0.12333 -0.66846 -0.41239 254 254 254
0.12519 -0.67430 -0.40634 254 254 254
0.12705 -0.68013 -0.40029 254 254 254
0.12891 -0.68597 -0.39425 254 254 254
0.08800 -0.59191 -0.49419 254 254 254
0.08988 -0.59779 -0.48810 254 254 254
0.09176 -0.60367 -0.48201 254 254 254
0.09363 -0.60955 -0.47592 254 254 254
0.09551 -0.61542 -0.46984 254 254 254
0.09738 -0.62129 -0.46376 254 254 254
0.09925 -0.62715 -0.45769 254 254 254
0.10112 -0.63301 -0.45162 254 254 254
0.10299 -0.63886 -0.44556 254 254 254
0.10485 -0.64471 -0.43951 254 254 254
0.10672 -0.65055 -0.43346 254 254 254
0.10858 -0.65639 -0.42741 254 254 254
0.11044 -0.66222 -0.42137 254 254 254
0.11230 -0.66805 -0.41533 254 254 254
0.11416 -0.67387 -0.40930 254 254 254
0.11602 -0.67969 -0.40328 254 254 254
0.07330 -0.57999 -0.50906 254 254 254
0.07518 -0.58587 -0.50297 254 254 254
0.07706 -0.59174 -0.49689 254 254 254
0.07894 -0.59761 -0.49081 254 254 254
0.08081 -0.60347 -0.48473 254 254 254
0.08269 -0.60933 -0.47867 254 254 254
0.08456 -0.61518 -0.47260 254 254 254
0.08643 -0.62103 -0.46655 254 254 254
0.08830 -0.62687 -0.46049 254 254 254
0.09017 -0.63271 -0.45444 254 254 254
0.09204 -0.63855 -0.44840 254 254 254
0.09390 -0.64437 -0.44236 254 254 254
0.09576 -0.65020 -0.43633 254 254 254
0.09762 -0.65602 -0.43030 254 254 254
0.09948 -0.66183 -0.42428 254 254 254
0.10134 -0.66764 -0.41826 254 254 254
0.10320 -0.67345 -0.41225 254 254 254
0.05867 -0.56813 -0.52385 254 254 254
0.06056 -0.57400 -0.51777 254 254 254
0.06244 -0.57987 -0.51170 254 254 254
0.06431 -0.58572 -0.50563 254 254 254
0.06619 -0.59158 -0.49956 254 254 254
0.06807 -0.59743 -0.49350 254 254 254
0.06994 -0.60327 -0.48745 254 254 254
0.07181 -0.60911 -0.48140 254 254 254
0.07368 -0.61494 -0.47535 254 254 254
0.07555 -0.62077 -0.46931 254 254 254
0.07742 -0.62660 -0.46328 254 254 254
0.07929 -0.63242 -0.45725 254 254 254
0.08115 -0.63823 -0.45122 254 254 254
0.08302 -0.64404 -0.44520 254 254 254
0.08488 -0.64985 -0.43919 254 254 254
0.08674 -0.65565 -0.43318 254 254 254
0.08860 -0.66145 -0.42717 254 254 254
0.09045 -0.66724 -0.42117 254 254 254
0.09231 -0.67303 -0.41518 254 254 254
0.04600 -0.56219 -0.53250 254 254 254
0.04788 -0.56805 -0.52643 254 254 254
0.04976 -0.57390 -0.52037 254 254 254
0.05164 -0.57974 -0.51432 254 254 254
0.05351 -0.58558 -0.50826 254 254 254
0.05539 -0.59142 -0.50222 254 254 254
0.05726 -0.59725 -0.49618 254 254 254
0.05914 -0.60307 -0.49014 254 254 254
0.06101 -0.60889 -0.48411 254 254 254
0.06288 -0.61471 -0.47808 254 254 254
0.06474 -0.62052 -0.47206 254 254 254
0.06661 -0.62633 -0.46604 254 254 254
0.06848 -0.63213 -0.46003 254 254 254
0.07034 -0.63792 -0.45402 254 254 254
0.07220 -0.64372 -0.44802 254 254 254
0.07406 -0.64950 -0.44202 254 254 254
0.07592 -0.65529 -0.43603 254 254 254
0.07778 -0.66106 -0.43005 254 254 254
0.07963 -0.66684 -0.42406 254 254 254
0.03151 -0.55044 -0.54716 254 254 254
0.03339 -0.55628 -0.54110 254 254 254
0.03527 -0.56212 -0.53505 254 254 254
0.03715 -0.56796 -0.52900 254 254 254
0.03903 -0.57379 -0.52296 254 254 254
0.04091 -0.57962 -0.51692 254 254 254
0.04278 -0.58544 -0.51089 254 254 254
0.04466 -0.59125 -0.50486 254 254 254
0.04653 -0.59707 -0.49884 254 254 254
0.04840 -0.60287 -0.49282 254 254 254
0.05027 -0.60868 -0.48680 254 254 254
0.05214 -0.61447 -0.48079 254 254 254
0.05400 -0.62027 -0.47479 254 254 254
0.05587 -0.62605 -0.46879 254 254 254
0.05773 -0.63184 -0.46280 254 254 254
0.05959 -0.63762 -0.45681 254 254 254
0.06145 -0.64339 -0.45082 254 254 254
0.06331 -0.64916 -0.44484 254 254 254
0.06517 -0.65492 -0.43887 254 254 254
0.06703 -0.66068 -0.43290 254 254 254
0.01897 -0.54457 -0.55570 254 254 254
0.02085 -0.55041 -0.54966 254 254 254
0.02273 -0.55623 -0.54362 254 254 254
0.02461 -0.56206 -0.53758 254 254 254
0.02649 -0.56787 -0.53155 254 254 254
0.02837 -0.57369 -0.52553 254 254 254
0.03025 -0.57949 -0.51951 254 254 254
0.03212 -0.58530 -0.51349 254 254 254
0.03399 -0.59109 -0.50748 254 254 254
0.03586 -0.59689 -0.50148 254 254 254
0.03773 -0.60268 -0.49548 254 254 254
0.03960 -0.60846 -0.48948 254 254 254
0.04147 -0.61424 -0.48349 254 254 254
0.04333 -0.62002 -0.47750 254 254 254
0.04519 -0.62579 -0.47152 254 254 254
0.04706 -0.63155 -0.46555 254 254 254
0.04892 -0.63731 -0.45958 254 254 254
0.05078 -0.64307 -0.45361 254 254 254
0.05263 -0.64882 -0.44765 254 254 254
0.05449 -0.65456 -0.44169 254 254 254
0.05634 -0.66031 -0.43574 254 254 254
0.00462 -0.53292 -0.57024 254 254 254
0.00650 -0.53874 -0.56420 254 254 254
0.00838 -0.54456 -0.55817 254 254 254
0.01027 -0.55038 -0.55214 254 254 254
0.01215 -0.55618 -0.54612 254 254 254
0.01402 -0.56199 -0.54010 254 254 254
0.01590 -0.56779 -0.53409 254 254 254
0.01778 -0.57358 -0.52808 254 254 254
0.01965 -0.57937 -0.52208 254 254 254
0.02152 -0.58516 -0.51608 254 254 254
0.02339 -0.59094 -0.51009 254 254 254
0.02526 -0.59671 -0.50410 254 254 254
0.02713 -0.60248 -0.49812 254 254 254
0.02900 -0.60825 -0.49214 254 254 254
0.03086 -0.61401 -0.48617 254 254 254
0.03273 -0.61977 -0.48020 254 254 254
0.03459 -0.62552 -0.47424 254 254 254
0.03645 -0.63126 -0.46828 254 254 254
0.03831 -0.63701 -0.46232 254 254 254
0.04016 -0.64275 -0.45638 254 254 254
0.04202 -0.64848 -0.45043 254 254 254
0.04387 -0.65421 -0.44449 254 254 254
-0.00778 -0.52714 -0.57867 254 254 254
-0.00590 -0.53295 -0.57265 254 254 254
-0.00402 -0.53875 -0.56663 254 254 254
-0.00213 -0.54455 -0.56062 254 254 254
-0.00025 -0.55034 -0.55461 254 254 254
0.00162 -0.55613 -0.54860 254 254 254
0.00350 -0.56192 -0.54260 254 254 254
0.00538 -0.56770 -0.53661 254 254 254
0.00725 -0.57348 -0.53062 254 254 254
0.00912 -0.57925 -0.52464 254 254 254
0.01099 -0.58502 -0.51866 254 254 254
0.01286 -0.59078 -0.51268 254 254 254
0.01473 -0.59653 -0.50671 254 254 254
0.01660 -0.60229 -0.50075 254 254 254
0.01846 -0.60804 -0.49479 254 254 254
0.02032 -0.61378 -0.48883 254 254 254
0.02219 -0.61952 -0.48288 254 254 254
0.02405 -0.62525 -0.47693 254 254 254
0.02591 -0.63098 -0.47099 254 254 254
0.02776 -0.63671 -0.46506 254 254 254
0.02962 -0.64243 -0.45913 254 254 254
0.03147 -0.64814 -0.45320 254 254 254
-0.02200 -0.51558 -0.59308 254 254 254
-0.02011 -0.52138 -0.58706 254 254 254
-0.01823 -0.52718 -0.58105 254 254 254
-0.01635 -0.53297 -0.57505 254 254 254
-0.01447 -0.53876 -0.56905 254 254 254
-0.01259 -0.54454 -0.56305 254 254 254
-0.01071 -0.55031 -0.55706 254 254 254
-0.00883 -0.55609 -0.55107 254 254 254
-0.00696 -0.56185 -0.54509 254 254 254
-0.00508 -0.56762 -0.53911 254 254 254
-0.00321 -0.57337 -0.53314 254 254 254
-0.00134 -0.57913 -0.52718 254 254 254
0.00053 -0.58488 -0.52121 254 254 254
0.00240 -0.59062 -0.51526 254 254 254
0.00426 -0.59636 -0.50930 254 254 254
0.00613 -0.60209 -0.50336 254 254 254
0.00799 -0.60782 -0.49741 254 254 254
0.00985 -0.61355 -0.49148 254 254 254
0.01171 -0.61927 -0.48554 254 254 254
0.01357 -0.62499 -0.47961 254 254 254
0.01543 -0.63070 -0.47369 254 254 254
0.01728 -0.63641 -0.46777 254 254 254
0.01914 -0.64211 -0.46186 254 254 254
0.02099 -0.64781 -0.45595 254 254 254
-0.03426 -0.50987 -0.60141 254 254 254
-0.03238 -0.51566 -0.59541 254 254 254
-0.03049 -0.52144 -0.58941 254 254 254
-0.02861 -0.52722 -0.58342 254 254 254
-0.02673 -0.53299 -0.57743 254 254 254
-0.02485 -0.53876 -0.57144 254 254 254
-0.02297 -0.54453 -0.56547 254 254 254
-0.02110 -0.55028 -0.55949 254 254 254
-0.01922 -0.55604 -0.55352 254 254 254
-0.01735 -0.56179 -0.54756 254 254 254
-0.01548 -0.56753 -0.54160 254 254 254
-0.01360 -0.57327 -0.53565 254 254 254
-0.01174 -0.57901 -0.52970 254 254 254
-0.00987 -0.58474 -0.52375 254 254 254
-0.00800 -0.59046 -0.51782 254 254 254
-0.00614 -0.59619 -0.51188 254 254 254
-0.00427 -0.60190 -0.50595 254 254 254
-0.00241 -0.60761 -0.50003 254 254 254
-0.00055 -0.61332 -0.49410 254 254 254
0.00131 -0.61903 -0.48819 254 254 254
0.00316 -0.62472 -0.48228 254 254 254
0.00502 -0.63042 -0.47637 254 254 254
0.00687 -0.63611 -0.47047 254 254 254
0.00872 -0.64179 -0.46457 254 254 254
-0.04835 -0.49842 -0.61569 254 254 254
-0.04646 -0.50420 -0.60969 254 254 254
-0.04458 -0.50997 -0.60370 254 254 254
-0.04269 -0.51574 -0.59772 254 254 254
-0.04081 -0.52150 -0.59174 254 254 254
-0.03893 -0.52726 -0.58576 254 254 254
-0.03705 -0.53302 -0.57979 254 254 254
-0.03517 -0.53877 -0.57383 254 254 254
-0.03329 -0.54451 -0.56787 254 254 254
-0.03142 -0.55025 -0.56191 254 254 254
-0.02955 -0.55599 -0.55596 254 254 254
-0.02767 -0.56172 -0.55002 254 254 254
-0.02580 -0.56745 -0.54408 254 254 254
-0.02394 -0.57317 -0.53814 254 254 254
-0.02207 -0.57889 -0.53221 254 254 254
-0.02020 -0.58460 -0.52628 254 254 254
-0.01834 -0.59031 -0.52036 254 254 254
-0.01647 -0.59601 -0.51444 254 254 254
-0.01461 -0.60171 -0.50853 254 254 254
-0.01275 -0.60741 -0.50262 254 254 254
-0.01090 -0.61310 -0.49672 254 254 254
-0.00904 -0.61878 -0.49082 254 254 254
-0.00718 -0.62446 -0.48493 254 254 254
-0.00533 -0.63014 -0.47904 254 254 254
-0.00348 -0.63581 -0.47315 254 254 254
-0.06048 -0.49279 -0.62391 254 254 254
-0.05859 -0.49855 -0.61793 254 254 254
-0.05671 -0.50431 -0.61196 254 254 254
-0.05482 -0.51007 -0.60599 254 254 254
-0.05294 -0.51582 -0.60002 254 254 254
-0.05106 -0.52156 -0.59406 254 254 254
-0.04918 -0.52730 -0.58810 254 254 254
-0.04730 -0.53304 -0.58215 254 254 254
-0.04543 -0.53877 -0.57620 254 254 254
-0.04355 -0.54450 -0.57026 254 254 254
-0.04168 -0.55022 -0.56432 254 254 254
-0.03981 -0.55594 -0.55838 254 254 254
-0.03794 -0.56166 -0.55246 254 254 254
-0.03607 -0.56736 -0.54653 254 254 254
-0.03420 -0.57307 -0.54061 254 254 254
-0.03234 -0.57877 -0.53470 254 254 254
-0.03047 -0.58446 -0.52879 254 254 254
-0.02861 -0.59015 -0.52289 254 254 254
-0.02675 -0.59584 -0.51699 254 254 254
-0.02489 -0.60152 -0.51109 254 254 254
-0.02303 -0.60720 -0.50520 254 254 254
-0.02117 -0.61287 -0.49931 254 254 254
-0.01932 -0.61854 -0.49343 254 254 254
-0.01746 -0.62420 -0.48756 254 254 254
-0.01561 -0.62986 -0.48168 254 254 254
-0.01376 -0.63552 -0.47582 254 254 254
-0.07443 -0.48143 -0.63807 254 254 254
-0.07254 -0.48718 -0.63210 254 254 254
-0.07066 -0.49294 -0.62613 254 254 254
-0.06877 -0.49868 -0.62016 254 254 254
-0.06689 -0.50442 -0.61421 254 254 254
-0.06501 -0.51016 -0.60825 254 254 254
-0.06313 -0.51589 -0.60230 254 254 254
-0.06125 -0.52162 -0.59636 254 254 254
-0.05937 -0.52735 -0.59042 254 254 254
-0.05749 -0.53306 -0.58448 254 254 254
-0.05562 -0.53878 -0.57855 254 254 254
-0.05375 -0.54449 -0.57263 254 254 254
-0.05187 -0.55019 -0.56671 254 254 254
-0.05000 -0.55589 -0.56079 254 254 254
-0.04814 -0.56159 -0.55488 254 254 254
-0.04627 -0.56728 -0.54897 254 254 254
-0.04440 -0.57297 -0.54307 254 254 254
-0.04254 -0.57865 -0.53718 254 254 254
-0.04068 -0.58433 -0.53128 254 254 254
-0.03882 -0.59000 -0.52540 254 254 254
-0.03696 -0.59567 -0.51951 254 254 254
-0.03510 -0.60133 -0.51364 254 254 254
-0.03324 -0.60699 -0.50776 254 254 254
-0.03139 -0.61265 -0.50189 254 254 254
-0.02953 -0.61830 -0.49603 254 254 254
-0.02768 -0.62395 -0.49017 254 254 254
-0.02583 -0.62959 -0.48432 254 254 254
-0.08832 -0.47012 -0.65216 254 254 254
-0.08643 -0.47587 -0.64620 254 254 254
-0.08454 -0.48161 -0.64023 254 254 254
-0.08266 -0.48735 -0.63428 254 254 254
-0.08077 -0.49308 -0.62833 254 254 254
-0.07889 -0.49881 -0.62238 254 254 254
-0.07701 -0.50454 -0.61644 254 254 254
-0.07513 -0.51026 -0.61051 254 254 254
-0.07325 -0.51597 -0.60457 254 254 254
-0.07137 -0.52168 -0.59865 254 254 254
-0.06950 -0.52739 -0.59272 254 254 254
-0.06762 -0.53309 -0.58681 254 254 254
-0.06575 -0.53878 -0.58089 254 254 254
-0.06388 -0.54448 -0.57499 254 254 254
-0.06201 -0.55016 -0.56908 254 254 254
-0.06014 -0.55585 -0.56318 254 254 254
-0.05827 -0.56153 -0.55729 254 254 254
-0.05641 -0.56720 -0.55140 254 254 254
-0.05454 -0.57287 -0.54552 254 254 254
-0.05268 -0.57853 -0.53964 254 254 254
-0.05082 -0.58419 -0.53376 254 254 254
-0.04896 -0.58985 -0.52789 254 254 254
-0.04710 -0.59550 -0.52203 254 254 254
-0.04525 -0.60115 -0.51617 254 254 254
-0.04339 -0.60679 -0.51031 254 254 254
-0.04154 -0.61243 -0.50446 254 254 254
-0.03969 -0.61806 -0.49861 254 254 254
-0.03784 -0.62369 -0.49277 254 254 254
-0.10025 -0.46461 -0.66023 254 254 254
-0.09837 -0.47034 -0.65428 254 254 254
-0.09648 -0.47607 -0.64833 254 254 254
-0.09459 -0.48180 -0.64239 254 254 254
-0.09271 -0.48752 -0.63645 254 254 254
-0.09082 -0.49323 -0.63052 254 254 254
-0.08894 -0.49894 -0.62459 254 254 254
-0.08706 -0.50465 -0.61866 254 254 254
-0.08518 -0.51035 -0.61274 254 254 254
-0.08331 -0.51605 -0.60683 254 254 254
-0.08143 -0.52174 -0.60092 254 254 254
-0.07956 -0.52743 -0.59502 254 254 254
-0.07769 -0.53311 -0.58912 254 254 254
-0.07581 -0.53879 -0.58322 254 254 254
-0.07395 -0.54446 -0.57733 254 254 254
-0.07208 -0.55013 -0.57144 254 254 254
-0.07021 -0.55580 -0.56556 254 254 254
-0.06835 -0.56146 -0.55969 254 254 254
-0.06648 -0.56712 -0.55381 254 254 254
-0.06462 -0.57277 -0.54795 254 254 254
-0.06276 -0.57842 -0.54208 254 254 254
-0.06090 -0.58406 -0.53623 254 254 254
-0.05904 -0.58970 -0.53037 254 254 254
-0.05719 -0.59533 -0.52452 254 254 254
-0.05533 -0.60096 -0.51868 254 254 254
-0.05348 -0.60659 -0.51284 254 254 254
-0.05163 -0.61221 -0.50701 254 254 254
-0.04978 -0.61782 -0.50118 254 254 254
-0.11780 -0.44193 -0.68610 254 254 254
-0.11591 -0.44767 -0.68015 254 254 254
-0.11401 -0.45340 -0.67420 254 254 254
-0.11212 -0.45912 -0.66825 254 254 254
-0.11024 -0.46484 -0.66231 254 254 254
-0.10835 -0.47056 -0.65638 254 254 254
-0.10646 -0.47627 -0.65045 254 254 254
-0.10458 -0.48198 -0.64452 254 254 254
-0.10270 -0.48768 -0.63860 254 254 254
-0.10081 -0.49338 -0.63269 254 254 254
-0.09894 -0.49907 -0.62678 254 254 254
-0.09706 -0.50476 -0.62087 254 254 254
-0.09518 -0.51044 -0.61497 254 254 254
-0.09331 -0.51612 -0.60907 254 254 254
-0.09143 -0.52180 -0.60318 254 254 254
-0.08956 -0.52747 -0.59729 254 254 254
-0.08769 -0.53313 -0.59141 254 254 254
-0.08582 -0.53880 -0.58553 254 254 254
-0.08395 -0.54445 -0.57966 254 254 254
-0.08209 -0.55010 -0.57379 254 254 254
-0.08022 -0.55575 -0.56793 254 254 254
-0.07836 -0.56140 -0.56207 254 254 254
-0.07650 -0.56704 -0.55621 254 254 254
-0.07464 -0.57267 -0.55036 254 254 254
-0.07278 -0.57830 -0.54452 254 254 254
-0.07092 -0.58393 -0.53868 254 254 254
-0.06906 -0.58955 -0.53284 254 254 254
-0.06721 -0.59516 -0.52701 254 254 254
-0.06536 -0.60078 -0.52118 254 254 254
-0.06350 -0.60638 -0.51536 254 254 254
-0.06165 -0.61199 -0.50954 254 254 254
-0.05981 -0.61759 -0.50373 254 254 254
-0.12582 -0.44795 -0.68217 254 254 254
-0.12393 -0.45367 -0.67624 254 254 254
-0.12204 -0.45937 -0.67031 254 254 254
-0.12016 -0.46508 -0.66439 254 254 254
-0.11827 -0.47077 -0.65847 254 254 254
-0.11639 -0.47647 -0.65256 254 254 254
-0.11450 -0.48216 -0.64665 254 254 254
-0.11262 -0.48784 -0.64075 254 254 254
-0.11074 -0.49352 -0.63485 254 254 254
-0.10887 -0.49920 -0.62895 254 254 254
-0.10699 -0.50487 -0.62307 254 254 254
-0.10511 -0.51054 -0.61718 254 254 254
-0.10324 -0.51620 -0.61130 254 254 254
-0.10137 -0.52186 -0.60543 254 254 254
-0.09950 -0.52751 -0.59956 254 254 254
-0.09763 -0.53316 -0.59369 254 254 254
-0.09576 -0.53880 -0.58783 254 254 254
-0.09390 -0.54444 -0.58197 254 254 254
-0.09203 -0.55008 -0.57612 254 254 254
-0.09017 -0.55571 -0.57027 254 254 254
-0.08831 -0.56133 -0.56443 254 254 254
-0.08645 -0.56695 -0.55859 254 254 254
-0.08459 -0.57257 -0.55276 254 254 254
-0.08273 -0.57818 -0.54693 254 254 254
-0.08088 -0.58379 -0.54111 254 254 254
-0.07902 -0.58940 -0.53529 254 254 254
-0.07717 -0.59500 -0.52947 254 254 254
-0.07532 -0.60059 -0.52366 254 254 254
-0.07347 -0.60618 -0.51786 254 254 254
-0.07162 -0.61177 -0.51206 254 254 254
-0.13379 -0.45393 -0.67826 254 254 254
-0.13190 -0.45962 -0.67235 254 254 254
-0.13001 -0.46531 -0.66645 254 254 254
-0.12813 -0.47099 -0.66055 254 254 254
-0.12625 -0.47667 -0.65465 254 254 254
-0.12437 -0.48234 -0.64876 254 254 254
-0.12249 -0.48800 -0.64288 254 254 254
-0.12061 -0.49367 -0.63700 254 254 254
-0.11874 -0.49932 -0.63112 254 254 254
-0.11686 -0.50498 -0.62525 254 254 254
-0.11499 -0.51063 -0.61938 254 254 254
-0.11312 -0.51627 -0.61352 254 254 254
-0.11125 -0.52191 -0.60766 254 254 254
-0.10938 -0.52755 -0.60181 254 254 254
-0.10751 -0.53318 -0.59596 254 254 254
-0.10565 -0.53881 -0.59011 254 254 254
-0.10378 -0.54443 -0.58427 254 254 254
-0.10192 -0.55005 -0.57844 254 254 254
-0.10006 -0.55566 -0.57261 254 254 254
-0.09820 -0.56127 -0.56678 254 254 254
-0.09634 -0.56687 -0.56096 254 254 254
-0.09448 -0.57247 -0.55515 254 254 254
-0.09263 -0.57807 -0.54933 254 254 254
-0.09077 -0.58366 -0.54353 254 254 254
-0.08892 -0.58925 -0.53772 254 254 254
-0.08707 -0.59483 -0.53193 254 254 254
-0.08522 -0.60041 -0.52613 254 254 254
-0.08337 -0.60598 -0.52034 254 254 254
-0.14170 -0.45987 -0.67438 254 254 254
-0.13981 -0.46554 -0.66849 254 254 254
-0.13793 -0.47120 -0.66261 254 254 254
-0.13605 -0.47686 -0.65673 254 254 254
-0.13417 -0.48252 -0.65086 254 254 254
-0.13229 -0.48816 -0.64499 254 254 254
-0.13042 -0.49381 -0.63913 254 254 254
-0.12855 -0.49945 -0.63327 254 254 254
-0.12667 -0.50509 -0.62741 254 254 254
-0.12480 -0.51072 -0.62156 254 254 254
-0.12293 -0.51635 -0.61572 254 254 254
-0.12106 -0.52197 -0.60988 254 254 254
-0.11920 -0.52759 -0.60404 254 254 254
-0.11733 -0.53320 -0.59821 254 254 254
-0.11547 -0.53881 -0.59238 254 254 254
-0.11361 -0.54442 -0.58656 254 254 254
-0.11174 -0.55002 -0.58074 254 254 254
-0.10989 -0.55561 -0.57493 254 254 254
-0.10803 -0.56121 -0.56912 254 254 254
-0.10617 -0.56679 -0.56332 254 254 254
-0.10432 -0.57238 -0.55752 254 254 254
-0.10246 -0.57796 -0.55172 254 254 254
-0.10061 -0.58353 -0.54593 254 254 254
-0.09876 -0.58910 -0.54015 254 254 254
-0.09691 -0.59467 -0.53436 254 254 254
-0.09506 -0.60023 -0.52859 254 254 254
-0.09322 -0.60579 -0.52281 254 254 254
-0.14955 -0.46577 -0.67053 254 254 254
-0.14767 -0.47141 -0.66466 254 254 254
-0.14579 -0.47706 -0.65880 254 254 254
-0.14392 -0.48269 -0.65295 254 254 254
-0.14204 -0.48832 -0.64710 254 254 254
-0.14017 -0.49395 -0.64125 254 254 254
-0.13830 -0.49958 -0.63541 254 254 254
-0.13642 -0.50520 -0.62957 254 254 254
-0.13455 -0.51081 -0.62374 254 254 254
-0.13269 -0.51642 -0.61791 254 254 254
-0.13082 -0.52203 -0.61208 254 254 254
-0.12896 -0.52763 -0.60626 254 254 254
-0.12709 -0.53322 -0.60045 254 254 254
-0.12523 -0.53882 -0.59464 254 254 254
-0.12337 -0.54441 -0.58883 254 254 254
-0.12151 -0.54999 -0.58303 254 254 254
-0.11965 -0.55557 -0.57724 254 254 254
-0.11780 -0.56114 -0.57144 254 254 254
-0.11594 -0.56671 -0.56566 254 254 254
-0.11409 -0.57228 -0.55987 254 254 254
-0.11224 -0.57784 -0.55409 254 254 254
-0.11039 -0.58340 -0.54832 254 254 254
-0.10854 -0.58895 -0.54255 254 254 254
-0.10669 -0.59450 -0.53679 254 254 254
-0.10484 -0.60005 -0.53103 254 254 254
-0.15735 -0.47162 -0.66670 254 254 254
-0.15548 -0.47725 -0.66086 254 254 254
-0.15360 -0.48287 -0.65502 254 254 254
-0.15173 -0.48848 -0.64919 254 254 254
-0.14986 -0.49409 -0.64336 254 254 254
-0.14799 -0.49970 -0.63753 254 254 254
-0.14612 -0.50530 -0.63171 254 254 254
-0.14425 -0.51090 -0.62589 254 254 254
-0.14238 -0.51649 -0.62008 254 254 254
-0.14052 -0.52208 -0.61428 254 254 254
-0.13866 -0.52767 -0.60847 254 254 254
-0.13679 -0.53325 -0.60267 254 254 254
-0.13493 -0.53882 -0.59688 254 254 254
-0.13308 -0.54439 -0.59109 254 254 254
-0.13122 -0.54996 -0.58531 254 254 254
-0.12936 -0.55552 -0.57953 254 254 254
-0.12751 -0.56108 -0.57375 254 254 254
-0.12566 -0.56664 -0.56798 254 254 254
-0.12380 -0.57219 -0.56222 254 254 254
-0.12195 -0.57773 -0.55645 254 254 254
-0.12011 -0.58327 -0.55070 254 254 254
-0.11826 -0.58881 -0.54494 254 254 254
-0.11641 -0.59434 -0.53919 254 254 254
-0.16510 -0.47744 -0.66290 254 254 254
-0.16323 -0.48304 -0.65708 254 254 254
-0.16136 -0.48864 -0.65126 254 254 254
-0.15949 -0.49424 -0.64545 254 254 254
-0.15762 -0.49982 -0.63964 254 254 254
-0.15575 -0.50541 -0.63384 254 254 254
-0.15388 -0.51099 -0.62804 254 254 254
-0.15202 -0.51657 -0.62224 254 254 254
-0.15016 -0.52214 -0.61645 254 254 254
-0.14830 -0.52771 -0.61067 254 254 254
-0.14644 -0.53327 -0.60489 254 254 254
-0.14458 -0.53883 -0.59911 254 254 254
-0.14272 -0.54438 -0.59334 254 254 254
-0.14087 -0.54993 -0.58757 254 254 254
-0.13901 -0.55548 -0.58181 254 254 254
-0.13716 -0.56102 -0.57605 254 254 254
-0.13531 -0.56656 -0.57029 254 254 254
-0.13346 -0.57209 -0.56454 254 254 254
-0.13161 -0.57762 -0.55880 254 254 254
-0.12976 -0.58314 -0.55306 254 254 254
-0.12792 -0.58866 -0.54732 254 254 254
-0.12608 -0.59418 -0.54159 254 254 254
-0.17279 -0.48322 -0.65913 254 254 254
-0.17093 -0.48880 -0.65333 254 254 254
-0.16906 -0.49438 -0.64753 254 254 254
-0.16719 -0.49995 -0.64174 254 254 254
-0.16533 -0.50552 -0.63595 254 254 254
-0.16346 -0.51108 -0.63017 254 254 254
-0.16160 -0.51664 -0.62439 254 254 254
-0.15974 -0.52219 -0.61862 254 254 254
-0.15788 -0.52774 -0.61285 254 254 254
-0.15602 -0.53329 -0.60709 254 254 254
-0.15417 -0.53883 -0.60132 254 254 254
-0.15231 -0.54437 -0.59557 254 254 254
-0.15046 -0.54990 -0.58982 254 254 254
-0.14861 -0.55543 -0.58407 254 254 254
-0.14675 -0.56096 -0.57833 254 254 254
-0.14491 -0.56648 -0.57259 254 254 254
-0.14306 -0.57200 -0.56686 254 254 254
-0.14121 -0.57751 -0.56113 254 254 254
-0.13937 -0.58302 -0.55540 254 254 254
-0.13752 -0.58852 -0.54968 254 254 254
-0.18044 -0.48895 -0.65538 254 254 254
-0.17857 -0.49451 -0.64960 254 254 254
-0.17671 -0.50007 -0.64383 254 254 254
-0.17484 -0.50562 -0.63806 254 254 254
-0.17298 -0.51117 -0.63229 254 254 254
-0.17112 -0.51671 -0.62653 254 254 254
-0.16926 -0.52225 -0.62077 254 254 254
-0.16741 -0.52778 -0.61502 254 254 254
-0.16555 -0.53331 -0.60927 254 254 254
-0.16369 -0.53884 -0.60353 254 254 254
-0.16184 -0.54436 -0.59779 254 254 254
-0.15999 -0.54988 -0.59205 254 254 254
-0.15814 -0.55539 -0.58632 254 254 254
-0.15629 -0.56090 -0.58060 254 254 254
-0.15444 -0.56640 -0.57487 254 254 254
-0.15260 -0.57190 -0.56916 254 254 254
-0.15075 -0.57740 -0.56344 254 254 254
-0.14891 -0.58289 -0.55774 254 254 254
-0.14707 -0.58838 -0.55203 254 254 254
-0.18803 -0.49465 -0.65166 254 254 254
-0.18617 -0.50019 -0.64590 254 254 254
-0.18430 -0.50573 -0.64015 254 254 254
-0.18244 -0.51126 -0.63440 254 254 254
-0.18059 -0.51678 -0.62865 254 254 254
-0.17873 -0.52230 -0.62291 254 254 254
-0.17687 -0.52782 -0.61717 254 254 254
-0.17502 -0.53333 -0.61144 254 254 254
-0.17317 -0.53884 -0.60572 254 254 254
-0.17132 -0.54435 -0.59999 254 254 254
-0.16947 -0.54985 -0.59427 254 254 254
-0.16762 -0.55535 -0.58856 254 254 254
-0.16577 -0.56084 -0.58285 254 254 254
-0.16393 -0.56632 -0.57714 254 254 254
-0.16208 -0.57181 -0.57144 254 254 254
-0.16024 -0.57729 -0.56575 254 254 254
-0.15840 -0.58276 -0.56005 254 254 254
-0.19557 -0.50031 -0.64796 254 254 254
-0.19371 -0.50583 -0.64222 254 254 254
-0.19185 -0.51134 -0.63649 254 254 254
-0.18999 -0.51685 -0.63076 254 254 254
-0.18814 -0.52236 -0.62504 254 254 254
-0.18629 -0.52786 -0.61932 254 254 254
-0.18443 -0.53336 -0.61360 254 254 254
-0.18258 -0.53885 -0.60789 254 254 254
-0.18073 -0.54434 -0.60218 254 254 254
-0.17889 -0.54982 -0.59648 254 254 254
-0.17704 -0.55530 -0.59078 254 254 254
-0.17519 -0.56078 -0.58509 254 254 254
-0.17335 -0.56625 -0.57940 254 254 254
-0.17151 -0.57172 -0.57372 254 254 254
-0.16967 -0.57718 -0.56804 254 254 254
-0.20306 -0.50593 -0.64429 254 254 254
-0.20120 -0.51143 -0.63857 254 254 254
-0.19935 -0.51692 -0.63286 254 254 254
-0.19749 -0.52241 -0.62715 254 254 254
-0.19564 -0.52790 -0.62145 254 254 254
-0.19379 -0.53338 -0.61575 254 254 254
-0.19194 -0.53885 -0.61005 254 254 254
-0.19010 -0.54433 -0.60436 254 254 254
-0.18825 -0.54979 -0.59868 254 254 254
-0.18640 -0.55526 -0.59299 254 254 254
-0.18456 -0.56072 -0.58732 254 254 254
-0.18272 -0.56617 -0.58164 254 254 254
-0.18088 -0.57162 -0.57597 254 254 254
-0.17904 -0.57707 -0.57031 254 254 254
-0.21050 -0.51152 -0.64064 254 254 254
-0.20864 -0.51699 -0.63495 254 254 254
-0.20679 -0.52247 -0.62925 254 254 254
-0.20494 -0.52794 -0.62357 254 254 254
-0.20309 -0.53340 -0.61788 254 254 254
-0.20125 -0.53886 -0.61220 254 254 254
-0.19940 -0.54432 -0.60653 254 254 254
-0.19756 -0.54977 -0.60086 254 254 254
-0.19571 -0.55521 -0.59519 254 254 254
-0.19387 -0.56066 -0.58953 254 254 254
-0.19203 -0.56610 -0.58387 254 254 254
-0.19019 -0.57153 -0.57822 254 254 254
-0.21788 -0.51706 -0.63702 254 254 254
-0.21604 -0.52252 -0.63134 254 254 254
-0.21419 -0.52797 -0.62567 254 254 254
-0.21234 -0.53342 -0.62000 254 254 254
-0.21050 -0.53886 -0.61434 254 254 254
-0.20865 -0.54430 -0.60868 254 254 254
-0.20681 -0.54974 -0.60303 254 254 254
-0.20497 -0.55517 -0.59738 254 254 254
-0.20313 -0.56060 -0.59173 254 254 254
-0.20129 -0.56602 -0.58609 254 254 254
-0.22522 -0.52257 -0.63342 254 254 254
-0.22338 -0.52801 -0.62776 254 254 254
-0.22153 -0.53344 -0.62211 254 254 254
-0.21969 -0.53887 -0.61647 254 254 254
-0.21785 -0.54429 -0.61082 254 254 254
-0.21601 -0.54971 -0.60518 254 254 254
-0.21417 -0.55513 -0.59955 254 254 254
-0.21233 -0.56054 -0.59392 254 254 254
-0.21050 -0.56595 -0.58829 254 254 254
-0.23251 -0.52805 -0.62984 254 254 254
-0.23067 -0.53346 -0.62421 254 254 254
-0.22883 -0.53887 -0.61858 254 254 254
-0.22699 -0.54428 -0.61295 254 254 254
-0.22515 -0.54969 -0.60733 254 254 254
-0.22332 -0.55509 -0.60171 254 254 254
-0.22148 -0.56048 -0.59609 254 254 254
-0.23976 -0.53348 -0.62629 254 254 254
-0.23792 -0.53888 -0.62068 254 254 254
-0.23608 -0.54427 -0.61507 254 254 254
-0.23424 -0.54966 -0.60946 254 254 254
-0.23241 -0.55504 -0.60386 254 254 254
-0.24695 -0.53888 -0.62276 254 254 254
-0.24512 -0.54426 -0.61717 254 254 254
-0.24328 -0.54963 -0.61158 254 254 254
-0.24145 -0.55500 -0.60599 254 254 254
-0.25410 -0.54425 -0.61926 254 254 254
-0.25227 -0.54961 -0.61368 254 254 254
1.23142 -0.30615 -0.54266 254 254 250
1.23390 -0.31378 -0.53530 254 254 250
1.23638 -0.32141 -0.52793 254 254 251
1.23886 -0.32905 -0.52057 254 254 251
1.21045 -0.30625 -0.54633 254 254 251
1.21292 -0.31384 -0.53901 254 254 250
1.21539 -0.32143 -0.53168 254 254 251
1.21785 -0.32903 -0.52435 254 254 252
1.22032 -0.33662 -0.51702 254 254 251
1.22279 -0.34422 -0.50969 254 254 253
1.19707 -0.32901 -0.52810 254 254 253
1.19952 -0.33656 -0.52081 254 254 253
1.20197 -0.34412 -0.51352 254 254 253
1.20443 -0.35167 -0.50622 254 254 254
0.73335 -0.83950 -0.14833 251 250 251
0.73539 -0.84593 -0.14214 251 250 251
0.73743 -0.85235 -0.13595 251 250 251
0.73948 -0.85878 -0.12975 251 250 251
0.74152 -0.86521 -0.12356 251 250 251
0.74356 -0.87164 -0.11736 251 250 251
0.74561 -0.87807 -0.11117 251 250 251
0.74765 -0.88450 -0.10497 251 250 251
0.74970 -0.89093 -0.09877 251 250 251
0.70376 -0.79248 -0.19627 252 251 251
0.70579 -0.79887 -0.19011 252 251 251
0.70782 -0.80527 -0.18395 251 251 251
0.70985 -0.81166 -0.17779 252 250 251
0.71188 -0.81805 -0.17163 251 250 251
0.71391 -0.82444 -0.16547 251 250 250
0.71595 -0.83084 -0.15931 251 250 250
0.71798 -0.83723 -0.15315 251 250 250
0.72001 -0.84363 -0.14698 251 250 250
0.72205 -0.85003 -0.14082 251 250 250
0.72408 -0.85642 -0.13465 251 250 251
0.72611 -0.86282 -0.12849 251 250 251
0.72815 -0.86922 -0.12232 251 250 251
0.73018 -0.87562 -0.11615 251 250 250
0.73222 -0.88202 -0.10998 251 250 251
0.73425 -0.88843 -0.10381 251 250 251
0.66032 -0.70145 -0.28660 253 253 253
0.66234 -0.70780 -0.28048 253 253 253
0.66436 -0.71415 -0.27436 253 253 253
0.66638 -0.72051 -0.26824 253 253 253
0.66840 -0.72686 -0.26212 253 253 253
0.68657 -0.78407 -0.20698 251 251 251
0.68859 -0.79043 -0.20085 251 251 251
0.69061 -0.79679 -0.19472 251 251 251
0.69264 -0.80315 -0.18859 251 251 251
0.69466 -0.80952 -0.18246 252 251 251
0.69668 -0.81588 -0.17632 252 250 251
0.69870 -0.82225 -0.17019 251 250 251
0.70072 -0.82861 -0.16406 251 250 251
0.70275 -0.83498 -0.15792 251 250 251
0.70477 -0.84135 -0.15178 251 250 250
0.70679 -0.84772 -0.14565 251 250 250
0.70882 -0.85409 -0.13951 251 250 250
0.71084 -0.86046 -0.13337 251 250 251
0.71287 -0.86683 -0.12723 251 250 250
0.71489 -0.87320 -0.12109 251 250 251
0.71692 -0.87957 -0.11495 251 250 251
0.71894 -0.88595 -0.10880 251 250 251
0.64343 -0.69349 -0.29685 254 254 254
0.64543 -0.69981 -0.29076 254 254 254
0.64744 -0.70613 -0.28467 253 253 253
0.64945 -0.71245 -0.27858 253 253 253
0.65146 -0.71878 -0.27248 253 253 253
0.65347 -0.72510 -0.26639 253 253 253
0.66753 -0.76940 -0.22370 252 252 252
0.66954 -0.77573 -0.21760 252 251 251
0.67155 -0.78206 -0.21150 251 251 251
0.67356 -0.78839 -0.20539 251 251 251
0.67558 -0.79473 -0.19929 251 251 251
0.67759 -0.80106 -0.19319 251 251 251
0.67960 -0.80740 -0.18708 252 251 251
0.68161 -0.81373 -0.18097 252 250 251
0.68362 -0.82007 -0.17487 252 250 251
0.68564 -0.82641 -0.16876 251 250 251
0.68765 -0.83275 -0.16265 251 250 251
0.68966 -0.83909 -0.15654 251 250 250
0.69168 -0.84543 -0.15043 251 250 250
0.69369 -0.85177 -0.14432 251 250 250
0.69570 -0.85811 -0.13821 251 250 251
0.69772 -0.86446 -0.13209 251 250 251
0.69973 -0.87080 -0.12598 251 250 251
0.70175 -0.87714 -0.11987 251 250 251
0.62668 -0.68559 -0.30702 254 254 254
0.62867 -0.69188 -0.30095 254 254 254
0.63067 -0.69818 -0.29489 254 254 254
0.63267 -0.70447 -0.28882 254 254 254
0.63467 -0.71077 -0.28276 254 254 254
0.63667 -0.71706 -0.27669 253 253 253
0.63866 -0.72336 -0.27062 253 253 253
0.65066 -0.76116 -0.23420 252 252 252
0.65266 -0.76746 -0.22812 252 252 252
0.65466 -0.77376 -0.22205 252 252 252
0.65666 -0.78007 -0.21597 252 252 252
0.65867 -0.78637 -0.20990 251 251 251
0.66067 -0.79268 -0.20382 251 251 251
0.66267 -0.79899 -0.19774 251 251 251
0.66467 -0.80529 -0.19166 251 251 251
0.66667 -0.81160 -0.18558 251 251 251
0.66868 -0.81791 -0.17950 252 251 251
0.67068 -0.82422 -0.17342 251 250 251
0.67268 -0.83053 -0.16734 251 250 251
0.67469 -0.83685 -0.16126 251 250 251
0.67669 -0.84316 -0.15517 251 250 250
0.67869 -0.84947 -0.14909 251 250 251
0.68070 -0.85579 -0.14300 251 250 251
0.68270 -0.86210 -0.13692 251 250 250
0.68471 -0.86842 -0.13083 251 250 251
0.68671 -0.87474 -0.12474 251 250 251
0.61604 -0.69656 -0.29898 254 254 254
0.61803 -0.70283 -0.29294 254 254 254
0.62001 -0.70909 -0.28690 254 254 254
0.62200 -0.71536 -0.28086 254 254 254
0.63195 -0.74672 -0.25064 253 253 253
0.63394 -0.75299 -0.24460 252 252 252
0.63593 -0.75927 -0.23855 252 252 252
0.63792 -0.76554 -0.23250 252 252 252
0.63991 -0.77182 -0.22646 252 252 252
0.64191 -0.77810 -0.22041 252 252 252
0.64390 -0.78437 -0.21436 252 252 252
0.64589 -0.79065 -0.20831 251 251 252
0.64788 -0.79693 -0.20226 251 251 251
0.64987 -0.80321 -0.19620 251 251 251
0.65187 -0.80949 -0.19015 251 251 251
0.65386 -0.81577 -0.18410 252 251 251
0.65585 -0.82206 -0.17804 251 251 251
0.65785 -0.82834 -0.17199 251 250 251
0.65984 -0.83463 -0.16593 252 250 251
0.66183 -0.84091 -0.15988 251 250 251
0.66383 -0.84720 -0.15382 251 250 251
0.66582 -0.85348 -0.14776 251 250 251
0.66782 -0.85977 -0.14170 251 250 251
0.66981 -0.86606 -0.13564 251 250 251
0.61539 -0.73865 -0.26093 253 253 253
0.61737 -0.74490 -0.25491 253 253 253
0.61935 -0.75114 -0.24889 253 253 253
0.62133 -0.75739 -0.24287 252 252 253
0.62331 -0.76364 -0.23685 252 252 252
0.62529 -0.76989 -0.23083 252 252 252
0.62727 -0.77614 -0.22480 252 252 252
0.62926 -0.78239 -0.21878 252 252 252
0.63124 -0.78864 -0.21276 252 252 252
0.63322 -0.79489 -0.20673 252 251 251
0.63520 -0.80115 -0.20071 251 251 251
0.63719 -0.80740 -0.19468 251 251 251
0.63917 -0.81365 -0.18865 251 251 251
0.64115 -0.81991 -0.18263 251 251 251
0.64314 -0.82617 -0.17660 251 251 251
0.64512 -0.83242 -0.17057 252 251 251
0.64711 -0.83868 -0.16454 252 250 251
0.64909 -0.84494 -0.15851 251 250 251
0.65108 -0.85120 -0.15248 251 250 251
0.65306 -0.85746 -0.14644 251 250 251
0.65505 -0.86372 -0.14041 251 250 251
0.59897 -0.73066 -0.27112 254 254 254
0.60094 -0.73687 -0.26513 253 253 253
0.60291 -0.74309 -0.25914 253 253 253
0.60488 -0.74931 -0.25314 253 253 253
0.60685 -0.75553 -0.24715 253 253 253
0.60882 -0.76175 -0.24116 253 253 253
0.61080 -0.76798 -0.23516 253 252 252
0.61277 -0.77420 -0.22916 252 252 252
0.61474 -0.78042 -0.22317 252 252 252
0.61671 -0.78665 -0.21717 252 252 252
0.61869 -0.79287 -0.21117 252 252 252
0.62066 -0.79910 -0.20517 252 252 252
0.62263 -0.80532 -0.19917 251 251 251
0.62461 -0.81155 -0.19317 251 251 251
0.62658 -0.81778 -0.18717 251 251 251
0.62856 -0.82401 -0.18117 251 251 251
0.63053 -0.83024 -0.17516 251 251 251
0.63251 -0.83647 -0.16916 252 251 251
0.63448 -0.84270 -0.16316 252 251 251
0.63646 -0.84894 -0.15715 252 250 251
0.63843 -0.85517 -0.15114 251 250 251
0.58073 -0.71654 -0.28719 254 254 254
0.58269 -0.72273 -0.28123 254 254 254
0.58465 -0.72892 -0.27526 254 254 254
0.58661 -0.73511 -0.26930 254 254 254
0.58857 -0.74130 -0.26333 253 253 253
0.59054 -0.74750 -0.25736 253 253 253
0.59250 -0.75369 -0.25139 253 253 253
0.59446 -0.75988 -0.24543 253 253 253
0.59642 -0.76608 -0.23946 253 253 253
0.59839 -0.77227 -0.23349 253 252 253
0.60035 -0.77847 -0.22752 253 252 252
0.60231 -0.78467 -0.22154 252 252 252
0.60428 -0.79087 -0.21557 252 252 252
0.60624 -0.79707 -0.20960 252 252 252
0.60820 -0.80327 -0.20362 252 252 252
0.61017 -0.80947 -0.19765 252 252 252
0.61213 -0.81567 -0.19167 252 251 251
0.61410 -0.82187 -0.18570 251 251 251
0.61606 -0.82808 -0.17972 251 251 251
0.61803 -0.83428 -0.17374 251 251 251
0.62000 -0.84048 -0.16776 251 251 251
0.62196 -0.84669 -0.16178 252 251 251
0.62393 -0.85290 -0.15580 251 250 251
0.56265 -0.70255 -0.30312 254 254 254
0.56460 -0.70871 -0.29718 254 254 254
0.56655 -0.71487 -0.29124 254 254 254
0.56850 -0.72103 -0.28531 254 254 254
0.57046 -0.72720 -0.27937 254 254 254
0.57241 -0.73336 -0.27343 254 254 254
0.57436 -0.73953 -0.26749 254 254 254
0.57631 -0.74569 -0.26155 254 254 254
0.57827 -0.75186 -0.25560 253 253 254
0.58022 -0.75803 -0.24966 253 253 253
0.58217 -0.76420 -0.24372 253 253 253
0.58413 -0.77037 -0.23777 253 253 253
0.58608 -0.77654 -0.23183 253 253 253
0.58804 -0.78271 -0.22588 253 252 252
0.58999 -0.78888 -0.21993 252 252 252
0.59194 -0.79505 -0.21399 252 252 252
0.59390 -0.80123 -0.20804 252 252 252
0.59585 -0.80740 -0.20209 252 252 252
0.59781 -0.81358 -0.19614 252 252 252
0.59977 -0.81975 -0.19019 252 252 252
0.60172 -0.82593 -0.18424 252 252 252
0.60368 -0.83211 -0.17829 252 251 251
0.60563 -0.83828 -0.17233 251 251 251
0.60759 -0.84446 -0.16638 251 251 251
0.53309 -0.65189 -0.35435 254 254 254
0.53503 -0.65802 -0.34844 254 254 254
0.54667 -0.69481 -0.31300 254 254 254
0.54861 -0.70095 -0.30709 254 254 254
0.55056 -0.70708 -0.30118 254 254 254
0.55250 -0.71322 -0.29526 254 254 254
0.55444 -0.71935 -0.28935 254 254 254
0.55638 -0.72549 -0.28344 254 254 254
0.55833 -0.73163 -0.27752 254 254 254
0.56027 -0.73777 -0.27161 254 254 254
0.56221 -0.74391 -0.26569 254 254 254
0.56416 -0.75005 -0.25978 254 254 254
0.56610 -0.75619 -0.25386 254 254 254
0.56804 -0.76233 -0.24794 253 253 253
0.57777 -0.79306 -0.21834 253 252 253
0.57972 -0.79920 -0.21242 252 252 252
0.58166 -0.80535 -0.20649 252 252 252
0.58361 -0.81150 -0.20057 252 252 252
0.58555 -0.81765 -0.19464 252 252 252
0.58750 -0.82380 -0.18872 252 252 252
0.58945 -0.82995 -0.18279 252 252 252
0.59139 -0.83610 -0.17686 252 251 251
0.59334 -0.84226 -0.17093 252 252 251
0.52310 -0.66272 -0.34632 254 254 254
0.52890 -0.68104 -0.32868 254 254 254
0.53083 -0.68714 -0.32279 254 254 254
0.53276 -0.69325 -0.31691 254 254 254
0.53469 -0.69936 -0.31102 254 254 254
0.53663 -0.70547 -0.30514 254 254 254
0.53856 -0.71158 -0.29925 254 254 254
0.54049 -0.71769 -0.29336 254 254 254
0.54243 -0.72380 -0.28747 254 254 254
0.54436 -0.72991 -0.28158 254 254 254
0.54630 -0.73602 -0.27569 254 254 254
0.54823 -0.74214 -0.26980 254 254 254
0.55016 -0.74825 -0.26391 254 254 254
0.55210 -0.75437 -0.25802 254 254 254
0.55403 -0.76049 -0.25213 254 254 254
0.56759 -0.80332 -0.21086 252 252 252
0.56952 -0.80944 -0.20496 252 252 252
0.57146 -0.81557 -0.19906 252 252 252
0.57340 -0.82169 -0.19316 252 252 252
0.57534 -0.82782 -0.18726 252 252 252
0.57728 -0.83394 -0.18135 252 252 252
0.57921 -0.84007 -0.17545 252 252 252
0.51320 -0.67346 -0.33836 254 254 254
0.51512 -0.67954 -0.33250 254 254 254
0.51705 -0.68562 -0.32664 254 254 254
0.51897 -0.69170 -0.32078 254 254 254
0.52089 -0.69778 -0.31492 254 254 254
0.52282 -0.70387 -0.30906 254 254 254
0.52474 -0.70995 -0.30320 254 254 254
0.52667 -0.71604 -0.29734 254 254 254
0.52859 -0.72212 -0.29148 254 254 254
0.53052 -0.72821 -0.28561 254 254 254
0.53244 -0.73430 -0.27975 254 254 254
0.53437 -0.74038 -0.27388 254 254 254
0.53629 -0.74647 -0.26802 254 254 254
0.53822 -0.75256 -0.26215 254 254 254
0.54014 -0.75865 -0.25628 254 254 254
0.54207 -0.76474 -0.25041 254 254 254
0.55556 -0.80740 -0.20931 252 252 253
0.55749 -0.81350 -0.20344 252 252 252
0.55942 -0.81960 -0.19756 252 252 252
0.56135 -0.82570 -0.19168 252 252 252
0.56328 -0.83180 -0.18581 252 252 251
0.50146 -0.67805 -0.33630 254 254 254
0.50338 -0.68411 -0.33046 254 254 254
0.50529 -0.69016 -0.32463 254 254 254
0.50721 -0.69622 -0.31879 254 254 254
0.50912 -0.70228 -0.31296 254 254 254
0.51104 -0.70834 -0.30712 254 254 254
0.51295 -0.71440 -0.30128 254 254 254
0.51487 -0.72046 -0.29544 254 254 254
0.51678 -0.72652 -0.28961 254 254 254
0.51870 -0.73258 -0.28377 254 254 254
0.52062 -0.73864 -0.27792 254 254 254
0.52253 -0.74471 -0.27208 254 254 254
0.52445 -0.75077 -0.26624 254 254 254
0.52637 -0.75683 -0.26040 254 254 254
0.52829 -0.76290 -0.25455 254 254 254
0.53020 -0.76897 -0.24871 254 253 252
0.54171 -0.80538 -0.21363 253 253 253
0.54363 -0.81145 -0.20778 253 253 253
0.54555 -0.81752 -0.20193 252 252 252
0.54747 -0.82360 -0.19608 252 252 252
0.49173 -0.68864 -0.32844 254 254 254
0.49364 -0.69467 -0.32263 254 254 254
0.49554 -0.70071 -0.31682 254 254 254
0.49745 -0.70674 -0.31101 254 254 254
0.49935 -0.71277 -0.30519 254 254 254
0.50126 -0.71881 -0.29938 254 254 254
0.50317 -0.72484 -0.29357 254 254 254
0.50508 -0.73088 -0.28775 254 254 254
0.50698 -0.73692 -0.28193 254 254 254
0.50889 -0.74295 -0.27612 254 254 254
0.51080 -0.74899 -0.27030 254 254 254
0.51271 -0.75503 -0.26448 254 254 254
0.51462 -0.76107 -0.25866 254 254 253
0.51653 -0.76711 -0.25284 254 253 249
0.51843 -0.77315 -0.24702 254 253 249
0.52798 -0.80337 -0.21791 253 253 253
0.52989 -0.80942 -0.21208 253 253 253
0.53180 -0.81547 -0.20626 253 253 253
0.53371 -0.82152 -0.20043 253 253 253
0.46311 -0.63911 -0.37849 254 254 254
0.48207 -0.69914 -0.32065 254 254 254
0.48397 -0.70515 -0.31486 254 254 254
0.48587 -0.71116 -0.30907 254 254 254
0.48777 -0.71717 -0.30328 254 254 254
0.48967 -0.72318 -0.29749 254 254 254
0.49156 -0.72919 -0.29170 254 254 254
0.49346 -0.73520 -0.28591 254 254 254
0.49536 -0.74122 -0.28012 254 254 254
0.49726 -0.74723 -0.27432 254 254 254
0.49916 -0.75324 -0.26853 253 253 254
0.50106 -0.75926 -0.26274 253 252 253
0.50296 -0.76527 -0.25694 253 252 250
0.50486 -0.77129 -0.25115 254 252 248
0.50676 -0.77731 -0.24535 254 254 251
0.50866 -0.78333 -0.23955 254 254 253
0.51056 -0.78934 -0.23375 254 254 253
0.51246 -0.79536 -0.22795 254 254 254
0.51437 -0.80138 -0.22215 254 253 254
0.51627 -0.80741 -0.21635 253 253 253
0.51817 -0.81343 -0.21055 253 253 253
0.52007 -0.81945 -0.20475 253 253 253
0.44796 -0.63183 -0.38780 254 254 254
0.44984 -0.63781 -0.38205 254 254 254
0.45173 -0.64378 -0.37629 254 254 254
0.45362 -0.64976 -0.37053 254 254 254
0.45550 -0.65574 -0.36477 254 254 254
0.47250 -0.70956 -0.31292 254 254 254
0.47439 -0.71555 -0.30715 254 254 254
0.49140 -0.76944 -0.25523 253 253 252
0.49329 -0.77544 -0.24946 254 254 252
0.49518 -0.78143 -0.24369 254 254 254
0.49708 -0.78742 -0.23791 254 254 254
0.49897 -0.79342 -0.23214 254 254 254
0.50086 -0.79941 -0.22636 254 254 254
0.50275 -0.80541 -0.22059 254 254 254
0.50465 -0.81140 -0.21481 254 253 253
0.43856 -0.64247 -0.37984 254 254 254
0.44044 -0.64842 -0.37411 254 254 254
0.44232 -0.65437 -0.36837 254 254 254
0.44420 -0.66033 -0.36264 254 254 254
0.44607 -0.66628 -0.35690 254 254 254
0.47993 -0.77358 -0.25354 254 254 254
0.48182 -0.77955 -0.24779 254 254 254
0.48370 -0.78551 -0.24204 254 254 254
0.48558 -0.79148 -0.23629 254 254 254
0.48747 -0.79745 -0.23054 254 254 254
0.48935 -0.80343 -0.22479 254 254 254
0.49124 -0.80940 -0.21903 254 254 254
0.42737 -0.64709 -0.37765 254 254 254
0.42924 -0.65302 -0.37194 254 254 254
0.43111 -0.65895 -0.36623 254 254 254
0.43298 -0.66488 -0.36052 254 254 254
0.43485 -0.67081 -0.35481 254 254 254
0.43672 -0.67674 -0.34909 254 254 254
0.46669 -0.77174 -0.25759 254 254 254
0.46856 -0.77768 -0.25186 254 254 254
0.47043 -0.78362 -0.24613 254 254 254
0.47231 -0.78957 -0.24041 254 254 254
0.47419 -0.79551 -0.23468 254 254 254
0.47606 -0.80146 -0.22895 254 254 254
0.41627 -0.65168 -0.37548 254 254 254
0.41813 -0.65759 -0.36980 254 254 254
0.41999 -0.66349 -0.36411 254 254 254
0.42185 -0.66940 -0.35842 254 254 254
0.42372 -0.67530 -0.35273 254 254 254
0.42558 -0.68121 -0.34704 254 254 254
0.42744 -0.68712 -0.34135 254 254 254
0.45354 -0.76991 -0.26160 254 254 254
0.45541 -0.77583 -0.25590 254 254 254
0.45728 -0.78175 -0.25019 254 254 254
0.45914 -0.78767 -0.24449 254 254 254
0.46101 -0.79359 -0.23879 254 254 254
0.40711 -0.66211 -0.36767 254 254 254
0.40896 -0.66800 -0.36200 254 254 254
0.41082 -0.67388 -0.35633 254 254 254
0.41267 -0.67976 -0.35067 254 254 254
0.41453 -0.68565 -0.34500 254 254 254
0.41638 -0.69153 -0.33933 254 254 254
0.41824 -0.69742 -0.33366 254 254 254
0.44051 -0.76810 -0.26558 254 254 254
0.44237 -0.77399 -0.25990 254 254 254
0.44423 -0.77989 -0.25422 254 254 254
0.44609 -0.78578 -0.24854 254 254 254
0.44794 -0.79168 -0.24286 254 254 254
0.39618 -0.66661 -0.36555 254 254 254
0.39802 -0.67246 -0.35991 254 254 254
0.39987 -0.67832 -0.35427 254 254 254
