ply
format ascii 1.0
element face 0
property list uchar int vertex_indices
element vertex 1251
property float x
property float y
property float z
property uchar diffuse_red
property uchar diffuse_green
property uchar diffuse_blue
end_header
0.79828 -0.69319 -0.27019 254 254 254
0.80057 -0.70023 -0.26332 254 254 254
0.80286 -0.70727 -0.25647 254 254 254
0.80514 -0.71430 -0.24961 254 254 254
0.80743 -0.72133 -0.24276 253 253 253
0.80971 -0.72835 -0.23592 253 253 253
0.75889 -0.62223 -0.34232 254 254 254
0.76349 -0.63633 -0.32857 254 254 254
0.76578 -0.64338 -0.32170 254 254 254
0.76808 -0.65042 -0.31484 254 254 254
0.77037 -0.65746 -0.30798 254 254 254
0.77266 -0.66449 -0.30112 254 254 254
0.77495 -0.67152 -0.29427 254 254 254
0.77724 -0.67855 -0.28742 254 254 254
0.77953 -0.68557 -0.28058 254 254 254
0.78182 -0.69259 -0.27374 254 254 254
0.78410 -0.69960 -0.26690 254 254 254
0.78638 -0.70661 -0.26007 254 254 254
0.78867 -0.71361 -0.25325 254 254 254
0.79095 -0.72061 -0.24642 254 254 254
0.79323 -0.72760 -0.23960 253 253 253
0.79550 -0.73459 -0.23279 253 253 253
0.74491 -0.62894 -0.33872 254 254 254
0.74720 -0.63597 -0.33188 254 254 254
0.75178 -0.65000 -0.31820 254 254 254
0.75407 -0.65701 -0.31136 254 254 254
0.75636 -0.66401 -0.30454 254 254 254
0.75864 -0.67101 -0.29771 254 254 254
0.76093 -0.67801 -0.29089 254 254 254
0.76321 -0.68500 -0.28407 254 254 254
0.76549 -0.69199 -0.27726 254 254 254
0.76777 -0.69897 -0.27045 254 254 254
0.77005 -0.70595 -0.26365 254 254 254
0.77233 -0.71292 -0.25685 254 254 254
0.77460 -0.71989 -0.25005 254 254 254
0.77688 -0.72686 -0.24326 254 254 254
0.77915 -0.73382 -0.23648 253 253 253
0.78142 -0.74078 -0.22969 253 253 253
0.73104 -0.63560 -0.33515 254 254 254
0.73333 -0.64259 -0.32834 254 254 254
0.73562 -0.64957 -0.32153 254 254 254
0.73790 -0.65655 -0.31472 254 254 254
0.74018 -0.66353 -0.30792 254 254 254
0.74246 -0.67050 -0.30112 254 254 254
0.74474 -0.67747 -0.29433 254 254 254
0.74702 -0.68443 -0.28754 254 254 254
0.74930 -0.69139 -0.28076 254 254 254
0.75158 -0.69835 -0.27398 254 254 254
0.75385 -0.70530 -0.26720 254 254 254
0.75612 -0.71224 -0.26043 254 254 254
0.75839 -0.71919 -0.25366 254 254 254
0.76066 -0.72613 -0.24689 254 254 254
0.76293 -0.73306 -0.24013 254 254 254
0.76520 -0.73999 -0.23337 253 253 253
0.71730 -0.64220 -0.33162 254 254 254
0.71958 -0.64916 -0.32484 254 254 254
0.72186 -0.65611 -0.31806 254 254 254
0.72414 -0.66305 -0.31128 254 254 254
0.72642 -0.67000 -0.30451 254 254 254
0.72869 -0.67694 -0.29774 254 254 254
0.73097 -0.68387 -0.29098 254 254 254
0.73324 -0.69080 -0.28422 254 254 254
0.73551 -0.69773 -0.27747 254 254 254
0.73778 -0.70465 -0.27072 254 254 254
0.74005 -0.71157 -0.26397 254 254 254
0.74232 -0.71849 -0.25723 254 254 254
0.74458 -0.72540 -0.25049 254 254 254
0.74685 -0.73230 -0.24376 254 254 254
0.74911 -0.73920 -0.23703 254 254 254
0.75137 -0.74610 -0.23030 253 253 253
0.75589 -0.75988 -0.21686 253 253 253
0.75815 -0.76677 -0.21015 253 253 253
0.76041 -0.77365 -0.20344 253 253 253
0.76266 -0.78052 -0.19673 252 252 252
0.76492 -0.78740 -0.19003 252 252 252
0.70368 -0.64874 -0.32811 254 254 254
0.70596 -0.65566 -0.32136 254 254 254
0.70823 -0.66258 -0.31461 254 254 254
0.71050 -0.66950 -0.30787 254 254 254
0.71277 -0.67641 -0.30113 254 254 254
0.71504 -0.68332 -0.29439 254 254 254
0.71731 -0.69022 -0.28766 254 254 254
0.71958 -0.69712 -0.28093 254 254 254
0.72184 -0.70401 -0.27421 254 254 254
0.72411 -0.71090 -0.26749 254 254 254
0.72637 -0.71779 -0.26077 254 254 254
0.72863 -0.72467 -0.25406 254 254 254
0.73089 -0.73155 -0.24735 254 254 254
0.73315 -0.73842 -0.24065 254 254 254
0.73541 -0.74529 -0.23395 254 254 254
0.74217 -0.76588 -0.21387 253 253 253
0.74443 -0.77273 -0.20719 253 253 253
0.74668 -0.77958 -0.20051 253 253 253
0.74893 -0.78642 -0.19384 252 252 252
0.75117 -0.79326 -0.18716 252 252 252
0.75342 -0.80010 -0.18050 252 252 252
0.69018 -0.65522 -0.32464 254 254 254
0.69245 -0.66211 -0.31792 254 254 254
0.69472 -0.66900 -0.31120 254 254 254
0.69698 -0.67589 -0.30449 254 254 254
0.69925 -0.68276 -0.29778 254 254 254
0.70151 -0.68964 -0.29107 254 254 254
0.70378 -0.69651 -0.28437 254 254 254
0.70604 -0.70338 -0.27767 254 254 254
0.70830 -0.71024 -0.27098 254 254 254
0.71055 -0.71710 -0.26429 254 254 254
0.71281 -0.72395 -0.25760 254 254 254
0.71507 -0.73080 -0.25092 254 254 254
0.71732 -0.73765 -0.24424 254 254 254
0.71957 -0.74449 -0.23757 254 254 254
0.72857 -0.77182 -0.21091 253 253 253
0.73082 -0.77864 -0.20426 253 253 253
0.73306 -0.78546 -0.19761 253 253 253
0.73531 -0.79227 -0.19096 252 252 252
0.73755 -0.79908 -0.18432 252 252 252
0.73979 -0.80589 -0.17768 252 252 252
0.67680 -0.66165 -0.32120 254 254 254
0.67906 -0.66851 -0.31450 254 254 254
0.68132 -0.67537 -0.30782 254 254 254
0.68358 -0.68222 -0.30113 254 254 254
0.68584 -0.68906 -0.29445 254 254 254
0.68810 -0.69591 -0.28778 254 254 254
0.69036 -0.70275 -0.28110 254 254 254
0.69261 -0.70958 -0.27444 254 254 254
0.69486 -0.71641 -0.26777 254 254 254
0.69712 -0.72324 -0.26111 254 254 254
0.69937 -0.73006 -0.25446 254 254 254
0.70162 -0.73688 -0.24781 254 254 254
0.70387 -0.74370 -0.24116 254 254 254
0.71733 -0.78450 -0.20135 253 253 253
0.71957 -0.79129 -0.19473 253 253 253
0.72181 -0.79807 -0.18812 252 252 252
0.72404 -0.80485 -0.18151 252 252 252
0.66578 -0.67485 -0.31112 254 254 254
0.66804 -0.68167 -0.30446 254 254 254
0.67030 -0.68849 -0.29781 254 254 254
0.67255 -0.69531 -0.29116 254 254 254
0.67480 -0.70212 -0.28451 254 254 254
0.67705 -0.70893 -0.27787 254 254 254
0.67930 -0.71573 -0.27123 254 254 254
0.68155 -0.72253 -0.26460 254 254 254
0.68380 -0.72933 -0.25797 254 254 254
0.68604 -0.73612 -0.25134 254 254 254
0.68829 -0.74291 -0.24472 254 254 254
0.69053 -0.74969 -0.23810 254 254 254
0.69277 -0.75647 -0.23149 254 254 254
0.69501 -0.76325 -0.22488 254 254 254
0.65487 -0.68793 -0.30114 254 254 254
0.65712 -0.69472 -0.29451 254 254 254
0.65937 -0.70150 -0.28789 254 254 254
0.66162 -0.70828 -0.28127 254 254 254
0.66386 -0.71506 -0.27466 254 254 254
0.66611 -0.72183 -0.26805 254 254 254
0.66835 -0.72860 -0.26145 254 254 254
0.67059 -0.73537 -0.25485 254 254 254
0.67507 -0.74888 -0.24166 254 254 254
0.67731 -0.75564 -0.23507 254 254 254
0.67954 -0.76239 -0.22848 254 254 254
0.68178 -0.76913 -0.22190 254 254 254
0.68401 -0.77587 -0.21533 253 253 254
0.64182 -0.69413 -0.29784 254 254 254
0.64406 -0.70089 -0.29124 254 254 254
0.64631 -0.70764 -0.28465 254 254 254
0.64855 -0.71439 -0.27807 254 254 254
0.65079 -0.72114 -0.27148 254 254 254
0.65302 -0.72788 -0.26490 254 254 254
0.65526 -0.73462 -0.25833 254 254 254
0.66196 -0.75481 -0.23862 254 254 254
0.66419 -0.76153 -0.23206 254 254 254
0.66642 -0.76825 -0.22551 254 254 254
0.66865 -0.77496 -0.21896 254 254 254
0.67088 -0.78167 -0.21241 254 254 254
0.62888 -0.70028 -0.29457 254 254 254
0.63112 -0.70701 -0.28800 254 254 254
0.63335 -0.71373 -0.28144 254 254 254
0.63559 -0.72045 -0.27488 254 254 254
0.63782 -0.72716 -0.26833 254 254 254
0.64005 -0.73387 -0.26178 254 254 254
0.64228 -0.74058 -0.25523 254 254 254
0.64897 -0.76068 -0.23562 254 254 254
0.65120 -0.76737 -0.22908 254 254 254
0.65342 -0.77406 -0.22256 254 254 254
0.65564 -0.78075 -0.21603 254 254 254
0.65787 -0.78743 -0.20951 254 254 254
0.61605 -0.70637 -0.29133 254 254 254
0.61828 -0.71307 -0.28479 254 254 254
0.62051 -0.71976 -0.27826 254 254 254
0.62274 -0.72645 -0.27173 254 254 254
0.62497 -0.73314 -0.26520 254 254 254
0.62719 -0.73982 -0.25868 254 254 254
0.62942 -0.74650 -0.25216 254 254 254
0.63831 -0.77317 -0.22613 254 254 254
0.60110 -0.70575 -0.29463 254 254 254
0.60332 -0.71242 -0.28811 254 254 254
0.60555 -0.71908 -0.28161 254 254 254
0.60777 -0.72575 -0.27510 254 254 254
0.61000 -0.73241 -0.26860 254 254 254
0.61222 -0.73906 -0.26210 254 254 254
0.61444 -0.74571 -0.25561 254 254 254
0.58848 -0.71177 -0.29141 254 254 254
0.59071 -0.71841 -0.28493 254 254 254
0.59293 -0.72505 -0.27845 254 254 254
0.59515 -0.73168 -0.27197 254 254 254
0.59736 -0.73831 -0.26550 254 254 254
0.59958 -0.74494 -0.25903 254 254 254
0.60180 -0.75156 -0.25256 254 254 254
0.57598 -0.71774 -0.28822 254 254 254
0.57820 -0.72435 -0.28177 254 254 254
0.58041 -0.73096 -0.27532 254 254 254
0.58262 -0.73756 -0.26887 254 254 254
0.58484 -0.74416 -0.26242 254 254 254
0.58705 -0.75076 -0.25598 254 254 254
0.58926 -0.75735 -0.24954 254 254 254
0.61128 -0.82307 -0.18538 253 253 253
0.61348 -0.82962 -0.17898 253 253 253
0.61567 -0.83616 -0.17259 253 253 253
0.61787 -0.84271 -0.16620 253 253 253
0.62006 -0.84925 -0.15981 253 253 253
0.56358 -0.72366 -0.28506 254 254 254
0.56579 -0.73025 -0.27863 254 254 254
0.56800 -0.73683 -0.27221 254 254 254
0.57021 -0.74340 -0.26579 254 254 254
0.57241 -0.74997 -0.25937 254 254 254
0.57462 -0.75654 -0.25296 254 254 254
0.59660 -0.82200 -0.18903 254 254 254
0.59879 -0.82852 -0.18266 253 253 253
0.60098 -0.83505 -0.17629 253 253 253
0.60317 -0.84156 -0.16992 253 253 253
0.55128 -0.72954 -0.28193 254 254 254
0.55349 -0.73609 -0.27553 254 254 254
0.55569 -0.74264 -0.26913 254 254 254
0.55789 -0.74919 -0.26274 254 254 254
0.56009 -0.75573 -0.25635 254 254 254
0.56229 -0.76227 -0.24996 254 254 254
0.58203 -0.82094 -0.19266 254 254 254
0.58422 -0.82744 -0.18631 254 254 254
0.58641 -0.83394 -0.17996 254 253 254
0.58859 -0.84043 -0.17362 253 253 253
0.53689 -0.72884 -0.28519 254 254 254
0.53909 -0.73536 -0.27882 254 254 254
0.54129 -0.74189 -0.27244 254 254 254
0.54348 -0.74841 -0.26608 254 254 254
0.54568 -0.75492 -0.25971 254 254 254
0.54788 -0.76144 -0.25335 254 254 254
0.55007 -0.76795 -0.24699 254 254 254
0.56976 -0.82636 -0.18993 254 254 254
0.57194 -0.83284 -0.18361 254 254 254
0.52480 -0.73464 -0.28208 254 254 254
0.52699 -0.74114 -0.27573 254 254 254
0.52919 -0.74764 -0.26939 254 254 254
0.53138 -0.75413 -0.26305 254 254 254
0.53357 -0.76062 -0.25671 254 254 254
0.53576 -0.76710 -0.25037 254 254 254
0.53795 -0.77358 -0.24404 254 254 254
0.51281 -0.74040 -0.27900 254 254 254
0.51500 -0.74687 -0.27268 254 254 254
0.51718 -0.75334 -0.26636 254 254 254
0.51937 -0.75980 -0.26004 254 254 254
0.52156 -0.76626 -0.25373 254 254 254
0.52374 -0.77272 -0.24742 254 254 254
0.52592 -0.77917 -0.24112 254 254 254
0.50092 -0.74611 -0.27594 254 254 254
0.50310 -0.75255 -0.26964 254 254 254
0.50528 -0.75899 -0.26335 254 254 254
0.50746 -0.76543 -0.25706 254 254 254
0.50964 -0.77186 -0.25078 254 254 254
0.51182 -0.77829 -0.24450 254 254 254
0.51400 -0.78471 -0.23822 254 254 254
0.48912 -0.75177 -0.27290 254 254 254
0.49130 -0.75819 -0.26663 254 254 254
0.49348 -0.76460 -0.26037 254 254 254
0.49565 -0.77101 -0.25411 254 254 254
0.49783 -0.77741 -0.24785 254 254 254
0.50000 -0.78381 -0.24159 254 254 254
0.50217 -0.79021 -0.23534 254 254 254
0.47742 -0.75739 -0.26989 254 254 254
0.47959 -0.76378 -0.26365 254 254 254
0.48177 -0.77016 -0.25741 254 254 254
0.48394 -0.77654 -0.25118 254 254 254
0.48610 -0.78292 -0.24494 254 254 254
0.48827 -0.78929 -0.23871 254 254 254
0.49044 -0.79566 -0.23249 254 254 254
0.46582 -0.76296 -0.26691 254 254 254
0.46799 -0.76932 -0.26069 254 254 254
0.47015 -0.77568 -0.25448 254 254 254
0.47231 -0.78203 -0.24827 254 254 254
0.47448 -0.78838 -0.24206 254 254 254
0.47664 -0.79473 -0.23586 254 254 254
0.47880 -0.80107 -0.22966 254 254 254
0.45431 -0.76849 -0.26395 254 254 254
0.45647 -0.77482 -0.25775 254 254 254
0.45863 -0.78115 -0.25157 254 254 254
0.46079 -0.78748 -0.24538 254 254 254
0.46295 -0.79380 -0.23920 254 254 254
0.44289 -0.77397 -0.26101 254 254 254
0.44504 -0.78028 -0.25484 254 254 254
0.44720 -0.78658 -0.24868 254 254 254
0.44935 -0.79288 -0.24252 254 254 254
0.43156 -0.77941 -0.25809 254 254 254
0.43371 -0.78569 -0.25195 254 254 254
0.34634 -0.75589 -0.29515 254 254 254
0.33143 -0.74900 -0.30418 254 254 254
0.31448 -0.73604 -0.31913 254 254 254
0.31661 -0.74216 -0.31315 254 254 254
0.31873 -0.74827 -0.30716 254 254 254
0.29977 -0.72926 -0.32802 254 254 254
0.30189 -0.73536 -0.32205 254 254 254
0.30401 -0.74145 -0.31608 254 254 254
0.28938 -0.73468 -0.32495 254 254 254
0.29150 -0.74076 -0.31900 254 254 254
0.65483 -0.39511 -0.57212 254 254 254
0.65670 -0.40231 -0.56460 254 254 254
0.63933 -0.39569 -0.57490 254 254 254
0.64120 -0.40286 -0.56741 254 254 254
0.64307 -0.41003 -0.55994 254 254 254
0.62208 -0.38911 -0.58512 254 254 254
0.62396 -0.39626 -0.57765 254 254 254
0.62583 -0.40341 -0.57020 254 254 254
0.62770 -0.41055 -0.56275 254 254 254
0.62957 -0.41768 -0.55531 254 254 254
0.60495 -0.38257 -0.59527 254 254 254
0.60683 -0.38970 -0.58783 254 254 254
0.60870 -0.39683 -0.58039 254 254 254
0.61057 -0.40395 -0.57296 254 254 254
0.61245 -0.41106 -0.56554 254 254 254
0.61431 -0.41816 -0.55813 254 254 254
0.61618 -0.42526 -0.55072 254 254 254
0.58793 -0.37608 -0.60536 254 254 254
0.58981 -0.38319 -0.59793 254 254 254
0.59169 -0.39030 -0.59051 254 254 254
0.59356 -0.39740 -0.58310 254 254 254
0.59544 -0.40449 -0.57570 254 254 254
0.59731 -0.41157 -0.56831 254 254 254
0.59918 -0.41865 -0.56092 254 254 254
0.60105 -0.42571 -0.55355 254 254 254
0.60292 -0.43277 -0.54618 254 254 254
0.57102 -0.36963 -0.61537 254 254 254
0.57291 -0.37672 -0.60797 254 254 254
0.57479 -0.38381 -0.60057 254 254 254
0.57667 -0.39089 -0.59318 254 254 254
0.57855 -0.39796 -0.58580 254 254 254
0.58042 -0.40502 -0.57842 254 254 254
0.58229 -0.41208 -0.57106 254 254 254
0.58417 -0.41912 -0.56370 254 254 254
0.58603 -0.42616 -0.55635 254 254 254
0.58790 -0.43320 -0.54901 254 254 254
0.58977 -0.44022 -0.54167 254 254 254
0.55423 -0.36322 -0.62533 254 254 254
0.55612 -0.37029 -0.61794 254 254 254
0.55800 -0.37736 -0.61056 254 254 254
0.55988 -0.38442 -0.60319 254 254 254
0.56176 -0.39147 -0.59582 254 254 254
0.56364 -0.39851 -0.58847 254 254 254
0.56552 -0.40555 -0.58112 254 254 254
0.56739 -0.41258 -0.57378 254 254 254
0.56926 -0.41960 -0.56645 254 254 254
0.57113 -0.42661 -0.55913 254 254 254
0.57300 -0.43362 -0.55181 254 254 254
0.57487 -0.44061 -0.54450 254 254 254
0.53755 -0.35686 -0.63521 254 254 254
0.53944 -0.36391 -0.62784 254 254 254
0.54133 -0.37096 -0.62048 254 254 254
0.54321 -0.37800 -0.61313 254 254 254
0.54509 -0.38503 -0.60579 254 254 254
0.54697 -0.39205 -0.59845 254 254 254
0.54885 -0.39907 -0.59112 254 254 254
0.55073 -0.40607 -0.58380 254 254 254
0.55261 -0.41308 -0.57649 254 254 254
0.55448 -0.42007 -0.56918 254 254 254
0.55635 -0.42705 -0.56189 254 254 254
0.55822 -0.43403 -0.55460 254 254 254
0.56008 -0.44100 -0.54732 254 254 254
0.52098 -0.35053 -0.64503 254 254 254
0.52287 -0.35757 -0.63768 254 254 254
0.52476 -0.36459 -0.63034 254 254 254
0.52665 -0.37161 -0.62301 254 254 254
0.52853 -0.37863 -0.61568 254 254 254
0.53042 -0.38563 -0.60836 254 254 254
0.53230 -0.39263 -0.60105 254 254 254
0.53418 -0.39961 -0.59375 254 254 254
0.53606 -0.40660 -0.58646 254 254 254
0.53793 -0.41357 -0.57917 254 254 254
0.53980 -0.42054 -0.57189 254 254 254
0.54168 -0.42749 -0.56462 254 254 254
0.54355 -0.43444 -0.55736 254 254 254
0.54541 -0.44139 -0.55011 254 254 254
0.50451 -0.34425 -0.65479 254 254 254
0.50641 -0.35127 -0.64746 254 254 254
0.50830 -0.35827 -0.64014 254 254 254
0.51019 -0.36527 -0.63282 254 254 254
0.51208 -0.37227 -0.62551 254 254 254
0.51397 -0.37925 -0.61821 254 254 254
0.51585 -0.38623 -0.61092 254 254 254
0.51773 -0.39320 -0.60364 254 254 254
0.51961 -0.40016 -0.59636 254 254 254
0.52149 -0.40711 -0.58910 254 254 254
0.52337 -0.41406 -0.58184 254 254 254
0.52524 -0.42100 -0.57458 254 254 254
0.52712 -0.42793 -0.56734 254 254 254
0.52899 -0.43486 -0.56010 254 254 254
0.53085 -0.44177 -0.55288 254 254 254
0.48816 -0.33801 -0.66448 254 254 254
0.49005 -0.34501 -0.65717 254 254 254
0.49195 -0.35200 -0.64987 254 254 254
0.49384 -0.35898 -0.64257 254 254 254
0.49573 -0.36595 -0.63528 254 254 254
0.49762 -0.37291 -0.62800 254 254 254
0.49951 -0.37987 -0.62073 254 254 254
0.50140 -0.38682 -0.61346 254 254 254
0.50328 -0.39376 -0.60621 254 254 254
0.50516 -0.40070 -0.59896 254 254 254
0.50704 -0.40763 -0.59171 254 254 254
0.50892 -0.41455 -0.58448 254 254 254
0.51079 -0.42146 -0.57725 254 254 254
0.51266 -0.42836 -0.57004 254 254 254
0.51454 -0.43526 -0.56283 254 254 254
0.47191 -0.33181 -0.67411 254 254 254
0.47381 -0.33879 -0.66682 254 254 254
0.47571 -0.34576 -0.65953 254 254 254
0.47760 -0.35272 -0.65226 254 254 254
0.47950 -0.35967 -0.64499 254 254 254
0.48139 -0.36662 -0.63772 254 254 254
0.48328 -0.37356 -0.63047 254 254 254
0.48516 -0.38049 -0.62322 254 254 254
0.48705 -0.38741 -0.61598 254 254 254
0.48893 -0.39433 -0.60875 254 254 254
0.49082 -0.40123 -0.60153 254 254 254
0.49270 -0.40814 -0.59431 254 254 254
0.49457 -0.41503 -0.58711 254 254 254
0.49645 -0.42192 -0.57991 254 254 254
0.49832 -0.42879 -0.57271 254 254 254
0.50019 -0.43567 -0.56553 254 254 254
0.45576 -0.32565 -0.68368 254 254 254
0.45767 -0.33261 -0.67640 254 254 254
0.45957 -0.33956 -0.66914 254 254 254
0.46147 -0.34650 -0.66188 254 254 254
0.46336 -0.35344 -0.65463 254 254 254
0.46526 -0.36036 -0.64738 254 254 254
0.46715 -0.36728 -0.64015 254 254 254
0.46904 -0.37419 -0.63292 254 254 254
0.47093 -0.38110 -0.62570 254 254 254
0.47281 -0.38799 -0.61848 254 254 254
0.47470 -0.39488 -0.61128 254 254 254
0.47658 -0.40177 -0.60408 254 254 254
0.47846 -0.40864 -0.59689 254 254 254
0.48034 -0.41551 -0.58971 254 254 254
0.48221 -0.42237 -0.58254 254 254 254
0.48409 -0.42922 -0.57537 254 254 254
0.43973 -0.31954 -0.69318 254 254 254
0.44163 -0.32647 -0.68593 254 254 254
0.44353 -0.33340 -0.67868 254 254 254
0.44543 -0.34032 -0.67144 254 254 254
0.44733 -0.34724 -0.66420 254 254 254
0.44923 -0.35415 -0.65698 254 254 254
0.45112 -0.36105 -0.64976 254 254 254
0.45302 -0.36794 -0.64255 254 254 254
0.45491 -0.37483 -0.63535 254 254 254
0.45680 -0.38170 -0.62815 254 254 254
0.45868 -0.38857 -0.62097 254 254 254
0.46057 -0.39544 -0.61379 254 254 254
0.46245 -0.40229 -0.60662 254 254 254
0.46433 -0.40914 -0.59945 254 254 254
0.46621 -0.41598 -0.59229 254 254 254
0.46809 -0.42282 -0.58515 254 254 254
0.46996 -0.42965 -0.57800 254 254 254
0.42379 -0.31346 -0.70263 254 254 254
0.42570 -0.32037 -0.69539 254 254 254
0.42760 -0.32728 -0.68816 254 254 254
0.42951 -0.33419 -0.68094 254 254 254
0.43141 -0.34108 -0.67372 254 254 254
0.43331 -0.34797 -0.66651 254 254 254
0.43520 -0.35485 -0.65931 254 254 254
0.43710 -0.36173 -0.65212 254 254 254
0.43899 -0.36859 -0.64494 254 254 254
0.44088 -0.37545 -0.63776 254 254 254
0.44277 -0.38230 -0.63059 254 254 254
0.44466 -0.38915 -0.62343 254 254 254
0.44654 -0.39599 -0.61628 254 254 254
0.44843 -0.40282 -0.60913 254 254 254
0.45031 -0.40964 -0.60199 254 254 254
0.45219 -0.41646 -0.59486 254 254 254
0.45406 -0.42326 -0.58774 254 254 254
0.45594 -0.43007 -0.58062 254 254 254
0.40796 -0.30742 -0.71201 254 254 254
0.40987 -0.31431 -0.70479 254 254 254
0.41177 -0.32121 -0.69758 254 254 254
0.41368 -0.32809 -0.69037 254 254 254
0.41558 -0.33497 -0.68318 254 254 254
0.41749 -0.34184 -0.67599 254 254 254
0.41938 -0.34870 -0.66881 254 254 254
0.42128 -0.35555 -0.66163 254 254 254
0.42318 -0.36240 -0.65447 254 254 254
0.42507 -0.36924 -0.64731 254 254 254
0.42696 -0.37608 -0.64016 254 254 254
0.42885 -0.38290 -0.63301 254 254 254
0.43074 -0.38972 -0.62588 254 254 254
0.43262 -0.39653 -0.61875 254 254 254
0.43451 -0.40334 -0.61163 254 254 254
0.43639 -0.41013 -0.60451 254 254 254
0.43827 -0.41692 -0.59741 254 254 254
0.44015 -0.42371 -0.59031 254 254 254
0.44202 -0.43048 -0.58322 254 254 254
0.46807 -0.52460 -0.48472 254 254 254
0.39223 -0.30141 -0.72133 254 254 254
0.39414 -0.30829 -0.71413 254 254 254
0.39605 -0.31517 -0.70694 254 254 254
0.39796 -0.32203 -0.69975 254 254 254
0.39986 -0.32889 -0.69257 254 254 254
0.40177 -0.33574 -0.68540 254 254 254
0.40367 -0.34258 -0.67824 254 254 254
0.40557 -0.34942 -0.67108 254 254 254
0.40746 -0.35625 -0.66393 254 254 254
0.40936 -0.36307 -0.65679 254 254 254
0.41125 -0.36989 -0.64966 254 254 254
0.41315 -0.37669 -0.64253 254 254 254
0.41504 -0.38350 -0.63541 254 254 254
0.41692 -0.39029 -0.62830 254 254 254
0.41881 -0.39707 -0.62120 254 254 254
0.42069 -0.40385 -0.61410 254 254 254
0.42257 -0.41063 -0.60702 254 254 254
0.42445 -0.41739 -0.59993 254 254 254
0.42633 -0.42415 -0.59286 254 254 254
0.45611 -0.53131 -0.48069 254 254 254
0.45795 -0.53795 -0.47374 254 254 254
0.37660 -0.29545 -0.73060 254 254 254
0.37851 -0.30231 -0.72341 254 254 254
0.38042 -0.30917 -0.71624 254 254 254
0.38233 -0.31601 -0.70907 254 254 254
0.38424 -0.32285 -0.70191 254 254 254
0.38615 -0.32968 -0.69475 254 254 254
0.38805 -0.33651 -0.68761 254 254 254
0.38995 -0.34333 -0.68047 254 254 254
0.39185 -0.35014 -0.67334 254 254 254
0.39375 -0.35694 -0.66622 254 254 254
0.39565 -0.36374 -0.65910 254 254 254
0.39754 -0.37053 -0.65199 254 254 254
0.39943 -0.37731 -0.64489 254 254 254
0.40132 -0.38408 -0.63780 254 254 254
0.40321 -0.39085 -0.63071 254 254 254
0.40509 -0.39761 -0.62363 254 254 254
0.40698 -0.40437 -0.61656 254 254 254
0.40886 -0.41111 -0.60950 254 254 254
0.44240 -0.53135 -0.48361 254 254 254
0.44425 -0.53797 -0.47669 254 254 254
0.44609 -0.54457 -0.46977 254 254 254
0.44793 -0.55117 -0.46286 254 254 254
0.44977 -0.55777 -0.45596 254 254 254
0.45161 -0.56435 -0.44906 254 254 254
0.36298 -0.29637 -0.73263 254 254 254
0.36490 -0.30320 -0.72548 254 254 254
0.36681 -0.31003 -0.71833 254 254 254
0.36872 -0.31685 -0.71118 254 254 254
0.37063 -0.32367 -0.70405 254 254 254
0.37253 -0.33047 -0.69692 254 254 254
0.37444 -0.33727 -0.68980 254 254 254
0.37634 -0.34406 -0.68269 254 254 254
0.37824 -0.35085 -0.67558 254 254 254
0.38014 -0.35763 -0.66848 254 254 254
0.38203 -0.36440 -0.66139 254 254 254
0.38393 -0.37116 -0.65431 254 254 254
0.38582 -0.37792 -0.64723 254 254 254
0.38771 -0.38467 -0.64016 254 254 254
0.38960 -0.39141 -0.63310 254 254 254
0.39148 -0.39815 -0.62605 254 254 254
0.43064 -0.53798 -0.47961 254 254 254
0.43248 -0.54456 -0.47272 254 254 254
0.43432 -0.55114 -0.46583 254 254 254
0.43616 -0.55771 -0.45895 254 254 254
0.43800 -0.56427 -0.45208 254 254 254
0.43984 -0.57083 -0.44521 254 254 254
0.44167 -0.57738 -0.43836 254 254 254
0.35138 -0.30409 -0.72752 254 254 254
0.35329 -0.31089 -0.72040 254 254 254
0.35520 -0.31769 -0.71328 254 254 254
0.35711 -0.32447 -0.70617 254 254 254
0.35902 -0.33125 -0.69907 254 254 254
0.36092 -0.33803 -0.69197 254 254 254
0.36282 -0.34479 -0.68489 254 254 254
0.36472 -0.35155 -0.67781 254 254 254
0.36662 -0.35831 -0.67073 254 254 254
0.36852 -0.36505 -0.66367 254 254 254
0.37041 -0.37179 -0.65661 254 254 254
0.37230 -0.37852 -0.64956 254 254 254
0.37419 -0.38525 -0.64251 254 254 254
0.37608 -0.39196 -0.63548 254 254 254
0.41713 -0.53800 -0.48252 254 254 254
0.41897 -0.54456 -0.47565 254 254 254
0.42082 -0.55111 -0.46878 254 254 254
0.42266 -0.55765 -0.46193 254 254 254
0.42449 -0.56419 -0.45508 254 254 254
0.42633 -0.57073 -0.44824 254 254 254
0.42816 -0.57725 -0.44140 254 254 254
0.33988 -0.31174 -0.72246 254 254 254
0.34179 -0.31851 -0.71537 254 254 254
0.34370 -0.32528 -0.70828 254 254 254
0.34560 -0.33203 -0.70120 254 254 254
0.34751 -0.33878 -0.69413 254 254 254
0.34941 -0.34552 -0.68707 254 254 254
0.35131 -0.35226 -0.68001 254 254 254
0.35321 -0.35898 -0.67297 254 254 254
0.35510 -0.36570 -0.66592 254 254 254
0.40372 -0.53801 -0.48540 254 254 254
0.40556 -0.54455 -0.47855 254 254 254
0.40741 -0.55108 -0.47171 254 254 254
0.40925 -0.55760 -0.46488 254 254 254
0.41108 -0.56411 -0.45806 254 254 254
0.41292 -0.57062 -0.45124 254 254 254
0.41475 -0.57713 -0.44442 254 254 254
0.32847 -0.31933 -0.71743 254 254 254
0.33038 -0.32607 -0.71037 254 254 254
0.33229 -0.33280 -0.70332 254 254 254
0.33419 -0.33952 -0.69628 254 254 254
0.33609 -0.34624 -0.68924 254 254 254
0.33799 -0.35295 -0.68221 254 254 254
0.33989 -0.35965 -0.67518 254 254 254
0.34179 -0.36635 -0.66817 254 254 254
0.34368 -0.37304 -0.66116 254 254 254
0.39225 -0.54454 -0.48144 254 254 254
0.39409 -0.55105 -0.47462 254 254 254
0.39593 -0.55754 -0.46781 254 254 254
0.39777 -0.56404 -0.46101 254 254 254
0.39961 -0.57052 -0.45421 254 254 254
0.40144 -0.57700 -0.44743 254 254 254
0.40327 -0.58347 -0.44064 254 254 254
0.31716 -0.32686 -0.71245 254 254 254
0.31907 -0.33357 -0.70542 254 254 254
0.32097 -0.34027 -0.69840 254 254 254
0.32287 -0.34696 -0.69139 254 254 254
0.32477 -0.35364 -0.68438 254 254 254
0.32667 -0.36032 -0.67738 254 254 254
0.32857 -0.36699 -0.67039 254 254 254
0.33046 -0.37365 -0.66341 254 254 254
0.33235 -0.38031 -0.65643 254 254 254
0.37903 -0.54453 -0.48431 254 254 254
0.38087 -0.55102 -0.47751 254 254 254
0.38271 -0.55749 -0.47072 254 254 254
0.38455 -0.56396 -0.46394 254 254 254
0.38639 -0.57042 -0.45717 254 254 254
0.38822 -0.57688 -0.45041 254 254 254
0.39006 -0.58333 -0.44365 254 254 254
0.30595 -0.33433 -0.70751 254 254 254
0.30785 -0.34100 -0.70051 254 254 254
0.30975 -0.34767 -0.69353 254 254 254
0.31165 -0.35433 -0.68654 254 254 254
0.31355 -0.36098 -0.67957 254 254 254
0.31545 -0.36763 -0.67260 254 254 254
0.31734 -0.37427 -0.66564 254 254 254
0.36591 -0.54453 -0.48715 254 254 254
0.36775 -0.55098 -0.48038 254 254 254
0.36959 -0.55744 -0.47361 254 254 254
0.37143 -0.56388 -0.46686 254 254 254
0.37327 -0.57032 -0.46011 254 254 254
0.37510 -0.57675 -0.45336 254 254 254
0.37693 -0.58318 -0.44663 254 254 254
0.37876 -0.58960 -0.43990 254 254 254
0.29482 -0.34173 -0.70261 254 254 254
0.29672 -0.34837 -0.69565 254 254 254
0.29862 -0.35501 -0.68869 254 254 254
0.30052 -0.36164 -0.68174 254 254 254
0.30242 -0.36826 -0.67479 254 254 254
0.30431 -0.37487 -0.66786 254 254 254
0.35472 -0.55095 -0.48323 254 254 254
0.35656 -0.55738 -0.47648 254 254 254
0.35840 -0.56381 -0.46975 254 254 254
0.36024 -0.57022 -0.46302 254 254 254
0.36207 -0.57663 -0.45630 254 254 254
0.36390 -0.58303 -0.44959 254 254 254
0.36573 -0.58943 -0.44288 254 254 254
0.28189 -0.34245 -0.70469 254 254 254
0.28379 -0.34907 -0.69775 254 254 254
0.28569 -0.35568 -0.69082 254 254 254
0.28759 -0.36229 -0.68389 254 254 254
0.28948 -0.36889 -0.67697 254 254 254
0.29138 -0.37548 -0.67006 254 254 254
0.34362 -0.55733 -0.47933 254 254 254
0.34546 -0.56373 -0.47262 254 254 254
0.34730 -0.57012 -0.46592 254 254 254
0.34913 -0.57651 -0.45922 254 254 254
0.35097 -0.58289 -0.45253 254 254 254
0.35280 -0.58927 -0.44584 254 254 254
0.26905 -0.34317 -0.70676 254 254 254
0.27095 -0.34977 -0.69984 254 254 254
0.27285 -0.35635 -0.69293 254 254 254
0.27475 -0.36293 -0.68603 254 254 254
0.27664 -0.36951 -0.67913 254 254 254
0.27853 -0.37608 -0.67224 254 254 254
0.33078 -0.55728 -0.48216 254 254 254
0.33261 -0.56365 -0.47547 254 254 254
0.33445 -0.57003 -0.46879 254 254 254
0.33629 -0.57639 -0.46211 254 254 254
0.33812 -0.58275 -0.45544 254 254 254
0.33995 -0.58910 -0.44878 254 254 254
0.34178 -0.59545 -0.44212 254 254 254
0.25630 -0.34389 -0.70881 254 254 254
0.25820 -0.35046 -0.70192 254 254 254
0.26010 -0.35702 -0.69503 254 254 254
0.26200 -0.36358 -0.68815 254 254 254
0.26389 -0.37013 -0.68128 254 254 254
0.26578 -0.37667 -0.67441 254 254 254
0.31802 -0.55722 -0.48497 254 254 254
0.31986 -0.56358 -0.47831 254 254 254
0.32169 -0.56993 -0.47164 254 254 254
0.32353 -0.57627 -0.46499 254 254 254
0.32536 -0.58261 -0.45834 254 254 254
0.32719 -0.58894 -0.45170 254 254 254
0.32902 -0.59526 -0.44507 254 254 254
0.24364 -0.34460 -0.71085 254 254 254
0.24554 -0.35114 -0.70398 254 254 254
0.24744 -0.35768 -0.69712 254 254 254
0.24934 -0.36421 -0.69026 254 254 254
0.25123 -0.37074 -0.68341 254 254 254
0.25312 -0.37726 -0.67657 254 254 254
0.30719 -0.56350 -0.48112 254 254 254
0.30903 -0.56983 -0.47448 254 254 254
0.31086 -0.57615 -0.46785 254 254 254
0.31270 -0.58247 -0.46122 254 254 254
0.31453 -0.58877 -0.45460 254 254 254
0.31636 -0.59507 -0.44799 254 254 254
0.31818 -0.60137 -0.44138 254 254 254
0.23108 -0.34530 -0.71287 254 254 254
0.23297 -0.35182 -0.70602 254 254 254
0.23487 -0.35834 -0.69918 254 254 254
0.23677 -0.36485 -0.69235 254 254 254
0.23866 -0.37135 -0.68553 254 254 254
0.24056 -0.37785 -0.67871 254 254 254
0.29645 -0.56974 -0.47729 254 254 254
0.29829 -0.57603 -0.47068 254 254 254
0.30012 -0.58233 -0.46408 254 254 254
0.30195 -0.58861 -0.45748 254 254 254
0.30378 -0.59489 -0.45089 254 254 254
0.30561 -0.60116 -0.44430 254 254 254
0.21860 -0.34600 -0.71488 254 254 254
0.22050 -0.35250 -0.70806 254 254 254
0.22239 -0.35899 -0.70124 254 254 254
0.22429 -0.36548 -0.69443 254 254 254
0.22618 -0.37195 -0.68763 254 254 254
0.22807 -0.37843 -0.68083 254 254 254
0.28579 -0.57592 -0.47350 254 254 254
0.28763 -0.58219 -0.46691 254 254 254
0.28946 -0.58845 -0.46034 254 254 254
0.29129 -0.59471 -0.45377 254 254 254
0.29311 -0.60096 -0.44721 254 254 254
0.20621 -0.34669 -0.71687 254 254 254
0.20811 -0.35317 -0.71007 254 254 254
0.21000 -0.35964 -0.70328 254 254 254
0.21190 -0.36610 -0.69649 254 254 254
0.21379 -0.37256 -0.68971 254 254 254
0.27705 -0.58829 -0.46318 254 254 254
0.27888 -0.59453 -0.45663 254 254 254
0.28071 -0.60076 -0.45009 254 254 254
0.19390 -0.34738 -0.71885 254 254 254
0.19580 -0.35383 -0.71207 254 254 254
0.19770 -0.36028 -0.70530 254 254 254
0.19959 -0.36672 -0.69854 254 254 254
0.20149 -0.37315 -0.69178 254 254 254
0.18169 -0.34806 -0.72082 254 254 254
0.18358 -0.35449 -0.71406 254 254 254
0.18548 -0.36092 -0.70732 254 254 254
0.18737 -0.36733 -0.70058 254 254 254
0.17145 -0.35515 -0.71604 254 254 254
0.17335 -0.36155 -0.70931 254 254 254
0.17524 -0.36795 -0.70260 254 254 254
0.15941 -0.35580 -0.71800 254 254 254
0.16130 -0.36218 -0.71130 254 254 254
0.26270 -0.70352 -0.35258 254 254 254
0.14744 -0.35645 -0.71995 254 254 254
0.14934 -0.36281 -0.71327 254 254 254
0.24892 -0.69695 -0.36205 254 254 254
0.25071 -0.70298 -0.35571 254 254 254
0.25251 -0.70900 -0.34939 254 254 254
0.13367 -0.35075 -0.72855 254 254 254
0.13556 -0.35709 -0.72188 254 254 254
0.13745 -0.36343 -0.71522 254 254 254
0.23341 -0.68440 -0.37778 254 254 254
0.23521 -0.69042 -0.37145 254 254 254
0.23701 -0.69643 -0.36513 254 254 254
0.23880 -0.70244 -0.35882 254 254 254
0.24059 -0.70844 -0.35251 254 254 254
0.24239 -0.71443 -0.34621 254 254 254
0.12187 -0.35141 -0.73044 254 254 254
0.12376 -0.35773 -0.72380 254 254 254
0.21978 -0.67793 -0.38712 254 254 254
0.22158 -0.68393 -0.38081 254 254 254
0.22338 -0.68992 -0.37450 254 254 254
0.22517 -0.69591 -0.36820 254 254 254
0.22697 -0.70190 -0.36191 254 254 254
0.22876 -0.70788 -0.35562 254 254 254
0.23055 -0.71385 -0.34934 254 254 254
0.23234 -0.71982 -0.34306 254 254 254
0.10825 -0.34577 -0.73896 254 254 254
0.20443 -0.66549 -0.40271 254 254 254
0.20623 -0.67148 -0.39640 254 254 254
0.20803 -0.67747 -0.39011 254 254 254
0.20983 -0.68345 -0.38381 254 254 254
0.21163 -0.68943 -0.37753 254 254 254
0.21342 -0.69540 -0.37125 254 254 254
0.21522 -0.70137 -0.36498 254 254 254
0.21701 -0.70733 -0.35871 254 254 254
0.21880 -0.71328 -0.35245 254 254 254
0.09472 -0.34016 -0.74742 254 254 254
0.18915 -0.65311 -0.41822 254 254 254
0.19095 -0.65910 -0.41193 254 254 254
0.19276 -0.66508 -0.40564 254 254 254
0.19456 -0.67105 -0.39935 254 254 254
0.19636 -0.67702 -0.39307 254 254 254
0.19816 -0.68298 -0.38680 254 254 254
0.19995 -0.68894 -0.38054 254 254 254
0.20175 -0.69489 -0.37428 254 254 254
0.20354 -0.70084 -0.36802 254 254 254
0.20534 -0.70678 -0.36177 254 254 254
0.20713 -0.71271 -0.35553 254 254 254
0.08127 -0.33458 -0.75583 254 254 254
0.17575 -0.64677 -0.42737 254 254 254
0.17755 -0.65275 -0.42109 254 254 254
0.17936 -0.65871 -0.41481 254 254 254
0.18116 -0.66467 -0.40854 254 254 254
0.18296 -0.67062 -0.40228 254 254 254
0.18476 -0.67657 -0.39602 254 254 254
0.18656 -0.68252 -0.38977 254 254 254
0.18836 -0.68845 -0.38352 254 254 254
0.19015 -0.69438 -0.37728 254 254 254
0.19195 -0.70031 -0.37105 254 254 254
0.19374 -0.70623 -0.36482 254 254 254
0.06789 -0.32903 -0.76420 254 254 254
0.16061 -0.63451 -0.44275 254 254 254
0.16242 -0.64047 -0.43647 254 254 254
0.16423 -0.64643 -0.43020 254 254 254
0.16604 -0.65238 -0.42394 254 254 254
0.16784 -0.65832 -0.41769 254 254 254
0.16965 -0.66426 -0.41143 254 254 254
0.17145 -0.67020 -0.40519 254 254 254
0.17325 -0.67613 -0.39895 254 254 254
0.17505 -0.68205 -0.39272 254 254 254
0.17684 -0.68797 -0.38649 254 254 254
0.17864 -0.69388 -0.38027 254 254 254
0.18043 -0.69979 -0.37405 254 254 254
0.05270 -0.31727 -0.77908 254 254 254
0.14737 -0.62825 -0.45178 254 254 254
0.14918 -0.63420 -0.44552 254 254 254
0.15099 -0.64015 -0.43927 254 254 254
0.15279 -0.64608 -0.43302 254 254 254
0.15460 -0.65201 -0.42677 254 254 254
0.15640 -0.65794 -0.42054 254 254 254
0.15821 -0.66386 -0.41431 254 254 254
0.16001 -0.66978 -0.40808 254 254 254
0.16181 -0.67569 -0.40186 254 254 254
0.16360 -0.68159 -0.39565 254 254 254
0.16540 -0.68749 -0.38944 254 254 254
0.16719 -0.69338 -0.38324 254 254 254
0.16899 -0.69927 -0.37704 254 254 254
0.13238 -0.61610 -0.46702 254 254 254
0.13419 -0.62204 -0.46076 254 254 254
0.13601 -0.62797 -0.45452 254 254 254
0.13782 -0.63390 -0.44828 254 254 254
0.13963 -0.63982 -0.44204 254 254 254
0.14143 -0.64574 -0.43581 254 254 254
0.14324 -0.65165 -0.42959 254 254 254
0.14504 -0.65756 -0.42337 254 254 254
0.14684 -0.66346 -0.41716 254 254 254
0.14864 -0.66936 -0.41095 254 254 254
0.15044 -0.67525 -0.40475 254 254 254
0.15224 -0.68113 -0.39856 254 254 254
0.15403 -0.68701 -0.39237 254 254 254
0.15583 -0.69288 -0.38618 254 254 254
0.11928 -0.60993 -0.47594 254 254 254
0.12110 -0.61585 -0.46970 254 254 254
0.12291 -0.62177 -0.46346 254 254 254
0.12472 -0.62769 -0.45724 254 254 254
0.12653 -0.63360 -0.45101 254 254 254
0.12834 -0.63950 -0.44480 254 254 254
0.13014 -0.64540 -0.43859 254 254 254
0.13195 -0.65129 -0.43238 254 254 254
0.13375 -0.65718 -0.42618 254 254 254
0.13555 -0.66306 -0.41999 254 254 254
0.13735 -0.66894 -0.41380 254 254 254
0.13915 -0.67481 -0.40762 254 254 254
0.14095 -0.68068 -0.40145 254 254 254
0.14274 -0.68654 -0.39528 254 254 254
0.10444 -0.59787 -0.49104 254 254 254
0.10626 -0.60379 -0.48481 254 254 254
0.10807 -0.60970 -0.47858 254 254 254
0.10989 -0.61561 -0.47236 254 254 254
0.11170 -0.62151 -0.46614 254 254 254
0.11351 -0.62741 -0.45994 254 254 254
0.11532 -0.63330 -0.45373 254 254 254
0.11713 -0.63918 -0.44754 254 254 254
0.11893 -0.64506 -0.44134 254 254 254
0.12073 -0.65094 -0.43516 254 254 254
0.12254 -0.65680 -0.42898 254 254 254
0.12434 -0.66267 -0.42281 254 254 254
0.12614 -0.66853 -0.41664 254 254 254
0.12793 -0.67438 -0.41047 254 254 254
0.12973 -0.68022 -0.40432 254 254 254
0.13152 -0.68607 -0.39817 254 254 254
0.09149 -0.59179 -0.49984 254 254 254
0.09331 -0.59769 -0.49362 254 254 254
0.09512 -0.60359 -0.48741 254 254 254
0.09694 -0.60948 -0.48120 254 254 254
0.09875 -0.61537 -0.47500 254 254 254
0.10056 -0.62125 -0.46881 254 254 254
0.10237 -0.62713 -0.46262 254 254 254
0.10418 -0.63300 -0.45643 254 254 254
0.10599 -0.63887 -0.45026 254 254 254
0.10779 -0.64473 -0.44408 254 254 254
0.10959 -0.65058 -0.43792 254 254 254
0.11139 -0.65643 -0.43176 254 254 254
0.11319 -0.66227 -0.42560 254 254 254
0.11499 -0.66811 -0.41945 254 254 254
0.11679 -0.67395 -0.41331 254 254 254
0.11858 -0.67977 -0.40717 254 254 254
0.07679 -0.57984 -0.51481 254 254 254
0.07861 -0.58574 -0.50860 254 254 254
0.08043 -0.59163 -0.50239 254 254 254
0.08224 -0.59751 -0.49619 254 254 254
0.08406 -0.60339 -0.49000 254 254 254
0.08587 -0.60926 -0.48381 254 254 254
0.08769 -0.61513 -0.47763 254 254 254
0.08950 -0.62100 -0.47145 254 254 254
0.09131 -0.62685 -0.46528 254 254 254
0.09311 -0.63271 -0.45912 254 254 254
0.09492 -0.63855 -0.45296 254 254 254
0.09672 -0.64439 -0.44681 254 254 254
0.09852 -0.65023 -0.44066 254 254 254
0.10033 -0.65606 -0.43452 254 254 254
0.10212 -0.66188 -0.42838 254 254 254
0.10392 -0.66770 -0.42225 254 254 254
0.10572 -0.67352 -0.41612 254 254 254
0.06216 -0.56795 -0.52971 254 254 254
0.06398 -0.57384 -0.52350 254 254 254
0.06580 -0.57972 -0.51730 254 254 254
0.06762 -0.58559 -0.51111 254 254 254
0.06944 -0.59147 -0.50493 254 254 254
0.07125 -0.59733 -0.49875 254 254 254
0.07307 -0.60319 -0.49257 254 254 254
0.07488 -0.60905 -0.48640 254 254 254
0.07669 -0.61490 -0.48024 254 254 254
0.07850 -0.62074 -0.47408 254 254 254
0.08031 -0.62658 -0.46793 254 254 254
0.08212 -0.63241 -0.46178 254 254 254
0.08392 -0.63824 -0.45564 254 254 254
0.08573 -0.64406 -0.44951 254 254 254
0.08753 -0.64988 -0.44338 254 254 254
0.08933 -0.65569 -0.43726 254 254 254
0.09113 -0.66150 -0.43114 254 254 254
0.09292 -0.66730 -0.42503 254 254 254
0.09472 -0.67309 -0.41892 254 254 254
0.04942 -0.56199 -0.53834 254 254 254
0.05124 -0.56787 -0.53215 254 254 254
0.05306 -0.57373 -0.52596 254 254 254
0.05489 -0.57960 -0.51978 254 254 254
0.05670 -0.58545 -0.51361 254 254 254
0.05852 -0.59131 -0.50744 254 254 254
0.06034 -0.59715 -0.50128 254 254 254
0.06215 -0.60299 -0.49513 254 254 254
0.06396 -0.60883 -0.48898 254 254 254
0.06577 -0.61466 -0.48283 254 254 254
0.06758 -0.62049 -0.47669 254 254 254
0.06939 -0.62631 -0.47056 254 254 254
0.07120 -0.63212 -0.46443 254 254 254
0.07300 -0.63793 -0.45831 254 254 254
0.07480 -0.64373 -0.45220 254 254 254
0.07660 -0.64953 -0.44609 254 254 254
0.07840 -0.65532 -0.43998 254 254 254
0.08020 -0.66111 -0.43388 254 254 254
0.08199 -0.66689 -0.42779 254 254 254
0.03492 -0.55020 -0.55310 254 254 254
0.03675 -0.55607 -0.54692 254 254 254
0.03858 -0.56193 -0.54074 254 254 254
0.04040 -0.56778 -0.53457 254 254 254
0.04222 -0.57363 -0.52841 254 254 254
0.04404 -0.57948 -0.52225 254 254 254
0.04586 -0.58531 -0.51609 254 254 254
0.04768 -0.59115 -0.50995 254 254 254
0.04949 -0.59698 -0.50380 254 254 254
0.05130 -0.60280 -0.49767 254 254 254
0.05311 -0.60861 -0.49153 254 254 254
0.05492 -0.61443 -0.48541 254 254 254
0.05673 -0.62023 -0.47929 254 254 254
0.05854 -0.62603 -0.47318 254 254 254
0.06034 -0.63183 -0.46707 254 254 254
0.06215 -0.63762 -0.46096 254 254 254
0.06395 -0.64341 -0.45487 254 254 254
0.06575 -0.64919 -0.44877 254 254 254
0.06755 -0.65496 -0.44269 254 254 254
0.06934 -0.66073 -0.43661 254 254 254
0.02233 -0.54432 -0.56162 254 254 254
0.02416 -0.55018 -0.55545 254 254 254
0.02598 -0.55602 -0.54929 254 254 254
0.02780 -0.56186 -0.54313 254 254 254
0.02963 -0.56770 -0.53698 254 254 254
0.03145 -0.57353 -0.53084 254 254 254
0.03327 -0.57936 -0.52470 254 254 254
0.03508 -0.58518 -0.51856 254 254 254
0.03690 -0.59099 -0.51243 254 254 254
0.03871 -0.59680 -0.50631 254 254 254
0.04052 -0.60260 -0.50019 254 254 254
0.04234 -0.60840 -0.49408 254 254 254
0.04414 -0.61419 -0.48797 254 254 254
0.04595 -0.61998 -0.48187 254 254 254
0.04776 -0.62576 -0.47577 254 254 254
0.04956 -0.63154 -0.46968 254 254 254
0.05136 -0.63731 -0.46360 254 254 254
0.05316 -0.64308 -0.45752 254 254 254
0.05496 -0.64884 -0.45144 254 254 254
0.05676 -0.65460 -0.44538 254 254 254
0.05856 -0.66035 -0.43931 254 254 254
0.00797 -0.53264 -0.57626 254 254 254
0.00980 -0.53848 -0.57010 254 254 254
0.01163 -0.54432 -0.56394 254 254 254
0.01346 -0.55015 -0.55779 254 254 254
0.01528 -0.55598 -0.55165 254 254 254
0.01710 -0.56180 -0.54551 254 254 254
0.01892 -0.56762 -0.53938 254 254 254
0.02074 -0.57343 -0.53325 254 254 254
0.02256 -0.57924 -0.52713 254 254 254
0.02438 -0.58504 -0.52101 254 254 254
0.02619 -0.59083 -0.51490 254 254 254
0.02800 -0.59662 -0.50879 254 254 254
0.02982 -0.60241 -0.50269 254 254 254
0.03163 -0.60819 -0.49660 254 254 254
0.03343 -0.61396 -0.49051 254 254 254
0.03524 -0.61973 -0.48443 254 254 254
0.03704 -0.62550 -0.47835 254 254 254
0.03885 -0.63126 -0.47228 254 254 254
0.04065 -0.63701 -0.46621 254 254 254
0.04245 -0.64276 -0.46015 254 254 254
0.04425 -0.64850 -0.45410 254 254 254
0.04604 -0.65424 -0.44805 254 254 254
-0.00449 -0.52684 -0.58467 254 254 254
-0.00266 -0.53267 -0.57853 254 254 254
-0.00083 -0.53849 -0.57238 254 254 254
0.00100 -0.54431 -0.56625 254 254 254
0.00282 -0.55013 -0.56012 254 254 254
0.00465 -0.55594 -0.55399 254 254 254
0.00647 -0.56174 -0.54787 254 254 254
0.00829 -0.56754 -0.54176 254 254 254
0.01011 -0.57333 -0.53565 254 254 254
0.01193 -0.57912 -0.52954 254 254 254
0.01374 -0.58490 -0.52345 254 254 254
0.01555 -0.59068 -0.51735 254 254 254
0.01737 -0.59645 -0.51127 254 254 254
0.01918 -0.60222 -0.50518 254 254 254
0.02098 -0.60798 -0.49911 254 254 254
0.02279 -0.61373 -0.49304 254 254 254
0.02460 -0.61949 -0.48697 254 254 254
0.02640 -0.62523 -0.48092 254 254 254
0.02820 -0.63097 -0.47486 254 254 254
0.03000 -0.63671 -0.46881 254 254 254
0.03180 -0.64244 -0.46277 254 254 254
0.03360 -0.64816 -0.45673 254 254 254
-0.01871 -0.51525 -0.59918 254 254 254
-0.01688 -0.52107 -0.59304 254 254 254
-0.01505 -0.52689 -0.58691 254 254 254
-0.01322 -0.53270 -0.58078 254 254 254
-0.01139 -0.53851 -0.57465 254 254 254
-0.00956 -0.54431 -0.56854 254 254 254
-0.00774 -0.55010 -0.56242 254 254 254
-0.00592 -0.55589 -0.55632 254 254 254
-0.00410 -0.56168 -0.55021 254 254 254
-0.00228 -0.56746 -0.54412 254 254 254
-0.00046 -0.57323 -0.53803 254 254 254
0.00136 -0.57900 -0.53194 254 254 254
0.00317 -0.58476 -0.52586 254 254 254
0.00498 -0.59052 -0.51979 254 254 254
0.00679 -0.59628 -0.51372 254 254 254
0.00860 -0.60203 -0.50766 254 254 254
0.01041 -0.60777 -0.50160 254 254 254
0.01222 -0.61351 -0.49555 254 254 254
0.01402 -0.61924 -0.48950 254 254 254
0.01582 -0.62497 -0.48346 254 254 254
0.01763 -0.63069 -0.47743 254 254 254
0.01943 -0.63641 -0.47140 254 254 254
0.02122 -0.64212 -0.46537 254 254 254
0.02302 -0.64783 -0.45935 254 254 254
-0.03103 -0.50953 -0.60749 254 254 254
-0.02920 -0.51534 -0.60137 254 254 254
-0.02737 -0.52114 -0.59524 254 254 254
-0.02554 -0.52694 -0.58913 254 254 254
-0.02371 -0.53273 -0.58302 254 254 254
-0.02188 -0.53852 -0.57691 254 254 254
-0.02006 -0.54430 -0.57081 254 254 254
-0.01823 -0.55008 -0.56472 254 254 254
-0.01641 -0.55585 -0.55863 254 254 254
-0.01459 -0.56162 -0.55255 254 254 254
-0.01277 -0.56738 -0.54647 254 254 254
-0.01096 -0.57313 -0.54040 254 254 254
-0.00914 -0.57888 -0.53433 254 254 254
-0.00733 -0.58463 -0.52827 254 254 254
-0.00552 -0.59037 -0.52221 254 254 254
-0.00371 -0.59611 -0.51616 254 254 254
-0.00190 -0.60184 -0.51012 254 254 254
-0.00009 -0.60756 -0.50408 254 254 254
0.00171 -0.61328 -0.49804 254 254 254
0.00351 -0.61899 -0.49202 254 254 254
0.00532 -0.62470 -0.48599 254 254 254
0.00712 -0.63041 -0.47998 254 254 254
0.00891 -0.63611 -0.47396 254 254 254
0.01071 -0.64180 -0.46796 254 254 254
-0.04512 -0.49804 -0.62188 254 254 254
-0.04328 -0.50384 -0.61576 254 254 254
-0.04145 -0.50963 -0.60964 254 254 254
-0.03962 -0.51542 -0.60353 254 254 254
-0.03779 -0.52121 -0.59743 254 254 254
-0.03596 -0.52699 -0.59133 254 254 254
-0.03413 -0.53276 -0.58524 254 254 254
-0.03231 -0.53853 -0.57915 254 254 254
-0.03048 -0.54429 -0.57307 254 254 254
-0.02866 -0.55005 -0.56700 254 254 254
-0.02684 -0.55581 -0.56093 254 254 254
-0.02502 -0.56155 -0.55486 254 254 254
-0.02321 -0.56730 -0.54880 254 254 254
-0.02139 -0.57304 -0.54275 254 254 254
-0.01958 -0.57877 -0.53670 254 254 254
-0.01777 -0.58450 -0.53066 254 254 254
-0.01595 -0.59022 -0.52462 254 254 254
-0.01415 -0.59593 -0.51859 254 254 254
-0.01234 -0.60165 -0.51256 254 254 254
-0.01053 -0.60735 -0.50654 254 254 254
-0.00873 -0.61306 -0.50052 254 254 254
-0.00693 -0.61875 -0.49451 254 254 254
-0.00513 -0.62444 -0.48851 254 254 254
-0.00333 -0.63013 -0.48251 254 254 254
-0.00153 -0.63581 -0.47651 254 254 254
-0.05731 -0.49239 -0.63008 254 254 254
-0.05547 -0.49818 -0.62397 254 254 254
-0.05364 -0.50396 -0.61787 254 254 254
-0.05180 -0.50974 -0.61178 254 254 254
-0.04997 -0.51551 -0.60569 254 254 254
-0.04814 -0.52128 -0.59960 254 254 254
-0.04632 -0.52704 -0.59352 254 254 254
-0.04449 -0.53279 -0.58745 254 254 254
-0.04267 -0.53854 -0.58138 254 254 254
-0.04085 -0.54429 -0.57532 254 254 254
-0.03902 -0.55003 -0.56926 254 254 254
-0.03721 -0.55576 -0.56321 254 254 254
-0.03539 -0.56149 -0.55716 254 254 254
-0.03357 -0.56722 -0.55112 254 254 254
-0.03176 -0.57294 -0.54508 254 254 254
-0.02994 -0.57865 -0.53905 254 254 254
-0.02813 -0.58436 -0.53303 254 254 254
-0.02632 -0.59007 -0.52701 254 254 254
-0.02452 -0.59577 -0.52100 254 254 254
-0.02271 -0.60146 -0.51499 254 254 254
-0.02091 -0.60715 -0.50898 254 254 254
-0.01910 -0.61283 -0.50299 254 254 254
-0.01730 -0.61851 -0.49699 254 254 254
-0.01550 -0.62418 -0.49101 254 254 254
-0.01370 -0.62985 -0.48503 254 254 254
-0.01191 -0.63552 -0.47905 254 254 254
-0.07127 -0.48100 -0.64434 254 254 254
-0.06943 -0.48678 -0.63824 254 254 254
-0.06759 -0.49255 -0.63215 254 254 254
-0.06576 -0.49832 -0.62606 254 254 254
-0.06392 -0.50408 -0.61998 254 254 254
-0.06209 -0.50984 -0.61390 254 254 254
-0.06026 -0.51559 -0.60783 254 254 254
-0.05844 -0.52134 -0.60176 254 254 254
-0.05661 -0.52708 -0.59570 254 254 254
-0.05478 -0.53282 -0.58964 254 254 254
-0.05296 -0.53855 -0.58359 254 254 254
-0.05114 -0.54428 -0.57755 254 254 254
-0.04932 -0.55000 -0.57151 254 254 254
-0.04750 -0.55572 -0.56548 254 254 254
-0.04569 -0.56143 -0.55945 254 254 254
-0.04387 -0.56714 -0.55342 254 254 254
-0.04206 -0.57284 -0.54741 254 254 254
-0.04025 -0.57854 -0.54139 254 254 254
-0.03844 -0.58423 -0.53539 254 254 254
-0.03663 -0.58992 -0.52939 254 254 254
-0.03482 -0.59560 -0.52339 254 254 254
-0.03302 -0.60127 -0.51740 254 254 254
-0.03121 -0.60694 -0.51141 254 254 254
-0.02941 -0.61261 -0.50543 254 254 254
-0.02761 -0.61827 -0.49946 254 254 254
-0.02581 -0.62393 -0.49349 254 254 254
-0.02402 -0.62958 -0.48753 254 254 254
-0.08516 -0.46966 -0.65854 254 254 254
-0.08332 -0.47543 -0.65244 254 254 254
-0.08148 -0.48119 -0.64636 254 254 254
-0.07965 -0.48695 -0.64028 254 254 254
-0.07781 -0.49271 -0.63420 254 254 254
-0.07598 -0.49846 -0.62813 254 254 254
-0.07415 -0.50420 -0.62207 254 254 254
-0.07232 -0.50994 -0.61601 254 254 254
-0.07049 -0.51568 -0.60995 254 254 254
-0.06866 -0.52141 -0.60390 254 254 254
-0.06684 -0.52713 -0.59786 254 254 254
-0.06501 -0.53285 -0.59182 254 254 254
-0.06319 -0.53857 -0.58579 254 254 254
-0.06137 -0.54428 -0.57977 254 254 254
-0.05955 -0.54998 -0.57374 254 254 254
-0.05774 -0.55568 -0.56773 254 254 254
-0.05592 -0.56137 -0.56172 254 254 254
-0.05411 -0.56706 -0.55571 254 254 254
-0.05229 -0.57275 -0.54971 254 254 254
-0.05048 -0.57842 -0.54372 254 254 254
-0.04868 -0.58410 -0.53773 254 254 254
-0.04687 -0.58977 -0.53175 254 254 254
-0.04506 -0.59543 -0.52577 254 254 254
-0.04326 -0.60109 -0.51980 254 254 254
-0.04146 -0.60674 -0.51383 254 254 254
-0.03966 -0.61239 -0.50787 254 254 254
-0.03786 -0.61803 -0.50191 254 254 254
-0.03606 -0.62367 -0.49596 254 254 254
-0.09715 -0.46413 -0.66658 254 254 254
-0.09531 -0.46989 -0.66050 254 254 254
-0.09347 -0.47564 -0.65443 254 254 254
-0.09163 -0.48139 -0.64836 254 254 254
-0.08980 -0.48713 -0.64230 254 254 254
-0.08797 -0.49287 -0.63624 254 254 254
-0.08613 -0.49860 -0.63019 254 254 254
-0.08430 -0.50432 -0.62414 254 254 254
-0.08247 -0.51005 -0.61810 254 254 254
-0.08065 -0.51576 -0.61207 254 254 254
-0.07882 -0.52147 -0.60604 254 254 254
-0.07700 -0.52718 -0.60001 254 254 254
-0.07518 -0.53288 -0.59399 254 254 254
-0.07336 -0.53858 -0.58798 254 254 254
-0.07154 -0.54427 -0.58197 254 254 254
-0.06972 -0.54996 -0.57597 254 254 254
-0.06790 -0.55564 -0.56997 254 254 254
-0.06609 -0.56131 -0.56398 254 254 254
-0.06428 -0.56698 -0.55799 254 254 254
-0.06247 -0.57265 -0.55201 254 254 254
-0.06066 -0.57831 -0.54603 254 254 254
-0.05885 -0.58397 -0.54006 254 254 254
-0.05704 -0.58962 -0.53409 254 254 254
-0.05524 -0.59526 -0.52813 254 254 254
-0.05344 -0.60090 -0.52218 254 254 254
-0.05163 -0.60654 -0.51623 254 254 254
-0.04983 -0.61217 -0.51028 254 254 254
-0.04804 -0.61780 -0.50434 254 254 254
-0.11461 -0.44137 -0.69281 254 254 254
-0.11276 -0.44713 -0.68673 254 254 254
-0.11092 -0.45288 -0.68066 254 254 254
-0.10908 -0.45863 -0.67458 254 254 254
-0.10724 -0.46438 -0.66852 254 254 254
-0.10540 -0.47011 -0.66246 254 254 254
-0.10356 -0.47585 -0.65640 254 254 254
-0.10172 -0.48158 -0.65035 254 254 254
-0.09989 -0.48730 -0.64431 254 254 254
-0.09806 -0.49302 -0.63827 254 254 254
-0.09623 -0.49874 -0.63223 254 254 254
-0.09440 -0.50444 -0.62621 254 254 254
-0.09257 -0.51015 -0.62018 254 254 254
-0.09074 -0.51585 -0.61417 254 254 254
-0.08892 -0.52154 -0.60815 254 254 254
-0.08710 -0.52723 -0.60215 254 254 254
-0.08528 -0.53291 -0.59615 254 254 254
-0.08346 -0.53859 -0.59015 254 254 254
-0.08164 -0.54426 -0.58416 254 254 254
