ply
format ascii 1.0
element face 0
property list uchar int vertex_indices
element vertex 1256
property float x
property float y
property float z
property uchar diffuse_red
property uchar diffuse_green
property uchar diffuse_blue
end_header
0.71697 -0.75809 -0.23656 252 251 251
0.71877 -0.76448 -0.23015 251 251 251
0.72056 -0.77088 -0.22374 251 251 251
0.72235 -0.77727 -0.21734 251 251 251
0.72415 -0.78366 -0.21093 251 251 251
0.72594 -0.79005 -0.20453 252 250 251
0.72773 -0.79645 -0.19812 252 250 251
0.72953 -0.80284 -0.19172 252 250 251
0.73132 -0.80922 -0.18531 252 250 251
0.73311 -0.81561 -0.17891 252 250 251
0.73490 -0.82200 -0.17251 251 250 251
0.73669 -0.82839 -0.16611 251 250 250
0.73849 -0.83477 -0.15971 251 250 251
0.74028 -0.84116 -0.15331 251 250 251
0.74207 -0.84754 -0.14691 251 250 251
0.74386 -0.85393 -0.14051 251 250 251
0.74565 -0.86031 -0.13412 251 250 251
0.74744 -0.86669 -0.12772 251 250 251
0.74923 -0.87307 -0.12133 251 250 251
0.75102 -0.87945 -0.11493 251 250 251
0.75281 -0.88583 -0.10854 251 250 251
0.75460 -0.89221 -0.10215 251 250 251
0.64958 -0.57119 -0.42628 254 254 254
0.65138 -0.57758 -0.41988 254 254 254
0.65317 -0.58397 -0.41348 254 254 254
0.65496 -0.59036 -0.40708 254 254 254
0.65676 -0.59674 -0.40067 254 254 254
0.65855 -0.60313 -0.39428 254 254 254
0.66034 -0.60951 -0.38788 254 254 254
0.66213 -0.61590 -0.38148 254 254 254
0.66393 -0.62228 -0.37508 254 254 254
0.66572 -0.62866 -0.36868 254 254 254
0.66751 -0.63505 -0.36229 254 254 254
0.66930 -0.64143 -0.35589 254 254 254
0.67109 -0.64781 -0.34950 254 254 254
0.67288 -0.65419 -0.34311 254 254 254
0.67467 -0.66056 -0.33671 254 254 254
0.67646 -0.66694 -0.33032 254 254 254
0.67825 -0.67332 -0.32393 254 254 254
0.68004 -0.67969 -0.31754 254 254 254
0.68183 -0.68607 -0.31115 254 254 254
0.68362 -0.69244 -0.30476 253 253 253
0.68541 -0.69882 -0.29837 253 253 253
0.68720 -0.70519 -0.29199 253 253 253
0.68899 -0.71156 -0.28560 253 253 253
0.69078 -0.71793 -0.27922 253 253 253
0.69256 -0.72431 -0.27283 253 252 253
0.69435 -0.73068 -0.26645 252 252 252
0.69614 -0.73704 -0.26006 252 252 252
0.69793 -0.74341 -0.25368 252 252 252
0.69972 -0.74978 -0.24730 252 252 252
0.70150 -0.75615 -0.24092 252 252 252
0.70329 -0.76251 -0.23454 252 252 252
0.70508 -0.76888 -0.22816 251 251 251
0.70686 -0.77524 -0.22178 251 251 251
0.70865 -0.78161 -0.21540 251 251 251
0.71043 -0.78797 -0.20903 251 251 251
0.71222 -0.79433 -0.20265 252 251 251
0.71401 -0.80069 -0.19628 252 251 251
0.71579 -0.80705 -0.18990 251 251 251
0.71758 -0.81341 -0.18353 252 250 251
0.71936 -0.81977 -0.17715 251 250 251
0.72115 -0.82613 -0.17078 251 250 250
0.72293 -0.83249 -0.16441 251 250 250
0.72472 -0.83884 -0.15804 251 250 250
0.72650 -0.84520 -0.15167 251 250 250
0.72828 -0.85155 -0.14530 251 250 250
0.73007 -0.85791 -0.13893 251 250 251
0.73185 -0.86426 -0.13256 251 250 251
0.73363 -0.87062 -0.12620 251 250 251
0.73542 -0.87697 -0.11983 251 250 250
0.73720 -0.88332 -0.11347 251 250 251
0.73898 -0.88967 -0.10710 251 250 251
0.63625 -0.57645 -0.42340 254 254 254
0.63803 -0.58281 -0.41703 254 254 254
0.63982 -0.58917 -0.41066 254 254 254
0.64160 -0.59553 -0.40429 254 254 254
0.64339 -0.60189 -0.39792 254 254 254
0.64517 -0.60824 -0.39154 254 254 254
0.64696 -0.61460 -0.38517 254 254 254
0.64874 -0.62095 -0.37881 254 254 254
0.65053 -0.62731 -0.37244 254 254 254
0.65231 -0.63366 -0.36607 254 254 254
0.65410 -0.64001 -0.35970 254 254 254
0.65588 -0.64636 -0.35334 254 254 254
0.65766 -0.65271 -0.34697 254 254 254
0.65945 -0.65906 -0.34061 254 254 254
0.66123 -0.66541 -0.33425 254 254 254
0.66301 -0.67176 -0.32788 254 254 254
0.66480 -0.67811 -0.32152 254 254 254
0.66658 -0.68446 -0.31516 254 254 254
0.66836 -0.69080 -0.30880 254 254 254
0.67014 -0.69715 -0.30244 253 253 253
0.67192 -0.70349 -0.29608 253 253 253
0.67371 -0.70984 -0.28972 253 253 253
0.67549 -0.71618 -0.28337 253 253 253
0.67727 -0.72252 -0.27701 253 253 253
0.67905 -0.72886 -0.27065 253 253 253
0.68083 -0.73520 -0.26430 252 252 252
0.68261 -0.74154 -0.25795 252 252 252
0.68439 -0.74788 -0.25159 252 252 252
0.68617 -0.75422 -0.24524 252 252 252
0.68795 -0.76056 -0.23889 252 252 252
0.68973 -0.76690 -0.23254 252 252 252
0.69151 -0.77323 -0.22619 251 251 252
0.69329 -0.77957 -0.21984 251 251 251
0.69507 -0.78590 -0.21349 251 251 251
0.69685 -0.79224 -0.20714 251 251 251
0.69863 -0.79857 -0.20079 251 251 251
0.70040 -0.80490 -0.19445 251 251 251
0.70218 -0.81123 -0.18810 252 251 251
0.70396 -0.81756 -0.18176 252 250 251
0.70574 -0.82389 -0.17541 251 250 251
0.70752 -0.83022 -0.16907 251 250 251
0.70929 -0.83655 -0.16273 251 250 251
0.71107 -0.84288 -0.15638 251 250 250
0.71285 -0.84920 -0.15004 251 250 250
0.71462 -0.85553 -0.14370 251 250 250
0.71640 -0.86186 -0.13736 251 250 251
0.71818 -0.86818 -0.13102 251 250 250
0.71995 -0.87450 -0.12469 251 250 251
0.72173 -0.88083 -0.11835 251 250 251
0.72350 -0.88715 -0.11201 251 250 251
0.62481 -0.58800 -0.41421 254 254 254
0.62658 -0.59433 -0.40787 254 254 254
0.62836 -0.60065 -0.40152 254 254 254
0.63014 -0.60698 -0.39518 254 254 254
0.63192 -0.61331 -0.38884 254 254 254
0.63370 -0.61964 -0.38250 254 254 254
0.63547 -0.62596 -0.37616 254 254 254
0.63725 -0.63229 -0.36982 254 254 254
0.63903 -0.63861 -0.36348 254 254 254
0.64080 -0.64493 -0.35714 254 254 254
0.64258 -0.65126 -0.35081 254 254 254
0.64436 -0.65758 -0.34447 254 254 254
0.64613 -0.66390 -0.33813 254 254 254
0.64791 -0.67022 -0.33180 254 254 254
0.64969 -0.67654 -0.32547 254 254 254
0.65146 -0.68286 -0.31913 254 254 254
0.65324 -0.68918 -0.31280 254 254 254
0.65501 -0.69549 -0.30647 254 254 254
0.65679 -0.70181 -0.30014 254 254 254
0.65856 -0.70812 -0.29381 253 253 253
0.66034 -0.71444 -0.28748 253 253 253
0.66211 -0.72075 -0.28115 253 253 253
0.66388 -0.72707 -0.27482 253 253 253
0.66566 -0.73338 -0.26850 253 253 253
0.66743 -0.73969 -0.26217 252 252 253
0.66920 -0.74600 -0.25585 252 252 252
0.67098 -0.75231 -0.24952 252 252 252
0.67275 -0.75862 -0.24320 252 252 252
0.67452 -0.76493 -0.23687 252 252 252
0.67630 -0.77124 -0.23055 252 252 252
0.67807 -0.77755 -0.22423 252 251 251
0.67984 -0.78385 -0.21791 251 251 251
0.68161 -0.79016 -0.21159 251 251 251
0.68338 -0.79646 -0.20527 251 251 251
0.68515 -0.80277 -0.19895 251 251 251
0.68693 -0.80907 -0.19263 252 251 251
0.68870 -0.81537 -0.18632 252 250 251
0.69047 -0.82168 -0.18000 252 250 251
0.69224 -0.82798 -0.17369 251 250 251
0.69401 -0.83428 -0.16737 251 250 251
0.69578 -0.84058 -0.16106 251 250 250
0.69755 -0.84688 -0.15474 251 250 250
0.69932 -0.85317 -0.14843 251 250 250
0.70109 -0.85947 -0.14212 251 250 251
0.70286 -0.86577 -0.13581 251 250 251
0.70463 -0.87206 -0.12950 251 250 251
0.70639 -0.87836 -0.12319 251 250 251
0.61170 -0.59313 -0.41141 254 254 254
0.61347 -0.59943 -0.40510 254 254 254
0.61524 -0.60573 -0.39878 254 254 254
0.61701 -0.61203 -0.39247 254 254 254
0.61878 -0.61833 -0.38616 254 254 254
0.62055 -0.62463 -0.37985 254 254 254
0.62232 -0.63092 -0.37353 254 254 254
0.62409 -0.63722 -0.36722 254 254 254
0.62586 -0.64352 -0.36091 254 254 254
0.62763 -0.64981 -0.35460 254 254 254
0.62940 -0.65610 -0.34830 254 254 254
0.63117 -0.66240 -0.34199 254 254 254
0.63294 -0.66869 -0.33568 254 254 254
0.63471 -0.67498 -0.32938 254 254 254
0.63648 -0.68127 -0.32307 254 254 254
0.63825 -0.68756 -0.31677 254 254 254
0.64001 -0.69385 -0.31046 254 254 254
0.64178 -0.70014 -0.30416 254 254 254
0.64355 -0.70643 -0.29786 254 254 254
0.64532 -0.71272 -0.29156 254 254 254
0.64708 -0.71900 -0.28526 253 253 253
0.64885 -0.72529 -0.27896 253 253 253
0.65062 -0.73157 -0.27266 253 253 253
0.65238 -0.73786 -0.26636 253 253 253
0.65415 -0.74414 -0.26006 253 252 253
0.65592 -0.75042 -0.25376 252 252 252
0.65768 -0.75670 -0.24747 252 252 252
0.65945 -0.76298 -0.24117 252 252 252
0.66121 -0.76926 -0.23488 252 252 252
0.66298 -0.77554 -0.22858 252 252 252
0.66475 -0.78182 -0.22229 252 252 252
0.66651 -0.78810 -0.21600 251 251 251
0.66827 -0.79438 -0.20971 251 251 251
0.67004 -0.80065 -0.20342 251 251 251
0.67180 -0.80693 -0.19713 251 251 251
0.67357 -0.81320 -0.19084 251 251 251
0.67533 -0.81948 -0.18455 252 251 251
0.67710 -0.82575 -0.17826 251 250 251
0.67886 -0.83202 -0.17197 251 250 251
0.68062 -0.83830 -0.16569 251 250 251
0.68238 -0.84457 -0.15940 251 250 250
0.68415 -0.85084 -0.15312 251 250 251
0.68591 -0.85711 -0.14683 251 250 251
0.68767 -0.86338 -0.14055 251 250 250
0.68943 -0.86964 -0.13427 251 250 251
0.69120 -0.87591 -0.12799 251 250 251
0.60047 -0.60449 -0.40236 254 254 254
0.60224 -0.61077 -0.39607 254 254 254
0.60400 -0.61704 -0.38978 254 254 254
0.60576 -0.62331 -0.38350 254 254 254
0.61987 -0.67344 -0.33325 254 253 254
0.62163 -0.67970 -0.32697 254 254 254
0.62339 -0.68596 -0.32070 254 254 254
0.62515 -0.69223 -0.31442 254 254 254
0.62691 -0.69849 -0.30815 254 254 254
0.62867 -0.70475 -0.30187 254 254 254
0.63043 -0.71101 -0.29560 254 254 254
0.63219 -0.71727 -0.28932 254 254 254
0.63395 -0.72352 -0.28305 253 253 253
0.63571 -0.72978 -0.27678 253 253 253
0.63747 -0.73604 -0.27051 253 253 253
0.63923 -0.74229 -0.26424 253 253 253
0.64099 -0.74855 -0.25797 253 253 253
0.64275 -0.75480 -0.25170 252 252 252
0.64451 -0.76105 -0.24543 252 252 252
0.64627 -0.76731 -0.23917 252 252 252
0.64803 -0.77356 -0.23290 252 252 252
0.64978 -0.77981 -0.22664 252 252 252
0.65154 -0.78606 -0.22037 252 252 252
0.65330 -0.79231 -0.21411 251 251 252
0.65506 -0.79856 -0.20784 251 251 251
0.65681 -0.80481 -0.20158 251 251 251
0.65857 -0.81105 -0.19532 251 251 251
0.66033 -0.81730 -0.18906 252 251 251
0.66209 -0.82355 -0.18280 251 251 251
0.66384 -0.82979 -0.17654 251 250 251
0.66560 -0.83604 -0.17028 252 250 251
0.66735 -0.84228 -0.16402 251 250 251
0.66911 -0.84852 -0.15776 251 250 251
0.67087 -0.85476 -0.15151 251 250 251
0.67262 -0.86101 -0.14525 251 250 251
0.67438 -0.86725 -0.13900 251 250 251
0.58759 -0.60951 -0.39964 254 254 254
0.58935 -0.61575 -0.39338 254 254 254
0.59111 -0.62200 -0.38712 254 254 254
0.60866 -0.68438 -0.32459 253 254 254
0.61042 -0.69061 -0.31835 254 254 254
0.61217 -0.69685 -0.31210 254 254 254
0.61392 -0.70308 -0.30585 254 254 254
0.61568 -0.70931 -0.29960 254 254 254
0.61743 -0.71554 -0.29336 254 254 254
0.61918 -0.72177 -0.28711 254 254 254
0.62094 -0.72800 -0.28087 253 253 253
0.62269 -0.73423 -0.27462 253 253 253
0.62444 -0.74046 -0.26838 253 253 253
0.62619 -0.74669 -0.26214 253 253 253
0.62795 -0.75292 -0.25590 253 253 253
0.62970 -0.75914 -0.24966 252 252 253
0.63145 -0.76537 -0.24342 252 252 252
0.63320 -0.77159 -0.23718 252 252 252
0.63495 -0.77781 -0.23094 252 252 252
0.63671 -0.78404 -0.22470 252 252 252
0.63846 -0.79026 -0.21847 252 252 252
0.64021 -0.79648 -0.21223 252 251 251
0.64196 -0.80270 -0.20600 251 251 251
0.64371 -0.80892 -0.19976 251 251 251
0.64546 -0.81514 -0.19353 251 251 251
0.64721 -0.82136 -0.18729 251 251 251
0.64896 -0.82758 -0.18106 251 251 251
0.65071 -0.83380 -0.17483 252 251 251
0.65246 -0.84001 -0.16860 252 250 251
0.65421 -0.84623 -0.16237 251 250 251
0.65595 -0.85244 -0.15614 251 250 251
0.65770 -0.85866 -0.14991 251 250 251
0.65945 -0.86487 -0.14368 251 250 251
0.57483 -0.61448 -0.39694 254 254 254
0.57658 -0.62070 -0.39071 254 254 254
0.57833 -0.62691 -0.38448 254 254 254
0.59406 -0.68281 -0.32846 254 254 253
0.59581 -0.68902 -0.32223 254 254 254
0.59756 -0.69522 -0.31601 254 254 254
0.59930 -0.70143 -0.30979 254 254 254
0.60105 -0.70763 -0.30357 254 254 254
0.60280 -0.71384 -0.29736 254 254 254
0.60454 -0.72004 -0.29114 254 254 254
0.60629 -0.72624 -0.28492 254 254 254
0.60804 -0.73245 -0.27870 254 254 254
0.60978 -0.73865 -0.27249 253 253 253
0.61153 -0.74485 -0.26627 253 253 253
0.61327 -0.75105 -0.26006 253 253 253
0.61502 -0.75725 -0.25385 253 253 253
0.61676 -0.76344 -0.24763 253 253 253
0.61851 -0.76964 -0.24142 253 252 252
0.62025 -0.77584 -0.23521 252 252 252
0.62200 -0.78203 -0.22900 252 252 252
0.62374 -0.78823 -0.22279 252 252 252
0.62549 -0.79442 -0.21658 252 252 252
0.62723 -0.80062 -0.21037 252 252 252
0.62897 -0.80681 -0.20416 251 251 251
0.63072 -0.81300 -0.19796 251 251 251
0.63246 -0.81919 -0.19175 251 251 251
0.63420 -0.82538 -0.18555 251 251 251
0.63595 -0.83157 -0.17934 251 251 251
0.63769 -0.83776 -0.17314 252 251 251
0.63943 -0.84395 -0.16693 252 251 251
0.64117 -0.85014 -0.16073 252 250 251
0.64291 -0.85633 -0.15453 251 250 251
0.56217 -0.61941 -0.39427 254 254 254
0.56391 -0.62560 -0.38807 254 254 254
0.56566 -0.63179 -0.38187 254 254 254
0.57959 -0.68125 -0.33228 254 254 254
0.58133 -0.68743 -0.32609 254 254 254
0.58307 -0.69361 -0.31990 254 254 254
0.58481 -0.69979 -0.31370 254 254 254
0.58655 -0.70597 -0.30751 254 254 254
0.58829 -0.71215 -0.30132 254 254 254
0.59003 -0.71832 -0.29513 254 254 254
0.59177 -0.72450 -0.28894 254 254 254
0.59351 -0.73067 -0.28275 254 254 254
0.59525 -0.73685 -0.27656 254 254 254
0.59699 -0.74302 -0.27037 253 253 253
0.59873 -0.74919 -0.26418 253 253 253
0.60047 -0.75537 -0.25800 253 253 253
0.60221 -0.76154 -0.25181 253 253 253
0.60394 -0.76771 -0.24562 253 253 253
0.60568 -0.77388 -0.23944 253 252 253
0.60742 -0.78005 -0.23326 253 252 252
0.60916 -0.78621 -0.22707 252 252 252
0.61089 -0.79238 -0.22089 252 252 252
0.61263 -0.79855 -0.21471 252 252 252
0.61437 -0.80472 -0.20853 252 252 252
0.61610 -0.81088 -0.20235 252 252 252
0.61784 -0.81705 -0.19617 252 251 251
0.61958 -0.82321 -0.18999 251 251 251
0.62131 -0.82937 -0.18381 251 251 251
0.62305 -0.83554 -0.17764 251 251 251
0.62478 -0.84170 -0.17146 251 251 251
0.62652 -0.84786 -0.16528 252 251 251
0.62826 -0.85402 -0.15911 251 250 251
0.55137 -0.63046 -0.38545 254 254 254
0.55310 -0.63661 -0.37928 254 254 254
0.55484 -0.64277 -0.37310 254 254 254
0.56351 -0.67355 -0.34225 254 254 254
0.56525 -0.67971 -0.33608 254 254 254
0.56698 -0.68586 -0.32991 254 254 254
0.56871 -0.69202 -0.32374 254 254 254
0.57045 -0.69817 -0.31758 254 254 254
0.57218 -0.70432 -0.31141 254 254 254
0.57391 -0.71047 -0.30525 254 254 254
0.57565 -0.71662 -0.29908 254 254 254
0.57738 -0.72277 -0.29292 254 254 254
0.57911 -0.72892 -0.28675 254 254 254
0.58084 -0.73506 -0.28059 254 254 254
0.58258 -0.74121 -0.27443 254 254 254
0.58431 -0.74736 -0.26827 254 254 254
0.58604 -0.75350 -0.26211 253 253 254
0.58777 -0.75965 -0.25595 253 253 253
0.58950 -0.76579 -0.24979 253 253 253
0.59123 -0.77193 -0.24363 253 253 253
0.59297 -0.77808 -0.23748 253 253 253
0.59470 -0.78422 -0.23132 253 252 252
0.59643 -0.79036 -0.22516 252 252 252
0.59816 -0.79650 -0.21901 252 252 252
0.59989 -0.80264 -0.21286 252 252 252
0.60162 -0.80878 -0.20670 252 252 252
0.60335 -0.81492 -0.20055 252 252 252
0.60508 -0.82105 -0.19440 252 252 252
0.60681 -0.82719 -0.18825 252 252 252
0.60854 -0.83333 -0.18209 252 251 251
0.61026 -0.83946 -0.17594 251 251 251
0.61199 -0.84560 -0.16980 251 251 251
0.54411 -0.65366 -0.36442 254 254 254
0.54584 -0.65979 -0.35827 254 254 254
0.54757 -0.66592 -0.35213 254 254 254
0.54930 -0.67205 -0.34598 254 254 254
0.55102 -0.67818 -0.33984 254 254 254
0.55275 -0.68431 -0.33370 254 254 254
0.55448 -0.69043 -0.32756 254 254 254
0.55621 -0.69656 -0.32142 254 254 254
0.55793 -0.70268 -0.31528 254 254 254
0.55966 -0.70881 -0.30914 254 254 254
0.56138 -0.71493 -0.30300 254 254 254
0.56311 -0.72105 -0.29687 254 254 254
0.56484 -0.72717 -0.29073 254 254 254
0.56656 -0.73330 -0.28459 254 254 254
0.56829 -0.73942 -0.27846 254 254 254
0.57001 -0.74554 -0.27232 254 254 254
0.57174 -0.75165 -0.26619 254 254 254
0.57346 -0.75777 -0.26006 254 254 254
0.57519 -0.76389 -0.25392 253 253 253
0.58381 -0.79447 -0.22327 253 252 253
0.58553 -0.80058 -0.21714 252 252 252
0.58726 -0.80669 -0.21102 252 252 252
0.58898 -0.81281 -0.20489 252 252 252
0.59070 -0.81892 -0.19877 252 252 252
0.59243 -0.82503 -0.19264 252 252 252
0.59415 -0.83114 -0.18652 252 252 252
0.59587 -0.83725 -0.18039 252 251 251
0.59759 -0.84335 -0.17427 252 252 251
0.53348 -0.66446 -0.35581 254 254 254
0.53520 -0.67056 -0.34969 254 254 254
0.53692 -0.67666 -0.34357 254 254 254
0.53864 -0.68276 -0.33746 254 254 254
0.54037 -0.68886 -0.33134 254 254 254
0.54209 -0.69496 -0.32523 254 254 254
0.54381 -0.70106 -0.31911 254 254 254
0.54553 -0.70716 -0.31300 254 254 254
0.54725 -0.71326 -0.30689 254 254 254
0.54897 -0.71935 -0.30078 254 254 254
0.55068 -0.72545 -0.29467 254 254 254
0.55240 -0.73154 -0.28856 254 254 254
0.55412 -0.73764 -0.28245 254 254 254
0.55584 -0.74373 -0.27634 254 254 254
0.55756 -0.74982 -0.27023 254 254 254
0.55928 -0.75592 -0.26413 254 254 254
0.56100 -0.76201 -0.25802 254 254 254
0.57302 -0.80463 -0.21530 252 252 252
0.57474 -0.81071 -0.20920 252 252 252
0.57645 -0.81680 -0.20310 252 252 252
0.57817 -0.82288 -0.19700 252 252 252
0.57988 -0.82896 -0.19090 252 252 252
0.58160 -0.83505 -0.18480 252 252 252
0.58332 -0.84113 -0.17870 252 252 252
0.52295 -0.67516 -0.34727 254 254 254
0.52466 -0.68123 -0.34118 254 254 254
0.52637 -0.68731 -0.33509 254 254 254
0.52809 -0.69338 -0.32900 254 254 254
0.52980 -0.69945 -0.32292 254 254 254
0.53151 -0.70552 -0.31683 254 254 254
0.53323 -0.71160 -0.31074 254 254 254
0.53494 -0.71767 -0.30466 254 254 254
0.53665 -0.72374 -0.29857 254 254 254
0.53837 -0.72980 -0.29249 254 254 254
0.54008 -0.73587 -0.28641 254 254 254
0.54179 -0.74194 -0.28032 254 254 254
0.54350 -0.74801 -0.27424 254 254 254
0.54522 -0.75407 -0.26816 254 254 254
0.54693 -0.76014 -0.26208 254 254 254
0.54864 -0.76620 -0.25600 254 254 254
0.56061 -0.80864 -0.21346 252 252 253
0.56232 -0.81470 -0.20739 252 252 252
0.56403 -0.82075 -0.20132 252 252 252
0.56574 -0.82681 -0.19524 252 252 252
0.56745 -0.83287 -0.18917 252 252 251
0.49371 -0.61920 -0.40554 254 254 254
0.51079 -0.67972 -0.34487 254 254 254
0.51250 -0.68576 -0.33881 254 254 254
0.51421 -0.69181 -0.33275 254 254 254
0.51592 -0.69786 -0.32669 254 254 254
0.51762 -0.70390 -0.32063 254 254 254
0.51933 -0.70995 -0.31456 254 254 254
0.52104 -0.71599 -0.30851 254 254 254
0.52274 -0.72204 -0.30245 254 254 254
0.52445 -0.72808 -0.29639 254 254 254
0.52615 -0.73412 -0.29033 254 254 254
0.52786 -0.74017 -0.28427 254 254 254
0.52957 -0.74621 -0.27822 254 254 254
0.53127 -0.75225 -0.27216 254 254 254
0.53298 -0.75829 -0.26611 254 254 254
0.53468 -0.76433 -0.26005 254 254 254
0.53639 -0.77036 -0.25400 254 253 252
0.54661 -0.80658 -0.21770 253 253 253
0.54831 -0.81261 -0.21165 253 253 253
0.55002 -0.81865 -0.20560 252 252 252
0.55172 -0.82468 -0.19955 252 252 252
0.48173 -0.62398 -0.40290 254 254 254
0.48343 -0.63001 -0.39686 254 254 254
0.50045 -0.69026 -0.33646 254 254 254
0.50215 -0.69628 -0.33042 254 254 254
0.50385 -0.70230 -0.32439 254 254 254
0.50555 -0.70832 -0.31835 254 254 254
0.50725 -0.71434 -0.31232 254 254 254
0.50895 -0.72036 -0.30629 254 254 254
0.51065 -0.72637 -0.30025 254 254 254
0.51235 -0.73239 -0.29422 254 254 254
0.51405 -0.73841 -0.28819 254 254 254
0.51575 -0.74442 -0.28216 254 254 254
0.51745 -0.75044 -0.27613 254 254 254
0.51914 -0.75645 -0.27010 254 254 254
0.52084 -0.76246 -0.26407 254 254 253
0.52254 -0.76848 -0.25804 254 253 249
0.52424 -0.77449 -0.25202 254 253 249
0.53273 -0.80454 -0.22189 253 253 253
0.53442 -0.81055 -0.21587 253 253 253
0.53612 -0.81655 -0.20985 253 253 253
0.53782 -0.82256 -0.20382 253 253 253
0.46985 -0.62872 -0.40029 254 254 254
0.47154 -0.63472 -0.39427 254 254 254
0.47324 -0.64072 -0.38825 254 254 254
0.49019 -0.70071 -0.32812 254 254 254
0.49188 -0.70670 -0.32211 254 254 254
0.49358 -0.71269 -0.31610 254 254 254
0.49527 -0.71869 -0.31009 254 254 254
0.49696 -0.72468 -0.30409 254 254 254
0.49866 -0.73067 -0.29808 254 254 254
0.50035 -0.73666 -0.29207 254 254 254
0.50204 -0.74265 -0.28607 254 254 254
0.50374 -0.74864 -0.28006 254 254 254
0.50543 -0.75463 -0.27406 253 253 254
0.50712 -0.76062 -0.26806 253 252 253
0.50881 -0.76661 -0.26205 253 252 250
0.51050 -0.77259 -0.25605 254 252 248
0.51220 -0.77858 -0.25005 254 254 251
0.51389 -0.78456 -0.24405 254 254 253
0.51558 -0.79055 -0.23805 254 254 253
0.51727 -0.79653 -0.23205 254 254 254
0.51896 -0.80252 -0.22605 254 253 254
0.52065 -0.80850 -0.22005 253 253 253
0.52234 -0.81448 -0.21406 253 253 253
0.52403 -0.82046 -0.20806 253 253 253
0.45807 -0.63342 -0.39769 254 254 254
0.45976 -0.63940 -0.39170 254 254 254
0.46145 -0.64537 -0.38571 254 254 254
0.46314 -0.65135 -0.37972 254 254 254
0.46483 -0.65732 -0.37373 254 254 254
0.48002 -0.71106 -0.31985 254 254 254
0.48171 -0.71703 -0.31387 254 254 254
0.49689 -0.77071 -0.26005 253 253 252
0.49857 -0.77667 -0.25407 254 254 252
0.50026 -0.78263 -0.24810 254 254 254
0.50194 -0.78859 -0.24212 254 254 254
0.50363 -0.79455 -0.23615 254 254 254
0.50531 -0.80051 -0.23018 254 254 254
0.50699 -0.80647 -0.22420 254 254 254
0.50868 -0.81243 -0.21823 254 253 253
0.44808 -0.64403 -0.38916 254 254 254
0.44976 -0.64998 -0.38319 254 254 254
0.45144 -0.65593 -0.37722 254 254 254
0.45313 -0.66188 -0.37126 254 254 254
0.45481 -0.66783 -0.36530 254 254 254
0.48506 -0.77478 -0.25807 254 254 254
0.48674 -0.78072 -0.25212 254 254 254
0.48842 -0.78665 -0.24617 254 254 254
0.49010 -0.79259 -0.24022 254 254 254
0.49177 -0.79852 -0.23427 254 254 254
0.49345 -0.80445 -0.22832 254 254 254
0.49513 -0.81039 -0.22237 254 254 254
0.43649 -0.64863 -0.38663 254 254 254
0.43817 -0.65455 -0.38069 254 254 254
0.43985 -0.66047 -0.37475 254 254 254
0.44152 -0.66640 -0.36881 254 254 254
0.44320 -0.67232 -0.36287 254 254 254
0.44487 -0.67824 -0.35694 254 254 254
0.47166 -0.77291 -0.26203 254 254 254
0.47333 -0.77882 -0.25610 254 254 254
0.47501 -0.78473 -0.25017 254 254 254
0.47668 -0.79064 -0.24425 254 254 254
0.47835 -0.79655 -0.23832 254 254 254
0.48002 -0.80246 -0.23240 254 254 254
0.42501 -0.65318 -0.38413 254 254 254
0.42668 -0.65908 -0.37821 254 254 254
0.42835 -0.66498 -0.37230 254 254 254
0.43002 -0.67088 -0.36638 254 254 254
0.43169 -0.67678 -0.36047 254 254 254
0.43336 -0.68267 -0.35456 254 254 254
0.43502 -0.68857 -0.34865 254 254 254
0.45837 -0.77105 -0.26595 254 254 254
0.46004 -0.77694 -0.26005 254 254 254
0.46171 -0.78282 -0.25415 254 254 254
0.46337 -0.78871 -0.24825 254 254 254
0.46504 -0.79459 -0.24235 254 254 254
0.41528 -0.66358 -0.37575 254 254 254
0.41694 -0.66945 -0.36986 254 254 254
0.41861 -0.67532 -0.36398 254 254 254
0.42027 -0.68120 -0.35809 254 254 254
0.42193 -0.68707 -0.35220 254 254 254
0.42360 -0.69294 -0.34631 254 254 254
0.42526 -0.69881 -0.34043 254 254 254
0.44520 -0.76921 -0.26984 254 254 254
0.44686 -0.77507 -0.26397 254 254 254
0.44852 -0.78093 -0.25809 254 254 254
0.45018 -0.78679 -0.25221 254 254 254
0.45184 -0.79265 -0.24634 254 254 254
0.40398 -0.66803 -0.37332 254 254 254
0.40564 -0.67388 -0.36745 254 254 254
0.40729 -0.67973 -0.36159 254 254 254
0.40895 -0.68558 -0.35572 254 254 254
0.41061 -0.69142 -0.34986 254 254 254
0.41226 -0.69727 -0.34400 254 254 254
0.41392 -0.70312 -0.33814 254 254 254
0.41558 -0.70896 -0.33228 254 254 254
0.41723 -0.71481 -0.32642 254 254 254
0.43213 -0.76738 -0.27370 254 254 254
0.43378 -0.77322 -0.26785 254 254 254
0.43544 -0.77906 -0.26200 254 254 254
0.43709 -0.78489 -0.25615 254 254 254
0.39442 -0.67827 -0.36506 254 254 254
0.39607 -0.68410 -0.35922 254 254 254
0.39772 -0.68992 -0.35338 254 254 254
0.39937 -0.69574 -0.34754 254 254 254
0.40102 -0.70157 -0.34171 254 254 254
0.40267 -0.70739 -0.33587 254 254 254
0.40432 -0.71321 -0.33003 254 254 254
0.40597 -0.71903 -0.32420 254 254 254
0.40762 -0.72485 -0.31836 254 254 254
0.41752 -0.75975 -0.28336 254 254 254
0.41917 -0.76557 -0.27753 254 254 254
0.42081 -0.77138 -0.27170 254 254 254
0.42246 -0.77720 -0.26588 254 254 254
0.42411 -0.78301 -0.26005 254 254 254
0.38330 -0.68263 -0.36269 254 254 254
0.38495 -0.68843 -0.35687 254 254 254
0.38659 -0.69423 -0.35106 254 254 254
0.38823 -0.70003 -0.34524 254 254 254
0.38988 -0.70583 -0.33943 254 254 254
0.39152 -0.71162 -0.33362 254 254 254
0.39317 -0.71742 -0.32781 254 254 254
0.39481 -0.72322 -0.32199 254 254 254
0.39645 -0.72901 -0.31618 254 254 254
0.39810 -0.73481 -0.31037 254 254 254
0.39974 -0.74060 -0.30456 254 254 254
0.40138 -0.74639 -0.29875 254 254 254
0.40302 -0.75219 -0.29295 254 254 254
0.40467 -0.75798 -0.28714 254 254 254
0.40631 -0.76377 -0.28133 254 254 254
0.40795 -0.76956 -0.27553 254 254 254
0.40959 -0.77535 -0.26972 254 254 254
0.37391 -0.69273 -0.35454 254 254 254
0.37555 -0.69850 -0.34875 254 254 254
0.37719 -0.70428 -0.34296 254 254 254
0.37883 -0.71005 -0.33717 254 254 254
0.38046 -0.71583 -0.33139 254 254 254
0.38210 -0.72160 -0.32560 254 254 254
0.38374 -0.72737 -0.31981 254 254 254
0.38538 -0.73314 -0.31402 254 254 254
0.38701 -0.73891 -0.30824 254 254 254
0.38865 -0.74468 -0.30245 254 254 254
0.39029 -0.75045 -0.29667 254 254 254
0.39192 -0.75622 -0.29088 254 254 254
0.39356 -0.76199 -0.28510 254 254 254
0.39519 -0.76775 -0.27932 254 254 254
0.39683 -0.77352 -0.27353 254 254 254
0.36297 -0.69699 -0.35223 254 254 254
0.36460 -0.70274 -0.34647 254 254 254
0.36623 -0.70849 -0.34070 254 254 254
0.36786 -0.71424 -0.33494 254 254 254
0.36949 -0.71999 -0.32917 254 254 254
0.37113 -0.72574 -0.32341 254 254 254
0.37276 -0.73149 -0.31764 254 254 254
0.37439 -0.73724 -0.31188 254 254 254
0.37602 -0.74298 -0.30612 254 254 254
0.37765 -0.74873 -0.30036 254 254 254
0.37928 -0.75447 -0.29460 254 254 254
0.38091 -0.76022 -0.28884 254 254 254
0.38254 -0.76596 -0.28308 254 254 254
0.38417 -0.77171 -0.27732 254 254 254
0.35374 -0.70695 -0.34420 254 254 254
0.35536 -0.71267 -0.33846 254 254 254
0.35699 -0.71840 -0.33272 254 254 254
0.35862 -0.72412 -0.32698 254 254 254
0.36024 -0.72985 -0.32123 254 254 254
0.36187 -0.73557 -0.31550 254 254 254
0.36349 -0.74130 -0.30976 254 254 254
0.36512 -0.74702 -0.30402 254 254 254
0.36674 -0.75274 -0.29828 254 254 254
0.36836 -0.75846 -0.29254 254 254 254
0.36999 -0.76418 -0.28681 254 254 254
0.34297 -0.71112 -0.34195 254 254 254
0.34459 -0.71682 -0.33623 254 254 254
0.34621 -0.72252 -0.33051 254 254 254
0.34782 -0.72822 -0.32480 254 254 254
0.34944 -0.73392 -0.31908 254 254 254
0.35106 -0.73963 -0.31336 254 254 254
0.35268 -0.74532 -0.30765 254 254 254
0.35430 -0.75102 -0.30193 254 254 254
0.35592 -0.75672 -0.29622 254 254 254
0.35754 -0.76242 -0.29051 254 254 254
0.33389 -0.72093 -0.33403 254 254 254
0.33551 -0.72661 -0.32833 254 254 254
0.33712 -0.73229 -0.32264 254 254 254
0.33873 -0.73797 -0.31694 254 254 254
0.34035 -0.74364 -0.31125 254 254 254
0.34196 -0.74932 -0.30556 254 254 254
0.34357 -0.75500 -0.29987 254 254 254
0.32329 -0.72501 -0.33184 254 254 254
0.32490 -0.73067 -0.32616 254 254 254
0.32651 -0.73632 -0.32049 254 254 254
0.32811 -0.74198 -0.31482 254 254 254
0.32972 -0.74763 -0.30915 254 254 254
0.33133 -0.75328 -0.30348 254 254 254
0.31437 -0.73469 -0.32402 254 254 254
0.31597 -0.74032 -0.31837 254 254 254
0.31758 -0.74595 -0.31272 254 254 254
0.30393 -0.73868 -0.32189 254 254 254
0.30553 -0.74429 -0.31626 254 254 254
1.54919 -0.35888 -0.46019 254 254 254
1.55321 -0.36735 -0.45151 254 254 254
1.55723 -0.37582 -0.44283 254 254 254
1.51602 -0.35311 -0.47118 254 254 254
1.52002 -0.36153 -0.46255 254 254 254
1.52402 -0.36995 -0.45393 254 254 254
1.52802 -0.37837 -0.44530 254 254 254
1.53202 -0.38679 -0.43668 254 254 254
1.53602 -0.39521 -0.42806 254 254 254
1.48326 -0.34741 -0.48204 254 254 254
1.48724 -0.35578 -0.47346 254 254 254
1.49122 -0.36416 -0.46489 254 254 254
1.49520 -0.37252 -0.45631 254 254 254
1.49918 -0.38089 -0.44774 254 254 254
1.50316 -0.38926 -0.43917 254 254 254
1.50713 -0.39762 -0.43061 254 254 254
1.51111 -0.40598 -0.42204 254 254 254
1.51508 -0.41434 -0.41348 254 254 254
1.51905 -0.42270 -0.40491 254 254 254
1.45091 -0.34179 -0.49276 254 254 254
1.45487 -0.35011 -0.48424 254 254 254
1.45882 -0.35843 -0.47571 254 254 254
1.46278 -0.36675 -0.46719 254 254 254
1.46674 -0.37506 -0.45867 254 254 254
1.47069 -0.38338 -0.45015 254 254 254
1.47465 -0.39169 -0.44164 254 254 254
1.47860 -0.40000 -0.43312 254 254 254
1.48256 -0.40831 -0.42461 254 254 254
1.48651 -0.41662 -0.41610 254 254 254
1.49046 -0.42492 -0.40759 254 254 254
1.49441 -0.43322 -0.39908 254 254 254
1.49836 -0.44153 -0.39058 254 254 254
1.50231 -0.44983 -0.38207 254 254 254
1.50626 -0.45812 -0.37357 254 254 254
1.41500 -0.32795 -0.51184 254 254 254
1.41894 -0.33623 -0.50336 254 254 254
1.42288 -0.34450 -0.49488 254 254 254
1.42682 -0.35277 -0.48641 254 254 254
1.43076 -0.36104 -0.47794 254 254 254
1.43469 -0.36930 -0.46947 254 254 254
1.43863 -0.37757 -0.46100 254 254 254
1.44256 -0.38583 -0.45254 254 254 254
1.44649 -0.39409 -0.44407 254 254 254
1.45043 -0.40235 -0.43561 254 254 254
1.45436 -0.41061 -0.42715 254 254 254
1.45829 -0.41886 -0.41869 254 254 254
1.46222 -0.42712 -0.41023 254 254 254
1.46615 -0.43537 -0.40178 254 254 254
1.47008 -0.44362 -0.39333 254 254 254
1.47401 -0.45187 -0.38487 254 254 254
1.47793 -0.46012 -0.37642 254 254 254
1.48186 -0.46836 -0.36798 254 254 254
1.48578 -0.47660 -0.35953 254 254 254
1.35991 -0.27313 -0.57285 254 254 254
1.36384 -0.28137 -0.56441 254 254 254
1.36776 -0.28960 -0.55598 254 254 254
1.37168 -0.29783 -0.54754 254 254 254
1.37560 -0.30606 -0.53911 254 254 254
1.37952 -0.31429 -0.53068 254 254 254
1.38344 -0.32251 -0.52225 254 254 254
1.38736 -0.33074 -0.51383 254 254 254
1.39128 -0.33896 -0.50540 254 254 254
1.39520 -0.34718 -0.49698 254 254 254
1.39912 -0.35540 -0.48856 254 254 254
1.40303 -0.36362 -0.48014 254 254 254
1.40695 -0.37183 -0.47172 254 254 254
1.41086 -0.38004 -0.46330 254 254 254
1.41477 -0.38826 -0.45489 254 254 254
1.41869 -0.39647 -0.44648 254 254 254
1.42260 -0.40467 -0.43807 254 254 254
1.42651 -0.41288 -0.42966 254 254 254
1.43042 -0.42109 -0.42125 254 254 254
1.43433 -0.42929 -0.41284 254 254 254
1.43824 -0.43749 -0.40444 254 254 254
1.44214 -0.44569 -0.39604 254 254 254
1.44605 -0.45389 -0.38764 254 254 254
1.44995 -0.46208 -0.37924 254 254 254
1.45386 -0.47028 -0.37084 254 254 254
1.45776 -0.47847 -0.36245 254 254 254
1.46167 -0.48666 -0.35406 254 254 254
1.46557 -0.49485 -0.34567 254 254 254
1.33276 -0.27623 -0.57446 254 254 254
1.33666 -0.28442 -0.56607 254 254 254
1.34056 -0.29260 -0.55769 254 254 254
1.34446 -0.30078 -0.54930 254 254 254
1.34836 -0.30896 -0.54092 254 254 254
1.35226 -0.31714 -0.53254 254 254 254
1.35616 -0.32531 -0.52417 254 254 254
1.36006 -0.33349 -0.51579 254 254 254
1.36396 -0.34166 -0.50742 254 254 254
1.36785 -0.34983 -0.49904 254 254 254
1.37175 -0.35800 -0.49067 254 254 254
1.37565 -0.36616 -0.48231 254 254 254
1.37954 -0.37433 -0.47394 254 254 254
1.38343 -0.38249 -0.46557 254 254 254
1.38732 -0.39065 -0.45721 254 254 254
1.39122 -0.39881 -0.44885 254 254 254
1.39511 -0.40697 -0.44049 254 254 254
1.39900 -0.41513 -0.43213 254 254 254
1.40289 -0.42328 -0.42378 254 254 254
1.40677 -0.43143 -0.41542 254 254 254
1.41066 -0.43958 -0.40707 254 254 254
1.41455 -0.44773 -0.39872 254 254 254
1.41843 -0.45588 -0.39037 254 254 254
1.42232 -0.46403 -0.38202 254 254 254
1.42620 -0.47217 -0.37368 254 254 254
1.43009 -0.48031 -0.36533 254 254 254
1.43397 -0.48845 -0.35699 254 254 253
1.43785 -0.49659 -0.34865 254 254 252
1.44173 -0.50473 -0.34031 254 254 253
1.44561 -0.51286 -0.33198 254 254 254
1.29428 -0.25489 -0.60106 254 254 253
1.29817 -0.26303 -0.59272 254 254 254
1.30205 -0.27116 -0.58438 254 254 254
1.30593 -0.27930 -0.57604 254 254 254
1.30982 -0.28743 -0.56771 254 254 254
1.31370 -0.29557 -0.55937 254 254 254
1.31758 -0.30370 -0.55104 254 254 254
1.32146 -0.31183 -0.54271 254 254 254
1.32534 -0.31995 -0.53438 254 254 254
1.32921 -0.32808 -0.52606 254 254 254
1.33309 -0.33620 -0.51773 254 254 254
1.33697 -0.34432 -0.50941 254 254 254
1.34084 -0.35244 -0.50109 254 254 254
1.34472 -0.36056 -0.49277 254 254 254
1.34859 -0.36868 -0.48445 254 254 254
1.35247 -0.37679 -0.47613 254 254 254
1.35634 -0.38491 -0.46782 254 254 254
1.36021 -0.39302 -0.45951 254 254 254
1.36408 -0.40113 -0.45120 254 254 254
1.36795 -0.40924 -0.44289 254 254 254
1.37182 -0.41734 -0.43458 254 254 254
1.37569 -0.42545 -0.42627 254 254 254
1.37955 -0.43355 -0.41797 254 254 254
1.38342 -0.44165 -0.40967 254 254 254
1.38729 -0.44975 -0.40137 254 254 254
1.39115 -0.45785 -0.39307 254 254 254
1.39502 -0.46595 -0.38477 254 254 254
1.39888 -0.47404 -0.37648 254 254 254
1.40274 -0.48213 -0.36818 254 254 254
1.40660 -0.49022 -0.35989 254 254 254
1.41046 -0.49831 -0.35160 254 254 254
1.41432 -0.50640 -0.34331 254 254 253
1.41818 -0.51449 -0.33503 254 254 254
1.42204 -0.52257 -0.32674 254 254 254
1.42590 -0.53065 -0.31846 254 254 254
1.26784 -0.25806 -0.60248 254 254 253
1.27171 -0.26615 -0.59419 254 254 254
1.27557 -0.27424 -0.58590 254 254 254
1.27943 -0.28233 -0.57761 254 254 254
1.28329 -0.29041 -0.56933 254 254 254
1.28716 -0.29850 -0.56104 254 254 254
1.29102 -0.30658 -0.55276 254 254 254
1.29487 -0.31466 -0.54448 254 254 254
1.29873 -0.32273 -0.53620 254 254 254
1.30259 -0.33081 -0.52793 254 254 254
1.30645 -0.33888 -0.51965 254 254 254
1.31030 -0.34696 -0.51138 254 254 254
1.31416 -0.35503 -0.50311 254 254 254
1.31801 -0.36310 -0.49484 254 254 254
1.32187 -0.37116 -0.48657 254 254 254
1.32572 -0.37923 -0.47830 254 254 254
1.32957 -0.38729 -0.47004 254 254 254
1.33342 -0.39536 -0.46177 254 254 254
1.33727 -0.40342 -0.45351 254 254 254
1.34112 -0.41148 -0.44525 254 254 254
1.34497 -0.41953 -0.43700 254 254 254
1.34882 -0.42759 -0.42874 254 254 254
1.35266 -0.43564 -0.42049 254 254 254
1.35651 -0.44370 -0.41223 254 254 254
1.36036 -0.45175 -0.40398 254 254 254
1.36420 -0.45979 -0.39574 254 254 254
1.36804 -0.46784 -0.38749 254 254 254
1.37189 -0.47589 -0.37924 254 254 254
1.37573 -0.48393 -0.37100 254 254 254
1.37957 -0.49197 -0.36276 254 254 254
1.38341 -0.50001 -0.35452 254 254 254
1.38725 -0.50805 -0.34628 254 254 254
1.39109 -0.51609 -0.33804 254 254 254
1.39493 -0.52412 -0.32981 254 254 253
1.39876 -0.53216 -0.32157 254 254 251
1.40260 -0.54019 -0.31334 254 254 253
1.40644 -0.54822 -0.30511 254 254 254
1.23019 -0.23707 -0.62861 254 254 252
1.23403 -0.24512 -0.62036 254 254 254
1.23788 -0.25316 -0.61212 254 254 254
1.24172 -0.26120 -0.60388 254 254 254
1.24557 -0.26924 -0.59564 254 254 254
1.24941 -0.27728 -0.58740 254 254 254
1.25325 -0.28532 -0.57916 254 254 254
1.25709 -0.29336 -0.57092 254 254 254
1.26093 -0.30139 -0.56269 254 254 254
1.26477 -0.30942 -0.55446 254 254 254
1.26861 -0.31745 -0.54623 254 254 254
1.27245 -0.32548 -0.53800 254 254 254
1.27629 -0.33351 -0.52977 254 254 254
1.28012 -0.34153 -0.52155 254 254 254
1.28396 -0.34956 -0.51332 254 254 254
1.28779 -0.35758 -0.50510 254 254 254
1.29163 -0.36560 -0.49688 254 254 254
1.29546 -0.37362 -0.48866 254 254 254
1.29929 -0.38164 -0.48044 254 254 254
1.30312 -0.38965 -0.47223 254 254 254
1.30695 -0.39767 -0.46402 254 254 254
1.31078 -0.40568 -0.45580 254 254 254
1.31461 -0.41369 -0.44759 254 254 254
1.31844 -0.42170 -0.43939 254 254 254
1.32227 -0.42970 -0.43118 254 254 254
1.32609 -0.43771 -0.42297 254 254 254
1.32992 -0.44571 -0.41477 254 254 254
1.33375 -0.45372 -0.40657 254 254 254
1.33757 -0.46172 -0.39837 254 254 254
1.34139 -0.46972 -0.39017 254 254 254
1.34522 -0.47771 -0.38198 254 254 254
1.34904 -0.48571 -0.37378 254 254 254
1.35286 -0.49370 -0.36559 254 254 254
1.35668 -0.50169 -0.35740 254 254 254
1.36050 -0.50968 -0.34921 254 254 254
1.36432 -0.51767 -0.34102 254 254 254
1.36814 -0.52566 -0.33283 254 254 254
1.37195 -0.53365 -0.32465 254 254 254
1.37577 -0.54163 -0.31647 254 254 253
1.37958 -0.54961 -0.30829 254 254 253
1.38340 -0.55759 -0.30011 254 254 254
1.38721 -0.56557 -0.29193 254 254 254
1.20061 -0.23232 -0.63804 254 254 254
1.20444 -0.24032 -0.62985 254 254 254
1.20826 -0.24831 -0.62165 254 254 254
1.21209 -0.25631 -0.61345 254 254 254
1.21591 -0.26430 -0.60526 254 254 254
1.21974 -0.27230 -0.59707 254 254 254
1.22356 -0.28029 -0.58888 254 254 254
1.22738 -0.28828 -0.58069 254 254 254
1.23120 -0.29626 -0.57250 254 254 254
1.23502 -0.30425 -0.56432 254 254 254
1.23884 -0.31223 -0.55613 254 254 254
1.24266 -0.32022 -0.54795 254 254 254
1.24648 -0.32820 -0.53977 254 254 254
1.25029 -0.33618 -0.53159 254 254 254
1.25411 -0.34415 -0.52342 254 254 254
1.25793 -0.35213 -0.51524 254 254 254
1.26174 -0.36010 -0.50707 254 254 254
1.26555 -0.36807 -0.49890 254 254 254
1.26937 -0.37605 -0.49073 254 254 254
1.27318 -0.38401 -0.48256 254 254 254
1.27699 -0.39198 -0.47439 254 254 254
1.28080 -0.39995 -0.46623 254 254 254
1.28461 -0.40791 -0.45807 254 254 254
1.28842 -0.41587 -0.44990 254 254 254
1.29223 -0.42384 -0.44174 254 254 254
1.29604 -0.43180 -0.43359 254 254 254
1.29984 -0.43975 -0.42543 254 254 254
1.30365 -0.44771 -0.41728 254 254 254
1.30745 -0.45566 -0.40912 254 254 254
1.31126 -0.46362 -0.40097 254 254 254
1.31506 -0.47157 -0.39282 254 254 254
1.31886 -0.47952 -0.38468 254 254 254
1.32267 -0.48746 -0.37653 254 254 254
1.32647 -0.49541 -0.36838 254 254 254
1.33027 -0.50335 -0.36024 254 254 254
1.33407 -0.51130 -0.35210 254 254 254
1.33787 -0.51924 -0.34396 254 254 254
1.34166 -0.52718 -0.33582 254 254 254
1.34546 -0.53512 -0.32769 254 254 254
1.34926 -0.54305 -0.31955 254 254 254
1.35305 -0.55099 -0.31142 254 254 254
1.35685 -0.55892 -0.30329 254 254 254
1.36064 -0.56685 -0.29516 254 254 254
1.36443 -0.57478 -0.28703 254 254 254
1.36823 -0.58271 -0.27891 254 254 252
1.21702 -0.32295 -0.54966 254 254 254
1.22081 -0.33088 -0.54153 254 254 254
1.22461 -0.33881 -0.53340 254 254 254
1.22841 -0.34674 -0.52527 254 254 254
1.23220 -0.35467 -0.51714 254 254 254
1.23600 -0.36259 -0.50902 254 254 254
1.23979 -0.37052 -0.50089 254 254 254
1.24358 -0.37844 -0.49277 254 254 254
1.24738 -0.38636 -0.48465 254 254 254
1.25117 -0.39429 -0.47653 254 254 254
1.25496 -0.40220 -0.46842 254 254 254
1.25875 -0.41012 -0.46030 254 254 254
1.26254 -0.41804 -0.45219 254 254 254
1.26633 -0.42595 -0.44408 254 254 254
1.27011 -0.43386 -0.43597 254 254 254
1.27390 -0.44177 -0.42786 254 254 254
1.27769 -0.44968 -0.41975 254 254 254
1.28147 -0.45759 -0.41165 254 254 254
1.28526 -0.46549 -0.40354 254 254 254
1.28904 -0.47340 -0.39544 254 254 254
1.29282 -0.48130 -0.38734 254 254 254
1.29660 -0.48920 -0.37924 254 254 254
1.30039 -0.49710 -0.37115 254 254 254
1.30417 -0.50499 -0.36305 254 254 254
1.30795 -0.51289 -0.35496 254 254 254
1.31173 -0.52078 -0.34687 254 254 254
1.31550 -0.52868 -0.33878 254 254 254
1.31928 -0.53657 -0.33069 254 254 254
1.32306 -0.54446 -0.32260 254 254 254
1.32683 -0.55234 -0.31452 254 254 254
1.33061 -0.56023 -0.30644 254 254 254
1.33438 -0.56811 -0.29835 254 254 254
1.33816 -0.57600 -0.29028 254 254 254
1.34193 -0.58388 -0.28220 254 254 254
1.34570 -0.59176 -0.27412 254 254 251
1.34947 -0.59963 -0.26605 254 251 247
1.22565 -0.39656 -0.47865 254 254 254
1.22942 -0.40443 -0.47058 254 254 254
1.23319 -0.41230 -0.46251 254 254 254
1.23696 -0.42017 -0.45445 254 254 254
1.24073 -0.42804 -0.44638 254 254 254
1.24450 -0.43590 -0.43832 254 254 254
1.24826 -0.44377 -0.43026 254 254 254
1.25203 -0.45163 -0.42220 254 254 254
1.25580 -0.45949 -0.41414 254 254 254
1.25956 -0.46735 -0.40609 254 254 254
1.26333 -0.47520 -0.39803 254 254 254
1.26709 -0.48306 -0.38998 254 254 254
1.27085 -0.49091 -0.38193 254 254 254
1.27461 -0.49877 -0.37388 254 254 254
1.27837 -0.50662 -0.36583 254 254 254
1.28213 -0.51446 -0.35779 254 254 254
1.28589 -0.52231 -0.34974 254 254 254
1.28965 -0.53016 -0.34170 254 254 254
1.29341 -0.53800 -0.33366 254 254 254
1.29717 -0.54584 -0.32562 254 254 254
1.30092 -0.55369 -0.31758 254 254 254
1.30468 -0.56153 -0.30955 254 254 254
1.30843 -0.56936 -0.30151 254 254 254
1.31219 -0.57720 -0.29348 254 254 254
1.31594 -0.58503 -0.28545 254 254 254
1.31969 -0.59287 -0.27742 253 254 254
1.32344 -0.60070 -0.26939 254 254 253
1.32720 -0.60853 -0.26136 254 253 250
1.33095 -0.61636 -0.25334 253 251 249
1.20793 -0.41446 -0.46469 254 254 254
1.21168 -0.42228 -0.45668 254 254 254
1.21543 -0.43010 -0.44866 254 254 254
1.21918 -0.43792 -0.44064 254 254 254
1.22293 -0.44574 -0.43263 254 254 254
1.22667 -0.45355 -0.42462 254 254 254
1.23042 -0.46137 -0.41661 254 254 254
1.23417 -0.46918 -0.40860 254 254 254
1.23791 -0.47699 -0.40059 254 254 254
1.24166 -0.48480 -0.39259 254 254 254
1.24540 -0.49261 -0.38458 254 254 254
1.24914 -0.50041 -0.37658 254 254 254
1.25288 -0.50822 -0.36858 254 254 254
1.25662 -0.51602 -0.36058 254 254 254
1.26036 -0.52382 -0.35258 254 254 254
1.26410 -0.53162 -0.34459 254 254 254
1.26784 -0.53942 -0.33659 254 254 254
1.27158 -0.54722 -0.32860 254 254 254
1.27531 -0.55501 -0.32061 254 254 254
1.27905 -0.56281 -0.31262 254 254 254
1.28279 -0.57060 -0.30463 253 254 254
1.28652 -0.57839 -0.29664 253 253 254
1.29026 -0.58618 -0.28866 253 253 254
1.29399 -0.59396 -0.28068 253 253 254
1.29772 -0.60175 -0.27270 253 253 253
1.30145 -0.60953 -0.26472 253 253 253
1.30518 -0.61732 -0.25674 254 253 253
1.30891 -0.62510 -0.24876 254 253 253
1.19043 -0.43214 -0.45091 254 254 254
1.19416 -0.43991 -0.44294 254 254 254
1.19789 -0.44769 -0.43497 254 254 254
1.20161 -0.45546 -0.42701 254 254 254
1.20534 -0.46322 -0.41904 254 254 254
1.20907 -0.47099 -0.41108 254 254 254
1.21279 -0.47876 -0.40312 254 254 254
1.21652 -0.48652 -0.39516 254 254 254
1.22024 -0.49428 -0.38720 254 254 254
1.22396 -0.50204 -0.37925 254 254 254
1.22769 -0.50980 -0.37129 254 254 254
1.23141 -0.51756 -0.36334 254 254 254
1.23513 -0.52532 -0.35539 254 254 254
1.23885 -0.53307 -0.34744 254 254 254
1.24257 -0.54082 -0.33949 254 254 254
1.24629 -0.54857 -0.33154 254 254 254
1.25000 -0.55632 -0.32360 253 254 254
1.25372 -0.56407 -0.31566 253 253 254
1.25744 -0.57182 -0.30771 253 253 254
1.26115 -0.57956 -0.29977 253 253 253
1.26487 -0.58731 -0.29184 253 253 253
1.26858 -0.59505 -0.28390 253 253 253
1.27230 -0.60279 -0.27596 253 253 253
1.27601 -0.61053 -0.26803 253 253 253
1.27972 -0.61826 -0.26010 253 253 253
1.28343 -0.62600 -0.25217 253 253 253
1.28714 -0.63373 -0.24424 253 253 253
1.30568 -0.67238 -0.20462 253 253 253
1.16943 -0.44188 -0.44521 254 254 254
1.17313 -0.44961 -0.43729 254 254 254
1.17684 -0.45734 -0.42937 254 254 254
1.18055 -0.46506 -0.42145 254 254 254
1.18426 -0.47278 -0.41353 254 254 254
1.18796 -0.48050 -0.40562 254 254 254
1.19167 -0.48822 -0.39771 254 254 254
1.19537 -0.49594 -0.38979 254 254 254
1.19908 -0.50365 -0.38188 254 254 254
1.20278 -0.51137 -0.37397 254 254 254
1.20649 -0.51908 -0.36607 254 254 254
1.21019 -0.52679 -0.35816 254 254 254
1.21389 -0.53450 -0.35026 254 254 254
1.21759 -0.54221 -0.34236 254 254 254
1.22129 -0.54991 -0.33445 254 254 254
1.22499 -0.55762 -0.32656 253 254 254
1.22868 -0.56532 -0.31866 253 253 253
1.23238 -0.57302 -0.31076 253 253 253
1.23608 -0.58072 -0.30287 253 253 253
1.23977 -0.58842 -0.29497 253 253 253
1.24347 -0.59612 -0.28708 253 253 253
1.24716 -0.60381 -0.27919 253 253 253
1.25086 -0.61151 -0.27131 253 253 253
1.25455 -0.61920 -0.26342 253 253 253
1.25824 -0.62689 -0.25553 253 253 253
1.26193 -0.63458 -0.24765 253 253 253
1.26563 -0.64227 -0.23977 253 253 254
1.26932 -0.64995 -0.23189 253 253 253
1.28407 -0.68068 -0.20038 250 248 246
1.28775 -0.68836 -0.19251 252 253 248
1.29144 -0.69604 -0.18464 253 253 254
1.29512 -0.70371 -0.17677 253 253 252
1.29881 -0.71139 -0.16890 253 252 251
1.15236 -0.45920 -0.43171 254 254 254
1.15605 -0.46687 -0.42383 254 254 254
1.15973 -0.47455 -0.41596 254 254 254
1.16342 -0.48223 -0.40809 254 254 254
1.16711 -0.48990 -0.40022 254 254 254
1.17079 -0.49757 -0.39236 254 254 254
1.17448 -0.50525 -0.38449 254 254 254
1.17816 -0.51291 -0.37663 254 254 254
1.18185 -0.52058 -0.36876 254 254 254
1.18553 -0.52825 -0.36090 254 254 254
1.18921 -0.53591 -0.35305 254 254 254
1.19290 -0.54358 -0.34519 254 254 254
1.19658 -0.55124 -0.33733 253 254 254
1.20026 -0.55890 -0.32948 253 253 254
1.20394 -0.56656 -0.32163 253 253 253
1.20761 -0.57422 -0.31377 253 253 253
1.21129 -0.58187 -0.30592 253 253 253
1.21497 -0.58953 -0.29808 253 253 253
1.21865 -0.59718 -0.29023 253 253 253
1.22232 -0.60483 -0.28239 253 253 253
1.22600 -0.61248 -0.27454 253 253 253
1.22967 -0.62013 -0.26670 253 253 253
1.23334 -0.62777 -0.25886 253 253 253
1.23702 -0.63542 -0.25102 253 253 253
1.24069 -0.64306 -0.24319 253 252 250
1.24436 -0.65070 -0.23535 253 252 250
1.24803 -0.65834 -0.22752 253 253 252
1.25170 -0.66598 -0.21968 253 253 253
1.25537 -0.67362 -0.21185 252 253 251
1.25904 -0.68126 -0.20402 252 252 249
1.26271 -0.68889 -0.19620 252 252 249
1.26637 -0.69652 -0.18837 253 253 250
1.27004 -0.70416 -0.18055 253 253 252
1.27370 -0.71179 -0.17272 253 252 251
1.27737 -0.71941 -0.16490 252 253 254
1.28103 -0.72704 -0.15708 252 253 252
1.13182 -0.46867 -0.42619 254 254 254
1.13549 -0.47630 -0.41836 254 254 254
1.13916 -0.48393 -0.41053 254 254 254
1.14283 -0.49156 -0.40271 254 254 254
1.14650 -0.49919 -0.39489 254 254 254
1.15016 -0.50682 -0.38707 254 254 254
1.15383 -0.51444 -0.37925 254 254 254
1.15749 -0.52207 -0.37143 254 254 254
1.16116 -0.52969 -0.36361 254 254 254
1.16482 -0.53731 -0.35580 254 254 254
1.16848 -0.54493 -0.34799 254 254 254
1.17215 -0.55255 -0.34018 253 254 254
1.17581 -0.56017 -0.33237 253 253 253
1.17947 -0.56778 -0.32456 253 253 253
1.18313 -0.57539 -0.31675 253 253 253
1.18679 -0.58301 -0.30895 253 253 253
1.19045 -0.59062 -0.30114 253 253 253
1.19410 -0.59823 -0.29334 253 253 253
1.19776 -0.60583 -0.28554 253 253 253
1.20142 -0.61344 -0.27774 253 253 253
1.20507 -0.62104 -0.26995 253 253 253
1.20873 -0.62865 -0.26215 253 253 253
1.21238 -0.63625 -0.25436 252 252 253
1.21604 -0.64385 -0.24656 253 253 252
1.21969 -0.65145 -0.23877 252 251 245
1.22334 -0.65904 -0.23098 252 250 244
1.22699 -0.66664 -0.22320 253 252 251
1.23064 -0.67423 -0.21541 252 253 253
1.23429 -0.68182 -0.20762 252 252 252
1.23794 -0.68941 -0.19984 252 252 252
1.24159 -0.69700 -0.19206 252 252 253
1.24524 -0.70459 -0.18428 252 252 252
1.24889 -0.71218 -0.17650 252 253 252
1.25253 -0.71976 -0.16872 252 252 251
1.25618 -0.72735 -0.16095 252 252 251
1.25982 -0.73493 -0.15317 253 252 250
1.26347 -0.74251 -0.14540 252 253 253
1.11152 -0.47803 -0.42073 254 254 254
1.11517 -0.48562 -0.41295 254 254 254
1.11882 -0.49321 -0.40517 254 254 254
1.12247 -0.50079 -0.39739 254 254 254
1.12612 -0.50837 -0.38961 254 254 254
1.12977 -0.51596 -0.38184 254 254 254
1.13341 -0.52354 -0.37407 254 254 254
1.13706 -0.53112 -0.36630 254 254 254
1.14071 -0.53869 -0.35852 254 254 254
1.14435 -0.54627 -0.35076 253 254 254
1.14799 -0.55384 -0.34299 253 253 254
1.15164 -0.56142 -0.33522 253 253 253
1.15528 -0.56899 -0.32746 253 253 253
1.15892 -0.57656 -0.31970 253 253 253
1.16256 -0.58413 -0.31194 253 253 253
1.16620 -0.59170 -0.30418 253 253 253
1.16984 -0.59926 -0.29642 253 253 253
1.17348 -0.60683 -0.28866 253 253 253
1.17712 -0.61439 -0.28091 253 253 253
1.18076 -0.62195 -0.27315 252 252 253
1.18439 -0.62951 -0.26540 252 252 253
1.18803 -0.63707 -0.25765 252 252 253
1.19166 -0.64462 -0.24990 252 252 252
1.19530 -0.65218 -0.24216 253 253 252
1.19893 -0.65973 -0.23441 252 252 248
1.20257 -0.66728 -0.22667 252 251 245
1.20620 -0.67484 -0.21892 252 252 249
1.20983 -0.68238 -0.21118 252 252 253
1.21346 -0.68993 -0.20344 252 252 252
1.21709 -0.69748 -0.19571 252 252 252
1.22072 -0.70502 -0.18797 252 252 252
1.22435 -0.71257 -0.18023 252 252 252
1.22798 -0.72011 -0.17250 252 252 252
1.23160 -0.72765 -0.16477 252 252 252
1.23523 -0.73519 -0.15704 252 252 251
1.23886 -0.74272 -0.14931 252 252 250
1.24248 -0.75026 -0.14158 252 252 250
1.24611 -0.75779 -0.13386 253 252 252
1.09146 -0.48729 -0.41534 254 254 254
1.09509 -0.49483 -0.40760 254 254 254
1.09872 -0.50237 -0.39987 254 254 254
1.10235 -0.50991 -0.39213 254 254 254
1.10598 -0.51745 -0.38440 254 254 254
1.10961 -0.52499 -0.37667 254 254 254
1.11324 -0.53253 -0.36894 254 254 254
1.11686 -0.54006 -0.36122 254 254 254
1.12049 -0.54759 -0.35349 253 254 254
1.12411 -0.55513 -0.34577 253 253 253
1.12774 -0.56266 -0.33805 253 253 253
1.13136 -0.57018 -0.33033 253 253 253
1.13499 -0.57771 -0.32261 253 253 253
1.13861 -0.58524 -0.31489 253 253 253
1.14223 -0.59276 -0.30717 253 253 253
1.14585 -0.60028 -0.29946 253 253 253
1.14947 -0.60781 -0.29175 253 253 253
1.15309 -0.61533 -0.28404 252 252 253
1.15671 -0.62284 -0.27633 252 252 253
1.16033 -0.63036 -0.26862 252 252 252
1.16395 -0.63788 -0.26091 252 252 252
1.16757 -0.64539 -0.25321 252 252 252
1.17118 -0.65290 -0.24550 252 252 252
1.17480 -0.66041 -0.23780 252 252 252
1.17841 -0.66792 -0.23010 252 252 251
1.18203 -0.67543 -0.22240 252 252 249
