ply
format ascii 1.0
element face 0
property list uchar int vertex_indices
element vertex 1256
property float x
property float y
property float z
property uchar diffuse_red
property uchar diffuse_green
property uchar diffuse_blue
end_header
0.83237 -0.87539 -0.10389 250 245 238
0.83492 -0.88175 -0.09757 250 245 238
0.83746 -0.88811 -0.09124 249 246 239
0.84001 -0.89448 -0.08491 250 246 237
0.84256 -0.90084 -0.07859 250 245 235
0.84511 -0.90721 -0.07226 250 244 233
0.84766 -0.91357 -0.06593 249 242 232
0.85021 -0.91994 -0.05959 249 242 232
0.85276 -0.92631 -0.05326 249 242 231
0.85531 -0.93267 -0.04693 250 244 233
0.68369 -0.54500 -0.43487 252 250 244
0.68620 -0.55128 -0.42863 251 249 244
0.68872 -0.55756 -0.42238 251 248 241
0.69123 -0.56385 -0.41613 251 248 240
0.69375 -0.57013 -0.40989 251 248 243
0.69626 -0.57641 -0.40364 251 248 243
0.69878 -0.58270 -0.39739 251 248 244
0.70129 -0.58898 -0.39114 250 248 244
0.70381 -0.59527 -0.38488 250 247 243
0.70633 -0.60156 -0.37863 250 247 241
0.70884 -0.60785 -0.37238 250 247 239
0.71136 -0.61414 -0.36612 250 246 240
0.71388 -0.62043 -0.35987 250 246 238
0.71640 -0.62672 -0.35361 250 246 240
0.71892 -0.63301 -0.34735 250 247 241
0.72143 -0.63931 -0.34109 251 247 242
0.72395 -0.64560 -0.33484 250 248 244
0.72647 -0.65190 -0.32858 250 248 243
0.72899 -0.65819 -0.32231 250 247 243
0.73151 -0.66449 -0.31605 250 247 243
0.73403 -0.67079 -0.30979 250 247 241
0.73656 -0.67709 -0.30353 250 247 241
0.73908 -0.68339 -0.29726 250 247 241
0.74160 -0.68969 -0.29099 250 247 243
0.74412 -0.69599 -0.28473 250 248 245
0.74664 -0.70229 -0.27846 250 248 245
0.74917 -0.70860 -0.27219 250 247 245
0.75169 -0.71490 -0.26592 250 247 244
0.75421 -0.72121 -0.25965 250 247 241
0.75674 -0.72751 -0.25338 250 246 239
0.75926 -0.73382 -0.24711 250 244 238
0.76179 -0.74013 -0.24084 249 243 236
0.76431 -0.74644 -0.23456 248 243 235
0.76684 -0.75275 -0.22829 249 244 235
0.76937 -0.75906 -0.22201 249 244 235
0.77189 -0.76537 -0.21573 249 243 235
0.77442 -0.77169 -0.20945 250 245 237
0.77695 -0.77800 -0.20318 250 246 236
0.77947 -0.78432 -0.19690 250 247 241
0.78200 -0.79063 -0.19062 250 247 242
0.78453 -0.79695 -0.18433 250 248 246
0.78706 -0.80327 -0.17805 250 248 245
0.78959 -0.80959 -0.17177 250 247 243
0.79212 -0.81591 -0.16548 250 246 241
0.79465 -0.82223 -0.15920 250 244 238
0.79718 -0.82855 -0.15291 249 245 239
0.79971 -0.83487 -0.14662 249 245 238
0.80224 -0.84120 -0.14034 250 245 237
0.80477 -0.84752 -0.13405 250 245 239
0.80730 -0.85385 -0.12776 250 245 241
0.80983 -0.86017 -0.12147 250 246 240
0.81237 -0.86650 -0.11517 249 245 238
0.81490 -0.87283 -0.10888 250 245 237
0.81743 -0.87916 -0.10259 250 245 235
0.81997 -0.88549 -0.09629 250 245 234
0.82250 -0.89182 -0.09000 249 245 236
0.82503 -0.89815 -0.08370 250 245 237
0.82757 -0.90448 -0.07740 250 244 234
0.83010 -0.91082 -0.07110 249 243 231
0.83264 -0.91715 -0.06481 249 242 230
0.83518 -0.92349 -0.05850 250 243 232
0.83771 -0.92982 -0.05220 250 244 234
0.66960 -0.55033 -0.43198 251 249 244
0.67210 -0.55658 -0.42576 251 249 243
0.67461 -0.56283 -0.41954 251 249 243
0.67711 -0.56909 -0.41333 251 249 245
0.67961 -0.57534 -0.40711 251 249 246
0.68211 -0.58159 -0.40089 251 249 245
0.68461 -0.58785 -0.39467 251 248 245
0.68712 -0.59411 -0.38845 250 247 242
0.68962 -0.60036 -0.38223 250 247 242
0.69212 -0.60662 -0.37600 250 246 241
0.69463 -0.61288 -0.36978 250 247 240
0.69713 -0.61914 -0.36356 250 247 243
0.69963 -0.62540 -0.35733 251 247 243
0.70214 -0.63166 -0.35110 250 248 243
0.70464 -0.63792 -0.34488 250 248 244
0.70715 -0.64419 -0.33865 250 248 245
0.70966 -0.65045 -0.33242 250 248 245
0.71216 -0.65672 -0.32619 250 247 242
0.71467 -0.66298 -0.31996 250 247 243
0.71718 -0.66925 -0.31373 250 247 243
0.71968 -0.67552 -0.30749 250 247 244
0.72219 -0.68179 -0.30126 250 248 245
0.72470 -0.68806 -0.29503 250 248 245
0.72721 -0.69433 -0.28879 250 248 246
0.72972 -0.70060 -0.28255 250 248 246
0.73223 -0.70687 -0.27632 250 247 246
0.73474 -0.71315 -0.27008 249 247 245
0.73725 -0.71942 -0.26384 250 246 242
0.73976 -0.72570 -0.25760 250 246 240
0.74227 -0.73197 -0.25136 250 245 238
0.74478 -0.73825 -0.24512 250 245 237
0.74729 -0.74453 -0.23887 249 245 237
0.74980 -0.75081 -0.23263 249 245 238
0.75232 -0.75709 -0.22638 249 245 238
0.75483 -0.76337 -0.22014 249 245 239
0.75734 -0.76965 -0.21389 250 245 238
0.75986 -0.77593 -0.20764 250 246 237
0.76237 -0.78222 -0.20140 250 247 238
0.76488 -0.78850 -0.19515 250 247 243
0.76740 -0.79479 -0.18890 250 248 245
0.76991 -0.80107 -0.18265 250 249 248
0.77243 -0.80736 -0.17639 250 247 243
0.77494 -0.81365 -0.17014 250 246 239
0.77746 -0.81994 -0.16389 249 245 237
0.77998 -0.82623 -0.15763 249 243 234
0.78249 -0.83252 -0.15138 249 245 237
0.78501 -0.83881 -0.14512 250 245 238
0.78753 -0.84511 -0.13886 250 246 237
0.79005 -0.85140 -0.13260 250 246 240
0.79256 -0.85769 -0.12634 250 246 241
0.79508 -0.86399 -0.12008 250 246 240
0.79760 -0.87029 -0.11382 249 245 238
0.80012 -0.87659 -0.10756 250 244 237
0.80264 -0.88288 -0.10129 250 243 234
0.80516 -0.88918 -0.09503 249 243 231
0.80768 -0.89548 -0.08877 249 243 235
0.81020 -0.90179 -0.08250 250 244 238
0.81273 -0.90809 -0.07623 250 244 233
0.81525 -0.91439 -0.06996 250 244 231
0.81777 -0.92070 -0.06370 250 243 230
0.65814 -0.56183 -0.42292 251 249 245
0.66063 -0.56806 -0.41673 251 249 246
0.66312 -0.57428 -0.41055 251 250 247
0.66561 -0.58050 -0.40436 251 249 246
0.66810 -0.58673 -0.39817 251 248 244
0.67058 -0.59295 -0.39198 250 247 244
0.67307 -0.59918 -0.38579 250 247 241
0.67556 -0.60540 -0.37960 250 247 241
0.67805 -0.61163 -0.37340 250 248 244
0.68055 -0.61786 -0.36721 250 248 246
0.68304 -0.62409 -0.36102 250 249 247
0.68553 -0.63032 -0.35482 250 248 246
0.68802 -0.63655 -0.34862 250 248 245
0.69051 -0.64279 -0.34243 250 248 244
0.69300 -0.64902 -0.33623 250 248 243
0.69550 -0.65525 -0.33003 250 248 244
0.69799 -0.66149 -0.32383 250 247 244
0.70048 -0.66773 -0.31763 250 247 245
0.70298 -0.67396 -0.31143 250 248 245
0.70547 -0.68020 -0.30522 250 248 246
0.70797 -0.68644 -0.29902 250 249 248
0.71046 -0.69268 -0.29281 250 248 247
0.71296 -0.69892 -0.28661 250 248 245
0.71545 -0.70516 -0.28040 250 248 244
0.71795 -0.71141 -0.27419 250 246 242
0.72045 -0.71765 -0.26799 249 245 240
0.72294 -0.72389 -0.26178 250 245 239
0.72544 -0.73014 -0.25557 250 245 239
0.72794 -0.73639 -0.24936 250 246 239
0.73044 -0.74263 -0.24314 250 247 239
0.73294 -0.74888 -0.23693 250 246 240
0.73543 -0.75513 -0.23072 250 247 241
0.73793 -0.76138 -0.22450 250 247 241
0.74043 -0.76763 -0.21829 250 246 243
0.74293 -0.77388 -0.21207 250 246 241
0.74543 -0.78014 -0.20585 250 247 241
0.74793 -0.78639 -0.19963 250 247 244
0.75043 -0.79265 -0.19341 250 248 244
0.75294 -0.79890 -0.18719 250 248 244
0.75544 -0.80516 -0.18097 250 247 243
0.75794 -0.81141 -0.17475 250 246 240
0.76044 -0.81767 -0.16853 249 245 236
0.76295 -0.82393 -0.16230 249 245 238
0.76545 -0.83019 -0.15608 249 245 237
0.76795 -0.83645 -0.14985 250 246 239
0.77046 -0.84272 -0.14363 250 246 241
0.77296 -0.84898 -0.13740 250 246 239
0.77547 -0.85524 -0.13117 250 247 239
0.77797 -0.86151 -0.12494 250 247 239
0.78048 -0.86777 -0.11871 250 246 237
0.78298 -0.87404 -0.11248 249 244 236
0.78549 -0.88031 -0.10625 249 243 234
0.78799 -0.88658 -0.10001 249 242 232
0.79050 -0.89285 -0.09378 249 242 232
0.79301 -0.89912 -0.08755 249 243 235
0.79552 -0.90539 -0.08131 250 244 236
0.79802 -0.91166 -0.07507 250 244 233
0.80053 -0.91793 -0.06884 251 245 231
0.64431 -0.56703 -0.42011 252 249 246
0.64679 -0.57323 -0.41395 251 249 245
0.64926 -0.57942 -0.40779 251 248 244
0.65174 -0.58561 -0.40164 250 248 242
0.65422 -0.59181 -0.39548 250 248 241
0.65669 -0.59800 -0.38931 250 247 243
0.65917 -0.60420 -0.38315 250 248 244
0.66164 -0.61040 -0.37699 250 249 246
0.66412 -0.61660 -0.37083 251 249 248
0.66660 -0.62280 -0.36466 251 250 251
0.66908 -0.62900 -0.35850 251 250 250
0.67156 -0.63520 -0.35233 251 249 249
0.67404 -0.64140 -0.34617 250 249 247
0.67651 -0.64760 -0.34000 250 248 244
0.67899 -0.65381 -0.33383 250 247 242
0.68147 -0.66001 -0.32766 250 248 244
0.68395 -0.66622 -0.32149 250 248 246
0.68644 -0.67242 -0.31532 250 248 247
0.68892 -0.67863 -0.30915 250 248 247
0.69140 -0.68484 -0.30297 250 248 246
0.69388 -0.69105 -0.29680 250 248 246
0.69636 -0.69726 -0.29062 250 248 245
0.69884 -0.70347 -0.28445 250 247 242
0.70133 -0.70968 -0.27827 250 247 241
0.70381 -0.71590 -0.27209 249 246 239
0.70629 -0.72211 -0.26591 249 245 237
0.70878 -0.72833 -0.25973 250 245 237
0.71126 -0.73454 -0.25355 250 246 239
0.71375 -0.74076 -0.24737 250 247 240
0.71623 -0.74698 -0.24119 251 247 241
0.71872 -0.75319 -0.23501 251 247 241
0.72120 -0.75941 -0.22882 250 247 242
0.72369 -0.76563 -0.22264 250 247 243
0.72618 -0.77186 -0.21645 250 247 244
0.72866 -0.77808 -0.21026 250 247 244
0.73115 -0.78430 -0.20408 250 248 245
0.73364 -0.79052 -0.19789 250 248 246
0.73612 -0.79675 -0.19170 251 247 242
0.73861 -0.80298 -0.18551 250 246 239
0.74110 -0.80920 -0.17932 250 245 237
0.74359 -0.81543 -0.17312 250 245 238
0.74608 -0.82166 -0.16693 250 246 238
0.74857 -0.82789 -0.16074 250 247 240
0.75106 -0.83412 -0.15454 250 247 238
0.75355 -0.84035 -0.14835 250 247 239
0.75604 -0.84658 -0.14215 250 246 241
0.75853 -0.85281 -0.13595 250 246 239
0.76102 -0.85905 -0.12975 250 246 237
0.76352 -0.86528 -0.12355 250 246 236
0.76601 -0.87152 -0.11735 250 245 234
0.76850 -0.87776 -0.11115 250 244 233
0.77099 -0.88399 -0.10495 249 243 232
0.77349 -0.89023 -0.09875 249 243 231
0.77598 -0.89647 -0.09254 249 244 233
0.77848 -0.90271 -0.08634 250 244 235
0.78097 -0.90895 -0.08013 250 245 236
0.63062 -0.57218 -0.41732 251 248 243
0.63308 -0.57835 -0.41120 251 248 242
0.63554 -0.58451 -0.40507 251 248 242
0.63800 -0.59068 -0.39894 250 247 242
0.64047 -0.59684 -0.39281 250 248 243
0.64293 -0.60301 -0.38668 250 249 245
0.64539 -0.60918 -0.38054 251 249 248
0.64786 -0.61534 -0.37441 251 250 251
0.65032 -0.62151 -0.36828 251 250 251
0.65279 -0.62768 -0.36214 251 250 252
0.65525 -0.63385 -0.35601 251 249 251
0.65772 -0.64003 -0.34987 251 250 251
0.66019 -0.64620 -0.34373 251 250 251
0.66265 -0.65237 -0.33759 250 249 250
0.66512 -0.65855 -0.33145 251 249 247
0.66759 -0.66472 -0.32531 250 249 247
0.67005 -0.67090 -0.31917 250 249 248
0.67252 -0.67708 -0.31303 250 249 248
0.67499 -0.68326 -0.30689 250 249 248
0.67746 -0.68943 -0.30074 250 248 246
0.67993 -0.69561 -0.29460 250 248 244
0.68240 -0.70180 -0.28845 250 247 243
0.68486 -0.70798 -0.28231 250 247 242
0.68733 -0.71416 -0.27616 250 246 240
0.68981 -0.72034 -0.27001 250 246 239
0.69228 -0.72653 -0.26386 250 245 239
0.69475 -0.73271 -0.25771 250 246 239
0.69722 -0.73890 -0.25156 250 247 241
0.69969 -0.74509 -0.24541 250 247 241
0.70216 -0.75128 -0.23925 251 247 241
0.70463 -0.75747 -0.23310 250 247 241
0.70711 -0.76366 -0.22695 250 248 244
0.70958 -0.76985 -0.22079 250 248 246
0.71205 -0.77604 -0.21463 250 248 247
0.71453 -0.78223 -0.20848 250 248 245
0.71700 -0.78842 -0.20232 250 247 243
0.71948 -0.79462 -0.19616 250 247 241
0.72195 -0.80081 -0.19000 250 245 237
0.72443 -0.80701 -0.18384 249 244 235
0.72690 -0.81321 -0.17768 250 245 233
0.72938 -0.81941 -0.17151 251 246 239
0.73186 -0.82560 -0.16535 251 247 240
0.73433 -0.83180 -0.15919 251 248 239
0.73681 -0.83801 -0.15302 250 247 239
0.73929 -0.84421 -0.14685 250 246 238
0.74176 -0.85041 -0.14069 250 245 238
0.74424 -0.85661 -0.13452 250 245 238
0.74672 -0.86282 -0.12835 250 245 236
0.74920 -0.86902 -0.12218 250 245 236
0.75168 -0.87523 -0.11601 250 244 232
0.75416 -0.88144 -0.10984 250 244 232
0.75664 -0.88765 -0.10366 250 244 233
0.75912 -0.89385 -0.09749 250 244 233
0.76160 -0.90006 -0.09132 249 244 234
0.61950 -0.58342 -0.40847 251 247 241
0.62195 -0.58956 -0.40237 251 248 243
0.62440 -0.59569 -0.39627 251 249 245
0.62685 -0.60183 -0.39016 251 250 247
0.62930 -0.60797 -0.38406 251 250 250
0.63175 -0.61410 -0.37796 251 250 251
0.63420 -0.62024 -0.37185 251 250 252
0.63666 -0.62638 -0.36575 251 249 251
0.63911 -0.63252 -0.35964 251 249 251
0.64156 -0.63867 -0.35354 251 249 251
0.64401 -0.64481 -0.34743 251 249 251
0.64647 -0.65095 -0.34132 251 249 252
0.64892 -0.65710 -0.33521 251 249 252
0.65137 -0.66324 -0.32910 251 250 251
0.65383 -0.66939 -0.32299 250 250 251
0.65628 -0.67554 -0.31688 250 249 250
0.65874 -0.68169 -0.31076 250 249 248
0.66119 -0.68784 -0.30465 250 249 247
0.66365 -0.69399 -0.29853 250 248 245
0.66611 -0.70014 -0.29242 250 247 241
0.66856 -0.70629 -0.28630 250 247 241
0.67102 -0.71244 -0.28019 250 247 241
0.67348 -0.71859 -0.27407 250 246 240
0.67593 -0.72475 -0.26795 250 246 240
0.67839 -0.73090 -0.26183 250 246 241
0.68085 -0.73706 -0.25571 250 247 242
0.68331 -0.74322 -0.24958 250 247 241
0.68577 -0.74938 -0.24346 250 247 241
0.68823 -0.75554 -0.23734 250 247 242
0.69069 -0.76170 -0.23121 250 248 244
0.69315 -0.76786 -0.22509 250 248 246
0.69561 -0.77402 -0.21896 250 248 247
0.69807 -0.78018 -0.21283 250 248 247
0.70053 -0.78634 -0.20671 250 247 242
0.70299 -0.79251 -0.20058 250 245 238
0.70545 -0.79867 -0.19445 249 243 235
0.70791 -0.80484 -0.18832 249 243 234
0.71038 -0.81101 -0.18218 250 245 236
0.71284 -0.81718 -0.17605 250 246 240
0.71530 -0.82334 -0.16992 251 247 241
0.71777 -0.82951 -0.16378 251 247 242
0.72023 -0.83568 -0.15765 251 248 240
0.72269 -0.84186 -0.15151 250 247 239
0.72516 -0.84803 -0.14538 250 245 236
0.72762 -0.85420 -0.13924 250 245 237
0.73009 -0.86038 -0.13310 250 245 237
0.73256 -0.86655 -0.12696 250 245 235
0.73502 -0.87273 -0.12082 250 244 234
0.73749 -0.87890 -0.11468 249 244 231
0.73996 -0.88508 -0.10853 250 244 232
0.74242 -0.89126 -0.10239 250 245 235
0.74489 -0.89744 -0.09625 250 244 237
0.60605 -0.58844 -0.40576 251 249 243
0.60849 -0.59455 -0.39969 252 250 247
0.61092 -0.60066 -0.39362 252 251 251
0.61336 -0.60677 -0.38755 252 251 250
0.61580 -0.61288 -0.38147 251 250 251
0.61824 -0.61899 -0.37540 251 250 251
0.62068 -0.62510 -0.36932 251 250 251
0.62312 -0.63121 -0.36325 251 250 251
0.62556 -0.63732 -0.35717 251 250 251
0.62800 -0.64343 -0.35109 251 249 251
0.63044 -0.64955 -0.34501 251 249 251
0.63288 -0.65566 -0.33893 251 249 251
0.63532 -0.66178 -0.33285 251 249 251
0.63776 -0.66790 -0.32677 250 249 252
0.64020 -0.67401 -0.32069 250 249 251
0.64264 -0.68013 -0.31460 250 249 251
0.64509 -0.68625 -0.30852 251 249 250
0.64753 -0.69237 -0.30243 250 250 251
0.64997 -0.69849 -0.29635 250 249 249
0.65242 -0.70462 -0.29026 250 248 244
0.65486 -0.71074 -0.28417 250 248 243
0.65730 -0.71686 -0.27808 250 247 242
0.65975 -0.72299 -0.27200 250 246 240
0.66219 -0.72911 -0.26590 250 245 240
0.66464 -0.73524 -0.25981 250 246 242
0.66708 -0.74137 -0.25372 250 247 243
0.66953 -0.74750 -0.24763 250 248 244
0.67198 -0.75362 -0.24153 250 248 244
0.67442 -0.75976 -0.23544 250 248 245
0.67687 -0.76589 -0.22934 250 248 247
0.67932 -0.77202 -0.22325 250 248 247
0.68177 -0.77815 -0.21715 250 248 245
0.68421 -0.78428 -0.21105 250 247 243
0.68666 -0.79042 -0.20495 250 245 238
0.68911 -0.79655 -0.19885 249 244 236
0.69156 -0.80269 -0.19275 249 242 233
0.69401 -0.80883 -0.18665 249 244 232
0.69646 -0.81497 -0.18055 251 246 237
0.69891 -0.82111 -0.17444 251 247 240
0.70136 -0.82725 -0.16834 251 247 240
0.70381 -0.83339 -0.16223 250 247 241
0.70626 -0.83953 -0.15613 251 247 239
0.70871 -0.84567 -0.15002 250 245 237
0.71117 -0.85181 -0.14391 250 244 234
0.71362 -0.85796 -0.13780 249 245 236
0.71607 -0.86410 -0.13169 249 244 235
0.71852 -0.87025 -0.12558 250 244 232
0.72098 -0.87640 -0.11947 250 244 233
0.72343 -0.88254 -0.11336 251 244 231
0.72589 -0.88869 -0.10724 251 244 230
0.59515 -0.59950 -0.39704 252 251 251
0.59758 -0.60558 -0.39100 252 251 252
0.60000 -0.61166 -0.38495 252 250 251
0.60243 -0.61774 -0.37891 251 250 251
0.60485 -0.62382 -0.37286 252 250 251
0.62427 -0.67250 -0.32446 250 249 251
0.62670 -0.67859 -0.31841 251 249 251
0.62913 -0.68468 -0.31235 250 249 251
0.63156 -0.69077 -0.30630 250 249 251
0.63399 -0.69687 -0.30024 250 249 252
0.63642 -0.70296 -0.29418 250 249 251
0.63885 -0.70905 -0.28812 250 249 251
0.64129 -0.71515 -0.28206 250 250 249
0.64372 -0.72124 -0.27600 250 248 245
0.64615 -0.72734 -0.26994 250 247 244
0.64858 -0.73344 -0.26388 250 247 244
0.65102 -0.73953 -0.25782 250 247 243
0.65345 -0.74563 -0.25175 250 247 243
0.65588 -0.75173 -0.24569 250 248 244
0.65832 -0.75783 -0.23963 250 248 246
0.66075 -0.76393 -0.23356 250 248 245
0.66318 -0.77004 -0.22749 250 248 245
0.66562 -0.77614 -0.22142 250 248 243
0.66805 -0.78224 -0.21535 250 248 242
0.67049 -0.78835 -0.20929 250 246 239
0.67293 -0.79446 -0.20321 249 244 236
0.67536 -0.80056 -0.19714 249 245 237
0.67780 -0.80667 -0.19107 250 245 236
0.68024 -0.81278 -0.18500 250 245 236
0.68267 -0.81889 -0.17892 251 246 237
0.68511 -0.82500 -0.17285 251 247 238
0.68755 -0.83111 -0.16677 250 247 238
0.68999 -0.83722 -0.16070 250 247 241
0.69243 -0.84333 -0.15462 250 246 238
0.69486 -0.84945 -0.14854 249 245 235
0.69730 -0.85556 -0.14246 250 245 234
0.69974 -0.86168 -0.13638 249 244 236
0.70218 -0.86780 -0.13030 250 244 236
0.70462 -0.87391 -0.12422 250 245 235
0.70707 -0.88003 -0.11813 250 245 236
0.70951 -0.88615 -0.11205 251 245 234
0.58194 -0.60440 -0.39442 252 251 252
0.58435 -0.61045 -0.38840 252 250 251
0.58676 -0.61650 -0.38238 252 250 251
0.58918 -0.62256 -0.37637 252 251 252
0.61333 -0.68313 -0.31615 250 250 252
0.61575 -0.68919 -0.31012 251 250 251
0.61817 -0.69525 -0.30409 251 250 251
0.62058 -0.70132 -0.29806 251 249 251
0.62300 -0.70738 -0.29204 250 249 251
0.62542 -0.71345 -0.28601 250 249 252
0.62784 -0.71951 -0.27997 250 249 251
0.63026 -0.72558 -0.27394 250 249 250
0.63268 -0.73165 -0.26791 250 249 249
0.63510 -0.73772 -0.26188 250 249 249
0.63752 -0.74379 -0.25584 250 249 247
0.63994 -0.74986 -0.24981 250 248 245
0.64236 -0.75593 -0.24377 250 248 245
0.64478 -0.76200 -0.23773 250 248 246
0.64720 -0.76807 -0.23170 250 248 245
0.64963 -0.77415 -0.22566 250 247 242
0.65205 -0.78022 -0.21962 250 246 238
0.65447 -0.78630 -0.21358 251 247 240
0.65690 -0.79238 -0.20754 251 247 240
0.65932 -0.79845 -0.20149 250 246 240
0.66174 -0.80453 -0.19545 250 247 240
0.66417 -0.81061 -0.18941 251 247 240
0.66659 -0.81669 -0.18336 251 247 241
0.66902 -0.82277 -0.17732 250 246 238
0.67144 -0.82885 -0.17127 250 246 239
0.67387 -0.83494 -0.16522 250 246 238
0.67629 -0.84102 -0.15917 250 245 238
0.67872 -0.84711 -0.15312 250 245 235
0.68115 -0.85319 -0.14707 249 243 231
0.68357 -0.85928 -0.14102 249 243 234
0.68600 -0.86536 -0.13497 248 243 237
0.68843 -0.87145 -0.12892 250 245 236
0.69086 -0.87754 -0.12287 250 245 234
0.56885 -0.60926 -0.39181 252 251 251
0.57125 -0.61528 -0.38583 252 251 251
0.57365 -0.62131 -0.37984 252 251 251
0.60008 -0.68762 -0.31391 246 248 253
0.60249 -0.69366 -0.30791 251 250 252
0.60490 -0.69969 -0.30191 251 250 251
0.60730 -0.70573 -0.29591 251 249 251
0.60971 -0.71176 -0.28991 250 249 251
0.61211 -0.71780 -0.28391 250 249 251
0.61452 -0.72384 -0.27790 250 249 251
0.61693 -0.72988 -0.27190 250 249 251
0.61933 -0.73592 -0.26590 250 249 251
0.62174 -0.74196 -0.25989 250 249 250
0.62415 -0.74800 -0.25388 250 249 250
0.62656 -0.75404 -0.24788 250 249 248
0.62897 -0.76009 -0.24187 250 248 246
0.63138 -0.76613 -0.23586 250 248 245
0.63379 -0.77218 -0.22985 250 248 244
0.63620 -0.77822 -0.22384 250 247 242
0.63861 -0.78427 -0.21783 251 247 241
0.64102 -0.79032 -0.21182 251 247 242
0.64343 -0.79637 -0.20580 250 247 244
0.64584 -0.80241 -0.19979 250 248 246
0.64825 -0.80847 -0.19377 250 247 242
0.65066 -0.81452 -0.18776 250 247 241
0.65307 -0.82057 -0.18174 251 247 240
0.65549 -0.82662 -0.17572 250 246 236
0.65790 -0.83267 -0.16971 250 245 232
0.66031 -0.83873 -0.16369 250 244 234
0.66273 -0.84479 -0.15767 249 243 232
0.66514 -0.85084 -0.15164 249 244 233
0.66756 -0.85690 -0.14562 249 243 232
0.66997 -0.86296 -0.13960 249 245 235
0.67238 -0.86902 -0.13358 249 245 238
0.55588 -0.61407 -0.38924 252 251 251
0.55827 -0.62007 -0.38328 252 251 251
0.56066 -0.62606 -0.37732 252 250 251
0.58457 -0.68607 -0.31766 254 252 250
0.58696 -0.69208 -0.31169 253 251 252
0.58935 -0.69808 -0.30572 251 250 251
0.59175 -0.70409 -0.29975 251 249 251
0.59414 -0.71010 -0.29378 250 249 251
0.59653 -0.71611 -0.28780 250 249 251
0.59893 -0.72211 -0.28183 250 249 251
0.60132 -0.72813 -0.27585 250 249 251
0.60372 -0.73414 -0.26988 250 249 251
0.60611 -0.74015 -0.26390 250 249 251
0.60851 -0.74616 -0.25792 250 249 251
0.61091 -0.75218 -0.25194 250 249 251
0.61330 -0.75819 -0.24597 250 249 249
0.61570 -0.76421 -0.23998 250 248 245
0.61810 -0.77022 -0.23400 250 247 243
0.62049 -0.77624 -0.22802 250 247 244
0.62289 -0.78226 -0.22204 250 247 244
0.62529 -0.78828 -0.21606 250 247 244
0.62769 -0.79430 -0.21007 250 247 243
0.63009 -0.80032 -0.20409 250 247 243
0.63248 -0.80634 -0.19810 250 248 243
0.63488 -0.81236 -0.19211 250 247 241
0.63728 -0.81838 -0.18612 250 246 240
0.63968 -0.82441 -0.18014 250 246 238
0.64208 -0.83043 -0.17415 250 246 237
0.64449 -0.83646 -0.16816 250 244 232
0.64689 -0.84249 -0.16216 249 242 230
0.64929 -0.84851 -0.15617 249 241 228
0.65169 -0.85454 -0.15018 249 243 233
0.65409 -0.86057 -0.14418 250 244 233
0.65649 -0.86660 -0.13819 250 244 234
0.54541 -0.62481 -0.38075 252 251 251
0.54779 -0.63078 -0.37482 252 250 251
0.55017 -0.63674 -0.36888 252 250 251
0.56682 -0.67855 -0.32732 249 251 253
0.56920 -0.68453 -0.32138 251 250 252
0.57158 -0.69051 -0.31544 251 250 251
0.57396 -0.69649 -0.30950 251 249 251
0.57634 -0.70246 -0.30355 250 249 251
0.57872 -0.70844 -0.29761 250 249 251
0.58110 -0.71442 -0.29166 250 249 251
0.58348 -0.72041 -0.28572 250 249 251
0.58587 -0.72639 -0.27977 250 249 251
0.58825 -0.73237 -0.27382 250 249 251
0.59063 -0.73836 -0.26787 250 249 251
0.59302 -0.74434 -0.26192 250 249 251
0.59540 -0.75033 -0.25597 250 249 251
0.59778 -0.75631 -0.25002 250 249 251
0.60017 -0.76230 -0.24407 250 249 250
0.60255 -0.76829 -0.23812 250 248 246
0.60494 -0.77428 -0.23216 250 248 244
0.60732 -0.78027 -0.22621 250 248 245
0.60971 -0.78626 -0.22026 250 248 245
0.61209 -0.79225 -0.21430 250 248 246
0.61448 -0.79824 -0.20834 251 248 245
0.61687 -0.80423 -0.20238 250 248 242
0.61925 -0.81023 -0.19643 250 247 240
0.62164 -0.81622 -0.19047 251 247 238
0.62403 -0.82222 -0.18451 250 246 236
0.62642 -0.82821 -0.17854 250 245 235
0.62881 -0.83421 -0.17258 250 245 235
0.63119 -0.84021 -0.16662 250 244 230
0.63358 -0.84621 -0.16066 249 243 231
0.63597 -0.85221 -0.15469 250 245 231
0.63836 -0.85821 -0.14873 250 245 235
0.64075 -0.86421 -0.14276 251 246 233
0.53740 -0.64139 -0.36644 253 250 251
0.53977 -0.64733 -0.36053 252 250 251
0.54214 -0.65327 -0.35462 252 250 251
0.54450 -0.65922 -0.34871 251 250 251
0.54687 -0.66516 -0.34280 251 250 252
0.54924 -0.67111 -0.33689 251 250 252
0.55160 -0.67706 -0.33098 251 250 251
0.55397 -0.68301 -0.32506 252 250 252
0.55634 -0.68896 -0.31915 251 250 251
0.55871 -0.69491 -0.31323 251 249 251
0.56108 -0.70086 -0.30732 250 249 251
0.56345 -0.70681 -0.30140 250 249 251
0.56581 -0.71276 -0.29549 250 249 251
0.56818 -0.71871 -0.28957 250 249 251
0.57055 -0.72467 -0.28365 250 249 251
0.57292 -0.73062 -0.27773 250 249 251
0.57530 -0.73658 -0.27181 250 249 251
0.57767 -0.74253 -0.26589 250 249 251
0.58004 -0.74849 -0.25997 250 249 251
0.58241 -0.75445 -0.25404 250 249 251
0.58478 -0.76041 -0.24812 250 249 251
0.58715 -0.76637 -0.24219 250 249 251
0.58953 -0.77233 -0.23627 250 249 250
0.59190 -0.77829 -0.23034 250 249 249
0.59427 -0.78425 -0.22442 250 249 247
0.59665 -0.79022 -0.21849 250 248 245
0.59902 -0.79618 -0.21256 250 248 242
0.60140 -0.80215 -0.20663 250 247 241
0.60377 -0.80811 -0.20070 250 247 241
0.60615 -0.81408 -0.19477 250 247 239
0.60852 -0.82005 -0.18884 250 246 236
0.61090 -0.82601 -0.18290 250 245 231
0.61327 -0.83198 -0.17697 249 242 230
0.61565 -0.83795 -0.17103 249 243 235
0.61803 -0.84392 -0.16510 250 245 234
0.62040 -0.84990 -0.15916 250 245 234
0.62278 -0.85587 -0.15323 251 246 233
0.52946 -0.65782 -0.35225 252 250 251
0.53182 -0.66374 -0.34637 251 250 250
0.53417 -0.66966 -0.34048 251 250 251
0.53653 -0.67558 -0.33460 251 250 251
0.53889 -0.68150 -0.32871 251 250 251
0.54124 -0.68742 -0.32283 251 249 251
0.54360 -0.69334 -0.31694 251 249 251
0.54595 -0.69926 -0.31105 251 249 251
0.54831 -0.70519 -0.30516 250 249 251
0.55067 -0.71111 -0.29927 250 249 251
0.55303 -0.71704 -0.29338 250 249 251
0.55538 -0.72296 -0.28749 250 249 251
0.55774 -0.72889 -0.28160 250 249 251
0.56010 -0.73482 -0.27571 250 249 251
0.56246 -0.74075 -0.26981 250 249 251
0.56482 -0.74668 -0.26392 250 249 251
0.56718 -0.75261 -0.25803 250 249 251
0.56954 -0.75854 -0.25213 250 249 251
0.57190 -0.76447 -0.24623 250 249 251
0.57426 -0.77040 -0.24033 251 250 252
0.58371 -0.79414 -0.21674 250 248 246
0.58607 -0.80008 -0.21083 250 248 242
0.58843 -0.80602 -0.20493 250 247 241
0.59079 -0.81196 -0.19903 251 247 241
0.59316 -0.81790 -0.19312 250 248 242
0.59552 -0.82384 -0.18722 251 248 240
0.59788 -0.82978 -0.18131 251 246 233
0.60025 -0.83572 -0.17541 249 242 231
0.60261 -0.84166 -0.16950 249 244 236
0.60498 -0.84761 -0.16359 250 246 235
0.49584 -0.60934 -0.40257 252 250 246
0.51925 -0.66822 -0.34404 252 250 251
0.52160 -0.67411 -0.33818 251 250 250
0.52394 -0.68000 -0.33233 251 250 251
0.52628 -0.68589 -0.32647 251 250 251
0.52863 -0.69179 -0.32061 251 250 251
0.53097 -0.69768 -0.31475 251 249 251
0.53332 -0.70358 -0.30889 251 249 251
0.53566 -0.70948 -0.30303 251 249 251
0.53801 -0.71538 -0.29716 251 249 251
0.54035 -0.72127 -0.29130 251 249 251
0.54270 -0.72717 -0.28544 251 249 251
0.54505 -0.73307 -0.27957 250 249 251
0.54739 -0.73898 -0.27370 250 249 251
0.54974 -0.74488 -0.26784 250 249 251
0.55209 -0.75078 -0.26197 250 249 251
0.55444 -0.75668 -0.25610 250 249 251
0.55679 -0.76259 -0.25023 251 249 251
0.55913 -0.76849 -0.24436 251 250 252
0.57088 -0.79803 -0.21500 250 249 246
0.57323 -0.80394 -0.20913 251 248 243
0.57558 -0.80985 -0.20325 250 247 241
0.57794 -0.81576 -0.19737 251 246 240
0.58029 -0.82168 -0.19150 250 246 239
0.58264 -0.82759 -0.18562 250 246 238
0.58499 -0.83351 -0.17974 251 246 235
0.58734 -0.83942 -0.17386 250 245 235
0.58970 -0.84534 -0.16798 251 246 235
0.48350 -0.61404 -0.40000 253 251 245
0.48583 -0.61990 -0.39418 252 250 246
0.50913 -0.67852 -0.33591 251 250 251
0.51146 -0.68439 -0.33008 251 250 250
0.51380 -0.69025 -0.32425 251 250 251
0.51613 -0.69612 -0.31841 251 250 251
0.51846 -0.70199 -0.31258 251 250 251
0.52080 -0.70786 -0.30674 251 249 251
0.52313 -0.71373 -0.30091 251 249 251
0.52546 -0.71960 -0.29507 251 249 251
0.52780 -0.72547 -0.28924 251 249 251
0.53013 -0.73135 -0.28340 251 249 251
0.53247 -0.73722 -0.27756 251 249 251
0.53480 -0.74309 -0.27172 251 249 251
0.53714 -0.74897 -0.26588 250 249 251
0.53948 -0.75485 -0.26004 250 249 251
0.54181 -0.76072 -0.25420 251 249 251
0.54415 -0.76660 -0.24835 252 250 252
0.55818 -0.80189 -0.21328 251 248 243
0.56052 -0.80777 -0.20743 250 247 240
0.56285 -0.81365 -0.20158 251 247 236
0.56519 -0.81954 -0.19573 251 247 235
0.56753 -0.82542 -0.18988 251 246 234
0.56987 -0.83131 -0.18403 250 245 237
0.57222 -0.83720 -0.17818 251 247 237
0.57456 -0.84309 -0.17233 252 248 235
0.47127 -0.61870 -0.39746 253 251 245
0.47359 -0.62453 -0.39166 252 250 244
0.47591 -0.63036 -0.38586 252 250 243
0.49910 -0.68873 -0.32785 251 250 251
0.50142 -0.69457 -0.32204 251 250 250
0.50374 -0.70041 -0.31624 251 250 251
0.50607 -0.70626 -0.31043 251 250 251
0.50839 -0.71210 -0.30462 251 250 251
0.51071 -0.71794 -0.29881 251 249 251
0.51303 -0.72379 -0.29300 251 249 251
0.51536 -0.72963 -0.28719 251 249 251
0.51768 -0.73548 -0.28138 251 249 251
0.52000 -0.74133 -0.27557 251 249 251
0.52233 -0.74718 -0.26975 251 249 251
0.52465 -0.75303 -0.26394 251 249 251
0.52698 -0.75888 -0.25812 252 250 252
0.52930 -0.76473 -0.25231 250 251 253
0.54326 -0.79985 -0.21740 252 248 240
0.54558 -0.80570 -0.21158 251 247 240
0.54791 -0.81156 -0.20576 250 247 242
0.55024 -0.81742 -0.19993 250 247 240
0.55257 -0.82328 -0.19411 250 247 235
0.55490 -0.82914 -0.18829 251 246 234
0.55723 -0.83500 -0.18246 251 247 239
0.46146 -0.62912 -0.38917 252 250 244
0.46377 -0.63493 -0.38339 252 251 246
0.46607 -0.64074 -0.37762 252 251 249
0.48916 -0.69885 -0.31986 251 250 251
0.49147 -0.70467 -0.31408 251 250 250
0.49378 -0.71048 -0.30830 251 250 251
0.49609 -0.71630 -0.30251 251 250 251
0.49840 -0.72212 -0.29673 251 250 251
0.50071 -0.72794 -0.29095 251 249 251
0.50302 -0.73376 -0.28516 251 249 251
0.50534 -0.73958 -0.27938 251 249 251
0.50765 -0.74540 -0.27359 252 249 251
0.50996 -0.75122 -0.26780 252 250 252
0.51227 -0.75705 -0.26202 251 251 253
0.51922 -0.77452 -0.24465 244 241 237
0.52848 -0.79783 -0.22148 251 248 240
0.53079 -0.80366 -0.21568 250 246 237
0.53311 -0.80949 -0.20989 250 245 237
0.53542 -0.81532 -0.20409 250 247 241
0.53774 -0.82115 -0.19830 250 248 241
0.54006 -0.82698 -0.19250 251 247 237
0.44944 -0.63367 -0.38669 252 250 245
0.45174 -0.63945 -0.38095 252 251 247
0.45403 -0.64523 -0.37520 252 251 248
0.45633 -0.65102 -0.36945 252 251 248
0.47930 -0.70888 -0.31194 252 250 251
0.48160 -0.71467 -0.30618 251 250 250
0.48390 -0.72046 -0.30043 251 250 251
0.48620 -0.72626 -0.29467 251 250 251
0.48850 -0.73205 -0.28891 252 250 251
0.49080 -0.73784 -0.28315 252 250 251
0.49311 -0.74364 -0.27739 252 251 251
0.49541 -0.74943 -0.27163 250 251 253
0.49771 -0.75523 -0.26587 249 252 252
0.50461 -0.77263 -0.24858 248 244 237
0.50692 -0.77843 -0.24282 251 247 238
0.50922 -0.78423 -0.23705 251 249 239
0.51152 -0.79003 -0.23129 251 248 241
0.51383 -0.79583 -0.22552 250 247 240
0.51613 -0.80163 -0.21975 250 246 238
0.51844 -0.80744 -0.21398 250 246 238
0.52074 -0.81324 -0.20822 250 246 237
0.52305 -0.81904 -0.20245 250 247 239
0.43981 -0.64394 -0.37852 252 251 247
0.44210 -0.64969 -0.37280 252 250 245
0.44438 -0.65545 -0.36708 252 250 246
0.44667 -0.66121 -0.36136 252 251 248
0.44895 -0.66696 -0.35564 252 251 249
0.49244 -0.77652 -0.24675 251 247 237
0.49473 -0.78230 -0.24101 251 248 240
0.49702 -0.78807 -0.23527 251 248 241
0.49931 -0.79385 -0.22953 251 248 242
0.50161 -0.79962 -0.22379 250 246 240
0.50390 -0.80540 -0.21804 250 246 239
0.50619 -0.81118 -0.21230 250 246 240
0.42800 -0.64838 -0.37612 252 250 246
0.43027 -0.65411 -0.37043 252 250 246
0.43254 -0.65984 -0.36473 252 251 248
0.43482 -0.66557 -0.35903 252 251 248
0.43709 -0.67131 -0.35333 252 251 250
0.43937 -0.67704 -0.34763 252 251 251
0.47809 -0.77464 -0.25064 251 247 235
0.48037 -0.78038 -0.24492 251 248 238
0.48265 -0.78613 -0.23921 251 248 241
0.48493 -0.79188 -0.23350 251 248 242
0.48721 -0.79763 -0.22778 251 247 241
0.48949 -0.80338 -0.22207 251 247 240
0.49177 -0.80913 -0.21635 251 247 239
0.41855 -0.65849 -0.36807 252 251 246
0.42081 -0.66420 -0.36240 252 251 247
0.42307 -0.66990 -0.35672 252 251 248
0.42534 -0.67561 -0.35105 252 251 249
0.42760 -0.68132 -0.34538 252 251 248
0.42986 -0.68703 -0.33970 252 250 246
0.46387 -0.77277 -0.25449 251 248 236
0.46613 -0.77849 -0.24881 251 248 236
0.46840 -0.78421 -0.24312 251 247 238
0.47067 -0.78994 -0.23743 251 248 241
0.47294 -0.79566 -0.23174 251 247 241
0.47521 -0.80138 -0.22605 251 246 239
0.40692 -0.66283 -0.36573 253 251 245
0.40918 -0.66851 -0.36009 253 251 245
0.41143 -0.67420 -0.35444 252 250 245
0.41368 -0.67988 -0.34879 252 250 244
0.41594 -0.68556 -0.34314 252 250 242
0.41819 -0.69125 -0.33749 252 249 241
0.42044 -0.69693 -0.33184 251 248 241
0.44977 -0.77091 -0.25831 251 247 239
0.45203 -0.77661 -0.25265 251 247 239
0.45429 -0.78231 -0.24699 251 248 238
0.45655 -0.78801 -0.24133 251 248 239
0.45881 -0.79370 -0.23567 251 248 240
0.46106 -0.79940 -0.23000 251 248 240
0.39765 -0.67279 -0.35779 252 251 242
0.39989 -0.67845 -0.35217 252 250 240
0.40213 -0.68411 -0.34655 251 248 238
0.40437 -0.68977 -0.34092 251 247 236
0.40662 -0.69543 -0.33530 251 248 239
0.40886 -0.70109 -0.32967 251 249 242
0.41110 -0.70675 -0.32405 251 250 243
0.41335 -0.71241 -0.31842 252 251 245
0.43580 -0.76908 -0.26210 251 247 240
0.43805 -0.77475 -0.25647 251 247 239
0.44030 -0.78042 -0.25083 251 247 238
0.44254 -0.78609 -0.24519 251 247 239
0.44479 -0.79177 -0.23956 251 248 241
0.44704 -0.79744 -0.23392 252 249 243
0.38622 -0.67703 -0.35552 252 249 238
0.38845 -0.68267 -0.34992 251 248 238
0.39068 -0.68830 -0.34433 251 248 237
0.39291 -0.69394 -0.33873 251 248 237
0.39515 -0.69957 -0.33312 251 249 241
0.39738 -0.70521 -0.32752 251 250 244
0.39961 -0.71085 -0.32192 252 250 246
0.40184 -0.71648 -0.31632 252 251 247
0.40408 -0.72212 -0.31071 252 250 247
0.40631 -0.72776 -0.30511 252 250 244
0.41972 -0.76161 -0.27147 251 248 241
0.42196 -0.76726 -0.26586 250 247 237
0.42419 -0.77290 -0.26025 250 246 238
0.42643 -0.77855 -0.25464 250 246 238
0.42867 -0.78420 -0.24902 251 247 238
0.43090 -0.78985 -0.24341 251 248 240
0.37711 -0.68685 -0.34770 251 248 237
0.37933 -0.69246 -0.34212 251 249 241
0.38155 -0.69807 -0.33655 252 250 242
0.38377 -0.70368 -0.33097 252 250 244
0.38600 -0.70929 -0.32539 252 250 244
0.38822 -0.71490 -0.31981 252 250 245
0.39044 -0.72052 -0.31424 252 250 245
0.39266 -0.72613 -0.30866 252 249 243
0.39489 -0.73175 -0.30308 252 249 240
0.39711 -0.73736 -0.29749 251 248 239
0.39934 -0.74298 -0.29191 251 248 242
0.40156 -0.74860 -0.28633 251 247 239
0.40378 -0.75422 -0.28075 251 248 239
0.40601 -0.75984 -0.27516 251 248 241
0.40823 -0.76546 -0.26958 250 247 240
0.41046 -0.77108 -0.26399 250 247 237
0.41269 -0.77670 -0.25841 250 247 238
0.41491 -0.78232 -0.25282 251 247 240
0.36587 -0.69099 -0.34549 252 250 240
0.36808 -0.69658 -0.33994 252 251 245
0.37029 -0.70216 -0.33439 252 252 246
0.37250 -0.70775 -0.32883 252 251 245
0.37471 -0.71334 -0.32328 252 249 243
0.37692 -0.71893 -0.31773 251 249 242
0.37914 -0.72452 -0.31217 251 248 243
0.38135 -0.73011 -0.30662 251 248 241
0.38356 -0.73570 -0.30106 251 248 237
0.38578 -0.74129 -0.29550 251 247 236
0.38799 -0.74689 -0.28994 250 247 239
0.39020 -0.75248 -0.28439 251 247 239
0.39242 -0.75807 -0.27883 252 248 239
0.39463 -0.76367 -0.27327 251 249 241
0.39685 -0.76926 -0.26771 251 248 241
0.39906 -0.77486 -0.26214 251 248 240
0.40128 -0.78046 -0.25658 251 249 240
0.35692 -0.70066 -0.33777 252 252 247
0.35912 -0.70623 -0.33224 252 251 247
0.36132 -0.71179 -0.32672 252 250 244
0.36352 -0.71735 -0.32119 251 248 242
0.36573 -0.72292 -0.31566 251 248 241
0.36793 -0.72848 -0.31012 250 248 241
0.37013 -0.73405 -0.30459 250 248 240
0.37233 -0.73962 -0.29906 251 247 235
0.37454 -0.74519 -0.29353 250 246 233
0.37674 -0.75076 -0.28799 250 246 238
0.37894 -0.75633 -0.28246 251 247 239
0.38115 -0.76190 -0.27692 252 249 241
0.38335 -0.76747 -0.27139 252 249 241
0.38556 -0.77304 -0.26585 252 249 241
0.34586 -0.70471 -0.33563 252 251 245
0.34805 -0.71025 -0.33012 252 250 245
0.35024 -0.71579 -0.32462 251 248 242
0.35243 -0.72133 -0.31911 251 248 240
0.35463 -0.72687 -0.31360 250 247 238
0.35682 -0.73242 -0.30810 250 247 239
0.35901 -0.73796 -0.30259 250 247 240
0.36120 -0.74350 -0.29708 251 247 237
0.36340 -0.74905 -0.29157 250 246 235
0.36559 -0.75459 -0.28606 250 246 239
0.36778 -0.76014 -0.28055 251 248 240
0.36998 -0.76569 -0.27504 252 249 243
0.33707 -0.71424 -0.32802 251 248 240
0.33926 -0.71976 -0.32253 250 247 238
0.34144 -0.72528 -0.31705 250 247 237
0.34362 -0.73080 -0.31157 250 246 235
0.34580 -0.73632 -0.30608 250 247 237
0.34798 -0.74183 -0.30060 249 245 239
0.35017 -0.74736 -0.29511 251 248 240
0.35235 -0.75288 -0.28963 250 246 239
0.35453 -0.75840 -0.28414 251 247 239
0.35672 -0.76392 -0.27865 251 248 240
0.32619 -0.71820 -0.32593 250 245 235
0.32836 -0.72369 -0.32047 250 245 233
0.33053 -0.72919 -0.31501 250 244 233
0.33271 -0.73468 -0.30955 250 245 232
0.33488 -0.74018 -0.30409 250 247 236
0.33705 -0.74568 -0.29863 249 246 240
0.33922 -0.75117 -0.29317 251 248 241
0.34140 -0.75667 -0.28770 251 248 240
0.31756 -0.72760 -0.31842 250 244 232
0.31972 -0.73307 -0.31299 250 244 233
0.32189 -0.73854 -0.30755 251 247 232
0.32405 -0.74401 -0.30211 251 247 237
0.32621 -0.74949 -0.29667 251 248 240
0.32837 -0.75496 -0.29123 252 249 241
0.30685 -0.73147 -0.31639 251 246 235
0.30900 -0.73691 -0.31098 251 247 236
0.31116 -0.74236 -0.30557 252 248 237
0.31331 -0.74781 -0.30015 252 249 239
0.29623 -0.73530 -0.31438 252 247 238
0.29837 -0.74073 -0.30899 251 248 238
0.30052 -0.74615 -0.30360 252 249 238
1.57895 -0.35953 -0.47108 254 254 254
1.55133 -0.36503 -0.47052 254 254 254
1.55399 -0.37455 -0.46064 254 254 254
1.55665 -0.38406 -0.45076 254 254 254
1.51603 -0.34201 -0.49950 254 254 254
1.51870 -0.35150 -0.48965 254 254 254
1.52137 -0.36098 -0.47980 254 254 254
1.52403 -0.37046 -0.46996 254 254 254
1.52669 -0.37992 -0.46014 254 254 254
1.52935 -0.38937 -0.45032 254 254 254
1.53201 -0.39882 -0.44052 254 254 254
1.53466 -0.40825 -0.43073 254 254 254
1.48637 -0.33810 -0.50859 254 254 254
1.48904 -0.34755 -0.49878 254 254 254
1.49171 -0.35698 -0.48898 254 254 254
1.49438 -0.36641 -0.47919 254 254 254
1.49704 -0.37583 -0.46942 254 254 254
1.49970 -0.38523 -0.45965 254 254 254
1.50236 -0.39463 -0.44989 254 254 254
1.50502 -0.40401 -0.44014 254 254 254
1.50767 -0.41339 -0.43041 254 254 254
1.51032 -0.42275 -0.42068 254 254 254
1.51296 -0.43211 -0.41097 254 254 254
1.45702 -0.33424 -0.51759 254 254 254
1.45970 -0.34364 -0.50783 254 254 254
1.46237 -0.35303 -0.49807 254 254 254
1.46504 -0.36241 -0.48833 254 254 254
1.46770 -0.37177 -0.47860 254 254 254
1.47037 -0.38113 -0.46887 254 254 254
1.47303 -0.39048 -0.45916 254 254 254
1.47568 -0.39982 -0.44946 254 254 254
1.47834 -0.40915 -0.43977 254 254 254
1.48099 -0.41847 -0.43009 254 254 254
1.48364 -0.42778 -0.42042 254 254 254
1.48628 -0.43707 -0.41076 254 254 254
1.48893 -0.44636 -0.40111 254 254 254
1.49157 -0.45564 -0.39147 254 254 254
1.37930 -0.16031 -0.70326 254 254 251
1.38203 -0.16984 -0.69335 254 254 253
1.38476 -0.17937 -0.68345 254 253 253
1.38748 -0.18889 -0.67356 253 253 252
1.39020 -0.19840 -0.66368 254 252 251
1.39292 -0.20789 -0.65381 252 250 248
1.39563 -0.21738 -0.64395 252 250 247
1.39835 -0.22685 -0.63411 252 252 249
1.40105 -0.23632 -0.62427 254 253 251
1.40376 -0.24578 -0.61444 254 254 252
1.40646 -0.25522 -0.60463 254 254 254
1.40916 -0.26466 -0.59483 254 254 254
1.41186 -0.27408 -0.58503 254 254 254
1.41455 -0.28349 -0.57525 254 254 254
1.41724 -0.29290 -0.56548 254 254 254
1.41993 -0.30229 -0.55572 254 254 254
1.42262 -0.31168 -0.54597 254 254 254
1.42530 -0.32105 -0.53622 254 254 254
1.42798 -0.33041 -0.52650 254 254 254
1.43065 -0.33977 -0.51678 254 254 254
1.43333 -0.34911 -0.50707 254 254 254
1.43600 -0.35844 -0.49737 254 254 254
1.43867 -0.36776 -0.48768 254 254 254
1.44133 -0.37708 -0.47800 254 254 254
1.44399 -0.38638 -0.46834 254 254 254
1.44665 -0.39567 -0.45868 254 254 254
1.44931 -0.40496 -0.44903 254 254 254
1.45196 -0.41423 -0.43940 254 254 254
1.45461 -0.42349 -0.42977 254 254 254
1.45726 -0.43274 -0.42016 254 254 254
1.45990 -0.44199 -0.41055 254 254 254
1.46255 -0.45122 -0.40096 254 254 254
1.46519 -0.46044 -0.39138 254 254 254
1.46782 -0.46966 -0.38180 254 254 254
1.47046 -0.47886 -0.37224 254 254 254
1.35326 -0.16686 -0.70137 253 253 250
1.35599 -0.17634 -0.69152 253 252 251
1.35871 -0.18581 -0.68168 253 252 247
1.36143 -0.19527 -0.67184 252 250 243
1.36415 -0.20472 -0.66202 252 249 250
1.36687 -0.21415 -0.65221 253 252 251
1.36958 -0.22358 -0.64241 254 254 252
1.37229 -0.23300 -0.63262 254 254 252
1.37500 -0.24241 -0.62284 254 254 253
1.37770 -0.25181 -0.61308 254 254 254
1.38040 -0.26120 -0.60332 254 254 254
1.38310 -0.27057 -0.59357 254 254 254
1.38580 -0.27994 -0.58383 254 254 254
1.38849 -0.28930 -0.57411 254 254 254
1.39118 -0.29865 -0.56439 254 254 254
1.39387 -0.30798 -0.55469 254 254 254
1.39655 -0.31731 -0.54499 254 254 254
1.39923 -0.32663 -0.53531 254 254 254
1.40191 -0.33593 -0.52563 254 254 254
1.40459 -0.34523 -0.51597 254 254 254
1.40726 -0.35452 -0.50632 254 254 254
1.40993 -0.36380 -0.49667 254 254 254
1.41259 -0.37306 -0.48704 254 254 254
1.41526 -0.38232 -0.47742 254 254 254
1.41792 -0.39157 -0.46781 254 254 254
1.42058 -0.40080 -0.45821 254 254 254
1.42323 -0.41003 -0.44861 254 254 254
1.42588 -0.41925 -0.43903 254 254 254
1.42853 -0.42846 -0.42946 254 254 254
1.43118 -0.43766 -0.41990 254 254 254
1.43382 -0.44684 -0.41035 254 254 254
1.43646 -0.45602 -0.40081 254 254 254
1.43910 -0.46519 -0.39128 254 254 254
1.44174 -0.47435 -0.38176 254 254 254
1.44437 -0.48350 -0.37225 254 254 254
1.44700 -0.49264 -0.36275 254 254 254
1.44963 -0.50177 -0.35327 254 254 254
1.32478 -0.16390 -0.70932 251 249 246
1.32751 -0.17334 -0.69951 250 247 245
1.33024 -0.18276 -0.68971 250 246 243
1.33296 -0.19217 -0.67993 250 247 242
1.33568 -0.20157 -0.67015 251 248 246
1.33840 -0.21096 -0.66039 253 252 248
1.34111 -0.22035 -0.65063 254 254 253
1.34383 -0.22972 -0.64089 254 254 253
1.34653 -0.23908 -0.63116 254 254 254
1.34924 -0.24843 -0.62143 254 254 254
1.35194 -0.25777 -0.61172 254 254 254
1.35464 -0.26710 -0.60202 254 254 254
1.35734 -0.27642 -0.59233 254 254 254
1.36003 -0.28574 -0.58265 254 254 254
1.36272 -0.29504 -0.57298 254 254 254
1.36541 -0.30433 -0.56332 254 254 254
1.36810 -0.31361 -0.55367 254 254 254
1.37078 -0.32288 -0.54403 254 254 254
1.37346 -0.33214 -0.53440 254 254 254
1.37614 -0.34139 -0.52478 254 254 254
1.37881 -0.35064 -0.51517 254 254 254
1.38148 -0.35987 -0.50557 254 254 254
1.38415 -0.36909 -0.49599 254 254 254
1.38682 -0.37830 -0.48641 254 254 254
1.38948 -0.38750 -0.47684 254 254 254
1.39214 -0.39670 -0.46728 254 254 254
1.39479 -0.40588 -0.45774 254 254 254
1.39745 -0.41505 -0.44820 254 254 254
1.40010 -0.42421 -0.43867 254 254 254
1.40275 -0.43337 -0.42916 254 254 254
1.40539 -0.44251 -0.41965 254 254 254
1.40804 -0.45165 -0.41015 254 254 254
1.41068 -0.46077 -0.40067 254 254 254
1.41331 -0.46988 -0.39119 254 254 254
1.41595 -0.47899 -0.38172 254 254 254
1.41858 -0.48808 -0.37227 254 254 254
1.42121 -0.49717 -0.36282 254 254 254
1.42383 -0.50625 -0.35339 254 254 254
1.42646 -0.51531 -0.34396 254 254 254
1.42908 -0.52437 -0.33454 254 254 254
1.30206 -0.17974 -0.69767 248 243 243
1.30478 -0.18910 -0.68793 249 246 244
1.30750 -0.19846 -0.67820 253 250 246
1.31022 -0.20781 -0.66848 254 254 251
1.31294 -0.21714 -0.65877 254 254 252
1.31565 -0.22647 -0.64907 254 254 253
1.31836 -0.23578 -0.63939 254 254 254
1.32107 -0.24509 -0.62971 254 254 254
1.32377 -0.25438 -0.62004 254 254 254
1.32647 -0.26367 -0.61038 254 254 254
1.32917 -0.27294 -0.60074 254 254 254
1.33187 -0.28221 -0.59110 254 254 254
1.33456 -0.29146 -0.58148 254 254 254
1.33725 -0.30071 -0.57186 254 254 254
1.33994 -0.30995 -0.56226 254 254 254
1.34262 -0.31917 -0.55266 254 254 254
1.34530 -0.32839 -0.54308 254 254 254
1.34798 -0.33760 -0.53350 254 254 254
1.35065 -0.34679 -0.52394 254 254 254
1.35333 -0.35598 -0.51438 254 254 254
1.35600 -0.36516 -0.50484 254 254 254
1.35866 -0.37432 -0.49531 254 254 254
1.36133 -0.38348 -0.48578 254 254 254
1.36399 -0.39263 -0.47627 254 254 254
1.36665 -0.40177 -0.46677 254 254 254
1.36930 -0.41090 -0.45727 254 254 254
1.37195 -0.42002 -0.44779 254 254 254
1.37460 -0.42912 -0.43832 254 254 254
1.37725 -0.43822 -0.42885 254 254 254
1.37989 -0.44731 -0.41940 254 254 254
1.38254 -0.45639 -0.40996 254 254 254
1.38517 -0.46547 -0.40052 254 254 254
1.38781 -0.47453 -0.39110 254 254 254
1.39044 -0.48358 -0.38169 254 254 254
1.39307 -0.49262 -0.37228 254 254 254
1.39570 -0.50165 -0.36289 254 254 254
1.39833 -0.51068 -0.35351 254 254 254
1.40095 -0.51969 -0.34413 254 254 254
1.40357 -0.52869 -0.33477 254 254 254
1.40618 -0.53769 -0.32541 254 254 254
1.27689 -0.18607 -0.69585 250 246 240
1.27961 -0.19538 -0.68616 252 250 247
1.28233 -0.20468 -0.67649 254 253 251
1.28505 -0.21397 -0.66683 254 254 252
1.28776 -0.22325 -0.65717 254 254 254
1.29048 -0.23252 -0.64753 254 254 254
1.29318 -0.24178 -0.63790 254 254 254
1.29589 -0.25103 -0.62828 254 254 254
1.29859 -0.26027 -0.61866 254 254 254
1.30129 -0.26950 -0.60906 254 254 254
1.30399 -0.27872 -0.59947 254 254 254
1.30668 -0.28793 -0.58989 254 254 254
1.30937 -0.29713 -0.58032 254 254 254
1.31206 -0.30632 -0.57076 254 254 254
1.31474 -0.31550 -0.56121 254 254 254
1.31743 -0.32467 -0.55167 254 254 254
1.32010 -0.33384 -0.54214 254 254 254
1.32278 -0.34299 -0.53262 254 254 254
1.32546 -0.35213 -0.52310 254 254 254
1.32813 -0.36126 -0.51360 254 254 254
1.33079 -0.37039 -0.50411 254 254 254
1.33346 -0.37950 -0.49463 254 254 254
1.33612 -0.38860 -0.48516 254 254 254
1.33878 -0.39770 -0.47570 254 254 254
1.34144 -0.40678 -0.46625 254 254 254
1.34409 -0.41586 -0.45681 254 254 254
1.34674 -0.42492 -0.44738 254 254 254
1.34939 -0.43398 -0.43796 254 254 254
1.35204 -0.44303 -0.42855 254 254 254
1.35468 -0.45206 -0.41915 254 254 254
1.35732 -0.46109 -0.40976 254 254 254
1.35996 -0.47011 -0.40038 254 254 254
1.36259 -0.47912 -0.39101 254 254 254
1.36522 -0.48812 -0.38165 254 254 254
1.36785 -0.49711 -0.37230 254 254 254
1.37048 -0.50609 -0.36295 254 254 254
1.37310 -0.51506 -0.35362 254 254 254
1.37572 -0.52402 -0.34430 254 254 254
1.37834 -0.53297 -0.33499 254 254 254
1.38096 -0.54191 -0.32569 254 254 254
1.38357 -0.55084 -0.31639 254 254 254
1.38618 -0.55977 -0.30711 254 254 254
1.25473 -0.20159 -0.68442 254 254 251
1.25745 -0.21083 -0.67480 254 254 252
1.26016 -0.22006 -0.66519 254 254 254
1.26287 -0.22929 -0.65559 254 254 254
1.26558 -0.23850 -0.64600 254 254 254
1.26829 -0.24771 -0.63643 254 254 254
1.27099 -0.25690 -0.62686 254 254 254
1.27369 -0.26609 -0.61730 254 254 254
1.27639 -0.27526 -0.60775 254 254 254
1.27908 -0.28443 -0.59822 254 254 254
1.28177 -0.29359 -0.58869 254 254 254
1.28446 -0.30273 -0.57917 254 254 254
1.28715 -0.31187 -0.56967 254 254 254
1.28983 -0.32100 -0.56017 254 254 254
1.29251 -0.33011 -0.55068 254 254 254
1.29519 -0.33922 -0.54120 254 254 254
1.29786 -0.34832 -0.53174 254 254 254
1.30054 -0.35741 -0.52228 254 254 254
1.30321 -0.36649 -0.51283 254 254 254
1.30587 -0.37556 -0.50340 254 254 254
1.30854 -0.38462 -0.49397 254 254 254
1.31120 -0.39367 -0.48455 254 254 254
1.31385 -0.40271 -0.47514 254 254 254
1.31651 -0.41174 -0.46575 254 254 254
1.31916 -0.42076 -0.45636 254 254 254
1.32181 -0.42978 -0.44698 254 254 254
1.32446 -0.43878 -0.43761 254 254 254
1.32710 -0.44777 -0.42825 254 254 254
1.32974 -0.45676 -0.41891 254 254 254
1.33238 -0.46573 -0.40957 254 254 254
1.33502 -0.47470 -0.40024 254 254 254
1.33765 -0.48366 -0.39092 254 254 254
1.34028 -0.49260 -0.38161 254 254 254
1.34291 -0.50154 -0.37231 254 254 254
1.34553 -0.51047 -0.36302 254 254 254
1.34815 -0.51939 -0.35374 254 254 254
1.35077 -0.52830 -0.34447 254 254 254
1.35339 -0.53720 -0.33521 254 254 254
1.35600 -0.54609 -0.32596 254 254 254
1.35862 -0.55497 -0.31671 254 254 254
1.36122 -0.56384 -0.30748 254 254 254
1.36383 -0.57271 -0.29826 254 254 254
1.23283 -0.21691 -0.67313 254 254 254
1.23555 -0.22609 -0.66357 254 254 254
1.25714 -0.29918 -0.58750 254 254 254
1.25983 -0.30827 -0.57804 254 254 254
1.26251 -0.31736 -0.56859 254 254 254
1.26520 -0.32643 -0.55914 254 254 254
1.26787 -0.33549 -0.54971 254 254 254
1.27055 -0.34455 -0.54028 254 254 254
1.27322 -0.35359 -0.53087 254 254 254
1.27589 -0.36263 -0.52147 254 254 254
1.27856 -0.37166 -0.51207 254 254 254
1.28122 -0.38067 -0.50269 254 254 254
1.28389 -0.38968 -0.49331 254 254 254
1.28655 -0.39868 -0.48395 254 254 254
1.28920 -0.40767 -0.47459 254 254 254
1.29185 -0.41665 -0.46525 254 254 254
1.29451 -0.42562 -0.45591 254 254 254
1.29715 -0.43458 -0.44658 254 254 254
1.29980 -0.44353 -0.43727 254 254 254
1.30244 -0.45247 -0.42796 254 254 254
1.30508 -0.46140 -0.41866 254 254 254
1.30772 -0.47033 -0.40938 254 254 254
1.31035 -0.47924 -0.40010 254 254 254
1.31298 -0.48815 -0.39083 254 254 254
1.31561 -0.49704 -0.38157 254 254 254
1.31824 -0.50593 -0.37232 254 254 254
1.32086 -0.51481 -0.36308 254 254 254
1.32348 -0.52367 -0.35386 254 254 254
1.32610 -0.53253 -0.34464 254 254 254
1.32871 -0.54138 -0.33542 254 254 254
1.33133 -0.55022 -0.32622 254 254 254
1.33394 -0.55905 -0.31703 254 254 254
1.33654 -0.56788 -0.30785 254 254 254
1.33915 -0.57669 -0.29868 254 254 254
1.34175 -0.58549 -0.28952 254 254 254
1.34435 -0.59429 -0.28036 254 254 254
1.24885 -0.35881 -0.53001 254 254 254
1.25152 -0.36779 -0.52066 254 254 254
1.25419 -0.37677 -0.51132 254 254 254
1.25685 -0.38573 -0.50198 254 254 254
