ply
format ascii 1.0
element face 0
property list uchar int vertex_indices
element vertex 1269
property float x
property float y
property float z
property uchar diffuse_red
property uchar diffuse_green
property uchar diffuse_blue
end_header
1.88454 -2.96379 -0.26075 158 170 180
1.88379 -2.97621 -0.24951 158 174 170
1.88304 -2.98863 -0.23828 159 172 169
1.88229 -3.00105 -0.22704 162 171 172
1.88155 -3.01346 -0.21581 169 177 173
1.88080 -3.02588 -0.20458 169 179 176
1.88005 -3.03828 -0.19335 167 173 174
1.87930 -3.05069 -0.18213 168 168 170
1.87856 -3.06309 -0.17091 167 171 171
1.87781 -3.07549 -0.15969 171 182 177
1.87706 -3.08789 -0.14847 171 184 175
1.87631 -3.10029 -0.13726 161 170 169
1.87557 -3.11268 -0.12605 157 167 170
1.87482 -3.12507 -0.11484 159 169 171
1.87408 -3.13745 -0.10363 161 173 170
1.87333 -3.14983 -0.09243 168 176 164
1.87258 -3.16221 -0.08123 160 164 152
1.87184 -3.17459 -0.07003 158 166 157
1.87109 -3.18696 -0.05884 158 167 154
1.87035 -3.19934 -0.04764 159 168 154
1.86960 -3.21170 -0.03645 162 171 149
1.86886 -3.22407 -0.02527 143 156 148
1.86811 -3.23643 -0.01408 156 164 153
1.86737 -3.24879 -0.00290 151 151 146
1.86662 -3.26115 0.00828 165 171 155
1.86588 -3.27350 0.01946 160 165 160
1.86513 -3.28585 0.03063 170 182 174
1.86439 -3.29820 0.04180 166 169 163
1.86365 -3.31054 0.05297 155 154 151
1.86290 -3.32288 0.06414 147 149 143
1.86216 -3.33522 0.07530 153 156 151
1.86142 -3.34756 0.08646 160 165 160
1.86067 -3.35989 0.09762 167 173 163
1.85993 -3.37222 0.10877 168 177 168
1.85919 -3.38455 0.11993 169 177 164
1.85844 -3.39687 0.13108 167 174 160
1.85770 -3.40920 0.14223 156 163 167
1.85696 -3.42151 0.15337 155 161 171
1.85622 -3.43383 0.16451 170 175 165
1.85547 -3.44614 0.17565 169 177 160
1.85473 -3.45845 0.18679 170 182 177
1.85399 -3.47076 0.19792 183 199 188
1.85325 -3.48306 0.20906 164 162 157
1.85251 -3.49536 0.22019 159 174 142
1.85177 -3.50766 0.23131 152 158 142
1.84289 -3.65502 0.36463 162 172 179
1.84215 -3.66728 0.37572 165 177 185
1.84141 -3.67954 0.38681 165 178 184
1.84067 -3.69179 0.39790 164 179 184
1.83994 -3.70404 0.40898 167 181 180
1.87071 -2.79224 -0.41810 142 150 128
1.86996 -2.80466 -0.40687 125 136 144
1.86922 -2.81707 -0.39564 129 137 143
1.86847 -2.82947 -0.38441 144 155 137
1.86773 -2.84188 -0.37319 148 158 149
1.86698 -2.85428 -0.36197 147 157 152
1.86624 -2.86668 -0.35075 136 131 147
1.86550 -2.87908 -0.33954 134 135 144
1.86475 -2.89147 -0.32832 139 151 147
1.86401 -2.90386 -0.31711 145 152 144
1.86326 -2.91625 -0.30590 138 150 156
1.86252 -2.92863 -0.29470 149 156 156
1.86178 -2.94101 -0.28350 149 161 148
1.86104 -2.95339 -0.27230 156 169 161
1.86029 -2.96577 -0.26110 148 159 160
1.85955 -2.97814 -0.24991 151 158 155
1.85881 -2.99051 -0.23871 164 174 172
1.85806 -3.00288 -0.22752 166 177 179
1.85732 -3.01524 -0.21634 163 172 164
1.85658 -3.02760 -0.20515 162 170 154
1.85584 -3.03996 -0.19397 163 171 166
1.85510 -3.05232 -0.18279 171 178 173
1.85436 -3.06467 -0.17162 172 180 168
1.85361 -3.07702 -0.16045 163 169 157
1.85287 -3.08937 -0.14927 164 172 159
1.85213 -3.10171 -0.13811 165 179 170
1.85139 -3.11405 -0.12694 156 169 167
1.85065 -3.12639 -0.11578 155 165 165
1.84991 -3.13872 -0.10462 157 160 160
1.84917 -3.15106 -0.09346 168 177 177
1.84843 -3.16338 -0.08231 171 175 164
1.84769 -3.17571 -0.07115 167 174 161
1.84695 -3.18803 -0.06000 160 164 157
1.84621 -3.20036 -0.04886 165 174 158
1.84547 -3.21267 -0.03771 169 166 152
1.84473 -3.22499 -0.02657 157 152 148
1.84399 -3.23730 -0.01543 153 165 160
1.84325 -3.24961 -0.00429 151 157 153
1.84252 -3.26191 0.00684 149 154 153
1.84178 -3.27422 0.01797 158 157 160
1.84104 -3.28652 0.02910 167 181 178
1.84030 -3.29882 0.04023 164 171 162
1.83956 -3.31111 0.05135 161 166 155
1.83883 -3.32340 0.06247 162 173 160
1.83809 -3.33569 0.07359 166 177 172
1.83735 -3.34798 0.08471 166 177 179
1.83661 -3.36026 0.09582 166 176 170
1.83588 -3.37254 0.10693 163 169 162
1.83514 -3.38482 0.11804 165 170 165
1.83440 -3.39709 0.12914 170 174 167
1.83367 -3.40936 0.14024 166 171 166
1.83293 -3.42163 0.15134 168 175 165
1.83219 -3.43390 0.16244 170 183 170
1.83146 -3.44616 0.17354 161 173 172
1.83072 -3.45842 0.18463 157 162 159
1.82998 -3.47068 0.19572 165 169 160
1.82925 -3.48293 0.20681 171 179 159
1.82851 -3.49518 0.21789 180 198 161
1.82778 -3.50743 0.22897 173 181 154
1.82704 -3.51968 0.24005 170 171 149
1.81897 -3.65419 0.36175 161 174 179
1.81824 -3.66640 0.37280 164 177 180
1.81750 -3.67861 0.38385 165 178 181
1.81677 -3.69081 0.39489 164 179 183
1.81604 -3.70301 0.40593 167 181 181
1.84658 -2.79492 -0.41781 145 145 128
1.84584 -2.80728 -0.40662 144 151 136
1.84510 -2.81964 -0.39544 145 157 135
1.84436 -2.83200 -0.38426 140 147 142
1.84362 -2.84435 -0.37308 145 157 155
1.84288 -2.85670 -0.36190 146 155 157
1.84214 -2.86905 -0.35073 152 163 147
1.84140 -2.88140 -0.33956 155 159 152
1.84067 -2.89374 -0.32839 136 141 157
1.83993 -2.90608 -0.31723 146 155 159
1.83919 -2.91842 -0.30607 151 157 161
1.83845 -2.93075 -0.29491 159 172 161
1.83772 -2.94308 -0.28375 156 166 155
1.83698 -2.95541 -0.27260 156 164 163
1.83624 -2.96773 -0.26144 157 167 160
1.83550 -2.98006 -0.25029 156 163 154
1.83477 -2.99238 -0.23915 156 165 158
1.83403 -3.00469 -0.22800 160 168 169
1.83330 -3.01701 -0.21686 164 176 169
1.83256 -3.02932 -0.20572 165 176 167
1.83182 -3.04163 -0.19459 164 174 172
1.83109 -3.05393 -0.18346 171 182 181
1.83035 -3.06623 -0.17232 175 185 181
1.82962 -3.07853 -0.16120 170 182 170
1.82888 -3.09083 -0.15007 171 185 166
1.82815 -3.10312 -0.13895 170 182 171
1.82741 -3.11541 -0.12783 162 170 175
1.82668 -3.12770 -0.11671 161 170 176
1.82594 -3.13999 -0.10559 164 175 171
1.82521 -3.15227 -0.09448 156 165 169
1.82447 -3.16455 -0.08337 170 183 175
1.82374 -3.17682 -0.07227 171 173 164
1.82300 -3.18910 -0.06116 159 165 163
1.82227 -3.20137 -0.05006 166 177 172
1.82154 -3.21363 -0.03896 156 159 163
1.82080 -3.22590 -0.02786 159 170 158
1.82007 -3.23816 -0.01677 151 159 156
1.81934 -3.25042 -0.00568 154 171 167
1.81861 -3.26268 0.00541 147 154 136
1.81787 -3.27493 0.01650 156 167 150
1.81714 -3.28718 0.02758 164 178 174
1.81641 -3.29943 0.03866 159 164 164
1.81568 -3.31167 0.04974 159 168 163
1.81494 -3.32391 0.06082 162 174 168
1.81421 -3.33615 0.07189 160 162 176
1.81348 -3.34839 0.08296 165 172 178
1.81275 -3.36062 0.09403 167 182 170
1.81202 -3.37285 0.10510 161 175 163
1.81129 -3.38508 0.11616 159 167 166
1.81055 -3.39730 0.12722 161 168 168
1.80982 -3.40953 0.13828 163 170 168
1.80909 -3.42175 0.14934 164 169 167
1.80836 -3.43396 0.16039 161 165 159
1.80763 -3.44617 0.17144 155 157 154
1.80690 -3.45838 0.18249 155 161 153
1.80617 -3.47059 0.19353 154 162 153
1.80544 -3.48280 0.20457 167 176 157
1.80471 -3.49500 0.21561 171 174 156
1.80398 -3.50720 0.22665 173 184 168
1.79524 -3.65336 0.35890 162 173 176
1.79452 -3.66552 0.36990 163 175 179
1.79379 -3.67768 0.38090 163 176 181
1.79306 -3.68984 0.39190 164 177 184
1.79233 -3.70199 0.40290 167 180 182
1.82264 -2.79757 -0.41751 145 163 153
1.82191 -2.80988 -0.40637 146 151 151
1.82117 -2.82219 -0.39523 152 155 152
1.82044 -2.83450 -0.38410 146 152 156
1.81971 -2.84680 -0.37297 135 147 154
1.81897 -2.85910 -0.36184 135 143 154
1.81824 -2.87140 -0.35071 144 145 152
1.81751 -2.88370 -0.33958 147 150 154
1.81678 -2.89599 -0.32846 134 140 157
1.81604 -2.90828 -0.31734 143 154 158
1.81531 -2.92057 -0.30623 150 162 164
1.81458 -2.93285 -0.29511 157 168 169
1.81385 -2.94513 -0.28400 155 162 162
1.81312 -2.95741 -0.27289 157 170 167
1.81239 -2.96968 -0.26178 168 179 167
1.81165 -2.98196 -0.25068 166 176 156
1.81092 -2.99423 -0.23958 155 165 146
1.81019 -3.00649 -0.22848 161 183 172
1.80946 -3.01876 -0.21738 166 181 177
1.80873 -3.03102 -0.20629 165 173 168
1.80800 -3.04328 -0.19520 157 166 163
1.80727 -3.05553 -0.18411 154 166 172
1.80654 -3.06778 -0.17302 163 172 173
1.80581 -3.08003 -0.16194 173 183 170
1.80508 -3.09228 -0.15086 173 183 166
1.80435 -3.10452 -0.13978 168 178 165
1.80362 -3.11676 -0.12871 164 176 173
1.80289 -3.12900 -0.11763 159 173 165
1.80217 -3.14124 -0.10656 161 177 170
1.80144 -3.15347 -0.09550 151 157 167
1.80071 -3.16570 -0.08443 157 167 173
1.79998 -3.17793 -0.07337 163 170 177
1.79925 -3.19015 -0.06231 165 174 174
1.79852 -3.20237 -0.05125 177 182 183
1.79780 -3.21459 -0.04020 155 149 162
1.79707 -3.22680 -0.02914 170 181 165
1.79634 -3.23902 -0.01809 160 172 155
1.79561 -3.25122 -0.00705 161 173 160
1.79489 -3.26343 0.00400 162 167 136
1.79416 -3.27564 0.01504 159 164 148
1.79343 -3.28784 0.02608 165 182 169
1.79271 -3.30003 0.03712 153 166 168
1.79198 -3.31223 0.04815 151 164 172
1.79125 -3.32442 0.05918 162 175 174
1.79053 -3.33661 0.07021 175 181 174
1.78980 -3.34880 0.08124 182 192 176
1.78908 -3.36098 0.09226 174 187 175
1.78835 -3.37316 0.10328 171 178 167
1.78762 -3.38534 0.11430 168 166 159
1.78690 -3.39752 0.12532 160 154 153
1.78617 -3.40969 0.13633 160 162 157
1.78545 -3.42186 0.14734 163 171 163
1.78472 -3.43403 0.15835 167 172 161
1.78400 -3.44619 0.16936 175 181 170
1.78328 -3.45835 0.18036 170 174 160
1.78255 -3.47051 0.19136 162 165 147
1.78183 -3.48267 0.20236 161 170 156
1.78110 -3.49482 0.21336 170 172 157
1.78038 -3.50697 0.22435 187 199 173
1.77966 -3.51911 0.23534 197 195 164
1.77171 -3.65255 0.35607 161 171 175
1.77099 -3.66466 0.36703 161 174 177
1.77026 -3.67677 0.37799 161 175 177
1.76954 -3.68888 0.38894 163 176 179
1.76882 -3.70098 0.39989 167 178 178
1.79890 -2.80020 -0.41722 134 149 162
1.79817 -2.81247 -0.40613 133 139 147
1.79744 -2.82472 -0.39503 141 140 141
1.79671 -2.83698 -0.38394 144 143 143
1.79599 -2.84924 -0.37286 140 150 152
1.79526 -2.86149 -0.36177 138 140 129
1.79453 -2.87374 -0.35069 133 140 141
1.79380 -2.88598 -0.33961 140 147 140
1.79308 -2.89822 -0.32853 142 150 156
1.79235 -2.91046 -0.31746 144 161 150
1.79163 -2.92270 -0.30638 148 166 152
1.79090 -2.93493 -0.29532 139 147 140
1.79017 -2.94717 -0.28425 143 144 150
1.78945 -2.95939 -0.27318 155 166 158
1.78872 -2.97162 -0.26212 154 163 146
1.78800 -2.98384 -0.25106 167 179 157
1.78727 -2.99606 -0.24001 165 177 158
1.78655 -3.00828 -0.22895 161 169 167
1.78582 -3.02049 -0.21790 160 175 175
1.78510 -3.03270 -0.20685 162 173 166
1.78437 -3.04491 -0.19580 159 167 158
1.78365 -3.05712 -0.18476 156 168 165
1.78292 -3.06932 -0.17372 165 178 180
1.78220 -3.08152 -0.16268 177 191 186
1.78148 -3.09372 -0.15164 182 193 178
1.78075 -3.10591 -0.14061 179 189 174
1.78003 -3.11810 -0.12958 170 182 176
1.77930 -3.13029 -0.11855 168 179 170
1.77858 -3.14248 -0.10752 171 188 178
1.77786 -3.15466 -0.09650 169 178 186
1.77714 -3.16684 -0.08548 175 185 180
1.77641 -3.17902 -0.07446 173 188 184
1.77569 -3.19119 -0.06345 169 178 176
1.77497 -3.20337 -0.05243 170 174 169
1.77425 -3.21553 -0.04142 163 169 151
1.77352 -3.22770 -0.03042 165 169 157
1.77280 -3.23986 -0.01941 148 162 149
1.77208 -3.25202 -0.00841 161 171 166
1.77136 -3.26418 0.00259 165 169 158
1.77064 -3.27634 0.01359 149 160 157
1.76992 -3.28849 0.02459 154 166 167
1.76920 -3.30064 0.03558 158 171 167
1.76847 -3.31278 0.04657 159 172 164
1.76775 -3.32493 0.05756 158 167 152
1.76703 -3.33707 0.06854 172 188 164
1.76631 -3.34920 0.07952 165 181 167
1.76559 -3.36134 0.09050 163 173 170
1.76487 -3.37347 0.10148 168 180 172
1.76415 -3.38560 0.11246 170 176 169
1.76343 -3.39773 0.12343 167 165 164
1.76271 -3.40985 0.13440 166 169 165
1.76199 -3.42197 0.14537 168 175 168
1.76128 -3.43409 0.15633 168 170 166
1.76056 -3.44621 0.16729 177 186 182
1.75984 -3.45832 0.17825 179 189 183
1.75912 -3.47043 0.18921 188 194 188
1.75840 -3.48253 0.20016 175 185 183
1.75768 -3.49464 0.21112 185 194 179
1.75696 -3.50674 0.22207 178 189 178
1.75625 -3.51884 0.23301 179 184 171
1.75481 -3.54303 0.25490 178 185 169
1.75409 -3.55512 0.26584 161 165 161
1.75338 -3.56720 0.27677 172 176 164
1.75266 -3.57929 0.28771 168 171 164
1.74836 -3.65174 0.35326 161 171 177
1.74764 -3.66380 0.36418 160 173 177
1.74693 -3.67586 0.37509 161 173 173
1.74621 -3.68792 0.38600 163 174 176
1.74550 -3.69998 0.39691 168 178 175
1.77534 -2.80281 -0.41694 134 142 150
1.77462 -2.81503 -0.40588 147 151 140
1.77390 -2.82724 -0.39484 152 151 141
1.77318 -2.83944 -0.38379 147 148 146
1.77245 -2.85165 -0.37275 143 149 158
1.77173 -2.86385 -0.36171 144 151 145
1.77101 -2.87605 -0.35067 141 144 146
1.77029 -2.88825 -0.33963 144 158 146
1.76957 -2.90044 -0.32860 146 162 154
1.76885 -2.91263 -0.31757 142 145 142
1.76813 -2.92482 -0.30654 157 164 154
1.76741 -2.93700 -0.29552 166 170 155
1.76669 -2.94918 -0.28449 158 154 157
1.76597 -2.96136 -0.27347 163 171 161
1.76525 -2.97354 -0.26246 156 169 161
1.76453 -2.98571 -0.25144 160 171 166
1.76381 -2.99788 -0.24043 169 181 166
1.76309 -3.01005 -0.22942 165 178 170
1.76237 -3.02222 -0.21841 159 172 176
1.76165 -3.03438 -0.20741 162 178 173
1.76093 -3.04654 -0.19640 159 174 161
1.76021 -3.05869 -0.18540 155 164 159
1.75950 -3.07085 -0.17441 161 171 172
1.75878 -3.08300 -0.16341 171 180 180
1.75806 -3.09515 -0.15242 178 181 173
1.75734 -3.10729 -0.14143 175 180 170
1.75662 -3.11943 -0.13044 168 178 172
1.75590 -3.13157 -0.11946 168 181 167
1.75519 -3.14371 -0.10848 169 183 171
1.75447 -3.15584 -0.09750 171 181 177
1.75375 -3.16798 -0.08652 178 189 177
1.75303 -3.18010 -0.07555 171 184 180
1.75232 -3.19223 -0.06458 161 172 178
1.75160 -3.20435 -0.05361 169 178 171
1.75088 -3.21647 -0.04264 179 188 165
1.75017 -3.22859 -0.03168 168 175 165
1.74945 -3.24070 -0.02071 154 164 152
1.74874 -3.25282 -0.00976 165 175 172
1.74802 -3.26492 0.00120 168 171 170
1.74730 -3.27703 0.01215 155 153 152
1.74659 -3.28913 0.02311 157 161 168
1.74587 -3.30123 0.03405 176 190 183
1.74516 -3.31333 0.04500 182 191 173
1.74444 -3.32543 0.05595 174 182 171
1.74373 -3.33752 0.06689 169 177 179
1.74301 -3.34961 0.07783 164 173 168
1.74230 -3.36169 0.08876 169 177 161
1.74158 -3.37378 0.09970 167 174 159
1.74087 -3.38586 0.11063 164 168 156
1.74016 -3.39794 0.12156 168 171 159
1.73944 -3.41001 0.13248 166 171 161
1.73873 -3.42208 0.14340 162 166 157
1.73801 -3.43415 0.15433 167 167 161
1.73730 -3.44622 0.16524 179 184 174
1.73659 -3.45828 0.17616 176 180 186
1.73587 -3.47035 0.18707 183 193 186
1.73516 -3.48240 0.19798 174 180 174
1.73445 -3.49446 0.20889 176 182 174
1.73374 -3.50651 0.21980 162 168 162
1.73302 -3.51856 0.23070 165 171 158
1.73231 -3.53061 0.24160 168 171 159
1.73160 -3.54266 0.25250 153 157 154
1.73089 -3.55470 0.26340 156 169 171
1.73018 -3.56674 0.27429 167 176 173
1.72946 -3.57877 0.28518 166 176 174
1.72591 -3.63891 0.33960 158 161 168
1.72520 -3.65093 0.35047 160 171 176
1.72449 -3.66295 0.36135 161 174 180
1.72378 -3.67496 0.37222 162 174 178
1.72307 -3.68697 0.38309 163 174 180
1.72236 -3.69898 0.39395 168 178 176
1.75198 -2.80540 -0.41665 136 147 141
1.75126 -2.81757 -0.40564 149 150 141
1.75055 -2.82973 -0.39464 156 160 155
1.74983 -2.84189 -0.38364 147 155 153
1.74911 -2.85404 -0.37264 142 146 156
1.74840 -2.86619 -0.36164 146 153 152
1.74768 -2.87834 -0.35065 151 157 148
1.74697 -2.89049 -0.33966 157 162 154
1.74625 -2.90264 -0.32867 163 167 161
1.74554 -2.91478 -0.31768 158 161 152
1.74482 -2.92692 -0.30670 161 166 159
1.74411 -2.93905 -0.29572 164 169 164
1.74339 -2.95118 -0.28474 162 164 160
1.74268 -2.96332 -0.27376 162 166 159
1.74196 -2.97544 -0.26279 163 167 175
1.74125 -2.98757 -0.25182 162 170 173
1.74053 -2.99969 -0.24085 171 180 169
1.73982 -3.01181 -0.22988 166 175 174
1.73911 -3.02392 -0.21892 160 172 177
1.73839 -3.03604 -0.20796 168 179 171
1.73768 -3.04815 -0.19700 159 170 162
1.73697 -3.06026 -0.18604 151 163 164
1.73625 -3.07236 -0.17509 158 169 173
1.73554 -3.08446 -0.16414 168 179 175
1.73483 -3.09656 -0.15319 177 185 170
1.73411 -3.10866 -0.14225 179 184 172
1.73340 -3.12075 -0.13130 174 185 179
1.73269 -3.13284 -0.12036 172 189 177
1.73198 -3.14493 -0.10942 172 185 175
1.73127 -3.15702 -0.09849 173 188 180
1.73055 -3.16910 -0.08756 174 190 181
1.72984 -3.18118 -0.07662 167 179 175
1.72913 -3.19326 -0.06570 164 175 173
1.72842 -3.20533 -0.05477 167 178 173
1.72771 -3.21740 -0.04385 178 194 185
1.72700 -3.22947 -0.03293 174 188 173
1.72629 -3.24154 -0.02201 167 171 158
1.72558 -3.25360 -0.01109 161 169 170
1.72487 -3.26566 -0.00018 153 161 152
1.72416 -3.27772 0.01073 151 162 153
1.72345 -3.28977 0.02164 166 180 181
1.72274 -3.30183 0.03254 178 195 190
1.72203 -3.31388 0.04345 181 193 178
1.72132 -3.32592 0.05435 162 175 167
1.72061 -3.33797 0.06524 150 157 162
1.71990 -3.35001 0.07614 159 167 158
1.71919 -3.36205 0.08703 169 174 160
1.71848 -3.37408 0.09792 168 176 170
1.71777 -3.38611 0.10881 169 177 166
1.71706 -3.39814 0.11970 172 176 161
1.71635 -3.41017 0.13058 167 170 157
1.71565 -3.42220 0.14146 159 161 151
1.71494 -3.43422 0.15234 163 174 160
1.71423 -3.44624 0.16321 171 178 162
1.71352 -3.45825 0.17409 168 175 174
1.71281 -3.47027 0.18496 164 177 173
1.71211 -3.48228 0.19582 165 171 168
1.71140 -3.49428 0.20669 171 182 173
1.71069 -3.50629 0.21755 157 167 154
1.70999 -3.51829 0.22841 174 177 160
1.70928 -3.53029 0.23927 174 176 163
1.70857 -3.54229 0.25013 164 166 163
1.70787 -3.55428 0.26098 165 169 171
1.70716 -3.56627 0.27183 166 176 177
1.70645 -3.57826 0.28268 175 184 187
1.70575 -3.59025 0.29352 166 180 175
1.70504 -3.60223 0.30436 183 182 168
1.70363 -3.62619 0.32604 164 168 162
1.70292 -3.63816 0.33688 160 165 169
1.70222 -3.65013 0.34771 161 171 174
1.70151 -3.66210 0.35854 165 174 179
1.70081 -3.67407 0.36937 165 174 181
1.70010 -3.68603 0.38020 165 174 182
1.69940 -3.69799 0.39102 169 177 177
1.72951 -2.79586 -0.42733 141 154 129
1.72880 -2.80797 -0.41637 139 142 130
1.72809 -2.82009 -0.40540 149 158 142
1.72738 -2.83220 -0.39444 152 161 150
1.72667 -2.84431 -0.38349 147 153 151
1.72596 -2.85642 -0.37253 140 147 149
1.72525 -2.86852 -0.36158 147 154 152
1.72454 -2.88062 -0.35063 152 162 154
1.72383 -2.89272 -0.33968 159 172 163
1.72312 -2.90482 -0.32874 173 178 164
1.72241 -2.91691 -0.31779 168 173 161
1.72170 -2.92900 -0.30685 161 166 164
1.72099 -2.94109 -0.29592 163 173 172
1.72028 -2.95317 -0.28498 170 177 161
1.71957 -2.96525 -0.27405 158 158 139
1.71886 -2.97733 -0.26312 151 159 147
1.71815 -2.98941 -0.25219 157 166 170
1.71744 -3.00148 -0.24127 162 173 172
1.71674 -3.01355 -0.23034 160 170 170
1.71603 -3.02562 -0.21942 161 172 171
1.71532 -3.03768 -0.20851 174 185 165
1.71461 -3.04975 -0.19759 169 180 162
1.71390 -3.06181 -0.18668 159 172 170
1.71320 -3.07386 -0.17577 167 177 174
1.71249 -3.08592 -0.16486 170 176 176
1.71178 -3.09797 -0.15396 166 175 180
1.71107 -3.11002 -0.14305 169 180 177
1.71037 -3.12206 -0.13215 165 173 175
1.70966 -3.13410 -0.12126 158 169 176
1.70895 -3.14614 -0.11036 163 175 173
1.70825 -3.15818 -0.09947 172 186 175
1.70754 -3.17022 -0.08858 170 179 168
1.70684 -3.18225 -0.07769 164 171 165
1.70613 -3.19428 -0.06681 168 177 171
1.70542 -3.20630 -0.05593 164 173 166
1.70472 -3.21833 -0.04505 161 168 155
1.70401 -3.23035 -0.03417 167 180 176
1.70331 -3.24237 -0.02329 159 167 167
1.70260 -3.25438 -0.01242 166 176 176
1.70190 -3.26639 -0.00155 157 161 161
1.70119 -3.27840 0.00932 159 169 163
1.70049 -3.29041 0.02018 166 181 178
1.69978 -3.30241 0.03104 171 182 182
1.69908 -3.31442 0.04190 175 179 168
1.69837 -3.32641 0.05276 156 160 162
1.69767 -3.33841 0.06361 153 160 166
1.69697 -3.35040 0.07447 168 180 175
1.69626 -3.36239 0.08532 174 183 173
1.69556 -3.37438 0.09616 171 179 171
1.69486 -3.38637 0.10701 170 180 172
1.69415 -3.39835 0.11785 170 178 171
1.69345 -3.41033 0.12869 167 171 164
1.69275 -3.42231 0.13953 163 166 159
1.69204 -3.43428 0.15036 164 170 165
1.69134 -3.44625 0.16120 166 174 164
1.69064 -3.45822 0.17203 164 167 168
1.68994 -3.47018 0.18285 162 165 171
1.68924 -3.48215 0.19368 167 171 169
1.68853 -3.49411 0.20450 176 183 171
1.68783 -3.50607 0.21532 174 182 157
1.68713 -3.51802 0.22614 179 179 162
1.68643 -3.52997 0.23695 177 180 166
1.68573 -3.54192 0.24777 175 184 164
1.68503 -3.55387 0.25858 178 186 160
1.68433 -3.56581 0.26939 175 175 168
1.68362 -3.57775 0.28019 177 180 167
1.68292 -3.58969 0.29099 154 171 155
1.68222 -3.60163 0.30179 177 185 177
1.68152 -3.61356 0.31259 177 180 168
1.68082 -3.62549 0.32339 161 168 164
1.68012 -3.63742 0.33418 158 167 169
1.67942 -3.64934 0.34497 162 172 173
1.67872 -3.66127 0.35576 164 175 178
1.67802 -3.67318 0.36654 164 175 183
1.67733 -3.68510 0.37733 164 175 188
1.67663 -3.69701 0.38811 168 176 181
1.70792 -2.77431 -0.44886 137 145 150
1.70722 -2.78638 -0.43793 135 140 144
1.70651 -2.79845 -0.42701 132 137 132
1.70581 -2.81052 -0.41609 136 136 131
1.70510 -2.82259 -0.40517 139 150 141
1.70439 -2.83465 -0.39425 137 148 145
1.70369 -2.84671 -0.38334 154 161 153
1.70298 -2.85877 -0.37242 142 146 150
1.70228 -2.87083 -0.36152 144 152 157
1.70157 -2.88288 -0.35061 150 158 163
1.70087 -2.89493 -0.33970 165 171 169
1.70017 -2.90698 -0.32880 171 176 161
1.69946 -2.91902 -0.31790 157 159 160
1.69876 -2.93106 -0.30701 147 156 161
1.69805 -2.94310 -0.29611 156 172 171
1.69735 -2.95514 -0.28522 165 178 169
1.69665 -2.96717 -0.27433 160 161 147
1.69594 -2.97920 -0.26345 154 164 151
1.69524 -2.99123 -0.25256 165 177 174
1.69454 -3.00326 -0.24168 162 177 174
1.69383 -3.01528 -0.23080 159 175 171
1.69313 -3.02730 -0.21992 169 180 175
1.69243 -3.03932 -0.20905 182 189 176
1.69173 -3.05133 -0.19818 168 177 165
1.69102 -3.06334 -0.18731 160 175 167
1.69032 -3.07535 -0.17644 166 176 168
1.68962 -3.08736 -0.16558 166 169 166
1.68892 -3.09936 -0.15472 163 169 173
1.68822 -3.11136 -0.14386 169 177 173
1.68751 -3.12336 -0.13300 170 175 168
1.68681 -3.13535 -0.12215 163 168 173
1.68611 -3.14735 -0.11129 167 181 181
1.68541 -3.15934 -0.10044 172 189 180
1.68471 -3.17132 -0.08960 172 187 171
1.68401 -3.18331 -0.07875 171 184 172
1.68331 -3.19529 -0.06791 169 180 175
1.68261 -3.20727 -0.05707 163 170 151
1.68191 -3.21924 -0.04624 156 152 124
1.68121 -3.23122 -0.03540 171 187 169
1.68051 -3.24319 -0.02457 150 167 153
1.67981 -3.25515 -0.01374 166 181 177
1.67911 -3.26712 -0.00291 171 175 173
1.67841 -3.27908 0.00791 178 185 170
1.67771 -3.29104 0.01873 170 169 157
1.67701 -3.30300 0.02955 166 170 165
1.67631 -3.31495 0.04037 177 180 171
1.67561 -3.32690 0.05119 174 179 172
1.67492 -3.33885 0.06200 172 180 176
1.67422 -3.35080 0.07281 175 187 186
1.67352 -3.36274 0.08361 178 190 183
1.67282 -3.37468 0.09442 175 185 176
1.67212 -3.38662 0.10522 166 177 166
1.67142 -3.39855 0.11602 162 174 168
1.67073 -3.41049 0.12682 165 174 177
1.67003 -3.42242 0.13761 171 177 175
1.66933 -3.43434 0.14841 172 177 173
1.66863 -3.44627 0.15920 167 170 167
1.66794 -3.45819 0.16998 170 169 171
1.66724 -3.47011 0.18077 166 164 172
1.66654 -3.48202 0.19155 172 179 171
1.66585 -3.49393 0.20233 180 190 166
1.66515 -3.50584 0.21311 175 187 167
1.66446 -3.51775 0.22388 181 190 179
1.66376 -3.52966 0.23466 180 185 172
1.66306 -3.54156 0.24543 177 182 166
1.66237 -3.55346 0.25620 173 174 153
1.66167 -3.56536 0.26696 168 175 164
1.66098 -3.57725 0.27772 170 176 165
1.66028 -3.58914 0.28848 158 171 157
1.65959 -3.60103 0.29924 170 180 174
1.65889 -3.61292 0.31000 175 178 169
1.65820 -3.62480 0.32075 154 160 160
1.65750 -3.63668 0.33150 151 163 164
1.65681 -3.64856 0.34225 158 172 173
1.65611 -3.66043 0.35300 161 175 178
1.65542 -3.67231 0.36374 163 175 181
1.65472 -3.68418 0.37448 164 175 183
1.65403 -3.69604 0.38522 168 177 177
1.68860 -2.71680 -0.50290 131 151 133
1.68790 -2.72884 -0.49201 133 140 130
1.68720 -2.74088 -0.48111 133 135 127
1.68650 -2.75292 -0.47022 132 134 128
1.68579 -2.76495 -0.45934 135 141 132
1.68509 -2.77698 -0.44845 144 151 148
1.68439 -2.78901 -0.43757 145 157 153
1.68369 -2.80103 -0.42669 129 135 134
1.68299 -2.81305 -0.41581 134 134 132
1.68229 -2.82507 -0.40493 137 138 143
1.68159 -2.83709 -0.39406 139 154 146
1.68089 -2.84910 -0.38319 149 158 147
1.68019 -2.86111 -0.37232 143 145 152
1.67949 -2.87312 -0.36145 142 147 164
1.67879 -2.88512 -0.35059 153 161 172
1.67810 -2.89712 -0.33973 166 172 174
1.67740 -2.90912 -0.32887 166 171 167
1.67670 -2.92112 -0.31801 161 167 170
1.67600 -2.93311 -0.30716 161 169 165
1.67530 -2.94511 -0.29631 162 174 168
1.67460 -2.95709 -0.28546 164 171 168
1.67390 -2.96908 -0.27461 168 170 163
1.67321 -2.98106 -0.26377 164 176 167
1.67251 -2.99304 -0.25293 169 181 173
1.67181 -3.00502 -0.24209 164 175 172
1.67111 -3.01700 -0.23125 167 178 174
1.67042 -3.02897 -0.22042 175 187 178
1.66972 -3.04094 -0.20959 176 183 182
1.66902 -3.05291 -0.19876 169 175 172
1.66832 -3.06487 -0.18793 169 179 172
1.66763 -3.07683 -0.17711 176 188 179
1.66693 -3.08879 -0.16629 175 186 173
1.66623 -3.10074 -0.15547 170 179 165
1.66554 -3.11270 -0.14465 172 178 166
1.66484 -3.12465 -0.13384 172 181 169
1.66415 -3.13660 -0.12303 166 178 176
1.66345 -3.14854 -0.11222 166 184 184
1.66275 -3.16048 -0.10141 168 185 181
1.66206 -3.17242 -0.09061 174 186 175
1.66136 -3.18436 -0.07980 173 184 170
1.66067 -3.19629 -0.06901 167 179 173
1.65997 -3.20822 -0.05821 169 177 160
1.65928 -3.22015 -0.04741 166 167 143
1.65858 -3.23208 -0.03662 174 185 169
1.65789 -3.24400 -0.02583 157 176 164
1.65719 -3.25592 -0.01505 170 183 178
1.65650 -3.26784 -0.00426 176 181 179
1.65581 -3.27975 0.00652 182 190 179
1.65511 -3.29167 0.01730 176 179 169
1.65442 -3.30358 0.02808 160 165 168
1.65373 -3.31548 0.03885 171 182 178
1.65303 -3.32739 0.04962 179 190 180
1.65234 -3.33929 0.06039 174 185 181
1.65165 -3.35119 0.07116 170 183 187
1.65095 -3.36308 0.08193 181 191 189
1.65026 -3.37498 0.09269 190 196 185
1.64957 -3.38687 0.10345 184 188 173
1.64887 -3.39876 0.11421 171 173 163
1.64818 -3.41064 0.12496 162 167 162
1.64749 -3.42252 0.13571 167 174 162
1.64680 -3.43440 0.14646 169 175 166
1.64611 -3.44628 0.15721 159 164 163
1.64541 -3.45815 0.16796 161 164 161
1.64472 -3.47003 0.17870 156 161 164
1.64403 -3.48190 0.18944 162 175 180
1.64334 -3.49376 0.20018 179 191 172
1.64265 -3.50563 0.21091 171 175 169
1.64196 -3.51749 0.22165 183 195 184
1.64127 -3.52935 0.23238 180 188 171
1.64058 -3.54120 0.24311 173 178 176
1.63989 -3.55305 0.25383 168 176 167
1.63920 -3.56490 0.26456 160 163 155
1.63851 -3.57675 0.27528 168 175 169
1.63782 -3.58860 0.28600 163 168 170
1.63713 -3.60044 0.29671 172 180 175
1.63644 -3.61228 0.30743 174 180 171
1.63575 -3.62411 0.31814 156 157 154
1.63506 -3.63595 0.32885 153 160 156
1.63437 -3.64778 0.33955 159 171 174
1.63368 -3.65961 0.35026 161 175 180
1.63299 -3.67143 0.36096 162 176 180
1.63230 -3.68326 0.37166 163 176 180
1.63161 -3.69508 0.38235 168 177 176
1.66662 -2.70770 -0.51314 127 135 124
1.66592 -2.71969 -0.50228 132 140 133
1.66523 -2.73169 -0.49143 135 135 131
1.66453 -2.74368 -0.48058 137 137 126
1.66384 -2.75566 -0.46973 136 142 129
1.66314 -2.76765 -0.45889 135 141 131
1.66245 -2.77963 -0.44804 146 149 144
1.66175 -2.79161 -0.43720 153 160 157
1.66106 -2.80359 -0.42637 134 142 147
1.66036 -2.81556 -0.41553 139 146 144
1.65967 -2.82753 -0.40470 137 132 138
1.65897 -2.83950 -0.39387 141 145 136
1.65828 -2.85147 -0.38304 146 155 141
1.65758 -2.86343 -0.37221 143 137 137
1.65689 -2.87539 -0.36139 150 157 159
1.65619 -2.88735 -0.35057 161 168 170
1.65550 -2.89930 -0.33975 153 167 167
1.65481 -2.91125 -0.32893 155 160 157
1.65411 -2.92320 -0.31812 163 174 176
1.65342 -2.93515 -0.30731 170 178 167
1.65273 -2.94709 -0.29650 164 181 171
1.65203 -2.95903 -0.28570 157 166 165
1.65134 -2.97097 -0.27489 157 165 167
1.65065 -2.98291 -0.26409 164 175 170
1.64996 -2.99484 -0.25329 173 184 177
1.64926 -3.00677 -0.24250 167 172 174
1.64857 -3.01870 -0.23170 170 182 176
1.64788 -3.03062 -0.22091 172 185 175
1.64719 -3.04255 -0.21012 170 176 175
1.64649 -3.05447 -0.19934 169 169 171
1.64580 -3.06638 -0.18855 174 177 175
1.64511 -3.07830 -0.17777 180 188 182
1.64442 -3.09021 -0.16699 174 183 177
1.64373 -3.10212 -0.15622 169 182 173
1.64304 -3.11402 -0.14544 171 183 178
1.64235 -3.12593 -0.13467 167 177 180
1.64166 -3.13783 -0.12390 169 183 182
1.64097 -3.14972 -0.11313 172 183 190
1.64028 -3.16162 -0.10237 176 188 191
1.63959 -3.17351 -0.09161 177 187 178
1.63890 -3.18540 -0.08085 167 174 166
1.63821 -3.19729 -0.07009 158 169 170
1.63752 -3.20917 -0.05934 170 182 180
1.63683 -3.22105 -0.04858 175 186 174
1.63614 -3.23293 -0.03783 172 187 177
1.63545 -3.24481 -0.02709 168 185 174
1.63476 -3.25668 -0.01634 167 181 182
1.63407 -3.26855 -0.00560 174 183 178
1.63338 -3.28042 0.00514 173 187 167
1.63269 -3.29229 0.01588 176 188 176
1.63200 -3.30415 0.02661 167 175 178
1.63131 -3.31601 0.03734 169 181 181
1.63063 -3.32787 0.04808 177 185 181
1.62994 -3.33972 0.05880 179 188 181
1.62925 -3.35158 0.06953 178 188 185
1.62856 -3.36342 0.08025 186 194 185
1.62788 -3.37527 0.09097 191 197 184
1.62719 -3.38712 0.10169 186 190 180
1.62650 -3.39896 0.11241 173 174 165
1.62581 -3.41080 0.12312 162 165 152
1.62513 -3.42263 0.13383 165 172 152
1.62444 -3.43446 0.14454 170 176 156
1.62375 -3.44630 0.15524 155 162 151
1.62307 -3.45812 0.16595 151 160 156
1.62238 -3.46995 0.17665 161 170 163
1.62169 -3.48177 0.18735 173 188 183
1.62101 -3.49359 0.19804 178 182 170
1.62032 -3.50541 0.20874 173 176 170
1.61964 -3.51722 0.21943 173 183 173
1.61895 -3.52903 0.23012 172 176 168
1.61827 -3.54084 0.24080 166 174 178
1.61758 -3.55265 0.25149 167 175 173
1.61690 -3.56445 0.26217 166 174 164
1.61621 -3.57626 0.27285 168 175 170
1.61553 -3.58805 0.28353 164 170 177
1.61484 -3.59985 0.29420 174 184 182
1.61416 -3.61164 0.30487 174 182 174
1.61347 -3.62343 0.31554 160 170 162
1.61279 -3.63522 0.32621 157 168 165
1.61210 -3.64701 0.33687 161 172 176
1.61142 -3.65879 0.34754 161 176 180
1.64550 -2.68671 -0.53411 140 141 128
1.64481 -2.69866 -0.52330 140 136 122
1.64412 -2.71061 -0.51248 134 133 127
1.64343 -2.72256 -0.50167 133 141 130
1.64274 -2.73451 -0.49086 138 143 122
1.64205 -2.74645 -0.48005 140 138 123
1.64136 -2.75839 -0.46925 139 144 136
1.64066 -2.77033 -0.45844 139 145 140
1.63997 -2.78226 -0.44764 146 146 145
1.63928 -2.79419 -0.43684 156 152 156
1.63860 -2.80612 -0.42605 153 150 161
1.63791 -2.81805 -0.41526 156 161 156
1.63722 -2.82997 -0.40447 152 148 136
1.63653 -2.84189 -0.39368 147 152 143
1.63584 -2.85381 -0.38289 150 162 152
1.63515 -2.86573 -0.37211 152 157 152
1.63446 -2.87764 -0.36133 157 165 161
1.63377 -2.88955 -0.35055 164 172 167
1.63308 -2.90146 -0.33977 157 170 166
1.63239 -2.91336 -0.32900 147 156 153
1.63171 -2.92527 -0.31823 155 165 168
1.63102 -2.93717 -0.30746 175 179 159
1.63033 -2.94906 -0.29669 163 169 163
1.62964 -2.96096 -0.28593 149 163 165
1.62895 -2.97285 -0.27517 150 165 164
1.62827 -2.98474 -0.26441 160 169 168
1.62758 -2.99662 -0.25365 169 177 173
1.62689 -3.00851 -0.24290 168 173 170
1.62620 -3.02039 -0.23215 173 183 180
1.62552 -3.03227 -0.22140 168 176 174
1.62483 -3.04414 -0.21065 170 177 172
1.62414 -3.05601 -0.19991 177 184 168
1.62346 -3.06788 -0.18917 181 187 172
1.62277 -3.07975 -0.17843 181 188 181
1.62209 -3.09162 -0.16769 175 182 183
1.62140 -3.10348 -0.15696 173 185 185
1.62071 -3.11534 -0.14622 173 186 183
1.62003 -3.12719 -0.13549 167 174 173
1.61934 -3.13905 -0.12477 171 178 172
1.61866 -3.15090 -0.11404 173 180 178
1.61797 -3.16275 -0.10332 176 184 180
1.61729 -3.17459 -0.09260 175 182 182
1.61660 -3.18644 -0.08188 167 175 170
1.61592 -3.19828 -0.07117 167 178 172
1.61523 -3.21011 -0.06046 178 191 194
1.61455 -3.22195 -0.04975 180 191 190
1.61387 -3.23378 -0.03904 167 173 174
1.61318 -3.24561 -0.02833 166 175 168
1.61250 -3.25744 -0.01763 168 180 184
1.61181 -3.26926 -0.00693 175 185 176
1.61113 -3.28109 0.00377 175 188 166
1.61045 -3.29290 0.01447 181 191 184
1.60976 -3.30472 0.02516 180 187 186
1.60908 -3.31653 0.03585 175 184 188
1.60840 -3.32835 0.04654 181 192 191
1.60771 -3.34015 0.05722 184 196 189
1.60703 -3.35196 0.06791 181 190 187
1.60635 -3.36376 0.07859 184 193 187
1.60567 -3.37556 0.08927 184 195 190
1.60498 -3.38736 0.09994 178 185 186
1.60430 -3.39916 0.11062 171 175 172
1.60362 -3.41095 0.12129 168 173 159
1.60294 -3.42274 0.13196 176 183 162
1.60226 -3.43453 0.14263 181 188 168
1.60158 -3.44631 0.15329 167 173 159
1.60089 -3.45809 0.16395 163 171 168
1.60021 -3.46987 0.17461 171 175 167
1.59953 -3.48165 0.18527 178 188 176
1.59885 -3.49342 0.19592 175 183 174
1.59817 -3.50519 0.20658 172 179 162
1.59749 -3.51696 0.21723 170 178 164
1.59681 -3.52873 0.22787 171 182 169
1.59613 -3.54049 0.23852 162 174 175
1.59545 -3.55225 0.24916 171 177 170
1.59477 -3.56401 0.25980 179 185 175
1.59409 -3.57576 0.27044 173 175 168
1.59341 -3.58752 0.28108 168 177 170
1.59273 -3.59927 0.29171 166 175 170
1.58866 -3.66971 0.35546 162 177 180
1.62385 -2.67779 -0.54415 130 137 141
1.62316 -2.68969 -0.53338 141 146 138
1.62248 -2.70160 -0.52260 144 149 130
1.62179 -2.71351 -0.51183 141 142 133
1.62111 -2.72541 -0.50106 142 147 138
1.62042 -2.73730 -0.49029 142 153 137
1.61974 -2.74920 -0.47953 142 146 136
1.61905 -2.76109 -0.46876 143 146 140
1.61836 -2.77298 -0.45800 142 149 143
1.61768 -2.78487 -0.44724 149 153 146
1.61699 -2.79676 -0.43649 160 159 152
1.61631 -2.80864 -0.42573 156 157 153
1.61563 -2.82052 -0.41498 157 157 146
1.61494 -2.83240 -0.40424 155 156 143
1.61426 -2.84427 -0.39349 147 157 153
1.61357 -2.85614 -0.38275 144 159 159
1.61289 -2.86801 -0.37201 157 177 160
1.61221 -2.87988 -0.36127 157 166 167
1.61152 -2.89174 -0.35053 161 168 170
1.61084 -2.90360 -0.33980 169 171 179
1.61016 -2.91546 -0.32907 161 167 167
1.60947 -2.92732 -0.31834 160 172 172
1.60879 -2.93917 -0.30761 171 176 160
1.60811 -2.95102 -0.29689 160 164 150
1.60742 -2.96287 -0.28616 152 162 161
1.60674 -2.97471 -0.27544 152 160 161
1.60606 -2.98655 -0.26473 160 169 171
1.60538 -2.99839 -0.25401 164 175 173
1.60470 -3.01023 -0.24330 167 177 173
1.60401 -3.02206 -0.23259 173 183 184
1.60333 -3.03390 -0.22188 167 177 176
1.60265 -3.04572 -0.21118 170 180 175
1.60197 -3.05755 -0.20048 179 190 172
1.60129 -3.06937 -0.18978 182 191 169
1.60061 -3.08119 -0.17908 175 185 177
1.59993 -3.09301 -0.16838 170 181 184
1.59925 -3.10483 -0.15769 172 179 181
1.59856 -3.11664 -0.14700 176 177 175
1.59788 -3.12845 -0.13631 175 178 171
1.59720 -3.14026 -0.12563 173 180 171
1.59652 -3.15206 -0.11495 167 179 172
1.59584 -3.16387 -0.10426 167 178 172
1.59516 -3.17567 -0.09359 175 185 189
1.59448 -3.18746 -0.08291 170 178 181
1.59380 -3.19926 -0.07224 174 186 175
1.59313 -3.21105 -0.06157 177 186 185
1.59245 -3.22284 -0.05090 174 180 181
1.59177 -3.23462 -0.04023 161 157 172
1.59109 -3.24641 -0.02957 164 169 169
1.59041 -3.25819 -0.01891 172 182 182
1.58973 -3.26997 -0.00825 180 192 177
1.58905 -3.28174 0.00241 181 189 184
1.58837 -3.29352 0.01306 185 194 199
1.58770 -3.30529 0.02372 188 193 192
1.58702 -3.31705 0.03437 185 192 193
1.58634 -3.32882 0.04501 191 205 204
1.58566 -3.34058 0.05566 186 198 198
1.58498 -3.35234 0.06630 176 184 189
1.58431 -3.36410 0.07694 172 180 183
1.58363 -3.37585 0.08758 171 181 184
1.58295 -3.38760 0.09821 172 181 185
1.58228 -3.39935 0.10885 173 180 177
1.58160 -3.41110 0.11948 173 179 162
1.58092 -3.42284 0.13010 179 187 163
1.58025 -3.43459 0.14073 182 190 178
1.57957 -3.44632 0.15135 172 176 171
1.57889 -3.45806 0.16197 171 180 178
1.57822 -3.46979 0.17259 174 178 170
1.57754 -3.48152 0.18321 175 180 171
1.57687 -3.49325 0.19382 167 181 180
1.57619 -3.50498 0.20443 178 193 177
1.57551 -3.51670 0.21504 179 193 177
1.57484 -3.52842 0.22565 174 187 172
1.57416 -3.54014 0.23625 164 171 164
1.57349 -3.55185 0.24685 168 172 165
1.57281 -3.56357 0.25745 179 188 181
1.57214 -3.57528 0.26805 177 186 175
1.57147 -3.58698 0.27864 173 183 169
1.56675 -3.66886 0.35274 163 177 181
1.60304 -2.65706 -0.56486 130 136 128
1.60236 -2.66893 -0.55412 132 136 129
1.60168 -2.68080 -0.54338 138 140 125
1.60100 -2.69266 -0.53264 138 145 136
1.60032 -2.70452 -0.52191 135 145 141
1.59964 -2.71638 -0.51118 139 144 137
1.59896 -2.72823 -0.50045 146 153 144
1.59828 -2.74008 -0.48973 136 150 151
1.59760 -2.75193 -0.47900 134 144 146
1.59692 -2.76378 -0.46828 147 151 141
1.59624 -2.77562 -0.45756 147 157 149
1.59556 -2.78746 -0.44685 150 160 148
1.59488 -2.79930 -0.43613 156 162 149
1.59420 -2.81114 -0.42542 149 155 146
1.59352 -2.82297 -0.41471 155 157 148
1.59284 -2.83480 -0.40401 154 158 150
1.59216 -2.84663 -0.39330 159 159 153
1.59148 -2.85845 -0.38260 141 153 157
1.59080 -2.87028 -0.37190 153 169 161
1.59013 -2.88210 -0.36121 151 159 168
1.58945 -2.89391 -0.35051 157 164 170
1.58877 -2.90573 -0.33982 167 169 181
1.58809 -2.91754 -0.32913 164 166 177
1.58741 -2.92935 -0.31844 162 180 180
1.58674 -2.94116 -0.30776 167 175 162
1.58606 -2.95296 -0.29708 156 167 153
1.58538 -2.96476 -0.28639 159 167 161
1.58470 -2.97656 -0.27572 160 167 163
1.58403 -2.98835 -0.26504 170 179 178
1.58335 -3.00015 -0.25437 166 173 174
1.58267 -3.01194 -0.24370 164 175 176
1.58200 -3.02373 -0.23303 169 185 181
1.58132 -3.03551 -0.22236 165 180 175
1.58064 -3.04729 -0.21170 166 179 177
1.57997 -3.05907 -0.20104 176 185 180
1.57929 -3.07085 -0.19038 180 190 178
1.57861 -3.08263 -0.17973 177 187 176
1.57794 -3.09440 -0.16907 174 184 177
1.57726 -3.10617 -0.15842 175 181 175
1.57659 -3.11794 -0.14777 177 172 169
1.57591 -3.12970 -0.13713 177 171 171
1.57524 -3.14146 -0.12648 174 182 176
1.57456 -3.15322 -0.11584 165 176 169
1.57389 -3.16498 -0.10520 162 171 167
1.57321 -3.17673 -0.09456 173 186 190
1.57254 -3.18848 -0.08393 166 172 185
1.57186 -3.20023 -0.07330 167 181 173
1.57119 -3.21198 -0.06267 164 165 156
1.57051 -3.22372 -0.05204 168 174 169
1.56984 -3.23546 -0.04141 162 161 167
1.56917 -3.24720 -0.03079 165 174 171
1.56849 -3.25893 -0.02017 179 187 173
1.56782 -3.27066 -0.00955 184 191 180
1.56715 -3.28239 0.00106 181 189 193
1.56647 -3.29412 0.01167 182 192 197
1.56580 -3.30585 0.02229 186 192 184
1.56513 -3.31757 0.03289 189 197 190
1.56445 -3.32929 0.04350 190 202 200
1.56378 -3.34101 0.05410 184 194 197
1.56311 -3.35272 0.06470 177 186 194
1.56244 -3.36443 0.07530 176 186 186
1.56176 -3.37614 0.08590 176 186 180
1.56109 -3.38785 0.09649 176 185 179
1.56042 -3.39955 0.10709 180 189 178
1.55975 -3.41125 0.11768 182 189 171
1.55908 -3.42295 0.12826 183 189 168
1.55841 -3.43465 0.13885 180 185 178
1.55773 -3.44634 0.14943 170 174 178
1.55706 -3.45803 0.16001 170 185 182
1.55639 -3.46972 0.17059 173 184 171
1.55572 -3.48140 0.18116 177 185 167
1.55505 -3.49309 0.19173 165 173 169
1.55438 -3.50477 0.20230 175 184 179
1.55371 -3.51644 0.21287 179 193 187
1.55304 -3.52812 0.22344 170 179 172
1.55237 -3.53979 0.23400 161 162 153
1.55170 -3.55146 0.24456 163 168 164
1.54568 -3.65637 0.33951 164 173 179
1.54434 -3.67966 0.36058 164 176 181
1.58104 -2.66014 -0.56401 134 136 134
1.58036 -2.67196 -0.55331 139 143 138
1.57969 -2.68378 -0.54261 145 148 129
1.57901 -2.69560 -0.53192 141 144 132
1.57833 -2.70741 -0.52123 129 134 137
1.57766 -2.71922 -0.51054 132 134 135
1.57698 -2.73103 -0.49985 143 153 148
1.57631 -2.74284 -0.48917 138 155 151
1.57563 -2.75464 -0.47849 137 148 144
1.57496 -2.76644 -0.46781 149 154 146
1.57428 -2.77824 -0.45713 145 150 146
1.57361 -2.79003 -0.44646 146 160 148
1.57293 -2.80182 -0.43578 156 164 145
1.57226 -2.81361 -0.42511 150 154 144
1.57158 -2.82540 -0.41445 156 159 158
1.57091 -2.83719 -0.40378 151 153 158
1.57024 -2.84897 -0.39312 168 164 162
1.56956 -2.86075 -0.38246 160 167 165
1.56889 -2.87252 -0.37180 157 163 163
1.56822 -2.88430 -0.36115 147 155 167
1.56754 -2.89607 -0.35049 155 165 165
1.56687 -2.90784 -0.33984 163 167 168
1.56620 -2.91960 -0.32919 159 161 170
1.56552 -2.93137 -0.31855 153 164 168
1.56485 -2.94313 -0.30790 166 177 157
1.56418 -2.95488 -0.29726 157 169 162
1.56351 -2.96664 -0.28662 167 179 167
1.56283 -2.97839 -0.27599 174 182 171
1.56216 -2.99014 -0.26535 171 178 173
1.56149 -3.00189 -0.25472 162 167 166
1.56082 -3.01363 -0.24409 159 168 168
1.56015 -3.02538 -0.23347 171 185 179
1.55948 -3.03712 -0.22284 172 182 178
1.55880 -3.04885 -0.21222 168 177 179
1.55813 -3.06059 -0.20160 166 176 183
1.55746 -3.07232 -0.19098 172 180 187
1.55679 -3.08405 -0.18037 182 188 182
1.55612 -3.09577 -0.16976 182 188 175
1.55545 -3.10750 -0.15915 181 188 175
1.55478 -3.11922 -0.14854 183 184 175
1.55411 -3.13094 -0.13793 178 176 177
1.55344 -3.14265 -0.12733 180 188 180
1.55277 -3.15437 -0.11673 176 181 169
1.55210 -3.16608 -0.10613 165 170 161
1.55143 -3.17779 -0.09553 167 177 179
1.55076 -3.18949 -0.08494 160 166 172
1.55009 -3.20120 -0.07435 162 171 162
1.54942 -3.21290 -0.06376 169 172 146
1.54875 -3.22459 -0.05317 175 181 162
1.54808 -3.23629 -0.04259 172 177 167
1.54741 -3.24798 -0.03201 170 181 175
1.54675 -3.25967 -0.02143 180 188 173
1.54608 -3.27136 -0.01085 187 193 184
1.54073 -3.36476 0.07368 181 190 186
1.54007 -3.37643 0.08424 188 198 185
1.53940 -3.38809 0.09479 188 198 185
1.53873 -3.39974 0.10534 184 194 185
1.53807 -3.41140 0.11589 181 193 186
1.53740 -3.42305 0.12643 178 186 177
1.53673 -3.43470 0.13698 180 183 175
1.53607 -3.44635 0.14752 178 182 180
1.53540 -3.45800 0.15806 172 184 181
1.53474 -3.46964 0.16860 171 182 173
1.53407 -3.48128 0.17913 178 190 174
1.53340 -3.49292 0.18966 173 178 168
1.53274 -3.50455 0.20019 171 171 171
1.53207 -3.51619 0.21072 173 178 181
1.53141 -3.52782 0.22125 158 166 167
1.53074 -3.53944 0.23177 147 152 146
1.53008 -3.55107 0.24229 160 168 172
1.55920 -2.66320 -0.56316 134 141 133
1.55853 -2.67497 -0.55250 130 142 143
1.55786 -2.68675 -0.54185 137 145 138
1.55719 -2.69852 -0.53120 144 146 128
1.55652 -2.71028 -0.52055 138 139 124
1.55585 -2.72205 -0.50990 132 132 129
1.55518 -2.73381 -0.49926 135 139 146
1.55451 -2.74557 -0.48861 139 148 143
1.55384 -2.75733 -0.47797 139 144 131
1.55317 -2.76908 -0.46733 142 144 135
1.55250 -2.78083 -0.45670 143 142 136
1.55183 -2.79258 -0.44607 138 143 135
1.55116 -2.80433 -0.43543 149 156 136
1.55049 -2.81607 -0.42481 148 153 145
1.54982 -2.82781 -0.41418 148 153 157
1.54915 -2.83955 -0.40356 149 155 156
1.54848 -2.85129 -0.39293 170 171 170
1.54781 -2.86302 -0.38232 171 178 167
1.54714 -2.87475 -0.37170 165 169 165
1.54648 -2.88648 -0.36109 153 165 169
1.54581 -2.89821 -0.35047 156 167 160
1.54514 -2.90993 -0.33986 163 166 160
1.54447 -2.92165 -0.32926 160 165 163
1.54380 -2.93337 -0.31865 152 158 156
1.54314 -2.94508 -0.30805 160 171 153
1.54247 -2.95679 -0.29745 155 168 163
1.54180 -2.96850 -0.28685 172 184 177
1.54113 -2.98021 -0.27626 180 187 179
1.54047 -2.99192 -0.26566 166 171 164
1.53980 -3.00362 -0.25507 155 164 154
1.53913 -3.01532 -0.24448 155 167 161
1.53847 -3.02701 -0.23390 174 186 180
1.53780 -3.03871 -0.22332 182 188 186
1.53713 -3.05040 -0.21273 172 179 182
1.53647 -3.06209 -0.20216 159 171 181
1.53580 -3.07378 -0.19158 163 175 184
1.53514 -3.08546 -0.18100 178 186 180
1.53447 -3.09714 -0.17043 180 186 174
1.53380 -3.10882 -0.15986 180 187 176
1.53314 -3.12049 -0.14930 184 190 181
1.53247 -3.13217 -0.13873 180 184 186
1.53181 -3.14384 -0.12817 184 194 188
1.53114 -3.15551 -0.11761 184 192 184
1.53048 -3.16717 -0.10705 170 175 169
1.52981 -3.17883 -0.09650 168 176 176
1.52915 -3.19050 -0.08594 164 173 170
1.52849 -3.20215 -0.07539 168 175 163
1.52782 -3.21381 -0.06485 188 200 174
1.52716 -3.22546 -0.05430 191 196 174
1.52649 -3.23711 -0.04376 175 180 173
1.52583 -3.24876 -0.03321 172 185 184
1.52517 -3.26040 -0.02268 173 182 181
1.51920 -3.36509 0.07207 179 187 181
1.51854 -3.37671 0.08258 185 196 188
1.51787 -3.38832 0.09310 193 205 198
1.51721 -3.39994 0.10361 190 200 196
1.51655 -3.41155 0.11412 177 188 190
1.51589 -3.42316 0.12462 169 180 183
1.51523 -3.43476 0.13513 178 185 175
1.51457 -3.44637 0.14563 181 183 173
1.51391 -3.45797 0.15613 174 179 172
1.51324 -3.46957 0.16662 173 179 175
1.51258 -3.48116 0.17712 179 188 183
1.51192 -3.49275 0.18761 177 184 178
1.51126 -3.50435 0.19810 177 175 171
1.51060 -3.51593 0.20859 174 174 172
1.50994 -3.52752 0.21907 157 163 159
1.50928 -3.53910 0.22955 140 147 145
1.50862 -3.55068 0.24004 153 163 168
1.53753 -2.66623 -0.56232 129 136 129
1.53687 -2.67796 -0.55171 120 136 140
1.53620 -2.68969 -0.54109 131 143 141
1.53554 -2.70141 -0.53048 144 149 130
1.53487 -2.71313 -0.51987 142 147 125
1.53421 -2.72485 -0.50927 134 139 134
1.53354 -2.73657 -0.49866 129 135 146
1.53288 -2.74828 -0.48806 137 143 141
1.53221 -2.75999 -0.47746 144 150 137
1.53154 -2.77170 -0.46687 144 151 147
1.53088 -2.78341 -0.45627 146 148 152
1.53022 -2.79511 -0.44568 137 138 142
1.52955 -2.80681 -0.43509 150 154 144
1.52889 -2.81851 -0.42450 153 155 157
1.52822 -2.83021 -0.41392 157 160 168
1.52756 -2.84190 -0.40333 157 165 160
1.52689 -2.85359 -0.39275 165 173 166
1.52623 -2.86528 -0.38217 169 179 174
1.52557 -2.87697 -0.37160 171 179 174
1.52490 -2.88865 -0.36103 159 174 167
1.52424 -2.90033 -0.35045 157 166 159
1.52358 -2.91201 -0.33989 164 169 160
1.52291 -2.92368 -0.32932 162 168 165
1.52225 -2.93535 -0.31876 155 163 158
1.52159 -2.94702 -0.30819 156 169 162
1.52093 -2.95869 -0.29763 159 174 168
1.52026 -2.97035 -0.28708 168 177 180
1.51960 -2.98202 -0.27652 174 182 180
1.51894 -2.99368 -0.26597 166 174 165
1.51828 -3.00533 -0.25542 160 169 157
1.51762 -3.01699 -0.24487 160 175 166
1.51695 -3.02864 -0.23433 170 182 182
1.51629 -3.04029 -0.22379 179 188 188
1.51563 -3.05193 -0.21324 172 181 182
1.51497 -3.06358 -0.20271 160 169 171
1.51431 -3.07522 -0.19217 159 168 166
1.51365 -3.08686 -0.18164 165 176 170
1.51299 -3.09849 -0.17111 171 181 175
1.51233 -3.11013 -0.16058 178 188 182
1.51167 -3.12176 -0.15005 183 190 188
1.51101 -3.13339 -0.13953 180 186 190
1.51034 -3.14501 -0.12900 185 196 193
1.50968 -3.15664 -0.11848 182 192 191
1.50902 -3.16826 -0.10797 174 181 179
1.50837 -3.17987 -0.09745 171 179 180
1.50771 -3.19149 -0.08694 167 177 175
1.50705 -3.20310 -0.07643 171 182 172
1.50639 -3.21471 -0.06592 195 211 200
1.50573 -3.22632 -0.05542 203 203 191
1.49783 -3.36541 0.07047 181 191 184
1.49717 -3.37699 0.08094 178 190 182
1.49651 -3.38856 0.09142 186 198 193
1.49586 -3.40013 0.10189 195 202 197
1.49520 -3.41170 0.11236 186 190 192
1.49454 -3.42326 0.12282 179 188 191
1.49389 -3.43482 0.13329 179 189 183
1.49323 -3.44638 0.14375 175 177 172
1.49257 -3.45794 0.15421 175 179 166
1.49192 -3.46949 0.16466 175 182 170
1.49126 -3.48104 0.17512 173 182 180
1.49061 -3.49259 0.18557 173 180 179
1.48995 -3.50414 0.19602 181 184 177
1.48929 -3.51568 0.20647 178 183 172
1.48864 -3.52722 0.21691 159 165 158
1.48798 -3.53876 0.22736 147 157 155
1.51669 -2.65755 -0.57207 139 136 136
1.51603 -2.66924 -0.56149 132 134 127
1.51537 -2.68092 -0.55092 129 137 134
1.51471 -2.69261 -0.54034 140 146 140
1.51405 -2.70429 -0.52977 144 147 134
1.51339 -2.71596 -0.51921 138 142 132
1.51273 -2.72764 -0.50864 139 145 138
1.51207 -2.73931 -0.49808 136 146 143
1.51141 -2.75098 -0.48752 135 143 142
1.51075 -2.76264 -0.47696 144 151 147
1.51009 -2.77431 -0.46640 139 150 160
1.50943 -2.78597 -0.45585 139 145 161
1.50877 -2.79762 -0.44530 140 143 154
1.50811 -2.80928 -0.43475 156 161 162
1.50745 -2.82093 -0.42420 160 160 155
1.50679 -2.83258 -0.41365 165 166 169
1.50613 -2.84423 -0.40311 164 172 178
1.50547 -2.85588 -0.39257 165 172 171
1.50481 -2.86752 -0.38203 160 175 180
1.50415 -2.87916 -0.37150 166 178 172
1.50350 -2.89080 -0.36097 160 171 156
1.50284 -2.90243 -0.35044 154 167 163
1.50218 -2.91407 -0.33991 164 174 167
1.50152 -2.92570 -0.32938 163 172 171
1.50086 -2.93732 -0.31886 154 159 164
1.50021 -2.94895 -0.30834 157 167 175
1.49955 -2.96057 -0.29782 168 182 173
1.49889 -2.97219 -0.28730 165 165 171
1.49823 -2.98381 -0.27679 169 179 177
1.49758 -2.99542 -0.26628 171 177 172
1.49692 -3.00703 -0.25577 175 181 172
1.49626 -3.01864 -0.24526 176 186 173
1.49560 -3.03025 -0.23475 173 179 179
1.49495 -3.04186 -0.22425 177 188 183
1.49429 -3.05346 -0.21375 178 190 178
1.49364 -3.06506 -0.20325 172 175 164
1.49298 -3.07665 -0.19276 161 161 155
1.49232 -3.08825 -0.18226 157 165 164
1.49167 -3.09984 -0.17177 164 177 178
1.49101 -3.11143 -0.16128 175 189 189
1.49036 -3.12301 -0.15080 182 196 197
1.48970 -3.13460 -0.14031 181 190 194
1.48905 -3.14618 -0.12983 184 195 191
1.48839 -3.15776 -0.11935 179 186 180
1.48773 -3.16933 -0.10888 174 181 171
1.48708 -3.18091 -0.09840 169 177 175
1.48643 -3.19248 -0.08793 161 171 167
1.48577 -3.20405 -0.07746 170 177 168
1.48512 -3.21561 -0.06699 186 197 195
1.48446 -3.22718 -0.05652 196 192 191
1.48381 -3.23874 -0.04606 192 194 186
1.47923 -3.31959 0.02712 178 189 183
