ply
format ascii 1.0
element face 0
property list uchar int vertex_indices
element vertex 1165
property float x
property float y
property float z
property uchar diffuse_red
property uchar diffuse_green
property uchar diffuse_blue
end_header
0.00000 0.00000 0.00000 255 255 255
0.00170 0.00041 0.00673 255 255 255
0.00371 -0.00244 0.01126 255 255 255
0.00484 -0.00362 0.01145 255 255 255
0.00439 -0.00195 0.01271 255 255 255
0.00265 0.00078 0.01607 0 0 0
0.00028 0.00232 0.02597 0 0 0
-0.00102 0.00244 0.03085 0 0 0
-0.00359 0.00151 0.03430 0 0 0
-0.00835 0.00328 0.03679 0 0 0
-0.01509 0.00545 0.04122 0 0 0
-0.01805 0.00784 0.04376 0 0 0
-0.02090 0.01127 0.04554 0 0 0
-0.02222 0.01462 0.04954 0 0 0
-0.02504 0.02018 0.05566 0 0 0
-0.02572 0.02569 0.06157 0 0 0
-0.02875 0.03410 0.07281 0 0 0
-0.03135 0.03904 0.07966 0 0 0
-0.03472 0.04681 0.09069 0 0 0
-0.03800 0.05250 0.09641 0 0 0
-0.04497 0.06349 0.10789 0 0 0
-0.04824 0.06770 0.11373 0 0 0
-0.05061 0.07105 0.11949 255 255 255
-0.05784 0.07751 0.13338 255 255 255
-0.06476 0.08433 0.14726 255 255 255
-0.06906 0.08760 0.15480 255 255 255
-0.07375 0.08962 0.16382 255 255 255
-0.07847 0.09123 0.17096 0 0 0
-0.08336 0.09413 0.17635 0 0 0
-0.08868 0.09727 0.18162 0 0 0
-0.09456 0.09999 0.18766 0 0 0
-0.10004 0.10328 0.19295 0 0 0
-0.10598 0.10687 0.19790 0 0 0
-0.11819 0.11545 0.20951 0 0 0
-0.12598 0.11969 0.21723 0 0 0
-0.13303 0.12312 0.22531 0 0 0
-0.14780 0.13172 0.23941 0 0 0
-0.15510 0.13441 0.24734 0 0 0
-0.17119 0.14220 0.25938 0 0 0
-0.17777 0.14446 0.26627 0 0 0
-0.18452 0.14648 0.27219 255 255 255
-0.19811 0.15100 0.28511 255 255 255
-0.20647 0.15285 0.29004 255 255 255
-0.22183 0.15718 0.30293 255 255 255
-0.23085 0.15874 0.30785 255 255 255
-0.23965 0.16030 0.31270 0 0 0
-0.24872 0.16093 0.31849 0 0 0
-0.25844 0.16642 0.32037 0 0 0
-0.26822 0.16996 0.32335 0 0 0
-0.28152 0.16878 0.32766 0 0 0
-0.29468 0.17041 0.32923 0 0 0
-0.30732 0.17233 0.33201 0 0 0
-0.31890 0.17428 0.33710 0 0 0
-0.33438 0.17597 0.33878 0 0 0
-0.34670 0.17918 0.34211 0 0 0
-0.35942 0.18197 0.34681 0 0 0
-0.38268 0.18640 0.35375 0 0 0
-0.39386 0.18855 0.35813 0 0 0
-0.40869 0.18900 0.36217 0 0 0
-0.42069 0.18796 0.36655 0 0 0
-0.43376 0.18881 0.36953 255 255 255
-0.44681 0.19101 0.37103 255 255 255
-0.46790 0.19273 0.37993 255 255 255
-0.47956 0.19227 0.38263 255 255 255
-0.49141 0.19061 0.38552 255 255 255
-0.50370 0.19029 0.38614 0 0 0
-0.51572 0.18958 0.38749 0 0 0
-0.52687 0.18700 0.39037 0 0 0
-0.53731 0.18704 0.39263 0 0 0
-0.54923 0.18439 0.39525 0 0 0
-0.56002 0.18306 0.39709 0 0 0
-0.57080 0.18178 0.40014 0 0 0
-0.58179 0.18006 0.40425 0 0 0
-0.59334 0.17636 0.40913 0 0 0
-0.60475 0.17483 0.41293 0 0 0
-0.62673 0.16926 0.42469 0 0 0
-0.63677 0.16682 0.43096 0 0 0
-0.64679 0.16331 0.43731 0 0 0
-0.65629 0.15883 0.44273 0 0 0
-0.66544 0.15372 0.45010 0 0 0
-0.68123 0.14491 0.46113 255 255 255
-0.68787 0.13811 0.46843 255 255 255
-0.69941 0.12631 0.48099 255 255 255
-0.70389 0.12073 0.48739 255 255 255
-0.70850 0.11426 0.49351 255 255 255
-0.71175 0.10703 0.50005 0 0 0
-0.71416 0.09866 0.50742 0 0 0
-0.71554 0.09183 0.51458 0 0 0
-0.71584 0.08482 0.52326 0 0 0
-0.71732 0.07874 0.53093 0 0 0
-0.71900 0.07276 0.53909 0 0 0
-0.72038 0.06758 0.54899 0 0 0
-0.72230 0.05973 0.56019 0 0 0
-0.72394 0.05355 0.57111 0 0 0
-0.72458 0.04667 0.58433 0 0 0
-0.72698 0.03623 0.59784 0 0 0
-0.72959 0.02499 0.61118 0 0 0
-0.73019 0.01265 0.62706 0 0 0
-0.73172 -0.00182 0.64183 0 0 0
-0.73383 -0.01288 0.65515 0 0 0
-0.73603 -0.02491 0.66937 0 0 0
-0.74124 -0.03505 0.68196 255 255 255
-0.75442 -0.05931 0.70812 255 255 255
-0.75975 -0.07236 0.72139 255 255 255
-0.76710 -0.08557 0.73442 255 255 255
-0.77061 -0.09724 0.74702 255 255 255
-0.77568 -0.10895 0.76013 0 0 0
-0.78213 -0.12171 0.77323 0 0 0
-0.79082 -0.13310 0.78432 0 0 0
-0.79717 -0.14311 0.79471 0 0 0
-0.80414 -0.15399 0.80613 0 0 0
-0.81255 -0.16512 0.81622 0 0 0
-0.82014 -0.17389 0.82458 0 0 0
-0.82653 -0.18365 0.83235 0 0 0
-0.83318 -0.19142 0.84221 0 0 0
-0.84121 -0.19863 0.85000 0 0 0
-0.84700 -0.20637 0.85778 0 0 0
-0.85508 -0.21428 0.86575 0 0 0
-0.86138 -0.22109 0.87266 0 0 0
-0.86779 -0.22707 0.87985 0 0 0
-0.87478 -0.23250 0.88655 0 0 0
-0.88183 -0.23851 0.89343 255 255 255
-0.89513 -0.25057 0.90594 255 255 255
-0.90205 -0.25459 0.91070 255 255 255
-0.90910 -0.25939 0.91662 255 255 255
-0.91750 -0.26474 0.92198 255 255 255
-0.92520 -0.26877 0.92718 0 0 0
-0.93322 -0.27387 0.93285 0 0 0
-0.94279 -0.27996 0.93876 0 0 0
-0.95287 -0.28485 0.94304 0 0 0
-0.96041 -0.28901 0.94760 0 0 0
-0.97144 -0.29659 0.95308 0 0 0
-0.98125 -0.30320 0.95747 0 0 0
-0.98944 -0.30891 0.96190 0 0 0
-0.99756 -0.31453 0.96589 0 0 0
-1.02064 -0.32714 0.97323 0 0 0
-1.03303 -0.33557 0.97805 0 0 0
-1.04405 -0.34510 0.98305 0 0 0
-1.05639 -0.34771 0.98401 0 0 0
-1.08063 -0.35023 0.98627 255 255 255
-1.09454 -0.35411 0.99015 255 255 255
-1.11521 -0.36495 0.99728 255 255 255
-1.13095 -0.37135 1.00155 255 255 255
-1.14603 -0.37697 1.00360 255 255 255
-1.15750 -0.38078 1.00493 0 0 0
-1.16944 -0.38471 1.00721 0 0 0
-1.18150 -0.39032 1.00945 0 0 0
-1.19220 -0.39664 1.01107 0 0 0
-1.20140 -0.40298 1.01383 0 0 0
-1.21148 -0.40973 1.01670 0 0 0
-1.22069 -0.41583 1.01888 0 0 0
-1.23017 -0.42136 1.02087 0 0 0
-1.23787 -0.42789 1.02267 0 0 0
-1.24522 -0.43328 1.02421 0 0 0
-1.25240 -0.43837 1.02648 0 0 0
-1.26209 -0.44767 1.03335 0 0 0
-1.26708 -0.45265 1.03996 0 0 0
-1.27276 -0.45725 1.04573 0 0 0
-1.27833 -0.46132 1.05235 0 0 0
-1.28288 -0.46890 1.06029 255 255 255
-1.28684 -0.47543 1.06827 255 255 255
-1.28966 -0.48127 1.07669 255 255 255
-1.29235 -0.49063 1.08730 255 255 255
-1.29560 -0.49951 1.09719 255 255 255
-1.29671 -0.50510 1.10505 0 0 0
-1.29789 -0.51478 1.11557 0 0 0
-1.29754 -0.52370 1.12426 0 0 0
-1.29630 -0.53310 1.13475 0 0 0
-1.29690 -0.54017 1.14272 0 0 0
-1.29581 -0.54516 1.14993 0 0 0
-1.29481 -0.55363 1.15960 0 0 0
-1.29442 -0.55878 1.16715 0 0 0
-1.29465 -0.56301 1.17457 0 0 0
-1.29473 -0.56964 1.18349 0 0 0
-1.29412 -0.57119 1.18912 0 0 0
-1.29469 -0.57419 1.19557 0 0 0
-1.29376 -0.57620 1.20057 0 0 0
-1.28868 -0.58106 1.20902 0 0 0
-1.28438 -0.58167 1.21480 0 0 0
-1.28345 -0.57815 1.21654 0 0 0
-1.28138 -0.57633 1.21854 255 255 255
-1.27940 -0.57307 1.22015 255 255 255
-1.27598 -0.56925 1.22068 255 255 255
-1.26954 -0.55449 1.21665 255 255 255
-1.26575 -0.54624 1.21273 255 255 255
-1.26093 -0.53625 1.20691 255 255 255
-1.25622 -0.52601 1.20197 255 255 255
-1.24963 -0.51491 1.19517 255 255 255
-1.24222 -0.50081 1.18850 0 0 0
-1.23654 -0.48882 1.18398 0 0 0
-1.23057 -0.47869 1.17955 0 0 0
-1.22309 -0.46287 1.17206 0 0 0
-1.21845 -0.45139 1.16798 0 0 0
-1.21236 -0.43768 1.16123 0 0 0
-1.20605 -0.42287 1.15436 0 0 0
-1.20238 -0.41171 1.14999 0 0 0
-1.19699 -0.39821 1.14293 0 0 0
-1.19051 -0.38483 1.13718 0 0 0
-1.18676 -0.37153 1.13145 0 0 0
-1.18407 -0.35929 1.12364 0 0 0
-1.18127 -0.34423 1.11491 0 0 0
-1.17881 -0.33201 1.10681 255 255 255
-1.17356 -0.31962 1.09843 255 255 255
-1.16739 -0.30592 1.08947 255 255 255
-1.16221 -0.29541 1.08161 255 255 255
-1.15557 -0.28262 1.07147 255 255 255
-1.14922 -0.26995 1.06136 0 0 0
-1.14479 -0.25879 1.05111 0 0 0
-1.14248 -0.24700 1.03838 0 0 0
-1.13616 -0.23442 1.02751 0 0 0
-1.13022 -0.22513 1.01836 0 0 0
-1.12423 -0.21599 1.00880 0 0 0
-1.11860 -0.20807 1.00019 0 0 0
-1.11190 -0.19909 0.99095 0 0 0
-1.10592 -0.19087 0.98251 0 0 0
-1.10044 -0.18422 0.97491 0 0 0
-1.09475 -0.17627 0.96629 0 0 0
-1.09066 -0.16806 0.95843 0 0 0
-1.08649 -0.16146 0.95055 0 0 0
-1.08108 -0.15335 0.94214 0 0 0
-1.07715 -0.14605 0.93353 255 255 255
-1.07345 -0.13916 0.92505 255 255 255
-1.06953 -0.13076 0.91661 255 255 255
-1.06634 -0.12471 0.90982 255 255 255
-1.06378 -0.11804 0.90195 255 255 255
-1.05926 -0.10942 0.89272 0 0 0
-1.05559 -0.10292 0.88653 0 0 0
-1.05373 -0.09810 0.88046 0 0 0
-1.05179 -0.09004 0.87112 0 0 0
-1.05174 -0.08381 0.86311 0 0 0
-1.05061 -0.07849 0.85631 0 0 0
-1.04782 -0.07144 0.84856 0 0 0
-1.04557 -0.06358 0.84198 0 0 0
-1.04409 -0.05747 0.83711 0 0 0
-1.04206 -0.05353 0.83346 0 0 0
-1.03817 -0.04023 0.82320 0 0 0
-1.03686 -0.03463 0.81881 0 0 0
-1.03529 -0.03023 0.81571 0 0 0
-1.03359 -0.02528 0.81285 0 0 0
-1.03350 -0.02201 0.81052 0 0 0
-1.03312 -0.01718 0.80803 0 0 0
-1.03376 -0.01575 0.80699 255 255 255
-1.03728 -0.01437 0.80453 255 255 255
-1.04060 -0.01649 0.80628 255 255 255
-1.04367 -0.01942 0.80697 255 255 255
-1.05191 -0.02907 0.81208 255 255 255
-1.05597 -0.03637 0.81707 255 255 255
-1.06000 -0.04262 0.82087 255 255 255
-1.06715 -0.05822 0.83445 255 255 255
-1.07109 -0.06714 0.84212 255 255 255
-1.07466 -0.07574 0.85058 0 0 0
-1.07852 -0.08484 0.85981 0 0 0
-1.08260 -0.09531 0.87019 0 0 0
-1.09004 -0.11567 0.89171 0 0 0
-1.09360 -0.12773 0.90512 0 0 0
-1.09738 -0.13980 0.91783 0 0 0
-1.10375 -0.16393 0.94591 0 0 0
-1.10669 -0.17705 0.96116 0 0 0
-1.10887 -0.19110 0.97830 0 0 0
-1.11363 -0.21661 1.00900 0 0 0
-1.11571 -0.23060 1.02507 0 0 0
-1.11795 -0.24369 1.04020 0 0 0
-1.12092 -0.26936 1.07218 0 0 0
-1.12212 -0.28264 1.08747 255 255 255
-1.12407 -0.30735 1.11245 255 255 255
-1.12506 -0.31895 1.12278 255 255 255
-1.12510 -0.33155 1.13351 255 255 255
-1.12469 -0.34325 1.14384 255 255 255
-1.12511 -0.35461 1.15264 0 0 0
-1.12538 -0.36448 1.16060 0 0 0
-1.12542 -0.37523 1.16853 0 0 0
-1.12511 -0.38493 1.17595 0 0 0
-1.12419 -0.39398 1.18419 0 0 0
-1.12245 -0.40443 1.19324 0 0 0
-1.12110 -0.41512 1.20211 0 0 0
-1.12061 -0.42460 1.20938 0 0 0
-1.11904 -0.43276 1.21646 0 0 0
-1.11699 -0.43960 1.22359 0 0 0
-1.11549 -0.45091 1.23120 0 0 0
-1.11518 -0.45847 1.23661 0 0 0
-1.10915 -0.46871 1.24443 0 0 0
-1.10324 -0.47995 1.25121 0 0 0
-1.09754 -0.48784 1.25843 0 0 0
-1.08929 -0.49934 1.26817 0 0 0
-1.08127 -0.50736 1.27689 0 0 0
-1.07290 -0.51293 1.28638 0 0 0
-1.07052 -0.52144 1.29439 0 0 0
-1.06407 -0.53355 1.30796 255 255 255
-1.05593 -0.54775 1.32364 255 255 255
-1.05061 -0.55422 1.33183 255 255 255
-1.04606 -0.56042 1.33930 255 255 255
-1.04244 -0.56509 1.34557 255 255 255
-1.03825 -0.57036 1.35307 255 255 255
-1.03495 -0.57592 1.35906 255 255 255
-1.03014 -0.58027 1.36500 0 0 0
-1.02462 -0.58633 1.37263 0 0 0
-1.01920 -0.59174 1.37889 0 0 0
-1.01535 -0.59450 1.38284 0 0 0
-1.01044 -0.59872 1.38757 0 0 0
-1.00477 -0.60210 1.39069 0 0 0
-0.99312 -0.60993 1.39805 0 0 0
-0.98638 -0.61397 1.40095 0 0 0
-0.98069 -0.61710 1.40369 0 0 0
-0.97338 -0.61948 1.40644 0 0 0
-0.96715 -0.62218 1.40884 0 0 0
-0.95393 -0.62490 1.41227 0 0 0
-0.94637 -0.62616 1.41373 0 0 0
-0.93919 -0.62589 1.41339 0 0 0
-0.93202 -0.62326 1.41251 0 0 0
-0.92475 -0.62166 1.41185 0 0 0
-0.91778 -0.61857 1.40986 0 0 0
-0.91037 -0.61422 1.40717 0 0 0
-0.90262 -0.60712 1.40310 0 0 0
-0.89537 -0.59970 1.39929 0 0 0
-0.88621 -0.59688 1.39638 0 0 0
-0.87704 -0.59105 1.39188 0 0 0
-0.86926 -0.58334 1.38685 0 0 0
-0.86140 -0.57469 1.38177 0 0 0
-0.85354 -0.56965 1.37725 0 0 0
-0.84621 -0.56234 1.37103 0 0 0
-0.83766 -0.55397 1.36496 255 255 255
-0.81016 -0.51214 1.33523 255 255 255
-0.79893 -0.49185 1.31940 255 255 255
-0.79283 -0.48189 1.31118 255 255 255
-0.78735 -0.47153 1.30233 255 255 255
-0.78079 -0.45423 1.28294 0 0 0
-0.77550 -0.44406 1.27345 0 0 0
-0.76993 -0.43368 1.26467 0 0 0
-0.76054 -0.41497 1.24750 0 0 0
-0.75942 -0.40765 1.23628 0 0 0
-0.75432 -0.39964 1.22742 0 0 0
-0.75039 -0.39095 1.21825 0 0 0
-0.74454 -0.37423 1.19897 0 0 0
-0.74180 -0.36697 1.18893 0 0 0
-0.73747 -0.35973 1.18118 0 0 0
-0.73354 -0.35103 1.17306 0 0 0
-0.73119 -0.34285 1.16451 0 0 0
-0.72805 -0.33621 1.15690 255 255 255
-0.71516 -0.30397 1.12275 255 255 255
-0.71325 -0.29720 1.11550 255 255 255
-0.71144 -0.29214 1.10795 255 255 255
-0.70740 -0.28075 1.09399 255 255 255
-0.70538 -0.27537 1.08748 255 255 255
-0.70276 -0.26839 1.08127 255 255 255
-0.70044 -0.26141 1.07521 0 0 0
-0.69944 -0.25535 1.06839 0 0 0
-0.69847 -0.24928 1.06164 0 0 0
-0.69692 -0.24578 1.05533 0 0 0
-0.69534 -0.23424 1.04188 0 0 0
-0.69593 -0.23088 1.03579 0 0 0
-0.69755 -0.22528 1.02973 0 0 0
-0.70005 -0.21615 1.02004 0 0 0
-0.70215 -0.20884 1.01425 0 0 0
-0.70441 -0.20339 1.00946 0 0 0
-0.71214 -0.19764 1.00075 0 0 0
-0.71729 -0.19478 0.99608 0 0 0
-0.72588 -0.18401 0.98533 0 0 0
-0.73100 -0.18107 0.98066 0 0 0
-0.73569 -0.18045 0.97625 0 0 0
-0.73882 -0.17670 0.97170 0 0 0
-0.74292 -0.17742 0.96800 0 0 0
-0.74540 -0.17666 0.96534 255 255 255
-0.75293 -0.17527 0.96037 255 255 255
-0.75711 -0.16988 0.95654 255 255 255
-0.76538 -0.17393 0.95515 255 255 255
-0.77103 -0.17469 0.95238 255 255 255
-0.77689 -0.16842 0.94848 255 255 255
-0.78248 -0.17138 0.94760 255 255 255
-0.78782 -0.17073 0.94575 255 255 255
-0.79295 -0.16641 0.94317 0 0 0
-0.79934 -0.16932 0.94245 0 0 0
-0.80701 -0.17322 0.94120 0 0 0
-0.81370 -0.17182 0.93954 0 0 0
-0.82140 -0.17550 0.93919 0 0 0
-0.82873 -0.17884 0.93912 0 0 0
-0.83688 -0.17721 0.93687 0 0 0
-0.84504 -0.17900 0.93620 0 0 0
-0.85333 -0.18126 0.93618 0 0 0
-0.86070 -0.18119 0.93769 0 0 0
-0.86980 -0.19023 0.94184 0 0 0
-0.87845 -0.19212 0.94389 0 0 0
-0.88704 -0.18986 0.94474 0 0 0
-0.90407 -0.20724 0.95523 0 0 0
-0.91191 -0.20875 0.95856 0 0 0
-0.92872 -0.22422 0.96815 0 0 0
-0.93493 -0.22757 0.97295 0 0 0
-0.94219 -0.23138 0.97756 0 0 0
-0.95026 -0.24068 0.98458 0 0 0
-0.96408 -0.25066 0.99975 0 0 0
-0.97262 -0.26121 1.00813 0 0 0
-0.98780 -0.27621 1.02296 0 0 0
-0.99444 -0.28754 1.03162 0 0 0
-1.00207 -0.29260 1.03753 0 0 0
-1.00929 -0.29786 1.04393 0 0 0
-1.02342 -0.31946 1.06066 255 255 255
-1.04930 -0.34932 1.09226 255 255 255
-1.05475 -0.35396 1.09951 255 255 255
-1.05956 -0.37207 1.12173 255 255 255
-1.06080 -0.38275 1.13584 255 255 255
-1.06492 -0.39250 1.14679 0 0 0
-1.07110 -0.41119 1.16835 0 0 0
-1.07419 -0.41694 1.17687 0 0 0
-1.07520 -0.42661 1.18779 0 0 0
-1.07607 -0.43407 1.19862 0 0 0
-1.08026 -0.44603 1.21738 0 0 0
-1.08231 -0.45429 1.22691 0 0 0
-1.08441 -0.45691 1.23515 0 0 0
-1.08544 -0.46152 1.24534 0 0 0
-1.09019 -0.47158 1.26245 0 0 0
-1.09217 -0.47400 1.27103 0 0 0
-1.09502 -0.48111 1.27887 0 0 0
-1.09651 -0.48685 1.28714 0 0 0
-1.09621 -0.49323 1.29629 0 0 0
-1.09571 -0.49816 1.30539 255 255 255
-1.09377 -0.51714 1.33369 255 255 255
-1.09014 -0.52763 1.35032 255 255 255
-1.08926 -0.53431 1.35867 255 255 255
-1.08792 -0.53925 1.36503 255 255 255
-1.08459 -0.54295 1.37301 255 255 255
-1.08271 -0.54542 1.37971 255 255 255
-1.08314 -0.55213 1.38611 0 0 0
-1.08084 -0.55675 1.39340 0 0 0
-1.07903 -0.56075 1.39988 0 0 0
-1.07759 -0.56367 1.40624 0 0 0
-1.07432 -0.57215 1.42035 0 0 0
-1.07376 -0.57448 1.42617 0 0 0
-1.07109 -0.57872 1.43434 0 0 0
-1.06975 -0.58087 1.44044 0 0 0
-1.06651 -0.59018 1.45385 0 0 0
-1.06332 -0.59283 1.46063 0 0 0
-1.06165 -0.59986 1.46690 0 0 0
-1.05861 -0.60243 1.47404 0 0 0
-1.05435 -0.60871 1.48794 0 0 0
-1.05257 -0.61161 1.49483 0 0 0
-1.05146 -0.61142 1.50090 0 0 0
-1.04990 -0.61790 1.50761 0 0 0
-1.04309 -0.62520 1.52379 0 0 0
-1.04241 -0.62982 1.52972 0 0 0
-1.03797 -0.63444 1.53799 0 0 0
-1.03485 -0.64180 1.54975 0 0 0
-1.03197 -0.64475 1.55682 0 0 0
-1.02887 -0.64756 1.56286 0 0 0
-1.02593 -0.65066 1.56829 0 0 0
-1.02258 -0.65314 1.57547 0 0 0
-1.01609 -0.66323 1.58696 255 255 255
-1.00181 -0.67759 1.60758 255 255 255
-0.99869 -0.67970 1.61373 255 255 255
-0.99389 -0.68548 1.62276 255 255 255
-0.98990 -0.68755 1.62873 255 255 255
-0.98573 -0.69552 1.63535 255 255 255
-0.98240 -0.69774 1.64100 255 255 255
-0.97765 -0.69859 1.64820 255 255 255
-0.97662 -0.70357 1.65410 0 0 0
-0.97341 -0.70765 1.66092 0 0 0
-0.97111 -0.71250 1.66770 0 0 0
-0.97191 -0.71907 1.67346 0 0 0
-0.96732 -0.72373 1.68073 0 0 0
-0.96339 -0.73066 1.68943 0 0 0
-0.96272 -0.73563 1.69548 0 0 0
-0.95302 -0.74647 1.71374 0 0 0
-0.95341 -0.75092 1.72024 0 0 0
-0.94786 -0.75024 1.72894 0 0 0
-0.94385 -0.75537 1.73824 0 0 0
-0.94588 -0.76366 1.74463 0 0 0
-0.94066 -0.77399 1.76079 0 0 0
-0.94027 -0.77568 1.76681 0 0 0
-0.93684 -0.77846 1.77430 0 0 0
-0.93578 -0.78061 1.78042 0 0 0
-0.93549 -0.78656 1.78618 0 0 0
-0.93163 -0.79555 1.79266 0 0 0
-0.92994 -0.79963 1.79966 0 0 0
-0.92462 -0.80614 1.81209 0 0 0
-0.91968 -0.80907 1.81886 0 0 0
-0.91863 -0.81224 1.82481 0 0 0
-0.91402 -0.82100 1.83299 0 0 0
-0.91164 -0.82746 1.84052 0 0 0
-0.90757 -0.83472 1.85576 255 255 255
-0.90472 -0.84315 1.86738 255 255 255
-0.89898 -0.84995 1.88038 255 255 255
-0.89822 -0.85423 1.88520 255 255 255
-0.89716 -0.85962 1.88889 255 255 255
-0.88919 -0.85855 1.89477 255 255 255
-0.88656 -0.86311 1.90113 255 255 255
-0.88915 -0.86948 1.90426 255 255 255
-0.88233 -0.87090 1.90233 255 255 255
-0.88055 -0.87403 1.90272 255 255 255
-0.88167 -0.87821 1.90433 255 255 255
-0.88083 -0.88007 1.90312 255 255 255
-0.88008 -0.88037 1.90245 0 0 0
-0.87867 -0.87895 1.90417 0 0 0
-0.87912 -0.87834 1.90701 0 0 0
-0.88612 -0.88331 1.90807 0 0 0
-0.88578 -0.88136 1.90869 0 0 0
-0.89199 -0.88256 1.91267 0 0 0
-0.89501 -0.88479 1.91637 0 0 0
-0.89509 -0.88315 1.92005 0 0 0
-0.90128 -0.88622 1.92698 0 0 0
-0.90551 -0.88906 1.93260 0 0 0
-0.91052 -0.88964 1.93559 0 0 0
-0.91720 -0.89125 1.93905 0 0 0
-0.92574 -0.89398 1.93950 0 0 0
-0.93240 -0.89438 1.93861 0 0 0
-0.94114 -0.89386 1.92906 0 0 0
-0.94881 -0.89236 1.92085 0 0 0
-0.96050 -0.89257 1.91429 0 0 0
-0.97047 -0.89351 1.91273 0 0 0
-0.98067 -0.89365 1.90901 0 0 0
-0.99025 -0.89180 1.90247 0 0 0
-0.99854 -0.88903 1.89600 0 0 0
-1.00821 -0.88692 1.88735 0 0 0
-1.01805 -0.88393 1.87575 0 0 0
-1.02415 -0.87825 1.86275 0 0 0
-1.03134 -0.87272 1.85059 0 0 0
-1.04111 -0.86751 1.83793 0 0 0
-1.04804 -0.85911 1.82547 0 0 0
-1.05567 -0.85107 1.81540 0 0 0
-1.06327 -0.84296 1.80592 0 0 0
-1.07235 -0.83287 1.79447 0 0 0
-1.08213 -0.82075 1.78222 0 0 0
-1.09254 -0.81008 1.77416 0 0 0
-1.10509 -0.79972 1.76231 0 0 0
-1.11605 -0.78502 1.74587 0 0 0
-1.12529 -0.76973 1.73172 0 0 0
-1.13956 -0.75707 1.71988 0 0 0
-1.15486 -0.74500 1.70582 0 0 0
-1.16094 -0.72765 1.69233 0 0 0
-1.17089 -0.71069 1.67690 0 0 0
-1.17868 -0.69181 1.65865 0 0 0
-1.18318 -0.67506 1.64448 0 0 0
-1.19387 -0.66285 1.63057 0 0 0
-1.20234 -0.65002 1.61994 0 0 0
-1.20677 -0.63581 1.60451 255 255 255
-1.21973 -0.61070 1.57789 255 255 255
-1.22366 -0.59803 1.56368 255 255 255
-1.22552 -0.58306 1.54980 255 255 255
-1.22962 -0.57116 1.53822 255 255 255
-1.23687 -0.56168 1.52845 0 0 0
-1.23782 -0.54906 1.51312 0 0 0
-1.23679 -0.53541 1.49896 0 0 0
-1.24724 -0.52962 1.49202 0 0 0
-1.24878 -0.51942 1.47609 0 0 0
-1.24833 -0.50786 1.46183 0 0 0
-1.25507 -0.50220 1.45573 0 0 0
-1.25600 -0.49274 1.44230 0 0 0
-1.25479 -0.48123 1.42989 0 0 0
-1.26032 -0.47425 1.41985 0 0 0
-1.26029 -0.46522 1.40921 0 0 0
-1.25819 -0.45292 1.39421 0 0 0
-1.26444 -0.44642 1.38599 0 0 0
-1.26398 -0.43726 1.37269 0 0 0
-1.25749 -0.42299 1.35711 0 0 0
-1.26202 -0.41632 1.35025 0 0 0
-1.26381 -0.41116 1.34353 0 0 0
-1.26113 -0.40267 1.32862 0 0 0
-1.25853 -0.39243 1.31603 0 0 0
-1.26278 -0.38721 1.30898 0 0 0
-1.26056 -0.37829 1.29206 0 0 0
-1.25848 -0.36930 1.28262 0 0 0
-1.26189 -0.36368 1.28461 255 255 255
-1.26122 -0.34232 1.24905 255 255 255
-1.25933 -0.32993 1.22349 255 255 255
-1.25787 -0.32409 1.21077 255 255 255
-1.25703 -0.31829 1.20330 255 255 255
-1.25454 -0.31177 1.19200 255 255 255
-1.25360 -0.30567 1.18147 255 255 255
-1.25278 -0.29978 1.17452 0 0 0
-1.25007 -0.29184 1.16670 0 0 0
-1.24822 -0.28429 1.15571 0 0 0
-1.24520 -0.27643 1.14261 0 0 0
-1.24360 -0.26843 1.13456 0 0 0
-1.24416 -0.26192 1.12685 0 0 0
-1.24234 -0.25467 1.11536 0 0 0
-1.23638 -0.23897 1.09320 0 0 0
-1.23680 -0.23469 1.09001 0 0 0
-1.23283 -0.22281 1.07586 0 0 0
-1.23317 -0.21905 1.07109 0 0 0
-1.22822 -0.20999 1.05553 0 0 0
-1.22502 -0.20701 1.04457 0 0 0
-1.22432 -0.20546 1.03997 0 0 0
-1.22325 -0.20387 1.03543 0 0 0
-1.22349 -0.20314 1.03142 0 0 0
-1.22658 -0.20496 1.03098 0 0 0
-1.23018 -0.20713 1.03577 0 0 0
-1.23374 -0.21091 1.03765 0 0 0
-1.23989 -0.21610 1.04467 0 0 0
-1.25102 -0.22763 1.05950 0 0 0
-1.25601 -0.23417 1.06679 0 0 0
-1.26416 -0.24235 1.08076 0 0 0
-1.27445 -0.26033 1.09623 0 0 0
-1.28034 -0.26955 1.10834 0 0 0
-1.28468 -0.27944 1.11706 0 0 0
-1.29055 -0.29042 1.13001 0 0 0
-1.29616 -0.30161 1.14111 255 255 255
-1.31352 -0.35019 1.18562 255 255 255
-1.32242 -0.37646 1.20780 255 255 255
-1.32638 -0.38946 1.21813 255 255 255
-1.33009 -0.40194 1.22818 255 255 255
-1.33504 -0.41402 1.24025 0 0 0
-1.33829 -0.42601 1.24759 0 0 0
-1.34547 -0.44923 1.26690 0 0 0
-1.35041 -0.46092 1.28137 0 0 0
-1.35410 -0.47202 1.29217 0 0 0
-1.36407 -0.49540 1.31913 0 0 0
-1.36824 -0.50724 1.32765 0 0 0
-1.37760 -0.53191 1.35004 0 0 0
-1.38028 -0.54252 1.35665 0 0 0
-1.38563 -0.55512 1.37202 0 0 0
-1.39745 -0.57744 1.39942 0 0 0
-1.40292 -0.58762 1.41283 0 0 0
-1.40954 -0.60080 1.43094 0 0 0
-1.41457 -0.61353 1.44579 0 0 0
-1.42452 -0.63890 1.47219 255 255 255
-1.43946 -0.68296 1.51469 255 255 255
-1.44372 -0.69858 1.52774 255 255 255
-1.44821 -0.71447 1.54524 255 255 255
-1.45217 -0.72895 1.56033 255 255 255
-1.45529 -0.74375 1.57218 0 0 0
-1.46026 -0.75997 1.58835 0 0 0
-1.46438 -0.77625 1.60078 0 0 0
-1.46821 -0.79191 1.61546 0 0 0
-1.47207 -0.80790 1.62746 0 0 0
-1.47443 -0.81731 1.63443 0 0 0
-1.47783 -0.83194 1.64930 0 0 0
-1.48457 -0.85854 1.67805 0 0 0
-1.48653 -0.87131 1.68689 0 0 0
-1.48776 -0.88237 1.69689 0 0 0
-1.48849 -0.90318 1.72230 0 0 0
-1.48687 -0.91257 1.72863 0 0 0
-1.48286 -0.93365 1.74312 0 0 0
-1.47930 -0.94497 1.75605 0 0 0
-1.47306 -0.95468 1.76876 0 0 0
-1.46717 -0.96479 1.77653 0 0 0
-1.45928 -0.97408 1.78521 0 0 0
-1.45148 -0.98387 1.79261 0 0 0
-1.44008 -0.98998 1.78788 255 255 255
-1.41365 -1.01212 1.80720 255 255 255
-1.39796 -1.02571 1.82911 255 255 255
-1.38818 -1.03168 1.83462 255 255 255
-1.37804 -1.03752 1.84031 255 255 255
-1.36626 -1.04273 1.84286 255 255 255
-1.35429 -1.04721 1.84764 255 255 255
-1.34284 -1.05409 1.85271 0 0 0
-1.32906 -1.05566 1.85093 0 0 0
-1.31739 -1.06035 1.85960 0 0 0
-1.30639 -1.06651 1.86932 0 0 0
-1.29504 -1.06984 1.87284 0 0 0
-1.28551 -1.07561 1.88072 0 0 0
-1.27690 -1.07960 1.88793 0 0 0
-1.26920 -1.08341 1.90040 0 0 0
-1.26422 -1.09011 1.91665 0 0 0
-1.26005 -1.09847 1.92880 0 0 0
-1.25503 -1.10554 1.93275 0 0 0
-1.25065 -1.11339 1.94218 0 0 0
-1.24638 -1.12414 1.95455 0 0 0
-1.24263 -1.13469 1.96213 0 0 0
-1.23827 -1.14386 1.96692 0 0 0
-1.23383 -1.15333 1.97457 0 0 0
-1.23040 -1.16439 1.98386 0 0 0
-1.22771 -1.17443 1.99655 0 0 0
-1.22500 -1.18597 2.01523 0 0 0
-1.22410 -1.19742 2.03166 0 0 0
-1.22470 -1.20959 2.04611 0 0 0
-1.22593 -1.22377 2.06476 0 0 0
-1.22680 -1.23555 2.07628 0 0 0
-1.22741 -1.24751 2.08662 0 0 0
-1.22723 -1.25913 2.10288 0 0 0
-1.22770 -1.27180 2.12334 0 0 0
-1.23058 -1.28589 2.14224 255 255 255
-1.23986 -1.32324 2.19070 255 255 255
-1.24417 -1.33788 2.21039 255 255 255
-1.24874 -1.35249 2.22788 255 255 255
-1.25309 -1.36743 2.23881 255 255 255
-1.25596 -1.38097 2.25266 255 255 255
-1.25940 -1.39521 2.26966 0 0 0
-1.26313 -1.40864 2.28052 0 0 0
-1.26623 -1.42266 2.29496 0 0 0
-1.26871 -1.43647 2.30974 0 0 0
-1.27064 -1.44829 2.32155 0 0 0
-1.27266 -1.45911 2.33657 0 0 0
-1.27731 -1.47245 2.35324 0 0 0
-1.28018 -1.48596 2.36161 0 0 0
-1.28132 -1.49857 2.37204 0 0 0
-1.28241 -1.50895 2.38267 0 0 0
-1.28411 -1.52004 2.39500 0 0 0
-1.28581 -1.53013 2.40694 0 0 0
-1.28710 -1.53839 2.41618 0 0 0
-1.29051 -1.54844 2.42777 0 0 0
-1.29258 -1.55833 2.43485 0 0 0
-1.29435 -1.56747 2.44343 0 0 0
-1.29801 -1.57935 2.45650 0 0 0
-1.30079 -1.58806 2.47039 0 0 0
-1.30325 -1.59309 2.47805 0 0 0
-1.30555 -1.59773 2.48130 0 0 0
-1.30337 -1.59705 2.48218 0 0 0
-1.30619 -1.60592 2.49230 0 0 0
-1.31023 -1.61580 2.50147 255 255 255
-1.32291 -1.64011 2.53109 255 255 255
-1.32414 -1.65007 2.54007 255 255 255
-1.32414 -1.65817 2.54913 255 255 255
-1.32636 -1.66797 2.55771 255 255 255
-1.32885 -1.67717 2.56732 255 255 255
-1.32754 -1.68680 2.57597 255 255 255
-1.32842 -1.69527 2.58556 255 255 255
-1.33477 -1.70430 2.59457 0 0 0
-1.33162 -1.71304 2.60233 0 0 0
-1.33363 -1.71966 2.61179 0 0 0
-1.34219 -1.72678 2.62029 0 0 0
-1.33579 -1.73492 2.62642 0 0 0
-1.33322 -1.74302 2.63412 0 0 0
-1.33267 -1.74934 2.64043 0 0 0
-1.32662 -1.75726 2.64697 0 0 0
-1.32976 -1.76245 2.65387 0 0 0
-1.33717 -1.76748 2.65929 0 0 0
-1.33442 -1.77374 2.66467 0 0 0
-1.33389 -1.77905 2.67109 0 0 0
-1.33598 -1.78371 2.67650 0 0 0
-1.33738 -1.78854 2.68232 0 0 0
-1.33482 -1.79309 2.68672 0 0 0
-1.33885 -1.79720 2.69154 0 0 0
-1.34173 -1.80053 2.69564 0 0 0
-1.33915 -1.80374 2.69772 0 0 0
-1.34123 -1.80589 2.69989 0 0 0
-1.35385 -1.80537 2.70204 0 0 0
-1.35630 -1.80776 2.70210 0 0 0
-1.34964 -1.80900 2.70087 0 0 0
-1.35414 -1.80800 2.70021 0 0 0
-1.36125 -1.80805 2.69757 0 0 0
-1.36033 -1.80661 2.69289 0 0 0
-1.36453 -1.80282 2.68801 0 0 0
-1.38195 -1.79734 2.68273 0 0 0
-1.38556 -1.79285 2.67341 0 0 0
-1.38233 -1.78552 2.66312 0 0 0
-1.39425 -1.77587 2.65334 0 0 0
-1.39706 -1.76912 2.64094 0 0 0
-1.39646 -1.75787 2.62774 0 0 0
-1.40286 -1.74578 2.61422 0 0 0
-1.41515 -1.73221 2.60055 0 0 0
-1.42349 -1.71729 2.58498 0 0 0
-1.42164 -1.70222 2.56626 0 0 0
-1.43097 -1.68428 2.54823 0 0 0
-1.44439 -1.66555 2.52797 0 0 0
-1.45608 -1.64511 2.50643 0 0 0
-1.46102 -1.62680 2.48396 0 0 0
-1.47378 -1.60714 2.46264 0 0 0
-1.49333 -1.56586 2.41908 0 0 0
-1.51169 -1.54397 2.39820 0 0 0
-1.51682 -1.52415 2.37667 0 0 0
-1.52345 -1.50349 2.35653 0 0 0
-1.53481 -1.48442 2.33651 0 0 0
-1.55092 -1.46576 2.31715 0 0 0
-1.56562 -1.44838 2.29911 0 0 0
-1.57764 -1.43258 2.28200 0 0 0
-1.58432 -1.41719 2.26309 0 0 0
-1.59122 -1.40178 2.24479 0 0 0
-1.59945 -1.38786 2.22858 0 0 0
-1.60257 -1.37279 2.21171 0 0 0
-1.61637 -1.35768 2.19854 0 0 0
-1.61791 -1.34317 2.18180 0 0 0
-1.62008 -1.33144 2.16936 255 255 255
-1.63484 -1.29359 2.13297 255 255 255
-1.64200 -1.26979 2.11032 255 255 255
-1.63700 -1.26110 2.10002 255 255 255
-1.62600 -1.25258 2.09114 255 255 255
-1.62581 -1.24032 2.07830 255 255 255
-1.62467 -1.22891 2.06601 255 255 255
-1.61457 -1.22152 2.05686 0 0 0
-1.60805 -1.21096 2.04534 0 0 0
-1.60289 -1.20003 2.03150 0 0 0
-1.58695 -1.19163 2.02007 0 0 0
-1.57562 -1.18221 2.00697 0 0 0
-1.56533 -1.17109 1.99124 0 0 0
-1.55202 -1.15998 1.97642 0 0 0
-1.53991 -1.14877 1.95977 0 0 0
-1.53636 -1.13258 1.94007 0 0 0
-1.52064 -1.12059 1.92612 0 0 0
-1.50143 -1.10699 1.91295 0 0 0
-1.48984 -1.09053 1.89672 0 0 0
-1.47810 -1.07238 1.88127 0 0 0
-1.46457 -1.05710 1.86804 0 0 0
-1.45353 -1.03937 1.85520 0 0 0
-1.44612 -1.02127 1.84040 0 0 0
-1.44304 -1.00154 1.82664 0 0 0
-1.43821 -0.98564 1.81470 0 0 0
-1.41991 -0.97449 1.80964 0 0 0
-1.41253 -0.95967 1.79937 255 255 255
-1.38772 -0.90830 1.76083 255 255 255
-1.38409 -0.88589 1.73912 255 255 255
-1.38457 -0.87326 1.72617 255 255 255
-1.37972 -0.86378 1.71836 255 255 255
-1.37232 -0.85568 1.71214 255 255 255
-1.36222 -0.84814 1.70729 255 255 255
-1.35911 -0.83844 1.69936 0 0 0
-1.35592 -0.82758 1.69076 0 0 0
-1.34879 -0.81787 1.68307 0 0 0
-1.34357 -0.80746 1.67390 0 0 0
-1.34137 -0.79605 1.66368 0 0 0
-1.33849 -0.78410 1.65302 0 0 0
-1.33373 -0.77254 1.64305 0 0 0
-1.32875 -0.76062 1.63349 0 0 0
-1.32944 -0.74533 1.61986 0 0 0
-1.32739 -0.73110 1.60728 0 0 0
-1.32648 -0.71595 1.59321 0 0 0
-1.32828 -0.70020 1.57728 0 0 0
-1.32466 -0.68417 1.56419 0 0 0
-1.32243 -0.66658 1.55078 0 0 0
-1.31869 -0.65014 1.53964 0 0 0
-1.31682 -0.63362 1.52836 0 0 0
-1.32280 -0.61010 1.50952 0 0 0
-1.32034 -0.59310 1.49489 0 0 0
-1.31417 -0.57625 1.48445 0 0 0
-1.31745 -0.55401 1.46526 0 0 0
-1.31131 -0.53681 1.45004 0 0 0
-1.30597 -0.49868 1.41292 0 0 0
-1.30257 -0.48131 1.39416 255 255 255
-1.26046 -0.39883 1.32102 255 255 255
-1.25076 -0.37268 1.29613 255 255 255
-1.23532 -0.36192 1.28552 255 255 255
-1.22314 -0.35070 1.27368 255 255 255
-1.21404 -0.33978 1.26109 0 0 0
-1.18415 -0.32141 1.24199 0 0 0
-1.16538 -0.31409 1.23554 0 0 0
-1.14732 -0.30548 1.22845 0 0 0
-1.11127 -0.29017 1.21734 0 0 0
-1.08740 -0.28408 1.21454 0 0 0
-1.06590 -0.27794 1.21215 0 0 0
-1.04532 -0.27243 1.20678 0 0 0
-0.99924 -0.25793 1.20188 0 0 0
-0.97412 -0.25178 1.20061 0 0 0
-0.94971 -0.24513 1.20119 0 0 0
-0.90202 -0.23198 1.20183 0 0 0
-0.87744 -0.22517 1.20313 0 0 0
-0.85808 -0.22320 1.20306 0 0 0
-0.83582 -0.21801 1.20150 0 0 0
-0.81761 -0.21506 1.20268 255 255 255
-0.72536 -0.20166 1.19923 255 255 255
-0.68465 -0.19348 1.19569 255 255 255
-0.67367 -0.18824 1.19727 255 255 255
-0.66339 -0.18258 1.19867 255 255 255
-0.63417 -0.17180 1.19993 255 255 255
-0.61801 -0.16560 1.19904 0 0 0
-0.59879 -0.15930 1.19768 0 0 0
-0.58360 -0.15371 1.19787 0 0 0
-0.57136 -0.14844 1.19782 0 0 0
-0.54691 -0.13694 1.19767 0 0 0
-0.53283 -0.13096 1.19547 0 0 0
-0.51688 -0.12523 1.19259 0 0 0
-0.49018 -0.11068 1.18733 0 0 0
-0.47779 -0.10154 1.18564 0 0 0
-0.46343 -0.09184 1.18280 0 0 0
-0.45101 -0.08244 1.17952 0 0 0
-0.43661 -0.07229 1.17776 0 0 0
-0.42226 -0.06161 1.17454 0 0 0
-0.40620 -0.05177 1.17175 0 0 0
-0.39235 -0.04178 1.17040 0 0 0
-0.38314 -0.03320 1.16720 0 0 0
-0.37248 -0.02395 1.16454 0 0 0
-0.35972 -0.01534 1.16055 0 0 0
-0.34809 -0.00685 1.15496 0 0 0
-0.33595 0.00019 1.14972 0 0 0
-0.32586 0.00850 1.14791 0 0 0
-0.31526 0.01624 1.14201 0 0 0
-0.30712 0.02422 1.14023 255 255 255
-0.28154 0.04442 1.13037 255 255 255
-0.27020 0.05787 1.12571 255 255 255
-0.26681 0.06370 1.12485 255 255 255
-0.26379 0.06892 1.12265 255 255 255
-0.26190 0.07335 1.11965 255 255 255
-0.26153 0.07708 1.11858 255 255 255
-0.26360 0.07993 1.11828 255 255 255
-0.26601 0.08180 1.11624 255 255 255
-0.26965 0.08363 1.11620 255 255 255
-0.27596 0.08617 1.11681 255 255 255
-0.28004 0.08885 1.11524 0 0 0
-0.28378 0.09001 1.11299 0 0 0
-0.29014 0.09265 1.11158 0 0 0
-0.29884 0.09328 1.11107 0 0 0
-0.30692 0.09448 1.10937 0 0 0
-0.31459 0.09273 1.10658 0 0 0
-0.32346 0.09056 1.10356 0 0 0
-0.34770 0.08368 1.10462 0 0 0
-0.35879 0.07753 1.10132 0 0 0
-0.37349 0.07039 1.10250 0 0 0
-0.40299 0.05539 1.10574 0 0 0
-0.41863 0.04771 1.11048 0 0 0
-0.44603 0.03054 1.11359 0 0 0
-0.46189 0.02363 1.11906 0 0 0
-0.48064 0.01753 1.12674 0 0 0
-0.50883 0.00452 1.13019 0 0 0
-0.52397 -0.00116 1.13548 0 0 0
-0.53611 -0.00647 1.13653 0 0 0
-0.56323 -0.01743 1.14121 0 0 0
-0.57459 -0.02277 1.14036 0 0 0
-0.60256 -0.03184 1.14582 0 0 0
-0.61450 -0.03600 1.14495 0 0 0
-0.63868 -0.04446 1.14781 0 0 0
-0.65129 -0.04910 1.14869 0 0 0
-0.67709 -0.05958 1.15067 0 0 0
-0.69124 -0.06448 1.15224 0 0 0
-0.71667 -0.07418 1.15160 0 0 0
-0.72902 -0.07793 1.15124 0 0 0
-0.75445 -0.08409 1.15424 0 0 0
-0.76710 -0.08699 1.15408 0 0 0
-0.78234 -0.08924 1.15712 0 0 0
-0.80582 -0.09292 1.15737 0 0 0
-0.82910 -0.09464 1.15862 0 0 0
-0.84058 -0.09517 1.15856 0 0 0
-0.86435 -0.09596 1.15983 0 0 0
-0.87919 -0.09637 1.16187 0 0 0
-0.89320 -0.09630 1.16173 0 0 0
-0.92167 -0.09458 1.16498 0 0 0
-0.95201 -0.09036 1.16751 0 0 0
-0.98721 -0.08215 1.16967 255 255 255
-1.06994 -0.06072 1.17616 255 255 255
-1.10900 -0.04906 1.17802 255 255 255
-1.14898 -0.03746 1.17874 255 255 255
-1.17034 -0.03195 1.17635 255 255 255
-1.21517 -0.02135 1.17186 255 255 255
-1.24071 -0.01445 1.16954 0 0 0
-1.26381 -0.00785 1.16680 0 0 0
-1.30261 0.00392 1.17276 0 0 0
-1.31727 0.00832 1.18049 0 0 0
-1.33972 0.01703 1.18629 0 0 0
-1.37649 0.03648 1.20658 0 0 0
-1.40895 0.05744 1.22973 0 0 0
-1.42315 0.06503 1.23743 0 0 0
-1.43954 0.07416 1.24201 0 0 0
-1.45435 0.08071 1.24102 0 0 0
-1.46738 0.08720 1.25173 0 0 0
-1.50105 0.09823 1.26653 0 0 0
-1.51430 0.10057 1.27003 0 0 0
-1.54750 0.10565 1.27957 0 0 0
-1.55805 0.10461 1.28764 0 0 0
-1.57146 0.10438 1.29369 0 0 0
-1.58526 0.10391 1.29449 0 0 0
-1.59916 0.10316 1.30382 255 255 255
-1.62286 0.09746 1.32177 255 255 255
-1.63624 0.09145 1.33002 255 255 255
-1.65423 0.09054 1.33782 255 255 255
-1.66732 0.08415 1.34839 255 255 255
-1.67966 0.07504 1.35690 255 255 255
-1.69509 0.06902 1.36543 255 255 255
-1.70827 0.06217 1.37570 255 255 255
-1.71948 0.04960 1.38375 0 0 0
-1.73656 0.04524 1.39160 0 0 0
-1.75341 0.04081 1.39688 0 0 0
-1.76561 0.03159 1.40061 0 0 0
-1.78269 0.02556 1.40539 0 0 0
-1.79725 0.02150 1.41713 0 0 0
-1.80732 0.00934 1.43167 0 0 0
-1.82118 0.00206 1.44151 0 0 0
-1.84110 0.00392 1.45198 0 0 0
-1.85545 -0.00321 1.45908 0 0 0
-1.87003 -0.01061 1.46286 0 0 0
-1.88389 -0.01652 1.47346 0 0 0
-1.89766 -0.02422 1.48217 0 0 0
-1.91140 -0.03208 1.48680 0 0 0
-1.93088 -0.03005 1.49607 0 0 0
-1.94221 -0.03153 1.50675 0 0 0
-1.95544 -0.03850 1.51382 0 0 0
-1.97090 -0.04465 1.52209 0 0 0
-1.98157 -0.05577 1.52768 0 0 0
-1.99483 -0.06495 1.53245 0 0 0
-2.00802 -0.07307 1.53696 0 0 0
-2.03352 -0.09074 1.54752 0 0 0
-2.04678 -0.09696 1.55499 0 0 0
-2.06367 -0.10246 1.56181 0 0 0
-2.07881 -0.10803 1.56830 0 0 0
-2.09134 -0.11759 1.57521 0 0 0
-2.10701 -0.12215 1.58562 0 0 0
-2.12067 -0.12915 1.59476 255 255 255
-2.17244 -0.14812 1.63240 255 255 255
-2.18909 -0.15375 1.63828 255 255 255
-2.20127 -0.15775 1.64209 255 255 255
-2.22972 -0.16746 1.65331 255 255 255
-2.24309 -0.17355 1.65799 255 255 255
-2.25680 -0.17837 1.66799 255 255 255
-2.26907 -0.18055 1.67112 0 0 0
-2.28242 -0.18612 1.67959 0 0 0
-2.30759 -0.19873 1.68932 0 0 0
-2.32088 -0.20160 1.69887 0 0 0
-2.33121 -0.20555 1.70317 0 0 0
-2.34093 -0.21081 1.70492 0 0 0
-2.36205 -0.21940 1.72182 0 0 0
-2.37303 -0.22695 1.72938 0 0 0
-2.38287 -0.23229 1.73370 0 0 0
-2.39229 -0.23624 1.73637 0 0 0
-2.41131 -0.24313 1.75185 0 0 0
-2.41888 -0.24991 1.75558 0 0 0
-2.43683 -0.25835 1.76748 0 0 0
-2.44509 -0.26463 1.76902 0 0 0
-2.46190 -0.27005 1.78017 0 0 0
-2.46933 -0.27514 1.78979 0 0 0
-2.48414 -0.28324 1.80271 0 0 0
-2.49132 -0.28818 1.80432 0 0 0
-2.50462 -0.29276 1.82224 0 0 0
-2.50941 -0.29580 1.83529 0 0 0
-2.51511 -0.29821 1.84715 0 0 0
-2.51559 -0.30059 1.84658 0 0 0
-2.51505 -0.30156 1.84736 0 0 0
-2.51320 -0.29897 1.84866 0 0 0
-2.50778 -0.29343 1.84373 0 0 0
-2.50448 -0.29312 1.84965 0 0 0
-2.49485 -0.28769 1.84714 0 0 0
-2.47794 -0.28254 1.83988 0 0 0
-2.46817 -0.27957 1.83755 0 0 0
-2.44268 -0.26675 1.83800 0 0 0
-2.42834 -0.26318 1.82817 0 0 0
-2.41344 -0.25527 1.82985 255 255 255
-2.32278 -0.21983 1.81664 255 255 255
-2.29901 -0.21295 1.80933 255 255 255
-2.25303 -0.19943 1.80295 255 255 255
-2.22865 -0.19260 1.79746 255 255 255
-2.20465 -0.18868 1.79012 255 255 255
-2.17655 -0.17809 1.79091 255 255 255
-2.14952 -0.16915 1.78630 255 255 255
-2.12312 -0.16251 1.78083 0 0 0
-2.09356 -0.14981 1.78382 0 0 0
-2.04274 -0.13741 1.76837 0 0 0
-2.01544 -0.12652 1.76845 0 0 0
-1.98949 -0.11777 1.76282 0 0 0
-1.94236 -0.10214 1.75589 0 0 0
-1.92178 -0.09768 1.74806 0 0 0
-1.89539 -0.08186 1.75889 0 0 0
-1.87410 -0.07712 1.75037 0 0 0
-1.85311 -0.07090 1.74781 0 0 0
-1.80658 -0.05146 1.74385 0 0 0
-1.78672 -0.04356 1.74173 0 0 0
-1.76589 -0.03263 1.74082 0 0 0
-1.74758 -0.02462 1.73865 0 0 0
-1.72857 -0.01676 1.73602 0 0 0
-1.71322 -0.01072 1.73304 0 0 0
-1.69640 -0.00295 1.73634 0 0 0
-1.67865 0.00226 1.73216 0 0 0
-1.66194 0.00677 1.72693 0 0 0
-1.64904 0.01106 1.72671 255 255 255
-1.60454 0.01800 1.72476 255 255 255
-1.57535 0.01943 1.72820 255 255 255
-1.55989 0.01917 1.73225 255 255 255
-1.54499 0.01827 1.73682 255 255 255
-1.52934 0.02038 1.74456 255 255 255
-1.51196 0.01867 1.74801 255 255 255
-1.48872 0.00935 1.76194 255 255 255
-1.47699 0.00345 1.77002 0 0 0
-1.46424 -0.00450 1.77806 0 0 0
-1.45076 -0.01433 1.78665 0 0 0
-1.43411 -0.02436 1.79901 0 0 0
-1.40037 -0.04252 1.81890 0 0 0
-1.38443 -0.05588 1.83119 0 0 0
-1.36862 -0.06511 1.84229 0 0 0
-1.34914 -0.07938 1.85223 0 0 0
-1.31790 -0.09801 1.87979 0 0 0
-1.30220 -0.10837 1.89162 0 0 0
-1.29008 -0.11704 1.90369 0 0 0
-1.27762 -0.12491 1.91399 0 0 0
-1.26559 -0.13332 1.92365 0 0 0
-1.25718 -0.14107 1.93313 0 0 0
-1.23602 -0.15414 1.95212 0 0 0
-1.22830 -0.15836 1.96644 0 0 0
-1.22083 -0.16772 1.97099 0 0 0
-1.20571 -0.17901 1.98601 0 0 0
-1.19821 -0.18735 1.99059 0 0 0
-1.18828 -0.19309 1.99599 0 0 0
-1.18097 -0.19921 2.00045 0 0 0
-1.17128 -0.20523 2.00201 255 255 255
-1.14822 -0.21537 2.01393 255 255 255
-1.14037 -0.21729 2.01378 255 255 255
-1.12952 -0.21565 2.01699 255 255 255
-1.11889 -0.21632 2.01115 255 255 255
-1.10861 -0.21360 2.01147 255 255 255
-1.10320 -0.20765 2.01778 255 255 255
-1.09337 -0.20406 2.01290 255 255 255
-1.08337 -0.20178 2.00542 255 255 255
-1.07814 -0.19344 2.01053 255 255 255
-1.05596 -0.17934 2.00083 255 255 255
-1.04479 -0.17192 1.99687 0 0 0
-1.03386 -0.16398 1.99003 0 0 0
-1.02458 -0.15482 1.98688 0 0 0
-1.01441 -0.14343 1.98486 0 0 0
-0.98699 -0.12720 1.96854 0 0 0
-0.97817 -0.11632 1.96734 0 0 0
-0.96631 -0.10715 1.95851 0 0 0
-0.94201 -0.08185 1.94433 0 0 0
-0.92668 -0.07212 1.93660 0 0 0
-0.90993 -0.05968 1.93007 0 0 0
-0.87778 -0.03822 1.91174 0 0 0
-0.86048 -0.03056 1.90237 0 0 0
-0.84917 -0.01428 1.89766 0 0 0
-0.81661 0.00998 1.87961 0 0 0
-0.79987 0.02027 1.86900 0 0 0
-0.78241 0.02775 1.86105 0 0 0
-0.75163 0.05102 1.84859 0 0 0
-0.73764 0.05951 1.83540 0 0 0
-0.71919 0.06134 1.82523 0 0 0
-0.70613 0.07344 1.82009 0 0 0
-0.69839 0.08688 1.81115 255 255 255
-0.66247 0.11239 1.78845 255 255 255
-0.63286 0.14035 1.76627 255 255 255
-0.62352 0.14937 1.75987 255 255 255
-0.61470 0.15768 1.75307 255 255 255
-0.60454 0.16448 1.74671 255 255 255
-0.59630 0.17122 1.73961 255 255 255
-0.59031 0.17879 1.73562 0 0 0
-0.57797 0.18782 1.72634 0 0 0
-0.57557 0.19250 1.72369 0 0 0
-0.57729 0.19699 1.71962 0 0 0
-0.57848 0.19893 1.71600 0 0 0
-0.58288 0.20173 1.71206 0 0 0
-0.59039 0.20504 1.70880 0 0 0
-0.59704 0.20552 1.70566 0 0 0
-0.60700 0.20752 1.70446 0 0 0
-0.61760 0.20760 1.70317 0 0 0
-0.64279 0.20487 1.70045 0 0 0
-0.65991 0.20420 1.70050 0 0 0
-0.67869 0.20229 1.69952 0 0 0
-0.72233 0.19856 1.70114 0 0 0
-0.74758 0.19774 1.70306 0 0 0
-0.77306 0.19533 1.70218 0 0 0
-0.79922 0.19148 1.70339 0 0 0
-0.83055 0.19102 1.70744 0 0 0
-0.86148 0.18943 1.70948 0 0 0
-0.88673 0.18205 1.71040 0 0 0
-0.91774 0.17886 1.71117 0 0 0
-0.94852 0.17674 1.71220 0 0 0
-0.97964 0.17414 1.71369 0 0 0
-1.00648 0.17136 1.71358 0 0 0
-1.03810 0.17085 1.71494 0 0 0
-1.07099 0.16977 1.71266 0 0 0
-1.10653 0.16992 1.71109 0 0 0
-1.13800 0.16869 1.70735 0 0 0
-1.16456 0.16572 1.70491 0 0 0
-1.19319 0.16542 1.70455 0 0 0
-1.21624 0.16264 1.70305 0 0 0
-1.24101 0.15964 1.70237 0 0 0
-1.27090 0.16132 1.70287 0 0 0
-1.29174 0.16349 1.69892 255 255 255
-1.36100 0.15923 1.69026 255 255 255
-1.41004 0.15426 1.68335 255 255 255
-1.43836 0.14987 1.68247 255 255 255
-1.46014 0.14815 1.68151 255 255 255
-1.49724 0.14342 1.67578 255 255 255
-1.51273 0.14067 1.67281 0 0 0
-1.52963 0.14050 1.66867 0 0 0
-1.54494 0.13989 1.66383 0 0 0
-1.55821 0.13768 1.65943 0 0 0
-1.58717 0.14121 1.65224 0 0 0
-1.59885 0.14404 1.64656 0 0 0
-1.62315 0.14977 1.63795 0 0 0
-1.63471 0.15468 1.63314 0 0 0
-1.65863 0.16447 1.62239 0 0 0
-1.66870 0.17135 1.61837 0 0 0
-1.68246 0.18104 1.61306 0 0 0
-1.69594 0.18749 1.60562 0 0 0
-1.71013 0.19621 1.59879 0 0 0
-1.72726 0.20648 1.59081 0 0 0
-1.74204 0.21648 1.58107 0 0 0
-1.75490 0.22538 1.57273 0 0 0
-1.77043 0.23648 1.56436 0 0 0
-1.78743 0.25020 1.55557 0 0 0
-1.79974 0.25901 1.54639 0 0 0
-1.81576 0.26954 1.53745 0 0 0
-1.83541 0.28201 1.52530 0 0 0
-1.87081 0.29723 1.50476 0 0 0
-1.88914 0.30642 1.49390 0 0 0
-1.90436 0.31532 1.48288 0 0 0
-1.92117 0.32358 1.47454 255 255 255
