ply
format ascii 1.0
element face 0
property list uchar int vertex_indices
element vertex 1294
property float x
property float y
property float z
property uchar diffuse_red
property uchar diffuse_green
property uchar diffuse_blue
end_header
-0.57053 -0.39398 -0.73462 18 16 49
-0.54931 -0.39425 -0.76981 42 52 114
-0.54088 -0.39595 -0.77388 51 65 126
-0.53272 -0.39787 -0.77613 54 70 141
-0.52414 -0.39956 -0.78051 53 66 155
-0.51467 -0.40077 -0.78942 47 51 160
-0.47724 -0.41281 -0.77958 52 59 155
-0.47029 -0.41549 -0.77498 56 62 154
-0.46445 -0.41868 -0.76525 57 60 155
-0.45099 -0.42415 -0.75462 86 59 152
-0.43993 -0.42495 -0.76883 148 143 201
-0.43490 -0.43522 -0.76709 253 251 252
-0.43462 -0.42831 -0.75717 228 240 240
-0.42961 -0.43853 -0.75543 251 249 252
-0.42642 -0.43041 -0.75835 251 251 252
-0.42140 -0.44065 -0.75661 251 249 251
0.31394 -0.69622 -0.39087 183 108 127
0.32307 -0.69864 -0.39173 205 174 197
0.32747 -0.70082 -0.38576 245 242 247
0.33221 -0.71049 -0.38412 254 254 254
0.46654 -0.74160 -0.37368 254 254 250
0.45719 -0.74672 -0.37657 254 254 254
0.46427 -0.74907 -0.37429 254 254 254
0.47135 -0.75141 -0.37201 254 254 254
0.46440 -0.74325 -0.35968 254 253 247
0.46918 -0.75300 -0.35802 254 254 254
0.45705 -0.74448 -0.33923 254 253 246
0.46178 -0.75413 -0.33760 254 254 254
0.45198 -0.74586 -0.32189 254 253 245
0.45667 -0.75542 -0.32027 254 254 254
0.45792 -0.74807 -0.31846 254 253 248
0.46260 -0.75762 -0.31684 254 254 254
0.46616 -0.75046 -0.31790 254 253 251
0.47085 -0.76002 -0.31628 254 254 254
-1.10895 -0.22731 -0.88738 36 38 64
-1.11834 -0.23244 -0.89028 41 45 54
-1.10157 -0.23030 -0.88149 35 41 67
-1.09362 -0.23471 -0.86764 43 57 62
-1.08581 -0.23891 -0.85479 50 62 54
-1.07815 -0.24287 -0.84326 49 62 56
-1.07072 -0.24637 -0.83424 46 51 58
-1.06396 -0.24806 -0.83554 42 40 48
-1.05678 -0.25094 -0.83002 29 31 44
-1.04981 -0.25324 -0.82785 19 24 39
-1.04302 -0.25494 -0.82914 18 17 37
-1.03827 -0.26462 -0.82750 8 7 18
-1.03621 -0.25664 -0.83046 15 12 37
-1.03145 -0.26634 -0.82881 7 5 15
-1.02925 -0.25879 -0.82919 13 9 29
-1.02450 -0.26849 -0.82755 6 5 13
-1.02255 -0.25995 -0.83381 11 7 28
-1.01778 -0.26968 -0.83216 7 5 10
-1.01575 -0.26132 -0.83719 11 5 19
-1.01097 -0.27108 -0.83553 7 6 13
-1.00894 -0.26263 -0.84104 10 5 19
-1.00414 -0.27241 -0.83938 8 6 13
-1.00193 -0.26471 -0.84028 11 8 24
-0.99713 -0.27450 -0.83862 9 6 11
-0.99507 -0.26596 -0.84460 14 8 21
-0.99026 -0.27577 -0.84293 9 4 10
-0.98798 -0.26829 -0.84239 14 10 26
-0.98317 -0.27811 -0.84072 7 6 11
-0.98091 -0.27056 -0.84056 14 11 29
-0.97383 -0.27287 -0.83856 18 18 33
-0.96664 -0.27611 -0.83076 19 18 33
-0.96183 -0.28590 -0.82909 9 6 17
-0.95960 -0.27812 -0.83053 21 17 31
-0.95479 -0.28792 -0.82886 8 6 18
-0.95248 -0.28097 -0.82509 18 16 32
-0.94538 -0.28393 -0.81893 17 17 31
-0.94059 -0.29370 -0.81727 7 5 15
-0.93829 -0.28704 -0.81173 17 19 28
-0.93125 -0.28951 -0.80862 20 19 25
-0.92422 -0.29294 -0.79934 25 21 32
-0.91720 -0.29506 -0.79837 38 28 48
-0.91029 -0.29975 -0.78085 54 65 77
-0.90335 -0.30263 -0.77490 63 77 81
-0.89416 -0.29760 -0.77206 70 79 90
-0.89639 -0.30493 -0.77266 66 79 88
-0.89863 -0.31226 -0.77326 62 74 85
-0.59862 -0.39758 -0.71440 37 36 45
-0.59382 -0.40739 -0.71274 27 28 37
-0.57277 -0.40149 -0.73566 23 20 50
-0.58224 -0.40668 -0.73859 24 24 31
-0.56179 -0.40138 -0.75598 36 36 87
-0.54397 -0.40414 -0.77026 61 78 131
-0.53594 -0.40612 -0.77197 69 83 144
-0.52815 -0.40828 -0.77216 72 86 159
-0.51938 -0.40989 -0.77750 68 84 165
-0.51081 -0.41166 -0.78155 56 71 165
-0.50252 -0.41362 -0.78388 43 59 162
-0.49523 -0.41613 -0.78095 45 51 151
-0.48727 -0.41829 -0.78136 51 46 145
-0.48099 -0.42129 -0.77350 53 40 146
-0.47380 -0.42383 -0.77014 67 45 136
-0.46711 -0.42660 -0.76448 78 58 144
-0.46139 -0.42978 -0.75444 109 103 175
-0.45511 -0.43268 -0.74720 197 164 191
-0.45013 -0.44283 -0.74547 252 252 252
-0.44659 -0.43459 -0.75021 245 249 241
-0.44160 -0.44477 -0.74848 251 249 252
0.29480 -0.70077 -0.37921 235 210 206
0.30405 -0.70318 -0.38036 182 134 97
0.30999 -0.70543 -0.37668 213 214 203
0.32226 -0.70802 -0.38210 247 252 253
0.32699 -0.71766 -0.38047 254 254 254
-1.11233 -0.23241 -0.90154 23 20 45
-1.12177 -0.23758 -0.90446 39 39 49
-1.10494 -0.23532 -0.89612 14 14 32
-1.10009 -0.24521 -0.89444 8 7 16
-1.09729 -0.23886 -0.88708 18 22 31
-1.09246 -0.24872 -0.88541 9 6 12
-1.08899 -0.24409 -0.86822 21 22 21
-1.08419 -0.25388 -0.86656 7 7 9
-1.08059 -0.24976 -0.84666 17 20 20
-1.07583 -0.25947 -0.84501 6 6 9
-1.07277 -0.25421 -0.83203 16 15 22
-1.06804 -0.26386 -0.83039 6 6 6
-1.06545 -0.25748 -0.82417 16 13 16
-1.06073 -0.26710 -0.82253 6 5 7
-1.05838 -0.26012 -0.81991 9 9 16
-1.05367 -0.26974 -0.81828 6 5 13
-1.05161 -0.26190 -0.82074 6 8 22
-1.04689 -0.27153 -0.81911 5 7 9
-1.04476 -0.26388 -0.82042 7 6 20
-1.04004 -0.27351 -0.81878 6 5 8
-0.97596 -0.28132 -0.83304 8 7 13
-0.98530 -0.28643 -0.83593 7 4 6
-0.97823 -0.28877 -0.83365 6 6 6
-0.97116 -0.29111 -0.83138 6 4 11
-0.96886 -0.28395 -0.82889 9 6 19
-0.96406 -0.29374 -0.82723 6 4 11
-0.93348 -0.29805 -0.80194 7 5 14
-0.93573 -0.30544 -0.80254 4 4 8
-0.92872 -0.30776 -0.80029 6 4 13
-0.92647 -0.30107 -0.79511 11 6 20
-0.91949 -0.30441 -0.78617 22 11 40
-0.91251 -0.30687 -0.78294 41 61 61
-0.57588 -0.40959 -0.73130 31 26 44
-0.58533 -0.41476 -0.73422 28 28 40
-0.56613 -0.41030 -0.74457 45 43 88
-0.55548 -0.41056 -0.76243 61 67 126
-0.54709 -0.41230 -0.76648 73 79 135
-0.53068 -0.41611 -0.77180 88 92 149
-0.52136 -0.41744 -0.78021 93 93 150
-0.51412 -0.41995 -0.77715 98 95 146
-0.50781 -0.42293 -0.76929 100 98 149
-0.50147 -0.42586 -0.76181 105 95 152
-0.49446 -0.42845 -0.75785 112 93 151
-0.48813 -0.43134 -0.75056 124 99 149
-0.47864 -0.43275 -0.75881 164 132 155
-0.47363 -0.43623 -0.74534 208 192 179
-0.46867 -0.44635 -0.74362 254 252 252
-0.47067 -0.44054 -0.72267 245 236 232
-0.46575 -0.45056 -0.72096 252 251 252
-0.46115 -0.44197 -0.73085 254 253 241
-0.45621 -0.45204 -0.72914 251 249 251
0.28685 -0.70774 -0.37142 178 135 192
0.29375 -0.71003 -0.36920 193 145 162
0.30678 -0.71267 -0.37586 237 227 227
0.31148 -0.72227 -0.37423 254 254 254
0.31713 -0.71518 -0.37855 253 254 254
0.32185 -0.72480 -0.37692 254 254 254
-1.11510 -0.23894 -0.90796 18 13 33
-1.12456 -0.24412 -0.91089 41 37 47
-1.11023 -0.24886 -0.90628 9 8 11
-1.10708 -0.24317 -0.89481 7 7 14
-1.10223 -0.25305 -0.89314 8 8 14
-0.92173 -0.31224 -0.78357 11 5 26
-0.93094 -0.31728 -0.78642 8 5 12
-0.92397 -0.31959 -0.78417 7 4 16
-0.91478 -0.31499 -0.77837 25 24 43
-0.90789 -0.31866 -0.76687 46 61 63
-0.90101 -0.32154 -0.76060 54 70 86
-0.89187 -0.31654 -0.75777 66 76 87
-0.89422 -0.32511 -0.74961 58 72 89
-0.88512 -0.32013 -0.74680 70 75 85
-0.88747 -0.32852 -0.73955 64 71 81
-0.87841 -0.32356 -0.73674 69 73 89
-0.88061 -0.33079 -0.73734 67 73 85
-0.83375 -0.35042 -0.69474 72 76 83
-0.83835 -0.34104 -0.69633 83 81 82
-0.84053 -0.34818 -0.69692 79 86 90
-0.83158 -0.34328 -0.69415 75 79 83
-0.82698 -0.35266 -0.69256 67 72 84
-0.57832 -0.41722 -0.73107 41 35 49
-0.56753 -0.41733 -0.75070 66 63 88
-0.55829 -0.41852 -0.76022 86 88 129
-0.54934 -0.41994 -0.76761 100 101 133
-0.53994 -0.42116 -0.77721 113 112 140
-0.53266 -0.42363 -0.77450 126 118 152
-0.52600 -0.42642 -0.76845 137 127 154
-0.51170 -0.43144 -0.76191 165 152 145
-0.50244 -0.43292 -0.76954 186 171 157
-0.49725 -0.43638 -0.75623 210 196 163
-0.49212 -0.43980 -0.74308 235 225 193
-0.48717 -0.44988 -0.74137 253 252 250
-0.48695 -0.44315 -0.73046 251 246 222
-0.48203 -0.45318 -0.72876 252 251 252
-0.47970 -0.44554 -0.72815 254 253 238
-0.47478 -0.45558 -0.72645 251 250 252
0.28473 -0.71502 -0.37215 185 126 190
0.29402 -0.71745 -0.37342 208 196 217
0.30523 -0.72002 -0.37744 246 249 248
0.30993 -0.72962 -0.37581 254 254 254
-1.29799 -0.12506 -1.38894 30 26 62
-1.30923 -0.13121 -1.39242 23 22 47
-1.30072 -0.13403 -1.38968 19 17 47
-1.29025 -0.12679 -1.39212 39 41 77
-1.28341 -0.12720 -1.40262 49 56 85
-1.11704 -0.24723 -0.90423 22 15 29
-1.12648 -0.25240 -0.90715 43 38 48
-0.98739 -0.29490 -0.82990 13 9 10
-0.99217 -0.28514 -0.83156 9 4 8
-0.99670 -0.30000 -0.83278 31 22 29
-0.98034 -0.29723 -0.82763 9 6 8
-0.91702 -0.32256 -0.77734 9 7 22
-0.91925 -0.32989 -0.77794 7 7 16
-0.91230 -0.33219 -0.77570 6 7 19
-0.90323 -0.32877 -0.76164 30 27 49
-0.89659 -0.33402 -0.73854 37 42 58
-0.88969 -0.33588 -0.73926 47 56 60
-0.87661 -0.34427 -0.70728 56 67 75
-0.86766 -0.33937 -0.70451 71 73 83
-0.87010 -0.34791 -0.69498 52 67 79
-0.86120 -0.34304 -0.69223 70 75 77
-0.86342 -0.35043 -0.69070 53 68 79
-0.85453 -0.34556 -0.68795 72 80 78
-0.85672 -0.35279 -0.68755 54 68 78
-0.84783 -0.34793 -0.68480 76 83 84
-0.84998 -0.35495 -0.68588 57 72 81
-0.84315 -0.35686 -0.68612 60 76 86
-0.83627 -0.35863 -0.68738 53 70 83
-0.82939 -0.36051 -0.68785 50 70 86
-0.82047 -0.35562 -0.68509 70 76 86
-0.82250 -0.36237 -0.68849 56 71 83
-0.81356 -0.35748 -0.68572 72 78 89
-0.81563 -0.36437 -0.68814 54 71 83
-0.80669 -0.35948 -0.68538 69 77 86
-0.80876 -0.36638 -0.68775 52 70 86
-0.79981 -0.36148 -0.68498 70 76 85
-0.80148 -0.36753 -0.69406 58 71 86
-0.79249 -0.36261 -0.69128 68 76 82
-0.79686 -0.37696 -0.69246 26 25 34
-0.79464 -0.36972 -0.69236 55 74 84
-0.78565 -0.36480 -0.68958 69 78 75
-0.79002 -0.37915 -0.69076 29 32 38
-0.78100 -0.37417 -0.68841 62 77 84
-0.77881 -0.36699 -0.68782 71 78 80
-0.78318 -0.38135 -0.68900 36 30 42
-0.77200 -0.36925 -0.68563 74 77 84
-0.77339 -0.37504 -0.69723 63 75 88
-0.76435 -0.37009 -0.69444 72 74 86
-0.76874 -0.38452 -0.69562 36 28 46
-0.76687 -0.37785 -0.69068 62 74 89
-0.75785 -0.37291 -0.68789 72 74 85
-0.76006 -0.38013 -0.68832 59 72 86
-0.75103 -0.37519 -0.68553 73 75 85
-0.75298 -0.38202 -0.68914 59 74 84
-0.74394 -0.37708 -0.68634 74 76 87
-0.74614 -0.38429 -0.68693 62 77 80
-0.58810 -0.42260 -0.73189 33 32 47
-0.59295 -0.41271 -0.73357 27 32 42
-0.59524 -0.42024 -0.73419 35 31 41
-0.59753 -0.42777 -0.73481 45 40 42
-0.58180 -0.42550 -0.72429 56 56 62
-0.56851 -0.42414 -0.75944 110 103 102
-0.56033 -0.42600 -0.76259 141 129 139
-0.55209 -0.42786 -0.76590 152 138 144
-0.54448 -0.43010 -0.76538 162 148 150
-0.53691 -0.43237 -0.76455 172 156 159
-0.52941 -0.43468 -0.76330 181 168 169
-0.52185 -0.43697 -0.76230 194 180 176
-0.51438 -0.43931 -0.76081 211 198 181
-0.50884 -0.44257 -0.74926 229 215 188
-0.50484 -0.44648 -0.73025 245 236 214
-0.49993 -0.45649 -0.72855 252 252 251
-0.49839 -0.44922 -0.72405 252 251 238
-0.49349 -0.45921 -0.72235 251 250 252
0.26571 -0.71752 -0.37266 254 254 248
0.26104 -0.70800 -0.37428 254 254 254
0.25883 -0.71524 -0.37488 254 254 254
0.25662 -0.72249 -0.37547 254 254 254
0.26874 -0.71954 -0.36475 223 169 216
0.27917 -0.72205 -0.36781 206 134 187
0.30072 -0.72716 -0.37473 250 254 253
0.30542 -0.73675 -0.37310 254 254 254
-1.29384 -0.13461 -1.39936 20 20 55
-1.30513 -0.14079 -1.40285 18 18 39
-1.29658 -0.14362 -1.40010 13 14 39
-1.28571 -0.13686 -1.39985 27 31 64
-1.27990 -0.14871 -1.39784 21 21 42
-1.11931 -0.25481 -0.90461 31 21 34
-1.12876 -0.25998 -0.90753 46 43 51
-1.11116 -0.25921 -0.88999 17 9 19
-1.10378 -0.26213 -0.88426 12 8 19
-1.09440 -0.25700 -0.88136 8 6 12
-1.06437 -0.28387 -0.81051 10 5 9
-1.06906 -0.27430 -0.81214 5 5 4
-1.07127 -0.28158 -0.81274 9 5 6
-1.06215 -0.27659 -0.80992 5 5 5
-1.05524 -0.27887 -0.80769 6 4 9
-1.05758 -0.28583 -0.81032 12 10 15
-1.04844 -0.28083 -0.80750 6 6 9
-1.05070 -0.28803 -0.80867 15 13 14
-1.04156 -0.28303 -0.80585 9 5 10
-1.04352 -0.29109 -0.80153 21 15 17
-1.03662 -0.29338 -0.79931 25 23 20
-1.03883 -0.30065 -0.79991 40 38 34
-0.98944 -0.30342 -0.82325 30 22 24
-0.99872 -0.30850 -0.82612 46 42 52
-0.99169 -0.31083 -0.82386 46 42 42
-0.97528 -0.30883 -0.81366 22 9 27
-0.96602 -0.30376 -0.81079 9 5 11
-0.96811 -0.31233 -0.80338 19 11 20
-0.95889 -0.30728 -0.80053 8 5 10
-0.96101 -0.31571 -0.79386 20 13 16
-0.95181 -0.31068 -0.79102 9 4 6
-0.95403 -0.31820 -0.79039 19 10 13
-0.94484 -0.31317 -0.78755 6 4 6
-0.94704 -0.32102 -0.78455 17 8 18
-0.93786 -0.31600 -0.78171 5 5 8
-0.94013 -0.32248 -0.78816 18 9 23
-0.93316 -0.32500 -0.78440 18 11 24
-0.90542 -0.33573 -0.76457 13 7 19
-0.91457 -0.34074 -0.76740 8 10 16
-0.90765 -0.34303 -0.76517 11 7 19
-0.90072 -0.34532 -0.76294 8 6 13
-0.89856 -0.33865 -0.75784 12 11 23
-0.89386 -0.34822 -0.75621 5 6 21
-0.89165 -0.34100 -0.75515 12 15 30
-0.88696 -0.35057 -0.75353 5 6 11
-0.86502 -0.35486 -0.71111 15 19 38
-0.85835 -0.35767 -0.70478 13 19 34
-0.85169 -0.36036 -0.69920 12 19 32
-0.84502 -0.36296 -0.69426 13 23 34
-0.83843 -0.36572 -0.68811 16 20 35
-0.83174 -0.36815 -0.68444 21 19 37
-0.82511 -0.37068 -0.67992 18 20 34
-0.81145 -0.37473 -0.67888 21 21 34
-0.80459 -0.37671 -0.67871 24 23 33
-0.80000 -0.38606 -0.67713 7 7 11
-0.77743 -0.38542 -0.67194 36 31 45
-0.78636 -0.39030 -0.67471 10 7 16
-0.77960 -0.39254 -0.67253 10 6 19
-0.77284 -0.39478 -0.67035 12 6 19
-0.76296 -0.38842 -0.67980 36 27 49
-0.74831 -0.39147 -0.68775 38 49 58
-0.74152 -0.39380 -0.68498 41 58 62
-0.73438 -0.39568 -0.68610 49 62 73
-0.72727 -0.39764 -0.68657 58 71 76
-0.71821 -0.39268 -0.68377 73 78 87
-0.72001 -0.39943 -0.68851 60 76 82
-0.71093 -0.39446 -0.68570 75 80 90
-0.71264 -0.40116 -0.69116 63 79 90
-0.70354 -0.39618 -0.68835 76 80 94
-0.70558 -0.40325 -0.69060 66 83 97
-0.69647 -0.39827 -0.68779 76 80 99
-0.69900 -0.40585 -0.68552 70 80 101
-0.68990 -0.40087 -0.68270 78 81 98
-0.69211 -0.40813 -0.68330 78 81 93
-0.59262 -0.43153 -0.71824 41 39 45
-0.60200 -0.43666 -0.72114 49 45 45
-0.58350 -0.43265 -0.72860 73 70 64
-0.57106 -0.43192 -0.75867 146 133 115
-0.56260 -0.43363 -0.76358 180 163 152
-0.55512 -0.43593 -0.76246 187 173 160
-0.54749 -0.43814 -0.76217 194 183 176
-0.53940 -0.44014 -0.76435 205 190 182
-0.53217 -0.44259 -0.76165 213 200 186
-0.52578 -0.44544 -0.75440 223 210 193
-0.51847 -0.44784 -0.75217 238 226 211
-0.51403 -0.45155 -0.73505 248 241 229
-0.50912 -0.46156 -0.73335 252 251 253
-0.50863 -0.45475 -0.72338 253 253 247
-0.50374 -0.46472 -0.72169 251 250 251
0.26259 -0.72470 -0.37191 253 244 237
0.26726 -0.73422 -0.37029 209 144 208
0.26527 -0.72667 -0.36346 216 121 192
0.26958 -0.72874 -0.35751 225 187 214
0.29105 -0.73212 -0.37677 246 246 246
0.50786 -0.81351 -0.23936 254 254 254
0.50331 -0.80423 -0.24093 254 254 254
0.50116 -0.81129 -0.24151 254 254 254
0.51001 -0.80645 -0.23878 254 254 254
0.51671 -0.80867 -0.23662 254 254 254
0.51465 -0.81574 -0.23730 254 254 254
0.52351 -0.81090 -0.23457 254 254 254
0.52126 -0.81795 -0.23503 254 254 254
0.53011 -0.81310 -0.23230 254 254 254
0.52837 -0.82022 -0.23335 254 254 254
0.53723 -0.81537 -0.23061 254 254 254
0.53552 -0.82249 -0.23169 254 254 254
0.54438 -0.81764 -0.22895 254 254 254
0.54229 -0.82472 -0.22960 254 254 254
0.55115 -0.81987 -0.22687 254 254 254
0.54243 -0.82610 -0.22017 254 254 254
0.55125 -0.82127 -0.21744 254 254 254
0.54107 -0.82728 -0.20917 254 254 254
0.54984 -0.82248 -0.20646 254 254 254
0.54315 -0.82889 -0.20204 254 254 254
0.55190 -0.82410 -0.19933 254 254 254
0.55080 -0.83121 -0.20103 254 254 254
0.55955 -0.82642 -0.19833 254 254 254
0.54907 -0.83231 -0.18985 254 254 254
0.55777 -0.82755 -0.18716 254 254 254
0.55371 -0.83423 -0.18564 254 254 254
0.56240 -0.82948 -0.18295 254 254 254
-1.28864 -0.14562 -1.40203 14 15 44
-1.29995 -0.15181 -1.40553 15 15 36
-1.29139 -0.15465 -1.40277 12 13 34
-1.28283 -0.15748 -1.40002 13 12 29
-1.12090 -0.26370 -0.89693 43 34 46
-1.13031 -0.26885 -0.89984 44 48 52
-1.12319 -0.27121 -0.89755 46 46 54
-1.11606 -0.27356 -0.89526 42 47 55
-1.11345 -0.26671 -0.89059 33 29 38
-1.10595 -0.26984 -0.88351 27 28 33
-1.09718 -0.27574 -0.85907 28 23 21
-1.08101 -0.28520 -0.82426 22 20 18
-1.07332 -0.28926 -0.81080 23 20 20
-1.05936 -0.29425 -0.80365 29 30 26
-1.05257 -0.29625 -0.80323 33 32 24
-1.04564 -0.29864 -0.80035 39 34 30
-1.04095 -0.30819 -0.79873 48 48 50
-0.98425 -0.31547 -0.80575 43 40 44
-0.99346 -0.32051 -0.80860 52 51 53
-0.98649 -0.32282 -0.80635 50 51 55
-0.97951 -0.32513 -0.80411 48 51 53
-0.97738 -0.31709 -0.80820 41 37 41
-0.97264 -0.32678 -0.80656 47 53 58
-0.97035 -0.31972 -0.80380 39 37 37
-0.96561 -0.32939 -0.80216 47 48 50
-0.96330 -0.32257 -0.79780 44 34 32
-0.95857 -0.33223 -0.79616 46 49 57
-0.95626 -0.32553 -0.79095 40 33 32
-0.95154 -0.33517 -0.78932 49 50 50
-0.94923 -0.32883 -0.78168 40 39 40
-0.94452 -0.33844 -0.78005 49 51 58
-0.94233 -0.33055 -0.78355 42 43 51
-0.93537 -0.33325 -0.77848 41 42 40
-0.92842 -0.33587 -0.77392 26 32 34
-0.92149 -0.33812 -0.77202 13 15 17
-0.91678 -0.34772 -0.77039 11 12 16
-0.87387 -0.35909 -0.71910 9 5 12
-0.88287 -0.36402 -0.72188 8 6 13
-0.87606 -0.36627 -0.71969 8 4 12
-0.86924 -0.36853 -0.71749 6 4 10
-0.86720 -0.36203 -0.71170 6 4 13
-0.86259 -0.37144 -0.71010 5 5 8
-0.86053 -0.36481 -0.70537 4 4 10
-0.85592 -0.37421 -0.70378 5 5 3
-0.85386 -0.36750 -0.69979 4 6 7
-0.84926 -0.37688 -0.69820 5 4 6
-0.84719 -0.37009 -0.69485 3 6 9
-0.84260 -0.37946 -0.69326 6 3 8
-0.84059 -0.37284 -0.68869 6 4 11
-0.83601 -0.38219 -0.68710 5 4 6
-0.83391 -0.37526 -0.68502 9 4 12
-0.82933 -0.38460 -0.68344 4 4 6
-0.82737 -0.37804 -0.67850 7 4 11
-0.82280 -0.38736 -0.67691 5 4 6
-0.82067 -0.38035 -0.67569 8 5 9
-0.81610 -0.38966 -0.67411 5 4 5
-0.81376 -0.38216 -0.67685 7 5 7
-0.80918 -0.39150 -0.67527 5 4 7
-0.80683 -0.38398 -0.67809 6 7 10
-0.80224 -0.39333 -0.67650 6 4 6
-0.76541 -0.39600 -0.67691 12 6 18
-0.77438 -0.40091 -0.67968 8 4 12
-0.76759 -0.40316 -0.67750 9 4 9
-0.76080 -0.40540 -0.67531 9 5 6
-0.75845 -0.39801 -0.67679 10 9 20
-0.75384 -0.40742 -0.67519 7 6 10
-0.75154 -0.40010 -0.67596 10 11 26
-0.74692 -0.40952 -0.67436 9 5 8
-0.74442 -0.40194 -0.67744 14 12 28
-0.73980 -0.41137 -0.67584 6 4 7
-0.73745 -0.40399 -0.67702 11 13 28
-0.73282 -0.41343 -0.67542 6 4 6
-0.73039 -0.40595 -0.67744 10 14 27
-0.72575 -0.41541 -0.67583 5 5 9
-0.72314 -0.40774 -0.67951 11 16 30
-0.71609 -0.40977 -0.67943 15 21 40
-0.70775 -0.41047 -0.69158 34 37 61
-0.70109 -0.41300 -0.68714 53 58 83
-0.69430 -0.41537 -0.68407 70 68 99
-0.68521 -0.41039 -0.68126 81 81 91
-0.68802 -0.41821 -0.67652 73 84 107
-0.67895 -0.41325 -0.67371 79 81 92
-0.68159 -0.42087 -0.67063 71 86 101
-0.67253 -0.41592 -0.66783 78 82 92
-0.67515 -0.42350 -0.66494 73 83 90
-0.66611 -0.41856 -0.66214 79 83 94
-0.66836 -0.42581 -0.66236 77 80 86
-0.66147 -0.42804 -0.66052 75 79 86
-0.59494 -0.43903 -0.71861 63 48 45
-0.58496 -0.43969 -0.73448 122 103 76
-0.57363 -0.43970 -0.75781 190 177 140
-0.56586 -0.44180 -0.75865 209 189 176
-0.55794 -0.44385 -0.76027 213 195 187
-0.55040 -0.44612 -0.75948 218 206 199
-0.54282 -0.44837 -0.75887 229 216 205
-0.53591 -0.45095 -0.75452 234 223 206
-0.53097 -0.46102 -0.75281 254 251 243
-0.52945 -0.45374 -0.74776 243 234 218
-0.52452 -0.46379 -0.74605 253 253 251
-0.52344 -0.45671 -0.73877 252 246 238
-0.51853 -0.46673 -0.73707 252 253 254
-0.51679 -0.45936 -0.73338 254 253 251
-0.51188 -0.46936 -0.73168 252 252 253
0.21269 -0.71605 -0.38862 254 254 254
0.20802 -0.70653 -0.39023 254 254 254
0.20582 -0.71378 -0.39083 254 254 254
0.21490 -0.70881 -0.38802 254 254 254
0.22177 -0.71108 -0.38581 254 254 254
0.21891 -0.71828 -0.38538 254 254 254
0.22798 -0.71331 -0.38257 254 254 254
0.22469 -0.72048 -0.38148 254 254 254
0.23376 -0.71552 -0.37867 254 254 254
0.23048 -0.72267 -0.37761 254 254 254
0.23954 -0.71771 -0.37481 254 254 254
0.23684 -0.72490 -0.37464 254 254 254
0.24589 -0.71995 -0.37184 254 254 254
0.25026 -0.72942 -0.36979 254 254 252
0.25791 -0.73175 -0.36878 226 195 233
0.27643 -0.73668 -0.37148 232 219 237
0.28658 -0.73923 -0.37407 251 254 253
0.29389 -0.74155 -0.37244 254 254 254
0.29692 -0.74350 -0.36459 253 254 254
0.30601 -0.73852 -0.36178 254 254 254
0.30192 -0.74562 -0.35966 253 254 254
0.31100 -0.74065 -0.35686 254 254 254
0.31033 -0.74969 -0.34767 250 253 254
0.31937 -0.74474 -0.34487 254 254 254
0.31126 -0.75142 -0.33713 249 253 254
0.32026 -0.74649 -0.33435 254 254 254
0.31726 -0.75360 -0.33380 247 253 254
0.32625 -0.74868 -0.33102 254 254 254
0.31905 -0.75538 -0.32462 246 253 254
0.32800 -0.75048 -0.32185 254 254 254
0.32428 -0.75748 -0.32030 245 253 254
0.33322 -0.75258 -0.31753 254 254 254
0.33711 -0.76189 -0.31497 243 251 254
0.34605 -0.75700 -0.31221 254 254 254
0.34438 -0.76418 -0.31348 242 251 254
0.35333 -0.75929 -0.31072 254 254 254
0.35423 -0.76673 -0.31545 240 251 254
0.36320 -0.76182 -0.31268 254 254 254
0.36147 -0.76902 -0.31387 240 251 254
0.37044 -0.76411 -0.31110 254 254 254
0.36840 -0.77128 -0.31188 239 251 254
0.37737 -0.76637 -0.30910 254 254 254
0.37453 -0.77346 -0.30882 238 250 254
0.38349 -0.76855 -0.30604 254 254 254
0.37779 -0.77534 -0.30201 237 250 254
0.38673 -0.77044 -0.29924 254 254 254
0.38301 -0.77741 -0.29781 236 250 254
0.39194 -0.77253 -0.29505 254 254 254
0.39329 -0.78154 -0.28930 235 249 254
0.40220 -0.77666 -0.28655 254 254 254
0.39936 -0.78370 -0.28626 234 249 254
0.40826 -0.77882 -0.28351 254 254 254
0.40861 -0.78620 -0.28729 233 249 254
0.41753 -0.78132 -0.28453 254 254 254
0.41534 -0.78844 -0.28509 232 249 254
0.42426 -0.78355 -0.28233 254 254 254
0.42209 -0.79067 -0.28291 232 248 254
0.43101 -0.78579 -0.28015 254 254 254
0.42877 -0.79290 -0.28065 231 248 253
0.43769 -0.78802 -0.27790 254 254 254
0.43530 -0.79511 -0.27820 230 248 252
0.44422 -0.79023 -0.27545 254 254 254
0.44188 -0.79732 -0.27581 230 248 249
0.45079 -0.79244 -0.27306 254 254 254
0.44848 -0.79954 -0.27346 229 247 246
0.45740 -0.79466 -0.27071 254 254 254
0.45439 -0.80167 -0.27027 228 247 245
0.46330 -0.79680 -0.26752 254 254 254
0.46022 -0.80380 -0.26700 227 247 245
0.46912 -0.79892 -0.26424 254 254 254
0.46601 -0.80591 -0.26368 226 247 246
0.47490 -0.80104 -0.26093 254 254 254
0.47187 -0.80804 -0.26047 225 247 248
0.48076 -0.80317 -0.25772 254 254 254
0.47799 -0.81019 -0.25758 226 246 248
0.48688 -0.80532 -0.25483 254 254 254
0.48455 -0.81240 -0.25522 225 245 247
0.49344 -0.80753 -0.25247 254 254 254
0.49144 -0.81464 -0.25324 224 243 244
0.50033 -0.80978 -0.25049 254 254 254
0.49659 -0.81667 -0.24923 223 241 241
0.50118 -0.81863 -0.24460 223 239 237
0.50571 -0.82057 -0.23994 223 237 236
0.51250 -0.82280 -0.23789 223 233 236
0.51910 -0.82501 -0.23561 222 231 236
0.52695 -0.82737 -0.23475 223 231 236
0.53496 -0.82977 -0.23406 223 229 234
0.55098 -0.83321 -0.24229 223 228 234
0.55919 -0.83564 -0.24173 223 225 234
0.55530 -0.83646 -0.22781 223 223 233
0.55418 -0.83763 -0.21705 222 219 233
0.55735 -0.83936 -0.21106 223 217 233
0.55263 -0.84002 -0.19657 223 217 233
0.55024 -0.84098 -0.18474 225 218 233
-1.27529 -0.15891 -1.40549 14 12 25
-1.28663 -0.16511 -1.40900 12 11 25
-1.27805 -0.16796 -1.40624 10 11 19
-1.26946 -0.17080 -1.40347 10 13 23
-1.26868 -0.15899 -1.41898 16 16 30
-1.26282 -0.17095 -1.41695 14 14 35
-1.09935 -0.28331 -0.85866 43 41 40
-1.09458 -0.29304 -0.85701 51 50 54
-1.09103 -0.28838 -0.83880 43 40 36
-1.08630 -0.29804 -0.83716 46 51 50
-1.08342 -0.29210 -0.82746 40 41 38
-1.07870 -0.30172 -0.82582 49 51 55
-1.07594 -0.29562 -0.81730 42 41 38
-1.07124 -0.30521 -0.81568 44 49 49
-1.06882 -0.29838 -0.81203 43 43 37
-1.06413 -0.30795 -0.81041 40 49 55
-1.06204 -0.30034 -0.81195 41 47 39
-1.05735 -0.30992 -0.81032 42 48 52
-1.05514 -0.30259 -0.81000 45 46 43
-1.04803 -0.30542 -0.80419 53 48 52
-1.04334 -0.31498 -0.80257 44 45 51
-0.93760 -0.34035 -0.78063 51 48 48
-0.93065 -0.34330 -0.77359 36 37 47
-0.92372 -0.34549 -0.77214 20 22 19
-0.91901 -0.35509 -0.77051 11 13 15
-0.71880 -0.41754 -0.67482 5 5 14
-0.72100 -0.42474 -0.67541 8 7 6
-0.71417 -0.42700 -0.67321 9 7 10
-0.70472 -0.42165 -0.67444 9 11 29
-0.70007 -0.43112 -0.67284 4 5 7
-0.69787 -0.42391 -0.67225 10 12 36
-0.69132 -0.42644 -0.66745 16 22 44
-0.68536 -0.42947 -0.65771 35 42 58
-0.67770 -0.43101 -0.66263 51 59 71
-0.67074 -0.43317 -0.66142 58 65 73
-0.66368 -0.43526 -0.66102 58 65 69
-0.65633 -0.43714 -0.66270 54 59 65
-0.64936 -0.43934 -0.66128 50 53 58
-0.64030 -0.43438 -0.65848 47 50 53
-0.64195 -0.44122 -0.66316 45 46 51
-0.63287 -0.43625 -0.66036 41 42 40
-0.63507 -0.44349 -0.66095 41 40 44
-0.63728 -0.45073 -0.66155 40 40 44
-0.60600 -0.44518 -0.71037 43 45 42
-0.61079 -0.43540 -0.71203 46 43 45
-0.61306 -0.44284 -0.71264 47 45 43
-0.59651 -0.44609 -0.72381 74 62 65
-0.58357 -0.44514 -0.75840 160 139 122
-0.57555 -0.44711 -0.76095 223 209 178
-0.56807 -0.44938 -0.76002 233 216 201
-0.56053 -0.45164 -0.75936 236 224 212
-0.55289 -0.45386 -0.75922 241 229 221
-0.54532 -0.45612 -0.75858 249 235 230
-0.53893 -0.45894 -0.75128 252 243 235
-0.34012 -0.53440 -0.61576 248 250 252
-0.34489 -0.52466 -0.61741 250 249 251
-0.34715 -0.53207 -0.61802 248 250 253
-0.33786 -0.52699 -0.61515 250 249 251
-0.33083 -0.52932 -0.61289 250 249 251
-0.33294 -0.53670 -0.61401 248 250 252
-0.32365 -0.53162 -0.61113 250 249 251
-0.32582 -0.53901 -0.61204 248 250 252
-0.31653 -0.53393 -0.60917 250 249 251
-0.31878 -0.54134 -0.60980 248 250 252
-0.30949 -0.53626 -0.60693 250 249 251
-0.31148 -0.54363 -0.60839 248 250 252
-0.30219 -0.53854 -0.60552 250 249 251
-0.30443 -0.54595 -0.60618 248 249 253
-0.29513 -0.54087 -0.60331 250 249 251
-0.29738 -0.54828 -0.60397 248 250 253
-0.28808 -0.54319 -0.60109 250 249 251
-0.29041 -0.55062 -0.60148 248 249 253
-0.28112 -0.54553 -0.59860 250 249 251
-0.28354 -0.55297 -0.59869 248 249 253
-0.27425 -0.54789 -0.59581 251 249 251
-0.27564 -0.55519 -0.59909 248 249 253
-0.26634 -0.55010 -0.59621 250 249 251
-0.26894 -0.55756 -0.59578 248 249 252
-0.25964 -0.55247 -0.59290 251 249 251
-0.25574 -0.56232 -0.58862 248 249 252
-0.24646 -0.55724 -0.58575 251 249 251
-0.24886 -0.56467 -0.58591 248 248 252
-0.23958 -0.55959 -0.58304 251 249 251
-0.24367 -0.56719 -0.57829 248 248 252
-0.23441 -0.56212 -0.57543 251 249 251
-0.22996 -0.57186 -0.57292 248 248 252
-0.22070 -0.56679 -0.57006 251 249 251
-0.22308 -0.57419 -0.57030 248 247 252
-0.21382 -0.56912 -0.56744 251 249 251
-0.21657 -0.57655 -0.56665 248 248 252
-0.20732 -0.57149 -0.56379 251 250 251
-0.20935 -0.57885 -0.56502 249 248 252
-0.20010 -0.57379 -0.56216 251 250 251
-0.20259 -0.58119 -0.56208 249 248 252
-0.19335 -0.57613 -0.55922 252 250 251
-0.19580 -0.58352 -0.55926 250 248 252
-0.18656 -0.57846 -0.55641 252 250 251
-0.18859 -0.58582 -0.55758 250 248 252
-0.17934 -0.58076 -0.55472 252 250 251
-0.18135 -0.58812 -0.55595 250 248 251
-0.17210 -0.58306 -0.55309 252 250 251
-0.17418 -0.59043 -0.55413 250 248 251
-0.16493 -0.58537 -0.55127 252 250 251
-0.16736 -0.59276 -0.55142 250 248 252
-0.15811 -0.58770 -0.54856 252 250 251
-0.16079 -0.59510 -0.54805 252 251 253
-0.15154 -0.59004 -0.54519 252 250 251
-0.15008 -0.59990 -0.53529 252 251 253
-0.14088 -0.59486 -0.53244 253 250 251
-0.14455 -0.60228 -0.52948 252 251 253
-0.13536 -0.59725 -0.52664 253 251 251
-0.13997 -0.60468 -0.52142 252 251 253
-0.13081 -0.59967 -0.51859 253 251 251
-0.13521 -0.60707 -0.51389 251 251 253
-0.12608 -0.60207 -0.51107 253 251 252
-0.12929 -0.60939 -0.50926 250 251 253
-0.12017 -0.60440 -0.50644 253 252 252
-0.12312 -0.61171 -0.50530 249 251 253
-0.11400 -0.60672 -0.50248 253 252 252
-0.10831 -0.61625 -0.50320 247 250 252
-0.09918 -0.61125 -0.50038 253 252 252
-0.09966 -0.61849 -0.50501 246 250 252
-0.09051 -0.61348 -0.50218 253 252 252
-0.09160 -0.62076 -0.50538 246 249 252
-0.08244 -0.61574 -0.50254 253 252 253
-0.08384 -0.62304 -0.50502 244 249 252
-0.07467 -0.61802 -0.50219 253 253 253
-0.07612 -0.62532 -0.50454 243 248 252
-0.06694 -0.62030 -0.50171 253 253 253
-0.06969 -0.62763 -0.50115 242 248 252
-0.06052 -0.62261 -0.49831 254 253 253
-0.06362 -0.62993 -0.49698 243 252 254
-0.05446 -0.62492 -0.49415 254 253 253
-0.05706 -0.63223 -0.49393 242 252 254
-0.04790 -0.62722 -0.49110 254 253 253
-0.05058 -0.63453 -0.49072 241 252 254
-0.04143 -0.62952 -0.48789 254 254 254
-0.04365 -0.63682 -0.48849 240 251 254
-0.03450 -0.63181 -0.48566 254 254 254
-0.03581 -0.63912 -0.48820 238 251 254
-0.02665 -0.63410 -0.48537 253 254 254
-0.02861 -0.64141 -0.48651 237 251 254
-0.01945 -0.63640 -0.48368 253 254 254
-0.02156 -0.64371 -0.48452 236 250 254
-0.01239 -0.63869 -0.48169 253 254 254
-0.01535 -0.64600 -0.48078 236 250 254
-0.00619 -0.64099 -0.47795 253 254 254
-0.00995 -0.64828 -0.47538 236 250 254
-0.00081 -0.64328 -0.47255 254 254 254
-0.00482 -0.65055 -0.46951 235 250 254
0.00431 -0.64556 -0.46668 254 254 254
0.00129 -0.65283 -0.46567 234 250 254
0.01041 -0.64783 -0.46285 254 254 254
0.00724 -0.65509 -0.46154 233 250 254
0.01635 -0.65011 -0.45873 254 254 254
0.01437 -0.65738 -0.45978 232 250 254
0.02348 -0.65239 -0.45696 254 254 254
0.02191 -0.65968 -0.45884 231 249 254
0.03103 -0.65469 -0.45602 254 254 254
0.02939 -0.66198 -0.45773 231 249 254
0.03851 -0.65698 -0.45491 254 254 254
0.03629 -0.66426 -0.45551 230 249 254
0.10402 -0.68706 -0.43089 220 246 254
0.09934 -0.67751 -0.43252 254 254 254
0.09712 -0.68478 -0.43311 221 246 254
0.10624 -0.67979 -0.43030 254 254 254
0.11313 -0.68207 -0.42808 254 254 254
0.11299 -0.68944 -0.43235 219 245 254
0.12212 -0.68445 -0.42952 254 254 254
0.12123 -0.69180 -0.43245 219 245 254
0.13037 -0.68679 -0.42963 254 254 254
0.12877 -0.69412 -0.43130 219 244 254
0.13791 -0.68911 -0.42847 254 254 254
0.13470 -0.69636 -0.42737 217 245 254
0.14384 -0.69136 -0.42454 254 254 254
0.14010 -0.69856 -0.42252 217 245 254
0.14922 -0.69357 -0.41970 254 254 254
0.14435 -0.70070 -0.41578 216 244 254
0.15346 -0.69571 -0.41297 254 254 254
0.14848 -0.70281 -0.40889 215 244 254
0.15756 -0.69784 -0.40608 254 254 254
0.15276 -0.70493 -0.40232 215 244 252
0.16182 -0.69997 -0.39952 254 254 254
0.15964 -0.70720 -0.40017 215 244 250
0.16870 -0.70224 -0.39737 254 254 254
0.16616 -0.70945 -0.39740 213 244 249
0.17522 -0.70449 -0.39460 254 254 254
0.17384 -0.71177 -0.39655 214 244 248
0.18290 -0.70681 -0.39374 254 254 254
0.18191 -0.71412 -0.39631 215 242 249
0.19099 -0.70916 -0.39351 254 254 254
0.19008 -0.71649 -0.39621 214 241 248
0.19917 -0.71152 -0.39340 254 254 254
0.19756 -0.71880 -0.39496 213 239 246
0.20544 -0.72115 -0.39433 213 239 241
0.21212 -0.72342 -0.39179 213 234 236
0.22450 -0.72611 -0.39821 213 228 233
0.22953 -0.72826 -0.39304 214 225 232
0.23430 -0.73037 -0.38751 211 214 235
0.23855 -0.73244 -0.38125 212 211 228
0.24280 -0.73450 -0.37501 211 204 229
0.24871 -0.73670 -0.37137 208 181 223
0.25337 -0.73878 -0.36587 137 108 183
0.26032 -0.74105 -0.36381 155 140 179
0.26346 -0.74300 -0.35612 199 183 215
0.27248 -0.74545 -0.35716 213 186 231
0.27952 -0.74773 -0.35526 214 182 232
0.27930 -0.74935 -0.34281 213 172 229
0.28600 -0.75159 -0.34048 212 171 223
0.30517 -0.75662 -0.34405 208 163 213
0.30829 -0.75852 -0.33661 204 162 209
0.31892 -0.76115 -0.33979 199 155 204
0.32243 -0.76308 -0.33297 194 150 201
0.32082 -0.76448 -0.31910 190 149 200
0.32570 -0.76653 -0.31434 189 151 200
0.33250 -0.77030 -0.30088 183 147 185
0.34069 -0.77268 -0.30071 180 144 185
0.36357 -0.77815 -0.30893 172 140 182
0.37078 -0.78044 -0.30733 171 144 182
0.38659 -0.78368 -0.31701 169 143 177
0.39290 -0.78588 -0.31415 167 141 172
0.39885 -0.78804 -0.31082 163 140 167
0.40453 -0.79017 -0.30716 159 137 158
0.41035 -0.79231 -0.30369 156 135 151
0.41615 -0.79444 -0.30023 154 133 146
0.41435 -0.79569 -0.28716 155 138 147
0.42003 -0.79780 -0.28364 153 135 147
0.43067 -0.80192 -0.27573 147 130 152
0.43662 -0.80406 -0.27259 144 127 139
0.44984 -0.80708 -0.27837 140 126 128
0.45533 -0.80916 -0.27464 137 126 126
0.46144 -0.81132 -0.27167 138 133 129
0.46781 -0.81351 -0.26903 133 132 129
0.47379 -0.81565 -0.26594 132 132 130
0.48038 -0.81786 -0.26357 131 138 133
0.48692 -0.82007 -0.26115 127 135 140
0.49333 -0.82226 -0.25857 124 126 143
0.49975 -0.82445 -0.25602 120 125 140
0.50596 -0.82661 -0.25323 123 128 140
0.51195 -0.82874 -0.25019 123 125 135
0.51817 -0.83091 -0.24743 123 122 135
0.52487 -0.83313 -0.24521 121 120 134
0.53198 -0.83541 -0.24346 119 117 131
0.53989 -0.83780 -0.24262 118 116 129
0.54865 -0.84031 -0.24270 119 116 134
0.55757 -0.84284 -0.24293 118 111 138
0.56628 -0.84535 -0.24291 121 115 142
0.56483 -0.84645 -0.23169 119 114 143
0.57230 -0.84878 -0.23033 121 112 144
0.56627 -0.84921 -0.21428 122 114 142
-1.13920 -0.27490 -0.89706 30 33 52
-1.14403 -0.26505 -0.89874 47 49 56
-1.14631 -0.27255 -0.89935 31 29 46
-1.14859 -0.28004 -0.89997 17 11 28
-1.13692 -0.26741 -0.89645 45 50 58
-1.12481 -0.27992 -0.89045 35 40 52
-1.11010 -0.28559 -0.87966 43 47 58
-0.94677 -0.34537 -0.78343 34 34 49
-0.95595 -0.35039 -0.78627 25 19 45
-0.94900 -0.35269 -0.78403 21 25 39
-0.94206 -0.35499 -0.78180 24 19 47
-0.93981 -0.34815 -0.77762 34 30 47
-0.93286 -0.35091 -0.77184 28 25 45
-0.92594 -0.35297 -0.77141 18 18 24
-0.81790 -0.39596 -0.68156 10 7 7
-0.82466 -0.39372 -0.68373 9 7 5
-0.81106 -0.39799 -0.68113 14 9 11
-0.80430 -0.40023 -0.67895 14 10 8
-0.76980 -0.41036 -0.67768 21 17 16
-0.77658 -0.40811 -0.67987 21 18 17
-0.74915 -0.41675 -0.67439 19 14 11
-0.74225 -0.41887 -0.67339 16 11 8
-0.73526 -0.42091 -0.67328 13 9 5
-0.72815 -0.42283 -0.67423 10 9 6
-0.69390 -0.43399 -0.66457 5 6 11
-0.70292 -0.43892 -0.66736 7 6 4
-0.69609 -0.44118 -0.66516 5 4 4
-0.68927 -0.44344 -0.66297 3 3 8
-0.68757 -0.43667 -0.65810 7 7 20
-0.68090 -0.43904 -0.65470 8 11 31
-0.67387 -0.44111 -0.65435 9 14 33
-0.66760 -0.44378 -0.64786 19 21 43
-0.66015 -0.44556 -0.65068 32 38 52
-0.65217 -0.44699 -0.65731 39 45 50
-0.64467 -0.44881 -0.65994 40 43 46
-0.61887 -0.45244 -0.68901 40 43 39
-0.62361 -0.44278 -0.69065 42 41 42
-0.62585 -0.45013 -0.69126 39 42 43
-0.62111 -0.45980 -0.68961 31 33 34
-0.60981 -0.45353 -0.70061 32 35 39
-0.59716 -0.45266 -0.73510 77 83 85
-0.58620 -0.45294 -0.75710 163 173 161
-0.57788 -0.45475 -0.76158 201 209 196
-0.57045 -0.45706 -0.76030 204 212 202
-0.56292 -0.45932 -0.75965 207 219 209
-0.55522 -0.46152 -0.75985 211 225 214
-0.54770 -0.46381 -0.75894 213 225 223
-0.54061 -0.46630 -0.75557 214 227 232
-0.53424 -0.46910 -0.74828 214 231 240
-0.52815 -0.47198 -0.73968 215 239 245
-0.52285 -0.47517 -0.72707 215 242 249
-0.51226 -0.48138 -0.70303 215 244 250
-0.50284 -0.47623 -0.70012 252 251 253
-0.50624 -0.48416 -0.69513 215 244 252
-0.49685 -0.47901 -0.69222 252 250 253
-0.49879 -0.48639 -0.69450 216 245 253
-0.48939 -0.48124 -0.69159 252 250 252
-0.49217 -0.48892 -0.68982 216 244 254
-0.48277 -0.48378 -0.68691 252 250 252
-0.48611 -0.49163 -0.68253 215 244 253
-0.47674 -0.48650 -0.67963 252 250 252
-0.48030 -0.49439 -0.67423 215 244 253
-0.47096 -0.48928 -0.67134 252 250 252
-0.47428 -0.49706 -0.66712 215 243 253
-0.46495 -0.49196 -0.66424 252 250 252
-0.46787 -0.49960 -0.66192 216 244 253
-0.45856 -0.49450 -0.65904 251 250 252
-0.46099 -0.50198 -0.65892 216 244 254
-0.45168 -0.49689 -0.65604 250 250 252
-0.45356 -0.50420 -0.65830 214 244 253
-0.44425 -0.49911 -0.65542 250 250 252
-0.44601 -0.50640 -0.65820 211 243 252
-0.43668 -0.50129 -0.65532 250 250 252
-0.43874 -0.50868 -0.65684 210 244 250
-0.42941 -0.50357 -0.65395 250 250 252
-0.43261 -0.51125 -0.65068 211 243 249
-0.42330 -0.50616 -0.64780 250 250 252
-0.42560 -0.51360 -0.64826 210 243 248
-0.41629 -0.50850 -0.64538 250 250 252
-0.41868 -0.51596 -0.64544 210 243 247
-0.40938 -0.51087 -0.64257 250 250 252
-0.41224 -0.51843 -0.64079 211 243 245
-0.40294 -0.51335 -0.63792 250 250 253
-0.40580 -0.52090 -0.63616 212 242 245
-0.39652 -0.51582 -0.63329 250 250 253
-0.39806 -0.52307 -0.63667 211 242 246
-0.38876 -0.51798 -0.63380 250 250 253
-0.39170 -0.52554 -0.63180 209 242 247
-0.38241 -0.52046 -0.62893 250 250 253
-0.38528 -0.52800 -0.62723 209 242 246
-0.37601 -0.52292 -0.62436 250 250 253
-0.37836 -0.53034 -0.62462 208 241 244
-0.36908 -0.52526 -0.62175 250 251 253
-0.37100 -0.53260 -0.62358 207 240 243
-0.36172 -0.52752 -0.62071 250 251 253
-0.36364 -0.53486 -0.62254 207 239 246
-0.35436 -0.52978 -0.61967 250 251 253
-0.35616 -0.53711 -0.62189 206 237 248
-0.34863 -0.53935 -0.62137 206 236 246
-0.34119 -0.54161 -0.62050 207 234 242
-0.33139 -0.54350 -0.62766 202 225 234
-0.32450 -0.54587 -0.62474 201 222 231
-0.31763 -0.54824 -0.62179 201 226 227
-0.31282 -0.55804 -0.62013 74 71 88
-0.31142 -0.55071 -0.61667 201 222 226
-0.30662 -0.56049 -0.61501 67 64 73
-0.30513 -0.55316 -0.61185 200 219 227
-0.30034 -0.56293 -0.61019 69 64 67
-0.29877 -0.55558 -0.60735 200 224 226
-0.29399 -0.56534 -0.60569 67 65 72
-0.29234 -0.55799 -0.60314 200 219 226
-0.28756 -0.56774 -0.60149 62 68 73
-0.28517 -0.56031 -0.60128 198 214 228
-0.27848 -0.56268 -0.59790 198 211 226
-0.27170 -0.56504 -0.59486 199 209 223
-0.26477 -0.56738 -0.59229 199 209 218
-0.25786 -0.56972 -0.58965 198 208 218
-0.25173 -0.57214 -0.58473 198 201 222
-0.24441 -0.57443 -0.58332 197 199 222
-0.23746 -0.57677 -0.58086 195 194 221
-0.23091 -0.57913 -0.57722 195 191 224
-0.22436 -0.58149 -0.57363 195 190 223
-0.21780 -0.58385 -0.57010 195 187 222
-0.21148 -0.58622 -0.56595 195 186 219
-0.20497 -0.58858 -0.56233 196 185 217
-0.19812 -0.59090 -0.55968 196 184 217
-0.19117 -0.59322 -0.55730 197 182 216
-0.18366 -0.59551 -0.55641 198 179 212
-0.17614 -0.59780 -0.55550 202 184 213
-0.16862 -0.60009 -0.55458 201 180 215
-0.16080 -0.60237 -0.55439 200 174 217
-0.15371 -0.60469 -0.55231 201 176 213
-0.14727 -0.60704 -0.54859 202 171 210
-0.14053 -0.60937 -0.54564 202 172 208
-0.13357 -0.61170 -0.54327 202 169 208
-0.12742 -0.61404 -0.53889 202 163 210
-0.12061 -0.61637 -0.53618 199 154 210
-0.11364 -0.61869 -0.53385 197 160 206
-0.10683 -0.62101 -0.53113 194 148 202
-0.10028 -0.62333 -0.52782 193 148 198
-0.09376 -0.62566 -0.52447 191 149 195
-0.08751 -0.62798 -0.52050 188 141 195
-0.08169 -0.63031 -0.51559 186 135 193
-0.07595 -0.63262 -0.51055 183 131 190
-0.07000 -0.63494 -0.50604 183 126 190
-0.06314 -0.63724 -0.50358 180 122 186
-0.05575 -0.63954 -0.50230 178 124 184
-0.04781 -0.64185 -0.50218 175 120 181
-0.03969 -0.64416 -0.50243 171 116 179
-0.03159 -0.64648 -0.50258 166 113 178
-0.02356 -0.64881 -0.50252 163 111 177
-0.01934 -0.65108 -0.49446 161 109 172
-0.01273 -0.65339 -0.49145 159 109 165
-0.00709 -0.65567 -0.48646 159 109 162
-0.00226 -0.65793 -0.47987 159 111 164
0.00246 -0.66018 -0.47313 157 110 162
0.01094 -0.66251 -0.47402 155 110 156
0.01639 -0.66477 -0.46881 151 107 152
0.02258 -0.66704 -0.46513 147 106 155
0.02961 -0.66933 -0.46310 146 106 157
0.03635 -0.67162 -0.46052 145 105 147
0.04550 -0.66661 -0.45770 228 248 254
0.04593 -0.67400 -0.46342 140 99 134
0.05510 -0.66899 -0.46058 227 248 254
0.05424 -0.67635 -0.46378 137 103 136
0.06342 -0.67133 -0.46094 226 248 254
0.06220 -0.67870 -0.46347 133 102 136
0.07140 -0.67366 -0.46062 225 247 254
0.06913 -0.68100 -0.46116 132 99 132
0.07832 -0.67597 -0.45832 225 247 254
0.07635 -0.68331 -0.45940 131 96 125
0.08554 -0.67828 -0.45656 224 247 254
0.08107 -0.69295 -0.45777 107 86 83
0.08374 -0.68564 -0.45796 128 91 110
0.09294 -0.68060 -0.45512 222 247 254
0.08847 -0.69528 -0.45633 105 87 83
0.10970 -0.69475 -0.44562 115 90 103
0.11442 -0.70438 -0.44398 108 89 74
0.11676 -0.69706 -0.44358 114 91 96
0.12148 -0.70669 -0.44194 109 91 69
0.12526 -0.69945 -0.44407 115 90 92
0.12999 -0.70909 -0.44243 108 89 72
0.13306 -0.70180 -0.44328 114 86 97
0.13779 -0.71145 -0.44165 108 91 73
0.14219 -0.70424 -0.44480 110 89 102
0.14693 -0.71391 -0.44315 107 92 74
0.15048 -0.70663 -0.44480 108 90 103
0.15523 -0.71631 -0.44316 108 91 76
0.15575 -0.70884 -0.43962 104 87 101
0.16049 -0.71850 -0.43798 108 92 75
0.16282 -0.71115 -0.43752 103 93 105
0.16756 -0.72082 -0.43588 107 92 70
0.17551 -0.71568 -0.43092 102 89 95
0.18025 -0.72534 -0.42928 106 93 69
0.18246 -0.71799 -0.42863 99 93 95
0.18719 -0.72764 -0.42699 108 93 67
0.19933 -0.72282 -0.42893 100 84 99
0.20408 -0.73250 -0.42729 107 90 71
0.20649 -0.72515 -0.42695 99 95 106
0.21123 -0.73483 -0.42531 106 90 68
0.21516 -0.72759 -0.42742 98 95 104
0.21992 -0.73729 -0.42577 105 90 66
0.22134 -0.72984 -0.42384 100 100 101
0.22609 -0.73953 -0.42219 100 91 69
0.22742 -0.73208 -0.42014 96 99 106
0.23216 -0.74177 -0.41849 99 90 72
0.23356 -0.73433 -0.41655 94 95 108
0.23830 -0.74400 -0.41491 98 86 69
0.23977 -0.73658 -0.41309 92 90 106
0.24451 -0.74624 -0.41145 97 85 69
0.24661 -0.73887 -0.41064 86 83 108
0.25135 -0.74854 -0.40900 96 86 70
0.25333 -0.74116 -0.40799 91 89 114
0.25967 -0.74341 -0.40477 89 85 116
0.26302 -0.74540 -0.39702 75 64 117
0.26760 -0.74748 -0.39121 63 46 100
0.27135 -0.74949 -0.38420 87 80 99
0.27605 -0.75907 -0.38257 93 88 77
0.27504 -0.75147 -0.37717 96 89 117
0.27972 -0.76103 -0.37555 95 86 79
0.28139 -0.75371 -0.37414 100 83 130
0.28607 -0.76326 -0.37252 99 87 80
0.28797 -0.75596 -0.37145 102 81 133
0.29265 -0.76551 -0.36983 99 88 84
0.29164 -0.75793 -0.36453 102 80 135
0.29631 -0.76745 -0.36291 99 90 87
0.29824 -0.76018 -0.36192 105 85 134
0.30291 -0.76970 -0.36030 100 89 89
0.30971 -0.76450 -0.35424 111 82 128
0.31438 -0.77400 -0.35262 103 90 87
0.31472 -0.76658 -0.34940 114 85 127
0.31938 -0.77607 -0.34779 104 90 85
0.32271 -0.76897 -0.34879 114 84 120
0.32737 -0.77847 -0.34718 102 89 80
0.32770 -0.77104 -0.34397 113 82 114
0.33236 -0.78053 -0.34236 101 89 82
0.32907 -0.77272 -0.33416 111 82 116
0.33370 -0.78217 -0.33255 101 90 85
0.33214 -0.77458 -0.32679 110 83 119
0.33675 -0.78399 -0.32519 102 90 82
0.35975 -0.78363 -0.31859 112 85 109
0.36437 -0.79305 -0.31699 103 90 85
0.37060 -0.78634 -0.32179 111 84 108
0.37523 -0.79579 -0.32019 102 89 83
0.38130 -0.78904 -0.32474 110 83 105
0.38595 -0.79852 -0.32313 102 89 85
0.38924 -0.79143 -0.32397 109 83 103
0.39389 -0.80092 -0.32236 104 89 84
0.39672 -0.79377 -0.32260 109 83 100
0.40137 -0.80326 -0.32098 102 89 83
0.40405 -0.79610 -0.32101 106 83 98
0.40870 -0.80559 -0.31940 103 89 81
0.41075 -0.79835 -0.31860 105 84 92
0.41540 -0.80784 -0.31699 104 88 77
0.41774 -0.80063 -0.31657 107 83 86
0.42239 -0.81013 -0.31496 104 88 70
0.42362 -0.80278 -0.31313 108 81 83
0.42828 -0.81227 -0.31152 103 89 69
0.42899 -0.80487 -0.30904 107 81 79
0.43364 -0.81435 -0.30743 103 88 71
0.43231 -0.80670 -0.30241 106 79 79
0.43695 -0.81615 -0.30080 103 86 76
0.43675 -0.80866 -0.29723 105 75 85
0.44138 -0.81810 -0.29563 104 85 80
0.44377 -0.81234 -0.28467 103 76 76
0.44837 -0.82173 -0.28308 104 87 75
0.44787 -0.81424 -0.27920 102 76 67
0.45246 -0.82361 -0.27761 105 86 74
0.45482 -0.81650 -0.27724 101 75 66
0.45941 -0.82587 -0.27565 104 88 73
0.45929 -0.81844 -0.27228 99 77 63
0.46387 -0.82780 -0.27069 103 88 71
0.46515 -0.82056 -0.26902 96 77 60
0.46973 -0.82992 -0.26744 102 88 70
0.47173 -0.82278 -0.26664 96 77 60
0.47631 -0.83213 -0.26505 103 88 73
0.47808 -0.82496 -0.26399 95 82 63
0.48266 -0.83431 -0.26241 104 86 72
0.48510 -0.82723 -0.26214 94 79 70
0.48969 -0.83658 -0.26056 103 84 67
0.49169 -0.82944 -0.25978 92 72 70
0.49627 -0.83879 -0.25819 103 85 70
0.49819 -0.83164 -0.25731 90 73 71
0.50277 -0.84099 -0.25572 103 87 72
0.50459 -0.83383 -0.25473 89 75 72
0.50917 -0.84317 -0.25315 104 88 66
0.51125 -0.83605 -0.25246 89 74 68
0.51583 -0.84539 -0.25088 103 88 68
0.51494 -0.83786 -0.24679 88 72 68
0.51952 -0.84718 -0.24520 102 88 70
0.52426 -0.84045 -0.24757 87 73 68
0.52884 -0.84979 -0.24598 101 88 65
0.53470 -0.84320 -0.24959 84 71 65
0.53929 -0.85256 -0.24800 100 89 65
0.54600 -0.84607 -0.25253 84 71 64
0.55061 -0.85547 -0.25094 102 90 64
0.55164 -0.84815 -0.24906 85 72 70
0.55624 -0.85754 -0.24747 104 90 70
0.56427 -0.85123 -0.25340 85 70 78
0.56889 -0.86066 -0.25180 105 89 77
0.56509 -0.85263 -0.24458 85 70 80
0.56969 -0.86201 -0.24299 101 89 75
0.57082 -0.85472 -0.24125 83 71 80
0.57542 -0.86410 -0.23966 98 90 75
0.57251 -0.85622 -0.23351 83 72 80
0.57710 -0.86557 -0.23192 100 89 71
0.57420 -0.85772 -0.22582 83 73 75
0.57876 -0.86704 -0.22424 102 90 70
0.56931 -0.85824 -0.21108 82 73 74
0.57384 -0.86749 -0.20951 101 89 70
-1.14146 -0.28242 -0.89745 15 14 30
-1.15085 -0.28756 -0.90036 21 17 23
-1.14374 -0.28992 -0.89807 14 16 18
-1.13663 -0.29227 -0.89578 13 18 24
-1.13436 -0.28477 -0.89521 16 18 31
-1.12953 -0.29461 -0.89354 14 22 28
-1.12721 -0.28719 -0.89251 18 23 33
-1.12239 -0.29703 -0.89084 18 23 30
-1.11989 -0.28993 -0.88763 24 28 33
-1.11507 -0.29976 -0.88596 21 22 34
-1.10425 -0.29738 -0.86477 34 31 46
-1.09947 -0.30713 -0.86311 22 18 35
-1.04539 -0.32271 -0.80004 30 28 33
-1.05449 -0.32769 -0.80286 32 28 44
-1.04760 -0.32998 -0.80064 30 29 29
-1.03628 -0.31772 -0.79723 41 45 56
-1.04070 -0.33226 -0.79842 30 28 28
-0.93507 -0.35858 -0.76957 23 22 41
-0.92816 -0.36077 -0.76806 19 20 24
-0.92124 -0.36280 -0.76792 16 18 18
-0.91210 -0.35779 -0.76509 8 10 11
-0.90742 -0.36771 -0.76079 14 11 8
-0.89829 -0.36272 -0.75796 5 7 12
-0.88028 -0.37978 -0.72786 12 8 17
-0.87809 -0.37258 -0.72727 7 5 15
-0.87125 -0.37484 -0.72507 7 4 10
-0.87356 -0.38260 -0.72107 13 10 15
-0.86455 -0.37767 -0.71829 8 4 9
-0.85991 -0.38707 -0.71703 15 13 11
-0.85089 -0.38214 -0.71425 8 5 7
-0.85527 -0.39652 -0.71543 25 25 26
-0.82665 -0.40042 -0.68796 21 21 18
-0.83124 -0.39106 -0.68955 7 6 6
-0.83558 -0.40531 -0.69072 30 25 26
-0.82882 -0.40755 -0.68854 24 25 27
-0.82206 -0.40979 -0.68637 23 25 35
-0.81980 -0.40247 -0.68747 22 22 24
-0.81521 -0.41185 -0.68588 27 28 39
-0.81299 -0.40463 -0.68606 32 25 35
-0.80839 -0.41400 -0.68447 26 29 26
-0.80646 -0.40733 -0.67974 30 26 24
-0.79753 -0.40244 -0.67698 14 12 8
-0.80187 -0.41669 -0.67815 24 31 28
-0.77876 -0.41525 -0.68056 34 36 30
-0.78337 -0.40585 -0.68216 18 15 14
-0.78772 -0.42016 -0.68333 29 30 43
-0.78093 -0.42241 -0.68115 36 35 35
-0.77415 -0.42465 -0.67897 31 37 38
-0.75205 -0.42480 -0.66643 36 31 25
-0.74527 -0.42703 -0.66434 33 30 25
-0.73848 -0.42924 -0.66243 27 27 23
-0.73117 -0.43091 -0.66597 25 26 19
-0.72375 -0.43252 -0.67023 24 22 17
-0.68309 -0.44621 -0.65529 10 3 9
-0.67623 -0.44843 -0.65351 21 3 8
-0.66987 -0.45101 -0.64768 23 4 15
-0.66303 -0.45323 -0.64590 23 9 21
-0.65464 -0.45439 -0.65584 24 18 30
-0.64689 -0.45606 -0.66038 29 29 37
-0.63972 -0.45813 -0.66046 36 37 38
-0.63058 -0.45901 -0.67426 37 37 35
-0.62588 -0.46860 -0.67263 33 26 30
-0.61286 -0.46139 -0.69589 31 36 38
-0.60810 -0.47109 -0.69425 57 55 40
-0.60134 -0.46123 -0.72331 55 54 52
-0.59111 -0.46193 -0.74108 76 65 67
-0.58271 -0.46368 -0.74646 77 63 71
-0.57343 -0.46503 -0.75692 74 60 68
-0.56497 -0.46684 -0.76197 77 65 73
-0.55730 -0.46906 -0.76200 85 69 81
-0.54946 -0.47122 -0.76290 91 74 89
-0.54451 -0.48131 -0.76119 87 74 66
-0.54155 -0.47336 -0.76410 93 76 95
-0.53659 -0.48346 -0.76238 92 75 72
-0.53381 -0.47559 -0.76419 95 71 101
-0.52885 -0.48571 -0.76247 94 78 75
-0.52590 -0.47776 -0.76512 98 74 102
-0.52093 -0.48790 -0.76340 95 81 71
-0.51791 -0.47992 -0.76635 101 77 98
-0.51294 -0.49007 -0.76462 95 81 65
-0.51018 -0.48220 -0.76612 105 80 92
-0.50520 -0.49235 -0.76440 97 82 65
-0.50261 -0.48454 -0.76493 102 76 84
-0.49763 -0.49470 -0.76321 98 83 70
-0.49609 -0.48726 -0.75847 103 75 92
-0.49111 -0.49740 -0.75674 99 82 74
-0.48936 -0.48989 -0.75316 104 77 97
-0.48439 -0.50002 -0.75144 99 83 74
-0.48350 -0.49279 -0.74372 104 73 96
-0.47855 -0.50289 -0.74200 101 82 74
-0.47839 -0.49590 -0.73092 103 74 97
-0.47347 -0.50595 -0.72921 100 81 67
-0.47353 -0.49905 -0.71732 102 72 92
-0.46863 -0.50904 -0.71563 100 87 66
-0.46684 -0.50159 -0.71259 101 80 83
-0.46194 -0.51158 -0.71089 98 85 70
-0.46089 -0.50434 -0.70452 103 76 89
-0.45601 -0.51430 -0.70283 100 83 68
-0.45405 -0.50682 -0.70066 104 74 89
-0.44917 -0.51677 -0.69897 100 86 70
-0.44688 -0.50921 -0.69827 101 79 83
-0.44200 -0.51916 -0.69658 104 89 68
-0.43879 -0.51135 -0.69988 96 81 85
-0.43390 -0.52131 -0.69818 105 90 67
-0.43145 -0.51369 -0.69814 88 77 85
-0.42656 -0.52366 -0.69645 102 89 69
-0.42345 -0.51588 -0.69917 90 73 82
-0.41557 -0.51811 -0.69963 90 73 77
-0.40806 -0.52043 -0.69847 89 71 71
-0.40087 -0.52283 -0.69601 91 73 70
-0.39367 -0.52523 -0.69361 93 71 71
-0.38657 -0.52764 -0.69079 91 70 75
-0.37951 -0.53007 -0.68785 89 69 76
-0.37246 -0.53249 -0.68488 86 69 80
-0.36755 -0.54249 -0.68318 105 89 72
-0.36548 -0.53492 -0.68167 83 71 84
-0.36058 -0.54492 -0.67997 106 90 71
-0.35852 -0.53736 -0.67840 81 75 82
-0.35147 -0.53977 -0.67549 79 74 81
-0.34487 -0.54226 -0.67097 77 73 81
-0.33823 -0.54473 -0.66669 78 73 82
-0.33208 -0.54728 -0.66072 80 67 79
-0.32553 -0.54975 -0.65623 78 67 74
-0.31790 -0.55206 -0.65546 73 68 83
-0.31302 -0.56200 -0.65377 106 95 77
-0.27525 -0.56951 -0.61559 60 64 76
-0.28463 -0.57464 -0.61849 104 95 66
-0.26987 -0.57204 -0.60804 63 64 74
-0.26297 -0.57440 -0.60522 65 64 71
