ply
format ascii 1.0
element face 0
property list uchar int vertex_indices
element vertex 1316
property float x
property float y
property float z
property uchar diffuse_red
property uchar diffuse_green
property uchar diffuse_blue
end_header
0.89446 -0.40727 -0.53969 27 24 40
0.89778 -0.41694 -0.53697 33 28 37
0.90412 -0.41048 -0.53973 31 27 36
0.90745 -0.42018 -0.53700 34 28 41
0.91271 -0.41356 -0.53875 31 29 38
0.91605 -0.42327 -0.53602 36 25 38
0.92114 -0.41662 -0.53761 29 25 29
0.92696 -0.41935 -0.53412 15 15 39
0.94172 -0.42327 -0.53855 66 66 116
0.96097 -0.42781 -0.54684 171 180 197
0.96435 -0.43765 -0.54407 226 223 223
0.97687 -0.43389 -0.54338 212 188 173
0.98491 -0.43694 -0.54169 134 95 86
1.01814 -0.44351 -0.56166 77 55 43
1.02860 -0.44694 -0.56188 53 36 43
1.03205 -0.45699 -0.55906 43 30 47
1.04971 -0.47463 -0.47021 23 18 38
1.04637 -0.46492 -0.47294 19 17 26
1.04347 -0.47185 -0.47332 19 19 23
1.05136 -0.47669 -0.46348 30 30 64
1.04846 -0.47804 -0.45322 76 93 123
1.06361 -0.48220 -0.45713 163 174 190
1.06711 -0.48454 -0.45192 210 207 214
1.07043 -0.49421 -0.44920 217 208 219
-0.73629 0.28442 -1.23270 47 23 34
-0.73039 0.28209 -1.23112 65 31 23
-0.72724 0.27291 -1.22854 51 16 14
-0.72449 0.27990 -1.23017 62 19 13
-0.72133 0.27071 -1.22758 47 14 10
-0.58518 0.19305 -1.04885 11 4 12
-0.58817 0.20177 -1.05130 8 4 10
-0.59077 0.19554 -1.05164 10 3 5
-0.58257 0.19927 -1.04851 8 3 5
-0.57697 0.19678 -1.04572 7 4 4
-0.57951 0.19072 -1.04688 18 5 20
-0.57367 0.18880 -1.04708 25 11 31
-0.56771 0.18710 -1.04837 31 26 24
-0.56184 0.18515 -1.04846 31 27 33
-0.55586 0.18338 -1.04950 29 25 26
-0.54975 0.18182 -1.05171 27 24 26
-0.54414 0.17922 -1.04843 27 23 30
-0.53764 0.17831 -1.05416 28 25 33
-0.53128 0.17703 -1.05800 29 28 36
-0.52485 0.17579 -1.06209 29 29 33
-0.51804 0.17512 -1.06935 36 31 40
-0.51097 0.17475 -1.07833 35 36 45
-0.50421 0.17375 -1.08405 39 37 45
-0.49833 0.17128 -1.08180 43 41 50
-0.49227 0.16909 -1.08105 46 48 62
-0.48611 0.16701 -1.08099 45 46 56
-0.48042 0.16424 -1.07706 42 43 48
-0.47731 0.15518 -1.07451 42 46 58
-0.47459 0.16167 -1.07428 40 39 47
-0.47148 0.15261 -1.07174 42 44 59
-0.46830 0.15970 -1.07491 37 39 50
-0.46519 0.15063 -1.07235 42 44 62
-0.46185 0.15793 -1.07665 37 39 54
-0.45872 0.14883 -1.07410 40 42 61
-0.45660 0.15458 -1.06950 43 41 56
-0.45348 0.14551 -1.06694 37 41 59
-0.45090 0.15182 -1.06565 40 39 54
-0.44779 0.14275 -1.06310 36 39 57
-0.41143 0.13234 -1.03741 44 46 72
-0.41993 0.12848 -1.04065 34 36 65
-0.40479 0.13059 -1.03953 54 60 83
-0.40168 0.12153 -1.03698 69 68 89
-0.39144 0.12704 -1.04365 64 71 83
-0.39416 0.12054 -1.04400 67 68 84
-0.38396 0.12594 -1.04999 51 57 74
-0.37717 0.12415 -1.05215 40 45 66
-0.37402 0.11498 -1.04957 34 37 59
-0.36841 0.12404 -1.06488 33 37 56
-0.36524 0.11480 -1.06228 30 33 54
-0.35241 0.12220 -1.08076 26 25 45
-0.34921 0.11286 -1.07813 23 26 46
-0.34411 0.12142 -1.08975 22 23 43
-0.34088 0.11202 -1.08710 27 28 47
-0.33585 0.12050 -1.09810 40 31 46
-0.32806 0.11913 -1.10368 53 55 68
-0.32223 0.11623 -1.09937 76 81 95
-0.31162 0.11687 -1.11830 112 122 131
-0.30887 0.11166 -1.09895 152 168 163
-0.29842 0.11202 -1.11634 180 194 217
-0.28931 0.11131 -1.12689 206 219 240
-0.28344 0.10832 -1.12229 226 237 246
-0.27668 0.10593 -1.12169 234 241 248
-0.27060 0.10308 -1.11801 239 243 248
-0.26728 0.09341 -1.11529 237 242 246
-0.25787 0.09774 -1.11316 240 242 247
-0.25251 0.09446 -1.10647 201 197 224
-0.24460 0.09271 -1.11052 179 176 208
-0.23873 0.08973 -1.10593 190 193 213
-0.23287 0.08675 -1.10137 200 204 223
-0.16944 0.07114 -1.12673 240 243 247
-0.16114 0.06920 -1.13051 244 249 251
-0.14694 0.06414 -1.12912 246 249 250
-0.14352 0.05417 -1.12632 247 250 251
-0.14102 0.06108 -1.12426 243 243 240
-0.13760 0.05111 -1.12145 246 250 251
-0.13432 0.05836 -1.12210 231 231 223
-0.13066 0.05436 -1.10958 214 214 199
-0.12891 0.04963 -1.09091 191 185 164
-0.12307 0.04662 -1.08614 157 146 131
-0.11545 0.04431 -1.08725 120 102 91
-0.11338 0.03986 -1.07029 79 57 60
-0.10706 0.03707 -1.06723 49 34 66
-0.09886 0.03496 -1.07015 57 53 84
-0.08861 0.03357 -1.07932 82 77 108
-0.08124 0.03110 -1.07930 88 77 80
-0.07335 0.02879 -1.08080 100 91 81
-0.07361 0.02372 -1.05757 135 128 116
-0.06544 0.02152 -1.05999 136 115 102
-0.05478 0.02010 -1.06964 114 95 70
-0.05014 0.01672 -1.06141 78 73 56
-0.03970 0.01038 -1.04858 148 170 195
-0.03678 0.00656 -1.03576 163 172 207
-0.02703 -0.00437 -1.00121 177 184 206
-0.03614 -0.00852 -1.00469 175 184 211
-0.02992 -0.01129 -1.00159 170 183 209
-0.02370 -0.01406 -0.99848 166 178 201
-0.02621 -0.00859 -0.98341 166 175 193
-0.02291 -0.01821 -0.98071 166 177 204
-0.02364 -0.01229 -0.97064 161 167 187
-0.02057 -0.01581 -0.95941 160 174 198
-0.02574 -0.02135 -0.92661 133 137 157
-0.02252 -0.03073 -0.92397 130 138 156
0.12087 -0.07475 -0.90713 126 123 130
0.11183 -0.07886 -0.91057 131 129 134
0.11800 -0.08161 -0.90750 134 128 134
0.12604 -0.07764 -0.90193 121 118 128
0.13228 -0.08037 -0.89903 125 123 149
0.16697 -0.07934 -0.95605 200 199 212
0.15790 -0.08415 -0.92064 239 235 229
0.16997 -0.08621 -0.92957 190 164 142
0.18536 -0.08792 -0.94512 48 19 22
0.18876 -0.09782 -0.94233 29 38 59
0.19840 -0.09354 -0.93944 38 27 30
0.21286 -0.09902 -0.93655 59 58 85
0.21626 -0.10894 -0.93376 62 81 97
0.21472 -0.10232 -0.92451 40 33 51
0.21811 -0.11219 -0.92173 67 84 97
0.22576 -0.10812 -0.91501 35 36 44
0.23839 -0.11376 -0.90864 21 13 35
0.24398 -0.11664 -0.90410 33 37 48
0.24542 -0.11985 -0.89180 89 103 102
0.25801 -0.12545 -0.88553 91 105 106
0.26773 -0.12802 -0.88866 50 47 56
0.27820 -0.13055 -0.89304 31 24 32
0.28241 -0.13351 -0.88605 36 38 54
0.28987 -0.13626 -0.88492 56 57 84
0.29392 -0.13921 -0.87771 67 63 92
0.29874 -0.14211 -0.87192 66 67 91
0.29881 -0.14524 -0.85790 60 68 83
0.29769 -0.14840 -0.84198 48 48 53
0.29567 -0.15755 -0.79765 72 91 106
0.30366 -0.16020 -0.79777 78 91 106
0.31085 -0.16289 -0.79651 80 91 114
0.32060 -0.16550 -0.79944 84 95 119
0.33017 -0.16814 -0.80199 87 100 119
0.33923 -0.17081 -0.80363 88 100 119
0.34549 -0.17356 -0.80069 83 95 114
0.35530 -0.17624 -0.80341 79 95 109
0.35644 -0.17909 -0.79227 79 92 101
0.36036 -0.18188 -0.78562 75 95 99
0.36985 -0.18458 -0.78778 77 100 99
0.37438 -0.18735 -0.78213 81 104 108
0.37762 -0.19012 -0.77453 85 104 113
0.38759 -0.19284 -0.77731 86 101 114
0.39275 -0.19559 -0.77268 85 95 118
0.39820 -0.19834 -0.76851 80 94 120
0.39988 -0.20108 -0.75871 76 91 115
0.40378 -0.20380 -0.75231 73 89 108
0.40835 -0.20652 -0.74694 72 84 106
0.41162 -0.21606 -0.74426 32 23 53
0.41428 -0.20925 -0.74361 70 78 110
0.41755 -0.21878 -0.74093 34 22 56
0.42128 -0.21198 -0.74184 69 71 109
0.43136 -0.21476 -0.74452 61 67 105
0.43826 -0.21751 -0.74254 52 63 96
0.44566 -0.22027 -0.74125 45 59 87
0.44887 -0.22296 -0.73401 41 56 79
0.44973 -0.22557 -0.72350 35 47 63
0.45768 -0.22834 -0.72303 31 37 54
0.46714 -0.23116 -0.72462 32 34 52
0.47446 -0.23393 -0.72317 27 24 31
0.49092 -0.23954 -0.72272 23 17 43
0.49731 -0.24229 -0.71995 32 28 58
0.51711 -0.25059 -0.71243 31 33 48
0.52585 -0.25345 -0.71273 33 32 35
0.53307 -0.25625 -0.71099 37 35 31
0.53439 -0.25878 -0.70159 42 42 48
0.53916 -0.26146 -0.69670 48 50 57
0.54761 -0.26432 -0.69657 54 56 65
0.55796 -0.26729 -0.69880 59 57 70
0.56273 -0.26997 -0.69391 65 62 69
0.56865 -0.27271 -0.69050 69 72 72
0.57196 -0.28234 -0.68779 101 113 122
0.57325 -0.27537 -0.68544 72 74 72
0.57655 -0.28499 -0.68273 98 110 131
0.57756 -0.27801 -0.68005 76 82 84
0.58465 -0.28081 -0.67811 82 92 99
0.59229 -0.28365 -0.67682 85 97 100
0.59702 -0.28631 -0.67198 90 100 106
0.60667 -0.29162 -0.66259 93 101 118
0.61264 -0.29436 -0.65929 94 101 118
0.61687 -0.29696 -0.65394 96 105 115
0.65079 -0.30865 -0.65242 89 101 124
0.65856 -0.31154 -0.65113 86 99 122
0.66328 -0.31418 -0.64636 79 93 113
0.66808 -0.31682 -0.64170 74 89 107
0.67297 -0.31946 -0.63715 68 82 101
0.67788 -0.32211 -0.63265 59 77 97
0.67807 -0.32433 -0.62293 57 73 100
0.68112 -0.32679 -0.61644 54 68 101
0.68569 -0.32937 -0.61166 53 63 93
0.69068 -0.33200 -0.60736 53 61 90
0.69611 -0.33466 -0.60355 52 59 84
0.70267 -0.33743 -0.60098 49 55 86
0.70860 -0.34014 -0.59772 51 54 83
0.71569 -0.34296 -0.59569 48 51 71
0.72355 -0.34586 -0.59447 43 47 69
0.72929 -0.34855 -0.59100 39 42 67
0.73435 -0.35118 -0.58682 38 41 63
0.73763 -0.36072 -0.58414 26 24 34
0.76405 -0.36676 -0.56138 23 29 48
0.75511 -0.37083 -0.56479 24 26 34
0.76121 -0.37354 -0.56175 26 26 33
0.76731 -0.37626 -0.55871 27 23 32
0.76962 -0.36942 -0.55781 22 25 44
0.77288 -0.37891 -0.55514 29 25 31
0.78226 -0.37490 -0.55218 21 22 29
0.78553 -0.38440 -0.54950 30 26 38
0.78681 -0.37743 -0.54761 19 21 38
0.79007 -0.38692 -0.54494 32 26 35
0.78866 -0.37965 -0.54044 27 20 30
0.79805 -0.38275 -0.54061 30 20 40
0.80678 -0.38578 -0.54013 29 21 35
0.92181 -0.42598 -0.53249 35 24 47
0.94470 -0.43106 -0.54417 103 100 138
0.96006 -0.43512 -0.54902 192 198 212
0.97322 -0.44083 -0.54315 223 201 180
0.97865 -0.44352 -0.53920 149 105 86
1.01126 -0.45011 -0.55870 80 51 44
1.03445 -0.47782 -0.46880 25 21 38
1.03113 -0.46814 -0.47152 19 19 20
1.02824 -0.47505 -0.47189 19 18 31
1.03985 -0.48046 -0.46505 31 27 54
1.04437 -0.48295 -0.46062 51 51 88
1.04668 -0.48509 -0.45446 110 114 139
1.06179 -0.48929 -0.45835 181 182 185
1.06536 -0.49163 -0.45319 212 205 210
1.06869 -0.50131 -0.45046 219 210 216
-0.73316 0.27251 -1.21758 45 15 20
-0.73003 0.26339 -1.21501 43 13 12
-0.58174 0.18541 -1.05204 38 21 43
-0.57874 0.17667 -1.04958 48 56 84
-0.57494 0.18574 -1.06400 42 36 60
-0.56923 0.18336 -1.06191 42 44 53
-0.56349 0.18100 -1.05998 38 39 58
-0.55775 0.17866 -1.05809 36 39 53
-0.55180 0.17672 -1.05838 34 37 47
-0.54589 0.17466 -1.05805 34 37 51
-0.53978 0.17294 -1.05957 37 36 52
-0.52729 0.16981 -1.06451 36 37 49
-0.52024 0.16953 -1.07408 42 41 59
-0.51351 0.16857 -1.08008 40 47 67
-0.51041 0.15957 -1.07755 46 49 77
-0.50683 0.16743 -1.08512 39 42 65
-0.50029 0.16598 -1.08857 46 49 69
-0.49717 0.15691 -1.08602 58 67 95
-0.49440 0.16349 -1.08622 51 54 78
-0.48824 0.16138 -1.08607 49 49 72
-0.48207 0.15925 -1.08581 45 48 64
-0.47895 0.15015 -1.08325 44 48 65
-0.41404 0.12598 -1.03829 40 42 70
-0.42254 0.12211 -1.04154 35 37 61
-0.40711 0.12450 -1.04221 51 55 82
-0.40400 0.11543 -1.03966 68 69 88
-0.38594 0.12008 -1.05459 53 56 76
-0.39457 0.11616 -1.05788 67 69 86
-0.37898 0.11842 -1.05768 41 44 67
-0.37583 0.10922 -1.05510 35 37 58
-0.33077 0.11246 -1.10470 26 29 49
-0.33970 0.10839 -1.10810 28 31 50
-0.33360 0.10568 -1.10507 33 37 50
-0.32373 0.11045 -1.10633 23 24 47
-0.31683 0.10831 -1.10718 38 37 76
-0.30853 0.10714 -1.11464 103 122 161
-0.30072 0.10556 -1.11942 161 179 222
-0.29310 0.10379 -1.12307 184 198 233
-0.28614 0.10155 -1.12352 201 212 237
-0.27922 0.09925 -1.12365 215 223 240
-0.27310 0.09642 -1.12010 224 230 242
-0.26000 0.09129 -1.11681 226 228 240
-0.25451 0.08809 -1.11060 193 188 210
-0.24743 0.08582 -1.11113 195 192 215
-0.23764 0.07880 -1.09405 227 230 239
-0.23327 0.07505 -1.08364 222 225 239
-0.22750 0.07209 -1.07897 208 214 234
-0.22265 0.06866 -1.07074 199 206 229
-0.21936 0.05909 -1.06805 201 207 232
-0.15677 0.05968 -1.13114 230 236 246
-0.15015 0.05692 -1.12872 241 244 248
-0.13245 0.04775 -1.11399 244 246 246
-0.12903 0.03781 -1.11120 246 250 251
-0.12750 0.04433 -1.10596 243 243 238
-0.12204 0.04114 -1.09974 232 230 222
-0.12316 0.03545 -1.07195 207 202 190
-0.11460 0.03350 -1.07623 179 168 160
-0.11028 0.02996 -1.06668 149 135 151
-0.10308 0.02748 -1.06642 162 154 163
-0.08947 0.02724 -1.08628 193 193 192
-0.08310 0.02440 -1.08310 199 197 172
-0.07803 0.02113 -1.07592 205 205 179
-0.07161 0.01832 -1.07293 228 229 218
-0.06040 0.01704 -1.08436 231 225 207
-0.06136 0.01188 -1.05927 220 212 178
-0.04974 0.01067 -1.07164 195 191 146
-0.04686 0.00679 -1.05828 164 166 146
-0.04025 -0.00061 -1.03461 173 188 219
-0.03688 -0.01041 -1.03185 191 205 228
-0.03650 -0.00412 -1.02429 181 187 212
-0.02719 -0.02772 -0.93055 140 143 159
-0.02396 -0.03712 -0.92791 133 141 159
0.12091 -0.08479 -0.89742 127 126 138
0.15479 -0.09113 -0.92062 236 230 232
0.15945 -0.09410 -0.91418 190 163 145
0.17668 -0.09563 -0.93370 48 19 23
0.18006 -0.10547 -0.93094 27 37 53
0.19066 -0.10112 -0.93015 35 33 40
0.18772 -0.10815 -0.93053 20 27 21
0.20208 -0.10342 -0.93721 46 77 87
0.20927 -0.10617 -0.93569 52 80 95
0.23428 -0.11415 -0.93766 70 86 90
0.22583 -0.11825 -0.90585 48 49 65
0.22920 -0.12808 -0.90308 16 21 38
0.23198 -0.12108 -0.90241 26 26 55
0.23712 -0.12397 -0.89705 46 63 77
0.24250 -0.12685 -0.89218 65 92 101
0.24623 -0.12983 -0.88427 74 94 108
0.25250 -0.13263 -0.88114 70 89 103
0.26246 -0.13519 -0.88475 55 72 78
0.26583 -0.14500 -0.88199 18 16 36
0.27816 -0.14062 -0.88407 43 44 40
0.28483 -0.14341 -0.88154 66 79 80
0.28777 -0.14640 -0.87238 77 91 113
0.29509 -0.14916 -0.87105 78 92 117
0.29631 -0.15526 -0.84499 53 50 62
0.30121 -0.15809 -0.83957 30 28 26
0.30601 -0.16092 -0.83401 45 62 65
0.30933 -0.17061 -0.83129 27 20 46
0.30624 -0.16389 -0.82076 65 87 113
0.30955 -0.17353 -0.81805 28 19 42
0.31067 -0.16670 -0.81473 67 85 106
0.31398 -0.17632 -0.81202 29 19 47
0.31509 -0.16950 -0.80871 66 81 106
0.32129 -0.17225 -0.80570 69 77 106
0.32888 -0.17496 -0.80497 69 74 110
0.33028 -0.17780 -0.79409 68 65 108
0.33778 -0.18052 -0.79322 65 59 102
0.34369 -0.18326 -0.78977 58 61 97
0.34698 -0.18604 -0.78212 53 57 89
0.35322 -0.18877 -0.77923 50 57 75
0.36154 -0.19149 -0.77961 38 50 65
0.36900 -0.19422 -0.77859 30 44 50
0.37325 -0.19696 -0.77256 22 37 49
0.37887 -0.19970 -0.76869 19 25 46
0.38277 -0.20243 -0.76220 20 24 50
0.38779 -0.20516 -0.75746 19 23 51
0.39285 -0.20787 -0.75280 21 22 48
0.39729 -0.21058 -0.74724 24 22 45
0.40366 -0.21331 -0.74457 29 23 46
0.43624 -0.22175 -0.75613 33 26 56
0.44527 -0.23233 -0.72159 39 42 47
0.45358 -0.23511 -0.72165 42 46 53
0.46165 -0.23790 -0.72131 50 51 57
0.47222 -0.24078 -0.72441 57 53 58
0.48249 -0.24367 -0.72700 61 54 58
0.49205 -0.24655 -0.72854 68 62 69
0.49925 -0.24935 -0.72684 74 69 78
0.50415 -0.25205 -0.72201 77 75 81
0.50746 -0.26168 -0.71930 111 123 139
0.50947 -0.25477 -0.71777 77 78 85
0.51278 -0.26439 -0.71506 107 119 135
0.51113 -0.25731 -0.70868 81 81 88
0.51442 -0.26690 -0.70598 103 115 133
0.51706 -0.26004 -0.70531 86 85 89
0.51989 -0.26261 -0.69788 88 92 93
0.53263 -0.26570 -0.70341 92 102 109
0.53793 -0.26840 -0.69920 99 111 117
0.54476 -0.27118 -0.69696 101 114 122
0.55204 -0.27400 -0.69530 103 115 124
0.56040 -0.27688 -0.69498 106 116 121
0.56706 -0.27966 -0.69248 104 115 119
0.58091 -0.28762 -0.67741 97 108 137
0.58928 -0.29052 -0.67703 93 104 129
0.59415 -0.29318 -0.67235 88 100 121
0.59649 -0.29565 -0.66464 83 98 119
0.60380 -0.29848 -0.66296 76 95 117
0.60941 -0.30118 -0.65923 70 90 106
0.61388 -0.30379 -0.65415 66 80 104
0.62107 -0.30661 -0.65232 58 69 101
0.62714 -0.30935 -0.64915 52 62 93
0.63533 -0.31225 -0.64845 50 55 84
0.64763 -0.31995 -0.63216 37 42 72
0.65091 -0.32951 -0.62947 23 17 35
0.64955 -0.32231 -0.62431 27 35 67
0.65282 -0.33183 -0.62163 27 16 20
0.68041 -0.33596 -0.60936 18 19 47
0.68972 -0.33899 -0.60980 19 19 41
0.69646 -0.34179 -0.60740 20 20 36
0.70176 -0.34443 -0.60344 21 20 43
0.70862 -0.34724 -0.60116 21 20 46
0.71650 -0.35015 -0.59996 21 21 52
0.72141 -0.35276 -0.59559 27 21 44
0.72635 -0.35536 -0.59127 30 22 33
0.73139 -0.35798 -0.58708 34 23 36
0.73467 -0.36752 -0.58439 48 28 17
0.77930 -0.38167 -0.55241 29 24 32
0.79521 -0.38952 -0.54098 34 26 36
0.80394 -0.39256 -0.54050 35 28 18
0.81683 -0.39614 -0.54397 39 27 10
0.82699 -0.39938 -0.54477 43 26 12
0.83760 -0.40270 -0.54594 41 23 16
0.84759 -0.40594 -0.54649 43 21 17
0.85562 -0.40893 -0.54515 47 21 17
0.86308 -0.41186 -0.54326 49 19 19
0.87091 -0.41483 -0.54170 49 18 18
0.88261 -0.41834 -0.54368 51 18 17
0.88819 -0.42102 -0.54000 51 20 18
0.89658 -0.42409 -0.53889 54 21 19
0.90431 -0.42706 -0.53715 55 22 20
0.91023 -0.42980 -0.53378 57 31 39
0.93295 -0.43490 -0.54542 95 77 112
0.93753 -0.43745 -0.54077 168 166 190
0.94089 -0.44724 -0.53802 225 215 219
0.95745 -0.44221 -0.54970 215 214 220
0.96084 -0.45207 -0.54693 223 212 219
0.96673 -0.44545 -0.54913 225 216 221
0.97283 -0.44824 -0.54576 225 205 190
0.96843 -0.44949 -0.53327 179 131 106
1.01147 -0.45773 -0.56185 93 45 37
1.01167 -0.47800 -0.46932 19 19 26
1.00836 -0.46837 -0.47203 18 20 23
1.00548 -0.47525 -0.47240 20 19 22
1.01455 -0.47112 -0.46894 17 19 26
1.02065 -0.48121 -0.46849 25 24 36
1.02858 -0.48425 -0.46678 36 30 45
1.03221 -0.48659 -0.46164 46 42 60
1.03859 -0.48938 -0.45870 72 78 98
1.03751 -0.49094 -0.44988 133 139 155
1.05412 -0.49542 -0.45498 191 193 196
1.05744 -0.50508 -0.45226 218 212 218
1.06102 -0.49830 -0.45243 215 209 212
1.06434 -0.50797 -0.44971 219 210 216
-0.60188 0.18473 -1.05065 23 4 15
-0.60487 0.19343 -1.05310 9 4 12
-0.60747 0.18722 -1.05344 18 5 10
-0.59617 0.18260 -1.04973 28 15 26
-0.58975 0.18223 -1.05813 38 25 43
-0.58675 0.17347 -1.05566 43 44 63
-0.58356 0.18114 -1.06277 57 50 63
-0.58054 0.17235 -1.06030 38 44 65
-0.56596 0.17508 -1.06228 44 44 67
-0.56006 0.17304 -1.06211 49 46 70
-0.55427 0.17075 -1.06057 46 46 62
-0.55123 0.16191 -1.05808 50 54 74
-0.54846 0.16848 -1.05911 46 47 64
-0.54248 0.16652 -1.05943 48 49 66
-0.53650 0.16450 -1.05945 44 47 60
-0.53014 0.16313 -1.06307 43 44 60
-0.52315 0.16274 -1.07227 54 52 68
-0.51624 0.16207 -1.08003 51 61 77
-0.51315 0.15307 -1.07750 48 52 71
-0.50297 0.15954 -1.08912 52 57 83
-0.49986 0.15047 -1.08656 63 68 91
-0.49082 0.15508 -1.08752 56 58 80
-0.48770 0.14599 -1.08496 50 54 69
-0.48450 0.15316 -1.08851 49 53 71
-0.48137 0.14405 -1.08595 45 48 64
-0.40879 0.11903 -1.04885 55 56 81
-0.38742 0.11468 -1.06223 55 56 78
-0.38054 0.11289 -1.06475 44 44 67
-0.37737 0.10367 -1.06215 36 38 54
-0.32507 0.10476 -1.11422 40 37 46
-0.33406 0.10067 -1.11765 33 39 56
-0.32793 0.09794 -1.11459 40 44 62
-0.31814 0.10261 -1.11510 29 29 58
-0.31142 0.10028 -1.11485 64 77 117
-0.30619 0.09691 -1.10741 123 141 185
-0.29702 0.09621 -1.11857 166 180 222
-0.28920 0.09453 -1.12309 194 205 236
-0.28185 0.09250 -1.12521 210 220 242
-0.27584 0.08960 -1.12118 223 233 245
-0.26947 0.08693 -1.11874 238 246 248
-0.26354 0.08399 -1.11440 210 214 236
-0.25735 0.08120 -1.11117 192 192 217
-0.25201 0.07794 -1.10439 219 220 234
-0.24617 0.07497 -1.09978 245 247 250
-0.24286 0.06532 -1.09707 254 254 254
-0.23587 0.06833 -1.08509 243 243 248
-0.23163 0.06458 -1.07429 220 224 237
-0.22583 0.06166 -1.06987 202 208 229
-0.15500 0.04900 -1.12243 221 227 241
-0.15159 0.03906 -1.11963 217 224 239
-0.14726 0.04673 -1.12402 228 234 244
-0.14384 0.03676 -1.12121 221 229 241
-0.14073 0.04393 -1.12131 234 240 247
-0.13542 0.04065 -1.11438 241 246 249
-0.12006 0.03070 -1.09225 244 247 245
-0.11667 0.02081 -1.08946 250 253 254
-0.11533 0.02729 -1.08381 240 240 237
-0.11014 0.02406 -1.07695 234 232 234
-0.10676 0.01421 -1.07418 254 254 254
-0.10474 0.02092 -1.07086 242 240 238
-0.10137 0.01109 -1.06809 253 254 254
-0.09797 0.01827 -1.06918 249 251 244
-0.09459 0.00843 -1.06641 252 253 254
-0.09106 0.01566 -1.06789 248 251 240
-0.08768 0.00581 -1.06512 253 254 254
-0.08348 0.01325 -1.06862 250 252 243
-0.08009 0.00338 -1.06584 254 254 254
-0.07383 0.01148 -1.07558 253 253 251
-0.07043 0.00157 -1.07279 254 254 254
-0.06485 0.00946 -1.08030 254 254 248
-0.06143 -0.00050 -1.07750 254 254 254
-0.05794 0.00677 -1.07866 254 253 242
-0.05082 0.00414 -1.07762 249 248 232
-0.04906 -0.00006 -1.06085 220 223 211
-0.04582 -0.00377 -1.04869 179 182 185
-0.04230 -0.00737 -1.03750 173 179 206
-0.03520 -0.01443 -1.01579 178 188 216
-0.02702 -0.03374 -0.93882 142 147 163
-0.02378 -0.04317 -0.93617 136 145 163
0.10611 -0.08610 -0.90469 134 135 137
0.10283 -0.07653 -0.90738 127 125 138
0.09997 -0.08336 -0.90775 133 134 142
0.10984 -0.08915 -0.89635 130 127 130
0.11425 -0.09210 -0.88959 105 98 130
0.11846 -0.09505 -0.88246 87 80 135
0.15354 -0.10137 -0.90831 158 153 162
0.16930 -0.10313 -0.92492 43 21 22
0.17266 -0.11292 -0.92216 28 37 55
0.19397 -0.11098 -0.92722 22 27 46
0.20033 -0.11379 -0.92414 18 26 44
0.20519 -0.11674 -0.91807 21 27 44
0.21503 -0.12258 -0.90634 24 26 50
0.22119 -0.12540 -0.90294 23 21 34
0.23342 -0.13103 -0.89598 18 24 35
0.24151 -0.13372 -0.89622 20 25 40
0.25511 -0.13927 -0.89176 19 19 45
0.26198 -0.14205 -0.88964 17 17 39
0.27760 -0.15065 -0.87422 21 18 27
0.27493 -0.15689 -0.84097 21 17 42
0.28453 -0.15952 -0.84384 22 16 39
0.29801 -0.16203 -0.85338 21 11 28
0.30246 -0.16488 -0.84710 21 11 22
0.32085 -0.17906 -0.81010 31 18 55
0.32684 -0.18181 -0.80671 33 18 50
0.33272 -0.18457 -0.80313 36 18 39
0.33506 -0.18736 -0.79383 37 18 37
0.34337 -0.19008 -0.79423 40 18 32
0.34970 -0.19283 -0.79142 42 19 31
0.35334 -0.19558 -0.78432 43 20 25
0.35838 -0.19832 -0.77950 46 20 23
0.36672 -0.20107 -0.77986 46 27 31
0.37070 -0.20380 -0.77341 46 32 38
0.37444 -0.20652 -0.76663 48 40 41
0.37837 -0.20923 -0.76019 53 47 49
0.38274 -0.21194 -0.75448 58 56 63
0.38647 -0.21463 -0.74783 62 60 73
0.39346 -0.21736 -0.74612 73 64 78
0.39957 -0.22008 -0.74309 85 73 80
0.40774 -0.22284 -0.74310 94 84 88
0.41335 -0.22555 -0.73930 96 89 94
0.42077 -0.22831 -0.73816 99 99 102
0.42669 -0.23103 -0.73483 103 106 104
0.43400 -0.23379 -0.73348 106 109 107
0.44319 -0.23662 -0.73479 107 113 111
0.45375 -0.23950 -0.73799 112 125 123
0.45793 -0.24217 -0.73213 118 134 135
0.46324 -0.24488 -0.72788 119 134 135
0.46954 -0.24763 -0.72502 120 135 136
0.47467 -0.25032 -0.72055 121 135 137
0.48087 -0.25306 -0.71757 122 134 138
0.48871 -0.25588 -0.71681 120 129 139
0.49634 -0.25869 -0.71573 116 126 139
0.52322 -0.26979 -0.70637 100 112 135
0.52915 -0.27253 -0.70298 98 109 141
0.53506 -0.27526 -0.69957 94 105 142
0.54188 -0.27805 -0.69733 88 100 141
0.54913 -0.28086 -0.69562 85 98 131
0.55706 -0.28373 -0.69477 81 96 116
0.56283 -0.28646 -0.69116 71 88 106
0.56748 -0.28911 -0.68616 63 81 105
0.57182 -0.29173 -0.68079 58 71 101
0.57783 -0.29446 -0.67752 51 60 96
0.58331 -0.29716 -0.67360 45 49 85
0.58486 -0.29955 -0.66489 44 49 72
0.58586 -0.30189 -0.65560 40 46 68
0.58998 -0.30446 -0.65014 38 44 72
0.59325 -0.31397 -0.64746 30 15 28
0.59508 -0.30710 -0.64588 35 41 63
0.59834 -0.31660 -0.64320 27 16 20
0.59760 -0.30952 -0.63857 28 33 55
0.60085 -0.31900 -0.63590 26 17 27
0.60279 -0.31215 -0.63448 22 26 54
0.60605 -0.32163 -0.63181 27 17 28
0.60929 -0.31490 -0.63193 20 24 51
0.61435 -0.31752 -0.62770 21 21 41
0.62052 -0.32024 -0.62476 19 18 34
0.62959 -0.32322 -0.62517 19 17 34
0.63757 -0.32611 -0.62429 27 16 39
0.67017 -0.33991 -0.61137 28 18 23
0.67614 -0.34262 -0.60816 27 18 31
0.68584 -0.34571 -0.60904 29 18 28
0.69361 -0.34861 -0.60777 30 21 27
0.69894 -0.35126 -0.60384 32 21 29
0.70576 -0.35406 -0.60153 33 21 32
0.71364 -0.35698 -0.60033 34 25 39
0.71855 -0.35958 -0.59596 37 29 26
0.72350 -0.36218 -0.59164 40 28 18
0.72854 -0.36479 -0.58745 46 27 17
0.75838 -0.38033 -0.56212 61 33 24
0.75228 -0.37761 -0.56516 59 28 20
0.76395 -0.38298 -0.55855 60 31 26
0.76992 -0.38568 -0.55538 64 34 28
0.77659 -0.38846 -0.55291 68 37 30
0.78409 -0.39136 -0.55125 67 35 30
0.79035 -0.39410 -0.54836 71 39 31
0.80119 -0.39743 -0.54993 75 52 32
0.81514 -0.40117 -0.55445 78 63 31
0.82598 -0.40453 -0.55589 78 66 29
0.83583 -0.40777 -0.55633 86 75 33
0.84492 -0.41091 -0.55600 98 82 41
0.85240 -0.41385 -0.55412 106 87 54
0.85931 -0.41671 -0.55169 115 89 68
0.86953 -0.42002 -0.55235 129 94 78
0.87982 -0.42336 -0.55302 141 105 79
0.90800 -0.43304 -0.55232 167 136 95
0.91357 -0.43573 -0.54855 176 149 101
0.91731 -0.43816 -0.54314 192 174 137
0.93644 -0.44282 -0.55155 213 203 190
0.93982 -0.45265 -0.54879 227 218 217
0.94480 -0.44593 -0.55023 225 217 215
0.94818 -0.45577 -0.54747 225 216 218
0.97706 -0.45637 -0.55243 226 213 205
0.96773 -0.46062 -0.55599 225 214 217
0.97410 -0.46345 -0.55281 224 214 216
0.96263 -0.45606 -0.53115 210 177 143
0.99789 -0.48136 -0.46893 26 25 31
0.99459 -0.47175 -0.47163 21 21 29
0.99172 -0.47861 -0.47200 24 24 34
0.98885 -0.48548 -0.47238 27 28 34
1.00119 -0.49097 -0.46622 39 36 42
1.00421 -0.48413 -0.46597 29 28 36
1.00751 -0.49374 -0.46327 42 40 47
1.01267 -0.48726 -0.46474 37 33 47
1.01598 -0.49688 -0.46204 41 38 48
1.01975 -0.49016 -0.46238 46 37 56
1.02479 -0.49272 -0.45839 55 51 57
1.03353 -0.49590 -0.45734 93 100 97
1.04912 -0.50196 -0.45369 205 204 212
1.05243 -0.51161 -0.45098 218 211 217
-0.61026 0.18042 -1.05071 21 7 10
-0.61324 0.18911 -1.05315 17 4 7
-0.61584 0.18290 -1.05349 17 5 6
-0.61843 0.17670 -1.05383 13 6 11
-0.60452 0.17841 -1.05043 32 20 23
-0.60153 0.16971 -1.04798 38 42 54
-0.59789 0.17875 -1.06270 38 35 49
-0.59488 0.16999 -1.06023 33 41 67
-0.59180 0.17746 -1.06641 38 44 68
-0.57418 0.17147 -1.06637 44 47 70
-0.57115 0.16264 -1.06389 58 69 83
-0.56866 0.16863 -1.06185 55 56 82
-0.56279 0.16654 -1.06141 66 64 90
-0.55975 0.15771 -1.05893 56 57 74
-0.54529 0.15987 -1.05799 56 59 76
-0.54794 0.15355 -1.05833 58 61 87
-0.53932 0.15786 -1.05809 50 52 70
-0.53627 0.14900 -1.05559 40 51 67
-0.53300 0.15642 -1.06142 45 46 73
-0.52578 0.15641 -1.07298 65 62 80
-0.52271 0.14745 -1.07046 56 67 84
-0.51943 0.15483 -1.07572 58 68 89
-0.51634 0.14585 -1.07320 49 52 76
-0.49370 0.14835 -1.08642 59 63 78
-0.50225 0.14446 -1.08968 68 69 97
-0.41780 0.11468 -1.04924 44 47 71
-0.40346 0.11198 -1.05952 72 75 89
-0.39765 0.10930 -1.05621 69 72 87
-0.38832 0.10974 -1.07324 55 56 79
-0.38108 0.10822 -1.07774 45 44 64
-0.37789 0.09894 -1.07513 36 40 52
-0.32062 0.09604 -1.11734 32 38 66
-0.32963 0.09194 -1.12077 41 43 69
-0.32348 0.08920 -1.11771 43 43 66
-0.31372 0.09383 -1.11796 44 53 83
-0.30690 0.09153 -1.11804 88 103 137
-0.30258 0.08757 -1.10627 133 151 190
-0.29178 0.08783 -1.12487 178 193 224
-0.27844 0.08287 -1.12286 208 217 240
-0.27096 0.08085 -1.12536 227 233 244
-0.26763 0.07114 -1.12262 191 189 222
-0.26543 0.07766 -1.11914 197 197 232
-0.25935 0.07480 -1.11540 201 203 232
-0.25363 0.07175 -1.11015 237 242 248
-0.25031 0.06206 -1.10743 254 254 254
-0.23930 0.06118 -1.08318 254 253 253
-0.24217 0.05432 -1.08355 254 254 254
-0.23601 0.05157 -1.08048 250 253 253
-0.23374 0.05812 -1.07768 240 243 248
-0.23303 0.05266 -1.05299 224 230 242
-0.13969 0.03304 -1.11031 226 234 242
-0.14902 0.02879 -1.11387 223 230 240
-0.14265 0.02596 -1.11069 223 230 240
-0.13628 0.02312 -1.10751 225 231 241
-0.12180 0.02408 -1.09667 241 247 251
-0.11840 0.01417 -1.09388 242 248 251
-0.11145 0.01759 -1.08262 254 254 254
-0.11440 0.01055 -1.08301 250 253 254
-0.10806 0.00772 -1.07985 253 254 254
-0.05221 -0.00253 -1.08271 253 253 253
-0.06161 -0.00681 -1.08630 254 254 254
-0.05519 -0.00966 -1.08310 254 254 254
-0.04487 -0.00513 -1.08221 244 246 243
-0.04819 -0.01065 -1.05074 215 221 217
-0.03800 -0.02136 -1.01647 187 199 225
-0.02584 -0.03958 -0.94984 141 149 167
-0.02259 -0.04907 -0.94717 139 150 167
0.09324 -0.09070 -0.89950 130 127 127
0.09975 -0.09338 -0.89734 129 115 121
0.10116 -0.10011 -0.86777 49 32 63
0.11161 -0.10230 -0.87422 67 61 65
0.12105 -0.10463 -0.87835 70 78 106
0.13183 -0.10685 -0.88520 66 58 102
0.16284 -0.11047 -0.91795 21 16 45
0.17857 -0.11575 -0.91826 35 31 41
0.18932 -0.11816 -0.92415 30 36 38
0.19782 -0.12079 -0.92539 29 37 36
0.20352 -0.12366 -0.92098 31 38 36
0.20732 -0.12667 -0.91285 35 41 48
0.21228 -0.12957 -0.90708 36 38 50
0.21820 -0.13241 -0.90319 36 38 48
0.22398 -0.13524 -0.89907 35 39 51
0.23036 -0.13804 -0.89609 35 40 44
0.23807 -0.14076 -0.89564 38 48 45
0.24266 -0.14366 -0.88929 40 50 48
0.25092 -0.14636 -0.88981 41 49 45
0.25770 -0.14914 -0.88756 42 53 46
0.26427 -0.15194 -0.88489 43 56 51
0.27019 -0.15477 -0.88104 46 60 56
0.27801 -0.15751 -0.88062 50 64 58
0.28262 -0.16039 -0.87442 56 68 60
0.28233 -0.16343 -0.85958 59 71 64
0.28696 -0.16627 -0.85358 65 72 64
0.29157 -0.16910 -0.84760 72 73 64
0.29729 -0.17190 -0.84358 78 77 71
0.30278 -0.17470 -0.83917 84 81 76
0.30943 -0.18036 -0.82310 93 89 81
0.31485 -0.18313 -0.81868 99 95 94
0.32004 -0.18590 -0.81391 105 105 108
0.33371 -0.18859 -0.82321 113 113 113
0.34072 -0.19136 -0.82136 118 116 112
0.34796 -0.19413 -0.81989 127 125 119
0.34624 -0.19693 -0.80388 141 139 136
0.34626 -0.19969 -0.79088 147 151 145
0.35450 -0.20244 -0.79111 152 160 147
0.36082 -0.20519 -0.78825 166 169 159
0.36485 -0.20792 -0.78180 173 178 165
0.37404 -0.21070 -0.78345 177 183 171
0.37971 -0.21345 -0.77956 177 185 169
0.38375 -0.21617 -0.77320 180 189 174
0.38684 -0.21886 -0.76543 175 194 182
0.38994 -0.22154 -0.75775 171 192 189
0.39450 -0.22424 -0.75233 166 186 186
0.39961 -0.22694 -0.74775 157 175 173
0.40476 -0.22964 -0.74327 151 165 169
0.41056 -0.23235 -0.73976 141 156 163
0.41702 -0.23509 -0.73721 132 150 161
0.42728 -0.23795 -0.74018 126 143 160
0.43625 -0.24078 -0.74120 120 137 161
0.44379 -0.24358 -0.74011 117 137 163
0.45031 -0.24633 -0.73756 117 138 165
0.45588 -0.24905 -0.73365 115 132 167
0.46668 -0.25447 -0.72540 100 113 154
0.47463 -0.25729 -0.72481 95 106 148
0.47977 -0.25998 -0.72035 89 99 139
0.49517 -0.26321 -0.72987 81 93 127
0.50140 -0.26597 -0.72682 75 88 118
0.50426 -0.26854 -0.71924 66 79 112
0.50431 -0.27094 -0.70798 59 74 105
0.50879 -0.27358 -0.70269 54 68 97
0.50996 -0.27601 -0.69307 51 60 95
0.51247 -0.27851 -0.68530 45 52 93
0.51906 -0.28126 -0.68289 41 49 88
0.52684 -0.28409 -0.68201 40 48 85
0.53747 -0.28713 -0.68475 37 44 73
0.54076 -0.29668 -0.68206 26 18 20
0.54032 -0.28963 -0.67751 34 42 62
0.54360 -0.29916 -0.67482 27 17 28
0.54828 -0.29249 -0.67678 30 40 62
0.55156 -0.30203 -0.67409 25 17 19
0.55373 -0.29517 -0.67287 23 36 54
0.56024 -0.29792 -0.67029 23 30 43
0.56700 -0.30070 -0.66803 19 24 46
0.57260 -0.30339 -0.66431 16 21 42
0.57807 -0.30606 -0.66045 19 20 35
0.58274 -0.30867 -0.65563 23 18 29
0.58632 -0.31118 -0.64952 28 16 28
0.61152 -0.32428 -0.62807 31 18 27
0.61769 -0.32700 -0.62513 32 18 27
0.62675 -0.33000 -0.62554 36 22 27
0.63611 -0.33303 -0.62623 46 27 26
0.64386 -0.33591 -0.62505 52 32 33
0.64705 -0.33834 -0.61870 57 35 30
0.65588 -0.34134 -0.61871 61 35 27
0.66255 -0.34412 -0.61628 68 39 25
0.66863 -0.34684 -0.61319 75 44 33
0.67581 -0.34968 -0.61131 75 47 38
0.68843 -0.35311 -0.61539 81 51 38
0.70057 -0.35651 -0.61884 85 56 41
0.70451 -0.35901 -0.61333 83 56 40
0.71600 -0.36236 -0.61599 91 59 42
0.72043 -0.36491 -0.61102 93 71 48
0.72499 -0.36748 -0.60621 98 83 56
0.73407 -0.37259 -0.59661 110 95 58
0.73566 -0.37479 -0.58877 124 104 60
0.74466 -0.37070 -0.58533 52 28 17
0.74294 -0.37767 -0.58689 130 104 71
0.75195 -0.37357 -0.58345 51 27 19
0.74817 -0.38029 -0.58287 136 109 74
0.75717 -0.37620 -0.57944 54 27 17
0.75317 -0.38289 -0.57864 146 115 70
0.75829 -0.38550 -0.57454 153 119 75
0.76562 -0.38838 -0.57269 164 134 94
0.76883 -0.39074 -0.56668 172 142 109
0.77496 -0.39347 -0.56362 181 156 121
0.78145 -0.39625 -0.56093 188 163 124
0.78877 -0.39913 -0.55905 195 172 130
0.79597 -0.40200 -0.55703 203 181 134
0.80510 -0.40514 -0.55689 208 192 145
0.81239 -0.40803 -0.55493 212 198 153
0.82796 -0.41205 -0.56094 218 202 158
0.82809 -0.41398 -0.55204 223 207 167
0.83139 -0.42359 -0.54934 227 218 214
0.84269 -0.41979 -0.54804 227 211 179
0.84600 -0.42941 -0.54533 225 216 217
0.85064 -0.42279 -0.54662 229 214 187
0.85395 -0.43242 -0.54391 224 216 217
0.85556 -0.42537 -0.54236 230 216 191
0.85887 -0.43499 -0.53965 225 218 218
0.86375 -0.42841 -0.54115 232 218 192
0.86706 -0.43804 -0.53843 225 217 218
0.87086 -0.43130 -0.53891 234 220 193
0.87417 -0.44094 -0.53620 225 216 219
0.88013 -0.43450 -0.53865 234 220 196
0.88344 -0.44416 -0.53593 226 217 221
0.90324 -0.44161 -0.54219 234 220 199
0.90657 -0.45133 -0.53946 225 216 221
0.91685 -0.44549 -0.54574 233 221 207
0.92021 -0.45526 -0.54299 226 217 220
0.93331 -0.44981 -0.55176 230 221 214
0.93669 -0.45964 -0.54900 225 217 220
0.99890 -0.46916 -0.56571 228 206 194
0.98947 -0.47345 -0.56931 224 214 217
1.01447 -0.49832 -0.45281 67 64 70
1.01310 -0.49977 -0.44376 131 130 134
1.03659 -0.50550 -0.45444 190 188 198
1.03990 -0.51513 -0.45173 220 212 215
1.04380 -0.50843 -0.45216 215 208 217
1.04711 -0.51807 -0.44945 220 210 218
-0.61269 0.17470 -1.05365 25 11 27
-0.60672 0.17332 -1.05678 43 42 34
-0.60373 0.16459 -1.05433 33 43 58
-0.58883 0.16854 -1.06322 40 42 68
-0.58277 0.16701 -1.06581 46 48 73
-0.57975 0.15820 -1.06333 53 59 79
-0.57701 0.16473 -1.06430 52 58 80
-0.57398 0.15591 -1.06182 52 61 78
-0.56554 0.15999 -1.06036 61 66 87
-0.56818 0.15369 -1.06071 55 59 82
-0.56251 0.15116 -1.05788 56 58 75
-0.54220 0.15111 -1.05602 53 57 73
-0.55053 0.14732 -1.05920 57 60 84
-0.54485 0.14479 -1.05636 52 61 74
-0.53916 0.14226 -1.05353 49 54 71
-0.52854 0.14988 -1.07252 55 65 80
-0.53122 0.14348 -1.07287 53 60 85
-0.52547 0.14092 -1.07000 51 58 91
-0.49633 0.14199 -1.08754 61 64 79
-0.50487 0.13810 -1.09081 69 67 93
-0.48920 0.14116 -1.09526 50 54 72
-0.48334 0.13855 -1.09234 45 47 65
-0.41305 0.10714 -1.05679 58 64 84
-0.40991 0.09801 -1.05422 72 78 98
-0.39965 0.10342 -1.06092 68 75 87
-0.38990 0.10417 -1.08056 52 55 78
-0.38174 0.10339 -1.09017 42 44 63
-0.37854 0.09405 -1.08755 37 39 53
-0.31639 0.08711 -1.11929 35 38 72
-0.32542 0.08300 -1.12274 44 45 63
-0.31072 0.08404 -1.11384 67 80 109
-0.30457 0.08130 -1.11077 98 112 147
-0.29720 0.07932 -1.11339 144 158 194
-0.28872 0.07800 -1.12094 167 180 220
-0.28145 0.07588 -1.12272 181 189 227
-0.27352 0.07412 -1.12728 200 212 234
-0.26053 0.06885 -1.12324 216 219 239
-0.25468 0.06584 -1.11841 246 250 253
-0.25135 0.05612 -1.11568 254 254 254
-0.23431 0.04664 -1.05954 245 249 251
-0.24327 0.04257 -1.06296 254 254 254
-0.23716 0.03985 -1.05991 254 254 254
-0.23105 0.03712 -1.05686 254 254 253
-0.04771 -0.01223 -1.08305 251 252 251
-0.05712 -0.01652 -1.08664 254 254 253
-0.04420 -0.01587 -1.07133 233 239 237
-0.04617 -0.02528 -1.02281 176 181 206
-0.04282 -0.03504 -1.02006 170 176 207
-0.04193 -0.02857 -1.01399 180 188 212
0.08385 -0.09131 -0.91893 126 124 97
0.08954 -0.09411 -0.91480 126 117 94
0.09539 -0.10378 -0.87790 97 72 103
0.10206 -0.10642 -0.87619 90 76 76
0.11350 -0.10855 -0.88475 182 182 136
0.15837 -0.11757 -0.91509 22 14 31
0.16697 -0.12015 -0.91683 27 27 55
0.17475 -0.12281 -0.91679 51 66 60
0.18715 -0.12512 -0.92608 76 99 107
0.19714 -0.12765 -0.93031 85 104 109
0.20009 -0.13073 -0.92039 90 104 106
0.20533 -0.13362 -0.91510 96 107 109
0.21062 -0.13649 -0.90994 90 101 111
0.21577 -0.13938 -0.90455 84 97 105
0.21867 -0.14238 -0.89485 81 93 98
0.22613 -0.14511 -0.89398 82 97 101
0.23184 -0.14794 -0.88977 87 104 107
0.24080 -0.15061 -0.89168 92 107 110
0.24692 -0.15342 -0.88819 93 108 108
0.25521 -0.15614 -0.88876 94 109 109
0.26143 -0.15895 -0.88545 95 110 114
0.26809 -0.16175 -0.88294 97 115 122
0.27353 -0.16459 -0.87822 100 118 127
0.28118 -0.16736 -0.87748 103 119 128
0.28368 -0.17027 -0.86755 105 121 128
0.28872 -0.17311 -0.86221 110 126 134
0.28753 -0.17607 -0.84598 116 133 141
0.29209 -0.17888 -0.83996 122 140 146
0.30399 -0.18444 -0.83280 132 150 153
0.32420 -0.18992 -0.83968 139 157 173
0.33287 -0.19269 -0.84055 144 167 187
0.34030 -0.19549 -0.83933 144 170 192
0.34648 -0.19829 -0.83601 143 165 190
0.35170 -0.20109 -0.83113 149 175 200
0.34991 -0.20385 -0.81488 160 186 217
0.35360 -0.20661 -0.80768 160 184 227
0.36132 -0.21210 -0.79398 160 178 229
0.36384 -0.21481 -0.78511 157 172 225
0.37117 -0.21758 -0.78382 152 162 221
0.37616 -0.22031 -0.77890 148 143 216
0.38263 -0.22306 -0.77627 135 132 208
0.38608 -0.22575 -0.76902 123 125 193
0.39078 -0.22846 -0.76372 109 116 184
0.39605 -0.23117 -0.75932 98 108 173
0.39968 -0.23384 -0.75250 87 97 156
0.40161 -0.23643 -0.74318 80 91 146
0.40591 -0.23909 -0.73746 68 85 129
0.41404 -0.24188 -0.73738 55 79 113
0.42082 -0.24463 -0.73530 50 71 108
0.42647 -0.24734 -0.73158 48 68 108
0.43212 -0.25004 -0.72786 45 63 101
0.43817 -0.25276 -0.72473 42 57 96
0.44530 -0.25553 -0.72311 39 48 94
0.44636 -0.25800 -0.71296 40 45 94
0.45290 -0.26074 -0.71055 37 43 89
0.45912 -0.26346 -0.70768 35 41 82
0.46443 -0.26613 -0.70357 33 40 74
0.46769 -0.27562 -0.70090 25 16 25
0.47627 -0.26918 -0.70838 30 38 70
0.47954 -0.27871 -0.70570 25 14 24
0.48028 -0.27178 -0.70247 27 35 62
0.48909 -0.27466 -0.70305 26 31 56
0.49650 -0.27747 -0.70173 23 30 58
0.50907 -0.28295 -0.69602 20 24 48
0.51636 -0.28576 -0.69449 21 23 50
0.52281 -0.28852 -0.69184 22 24 40
0.52776 -0.29117 -0.68724 24 23 27
0.53233 -0.29378 -0.68218 25 20 21
0.55690 -0.30470 -0.67006 28 16 14
0.56386 -0.30749 -0.66803 27 16 22
0.56975 -0.31020 -0.66468 29 17 23
0.57522 -0.31288 -0.66082 33 19 23
0.57928 -0.31542 -0.65525 39 24 21
0.58423 -0.31804 -0.65080 45 31 21
0.58807 -0.32055 -0.64502 55 36 34
0.59193 -0.32306 -0.63931 61 40 34
0.59694 -0.32567 -0.63499 74 45 24
0.60327 -0.32840 -0.63224 83 51 22
0.61247 -0.33142 -0.63286 95 64 49
0.62011 -0.33429 -0.63161 102 76 53
0.62704 -0.33709 -0.62952 107 86 60
0.63686 -0.34019 -0.63073 123 106 79
0.64943 -0.34359 -0.63503 136 119 102
0.65527 -0.34630 -0.63161 143 124 105
0.66264 -0.34917 -0.62992 156 131 106
0.67042 -0.35209 -0.62866 168 139 100
0.67824 -0.35502 -0.62743 175 148 115
0.67896 -0.35716 -0.61832 182 162 123
0.68655 -0.36006 -0.61683 190 171 129
0.68779 -0.36224 -0.60839 195 175 132
0.69103 -0.36464 -0.60219 200 183 139
0.69131 -0.36668 -0.59283 210 190 143
0.69319 -0.36890 -0.58528 212 196 149
0.69232 -0.37077 -0.57484 218 201 162
0.71247 -0.37518 -0.58675 221 207 172
0.71849 -0.37789 -0.58361 224 210 178
0.72176 -0.38740 -0.58094 230 220 220
0.72502 -0.38066 -0.58100 228 215 183
0.72828 -0.39018 -0.57832 228 220 220
0.73181 -0.38346 -0.57866 231 215 188
0.73508 -0.39299 -0.57598 227 220 220
0.73876 -0.38629 -0.57648 232 217 189
0.74203 -0.39582 -0.57380 227 221 220
0.74474 -0.38900 -0.57329 233 219 187
0.74802 -0.39853 -0.57061 226 219 220
0.75142 -0.39180 -0.57082 234 222 190
0.75470 -0.40133 -0.56814 225 218 220
0.75719 -0.39448 -0.56741 233 220 196
0.76047 -0.40401 -0.56473 226 217 221
0.76294 -0.39715 -0.56399 233 219 201
0.76621 -0.40668 -0.56131 227 219 222
0.76874 -0.39984 -0.56062 234 220 204
0.77201 -0.40936 -0.55794 227 219 221
0.77476 -0.40255 -0.55747 234 221 206
0.77803 -0.41207 -0.55480 227 218 220
0.78104 -0.40529 -0.55459 233 221 205
0.78431 -0.41482 -0.55191 229 218 220
0.78770 -0.40809 -0.55208 233 219 205
0.79097 -0.41762 -0.54940 228 217 220
0.79528 -0.41102 -0.55047 229 216 210
0.79856 -0.42055 -0.54778 227 217 220
0.80437 -0.41416 -0.55029 228 215 213
0.80765 -0.42371 -0.54761 226 217 219
0.81677 -0.41777 -0.55329 228 218 212
0.82007 -0.42737 -0.55059 226 218 218
0.82537 -0.42086 -0.55256 228 219 212
0.82867 -0.43047 -0.54986 226 217 217
0.99855 -0.47674 -0.56841 225 215 214
0.98910 -0.48104 -0.57202 227 219 221
0.99555 -0.48391 -0.56880 228 220 220
1.00116 -0.47899 -0.56187 227 206 188
1.00460 -0.48901 -0.55905 231 211 195
0.95976 -0.47410 -0.51734 195 154 116
0.99123 -0.49828 -0.45277 37 25 32
0.98511 -0.49556 -0.45583 38 33 36
0.99624 -0.50082 -0.44882 58 44 68
1.00834 -0.50459 -0.45056 121 114 138
1.02402 -0.50900 -0.45510 182 179 190
1.02732 -0.51862 -0.45239 220 212 213
1.02740 -0.51126 -0.44981 213 207 212
1.03069 -0.52086 -0.44711 221 213 216
-0.61566 0.16737 -1.04785 27 29 36
-0.61269 0.15870 -1.04541 37 42 59
-0.60963 0.16622 -1.05238 38 42 63
-0.60664 0.15752 -1.04993 32 40 55
-0.59773 0.16312 -1.05720 42 41 68
-0.59187 0.16123 -1.05779 51 54 75
-0.58886 0.15247 -1.05532 59 62 82
-0.58574 0.15992 -1.06169 55 57 79
-0.58272 0.15113 -1.05921 56 59 78
-0.49886 0.13576 -1.08944 58 61 82
-0.50741 0.13187 -1.09271 67 69 91
-0.49142 0.13534 -1.09987 48 50 73
-0.48828 0.12618 -1.09730 40 42 61
-0.48526 0.13309 -1.09926 42 43 61
-0.47664 0.13702 -1.09597 41 42 59
-0.47938 0.13047 -1.09633 37 39 58
-0.48211 0.12393 -1.09668 34 37 53
-0.43037 0.10302 -1.04436 40 41 59
-0.40231 0.09694 -1.06175 64 70 86
-0.39182 0.09827 -1.08589 50 53 74
-0.38863 0.08897 -1.08327 41 43 61
-0.38357 0.09752 -1.09607 41 43 61
-0.38036 0.08816 -1.09344 37 39 54
-0.32000 0.07976 -1.11596 35 37 68
-0.32902 0.07566 -1.11940 42 45 63
-0.32287 0.07292 -1.11633 36 39 65
-0.31386 0.07702 -1.11288 59 64 77
-0.30619 0.07524 -1.11707 80 89 125
-0.30307 0.07060 -1.09960 123 134 172
-0.29138 0.07124 -1.12237 154 166 204
-0.28806 0.06157 -1.11965 173 184 215
-0.28388 0.06924 -1.12520 174 183 217
-0.27690 0.06690 -1.12548 183 197 229
-0.27081 0.06405 -1.12175 195 194 223
-0.26256 0.06238 -1.12746 229 231 241
-0.25921 0.05263 -1.12472 253 254 254
-0.25611 0.05969 -1.12515 250 254 254
-0.25276 0.04994 -1.12240 254 254 254
-0.05162 -0.01962 -1.08071 247 245 248
-0.06102 -0.02390 -1.08430 254 254 253
-0.05325 -0.02453 -1.05395 210 214 238
-0.05118 -0.02842 -1.03841 201 218 229
-0.05372 -0.03337 -1.00992 173 183 199
0.05379 -0.08392 -0.94327 142 143 154
0.05048 -0.07428 -0.94598 138 138 148
0.04760 -0.08116 -0.94635 143 142 151
0.05666 -0.07704 -0.94289 139 137 147
0.06285 -0.07979 -0.93981 140 137 148
0.06079 -0.08656 -0.94211 135 141 148
0.07068 -0.09241 -0.93012 118 110 103
0.07835 -0.09497 -0.93050 112 103 93
0.08108 -0.09815 -0.91951 130 119 108
0.09260 -0.10373 -0.91157 196 186 168
0.08062 -0.11508 -0.83595 141 127 165
0.10793 -0.11561 -0.87920 223 226 215
0.11402 -0.11832 -0.87617 236 228 219
0.11999 -0.12104 -0.87290 230 215 186
0.17033 -0.12991 -0.91410 32 28 35
0.18190 -0.13231 -0.92176 54 73 88
0.19301 -0.13479 -0.92831 67 86 108
0.19654 -0.13779 -0.91956 72 88 107
0.20769 -0.14351 -0.91032 70 80 105
0.21284 -0.14638 -0.90493 67 78 101
0.21575 -0.14936 -0.89523 65 76 100
0.22320 -0.15210 -0.89436 66 82 98
0.22892 -0.15493 -0.89014 69 85 101
0.23787 -0.15761 -0.89206 72 82 105
0.24399 -0.16042 -0.88857 72 85 106
0.25850 -0.16597 -0.88583 73 87 118
0.26516 -0.16877 -0.88332 74 85 125
0.26687 -0.17170 -0.87184 72 83 124
0.27160 -0.17454 -0.86592 69 83 117
0.27465 -0.17740 -0.85704 68 81 117
0.28126 -0.18018 -0.85454 69 79 125
0.28567 -0.18299 -0.84819 69 80 127
0.29407 -0.18575 -0.84883 70 81 126
0.29973 -0.18854 -0.84469 72 82 126
0.30491 -0.19133 -0.83973 72 81 128
0.30979 -0.19412 -0.83428 68 77 130
0.31708 -0.19690 -0.83295 62 73 130
0.31843 -0.19968 -0.82163 56 72 121
0.32254 -0.20244 -0.81502 44 69 112
0.32711 -0.20519 -0.80924 36 62 101
0.33193 -0.20794 -0.80388 31 58 107
0.33825 -0.21070 -0.80103 39 59 124
0.34524 -0.21346 -0.79923 37 50 123
0.35296 -0.21624 -0.79860 38 46 113
0.35993 -0.21902 -0.79673 38 45 101
0.36710 -0.22180 -0.79515 37 42 98
0.37311 -0.22456 -0.79174 40 42 100
0.37662 -0.22726 -0.78445 38 34 97
0.38459 -0.23007 -0.78410 35 31 95
0.38824 -0.23275 -0.77710 31 28 84
0.39155 -0.24239 -0.77439 24 15 18
0.39173 -0.23542 -0.76989 28 26 78
0.39503 -0.24504 -0.76719 28 13 19
0.39518 -0.23808 -0.76271 27 27 77
0.39848 -0.24767 -0.76001 27 12 20
0.39783 -0.24070 -0.75436 23 25 73
0.40111 -0.25026 -0.75167 24 12 22
0.40320 -0.24340 -0.75016 20 25 70
0.40648 -0.25296 -0.74747 27 13 24
0.40867 -0.24611 -0.74611 22 27 67
0.41354 -0.24878 -0.74120 20 31 57
0.41979 -0.25152 -0.73833 19 29 56
0.42494 -0.25420 -0.73385 18 26 53
0.42676 -0.25671 -0.72462 19 24 41
0.43205 -0.25939 -0.72041 18 23 40
0.43770 -0.26208 -0.71674 19 22 43
0.44241 -0.26472 -0.71176 22 21 42
0.44884 -0.26745 -0.70921 22 21 36
0.45484 -0.27015 -0.70606 24 21 28
0.46065 -0.27285 -0.70264 27 20 24
0.48619 -0.28147 -0.70337 28 13 21
0.49156 -0.28414 -0.69930 28 13 24
0.50161 -0.28715 -0.70148 29 13 21
0.50622 -0.28977 -0.69639 30 14 22
0.51350 -0.29259 -0.69486 35 17 26
0.51910 -0.29528 -0.69109 39 20 22
0.52490 -0.29799 -0.68761 42 26 20
0.53002 -0.30063 -0.68324 49 33 28
0.53454 -0.30323 -0.67813 61 41 38
0.54234 -0.30610 -0.67721 67 44 36
0.54886 -0.30886 -0.67465 77 47 31
0.55575 -0.31166 -0.67255 89 56 39
0.56385 -0.31456 -0.67194 92 66 49
0.57005 -0.31730 -0.66895 105 78 57
0.57616 -0.32004 -0.66586 117 89 62
0.58089 -0.32264 -0.66106 121 100 68
0.58340 -0.32503 -0.65361 131 117 85
0.58939 -0.32774 -0.65040 147 131 113
0.59548 -0.33046 -0.64731 152 135 120
0.60167 -0.33319 -0.64435 170 144 98
0.60952 -0.33609 -0.64334 186 159 93
0.60748 -0.33798 -0.63070 199 175 141
0.61286 -0.34062 -0.62684 207 190 146
0.61924 -0.34336 -0.62414 215 200 160
0.62747 -0.34630 -0.62357 224 209 178
0.63466 -0.34914 -0.62178 229 215 193
0.63792 -0.35864 -0.61910 231 224 222
0.63948 -0.35171 -0.61729 232 221 199
0.64274 -0.36121 -0.61462 230 224 225
0.64815 -0.35472 -0.61715 234 222 202
0.65142 -0.36423 -0.61448 228 223 225
0.65709 -0.35776 -0.61728 234 220 198
0.66036 -0.36729 -0.61460 229 224 223
0.66607 -0.36081 -0.61742 234 223 200
0.66935 -0.37037 -0.61474 229 222 223
0.67492 -0.36386 -0.61738 234 223 203
0.67821 -0.37343 -0.61469 229 222 224
0.68320 -0.36685 -0.61667 235 223 205
0.68649 -0.37644 -0.61397 229 222 221
0.68872 -0.36952 -0.61291 234 222 205
0.69201 -0.37910 -0.61021 229 221 221
0.69513 -0.37229 -0.61012 233 220 206
0.69842 -0.38187 -0.60742 229 222 224
0.70055 -0.37494 -0.60626 234 222 209
0.70383 -0.38451 -0.60356 229 223 224
0.70307 -0.37723 -0.59930 232 220 212
0.70635 -0.38678 -0.59661 229 224 224
0.70608 -0.37957 -0.59290 231 221 214
0.70935 -0.38910 -0.59022 229 221 222
0.71251 -0.38233 -0.59018 230 221 215
0.71578 -0.39187 -0.58749 228 221 222
0.71680 -0.38483 -0.58520 230 221 218
0.72007 -0.39435 -0.58252 228 221 221
0.99971 -0.48640 -0.56360 230 221 216
0.99028 -0.49069 -0.56720 226 219 224
0.99672 -0.49356 -0.56399 228 219 225
0.95239 -0.48205 -0.50539 211 175 136
0.89165 -0.47354 -0.44502 163 108 54
0.95141 -0.49202 -0.45498 36 13 15
0.96032 -0.48797 -0.45158 33 34 42
0.95540 -0.49436 -0.45023 37 11 16
0.96430 -0.49032 -0.44683 34 35 43
0.96436 -0.49757 -0.44957 39 11 27
0.97720 -0.50147 -0.45206 45 25 53
0.96733 -0.50136 -0.43604 77 64 86
0.99213 -0.50740 -0.44817 138 127 131
1.00654 -0.51161 -0.45178 188 182 182
1.00983 -0.52118 -0.44909 223 216 216
1.01209 -0.51424 -0.44824 213 206 208
1.01537 -0.52380 -0.44555 223 215 216
-0.63037 0.16282 -1.03554 10 8 22
-0.63332 0.17141 -1.03796 8 5 12
-0.63588 0.16527 -1.03829 9 8 16
-0.63845 0.15914 -1.03862 12 12 27
-0.62453 0.16137 -1.03838 16 11 35
-0.59482 0.15415 -1.05349 63 66 82
-0.59182 0.14541 -1.05103 62 67 87
-0.50184 0.12889 -1.08747 58 60 81
-0.49411 0.12885 -1.10056 47 51 70
-0.49097 0.11970 -1.09798 40 40 62
-0.43986 0.09816 -1.04103 37 39 56
-0.44296 0.10718 -1.04356 31 35 50
-0.44565 0.10074 -1.04392 31 36 54
-0.44834 0.09430 -1.04427 34 40 54
-0.44255 0.09173 -1.04138 38 40 61
-0.41963 0.09307 -1.05041 64 70 88
-0.41651 0.08397 -1.04785 73 78 101
-0.40466 0.09073 -1.06449 66 67 88
-0.39392 0.09221 -1.09028 50 52 73
-0.31757 0.06963 -1.10907 45 46 68
-0.31048 0.06749 -1.11062 63 71 113
-0.30406 0.06491 -1.10880 116 128 168
-0.29520 0.06378 -1.11838 153 166 203
-0.29189 0.05413 -1.11566 174 185 219
-0.28116 0.05920 -1.11970 165 175 224
-0.27319 0.05740 -1.12444 196 200 234
-0.26341 0.05653 -1.13690 239 241 248
-0.26005 0.04674 -1.13415 254 254 254
-0.05544 -0.02697 -1.07861 245 243 245
-0.06483 -0.03124 -1.08219 254 254 253
-0.07474 -0.03615 -0.99981 195 196 226
-0.06982 -0.03919 -0.99310 135 141 198
-0.05760 -0.04052 -1.00746 100 110 175
-0.05364 -0.04380 -0.99794 157 176 209
0.01346 -0.07807 -0.94267 151 154 172
0.02245 -0.07398 -0.93924 143 146 163
0.01674 -0.08763 -0.93998 151 159 172
0.02056 -0.08065 -0.94203 150 152 165
0.02956 -0.07656 -0.93860 142 143 158
0.02671 -0.08339 -0.93897 149 149 158
0.03581 -0.08569 -0.94315 145 148 154
0.03868 -0.07883 -0.94278 143 141 153
0.04314 -0.08827 -0.94290 140 142 147
0.05871 -0.09334 -0.94439 104 92 123
0.06781 -0.09928 -0.93050 118 112 111
0.07946 -0.10486 -0.92273 190 180 161
0.07441 -0.10885 -0.89420 211 201 191
0.09746 -0.11651 -0.89567 83 62 140
0.08689 -0.12082 -0.85608 165 171 192
0.10713 -0.12220 -0.88400 229 234 237
0.11308 -0.12493 -0.88062 236 230 230
0.11918 -0.12765 -0.87757 234 225 216
0.15397 -0.13136 -0.91882 46 24 35
0.15732 -0.14111 -0.91607 33 18 18
0.16847 -0.13680 -0.91665 24 18 29
0.16555 -0.14378 -0.91703 27 21 28
0.17183 -0.14658 -0.91390 19 22 32
0.18591 -0.14209 -0.92029 17 25 51
0.18928 -0.15191 -0.91753 20 21 31
0.19260 -0.14488 -0.91792 22 31 53
0.19597 -0.15470 -0.91515 18 18 36
0.19854 -0.14771 -0.91404 23 28 55
0.20191 -0.15753 -0.91128 15 18 35
0.20481 -0.15052 -0.91082 22 26 54
0.20819 -0.16034 -0.90806 13 17 32
0.21028 -0.15337 -0.90604 21 27 49
0.21365 -0.16318 -0.90328 10 16 29
0.21540 -0.15623 -0.90059 18 28 48
0.21876 -0.16603 -0.89783 11 14 22
0.21981 -0.15911 -0.89383 19 27 47
