ply
format ascii 1.0
element face 0
property list uchar int vertex_indices
element vertex 1326
property float x
property float y
property float z
property uchar diffuse_red
property uchar diffuse_green
property uchar diffuse_blue
end_header
0.76340 -0.22823 -0.68536 38 33 58
0.76617 -0.24257 -0.68279 60 65 61
0.77011 -0.23369 -0.67927 47 42 52
0.77287 -0.24802 -0.67669 59 69 65
0.78032 -0.23823 -0.67773 57 59 58
0.78308 -0.25258 -0.67515 68 72 75
0.78486 -0.24425 -0.66886 67 74 68
0.78763 -0.25858 -0.66628 68 70 82
0.79105 -0.24984 -0.66212 69 77 80
0.79891 -0.25499 -0.65754 67 76 75
0.81932 -0.26417 -0.65422 75 78 83
0.81469 -0.27325 -0.65686 64 68 82
0.82209 -0.27854 -0.65164 63 66 74
0.82872 -0.26899 -0.65148 68 71 69
0.83149 -0.28337 -0.64890 62 63 70
0.84283 -0.27272 -0.65456 69 64 70
0.85317 -0.27737 -0.65288 57 51 57
0.86155 -0.28248 -0.64876 58 61 60
0.86997 -0.28760 -0.64469 69 73 69
0.87792 -0.29282 -0.64002 56 46 51
0.87686 -0.30687 -0.61049 60 67 53
0.87963 -0.32122 -0.60790 52 51 56
0.87730 -0.31360 -0.59704 63 65 61
0.88005 -0.32791 -0.59446 55 51 52
0.88260 -0.31929 -0.58941 46 49 51
0.88535 -0.33358 -0.58684 51 47 41
0.89288 -0.33069 -0.57389 52 60 52
0.90377 -0.33526 -0.57281 61 71 71
0.90653 -0.34953 -0.57024 59 50 53
0.91067 -0.34060 -0.56710 58 59 65
0.91343 -0.35488 -0.56453 49 43 45
0.91634 -0.34618 -0.55999 46 44 44
0.91909 -0.36044 -0.55743 41 40 42
0.94336 -0.36760 -0.53665 26 33 66
0.93143 -0.37135 -0.54443 42 41 49
0.96295 -0.37077 -0.54500 89 103 139
0.99103 -0.37262 -0.56250 208 226 231
1.00526 -0.37685 -0.56461 251 253 244
1.00596 -0.38329 -0.55198 235 216 186
1.00611 -0.38977 -0.53885 152 102 75
1.02296 -0.39365 -0.54368 45 17 18
1.03154 -0.39882 -0.53959 33 36 45
1.03410 -0.40489 -0.52913 40 59 82
1.04063 -0.41035 -0.52290 113 151 173
1.04018 -0.41679 -0.50939 194 220 239
1.03834 -0.42337 -0.49454 180 166 182
1.05626 -0.42724 -0.50019 79 48 50
1.05904 -0.44166 -0.49759 42 32 38
1.06196 -0.43278 -0.49318 41 34 29
1.06474 -0.44719 -0.49059 42 31 37
1.07518 -0.44360 -0.48107 33 30 41
1.07053 -0.45269 -0.48370 44 36 44
1.07607 -0.44969 -0.46928 61 57 37
1.07253 -0.46238 -0.44064 233 245 242
1.07528 -0.47661 -0.43808 253 254 253
1.34817 -0.63434 -0.29776 252 250 243
1.33608 -0.63814 -0.30564 254 254 254
1.35281 -0.63972 -0.29025 247 238 224
1.35559 -0.65414 -0.28766 246 233 216
1.34946 -0.64528 -0.27634 247 239 225
1.34693 -0.65078 -0.26318 252 252 242
1.34291 -0.65625 -0.24895 249 241 210
1.33577 -0.66172 -0.23234 231 212 179
1.45652 -0.70878 -0.22757 134 82 25
-0.38796 0.35582 -1.02900 254 254 251
-0.39837 0.35255 -1.03579 254 254 254
-0.39197 0.34797 -1.03127 254 254 254
-0.38556 0.34339 -1.02676 254 254 253
-0.38170 0.35098 -1.02384 253 251 244
-0.37634 0.34461 -1.01483 251 235 200
-0.35309 0.35312 -1.05022 251 147 14
-0.34368 0.35330 -1.05782 253 141 9
-0.30566 0.35327 -1.08697 225 123 43
-0.28855 0.36469 -1.12362 191 135 110
-0.27028 0.36219 -1.13252 182 136 119
-0.25365 0.37190 -1.16529 179 103 60
-0.24300 0.37246 -1.17463 172 79 71
-0.22313 0.38614 -1.21808 196 143 174
-0.22049 0.37247 -1.21562 199 150 215
-0.20753 0.39325 -1.24470 238 230 236
-0.19625 0.39397 -1.25485 243 238 235
-0.18710 0.39158 -1.25696 237 233 228
-0.17726 0.39007 -1.26140 230 208 197
-0.17162 0.38281 -1.25078 179 125 109
-0.15265 0.39328 -1.28691 74 28 19
-0.14501 0.38851 -1.28297 46 28 34
-0.14228 0.37435 -1.28042 50 36 49
-0.13435 0.38763 -1.28934 53 42 44
-0.12244 0.39138 -1.28158 53 46 48
-0.12702 0.38239 -1.28418 55 43 46
-0.13161 0.37341 -1.28679 57 41 49
-0.11018 0.20658 -0.93493 108 22 56
-0.12094 0.20320 -0.94195 116 32 47
-0.09198 0.21379 -0.96377 142 115 145
-0.08262 0.21170 -0.96664 184 182 204
-0.07527 0.20753 -0.96369 198 194 206
-0.06854 0.20272 -0.95895 201 197 204
-0.07275 0.19447 -0.96134 203 201 207
-0.04697 0.18960 -0.94850 205 195 194
-0.05793 0.18616 -0.95564 207 202 210
-0.05119 0.18134 -0.95090 208 203 211
-0.04143 0.18365 -0.94050 187 173 172
-0.03275 0.18065 -0.94098 197 193 197
-0.01599 0.17398 -0.94012 219 206 200
0.00243 0.17960 -0.96584 154 92 116
0.00872 0.17420 -0.95955 121 69 97
0.01916 0.17245 -0.96397 121 111 132
0.02322 0.16511 -0.95197 114 98 116
0.03576 0.16507 -0.96151 135 123 144
0.04592 0.16290 -0.96483 122 123 155
0.05495 0.15972 -0.96523 166 156 171
0.07012 0.16154 -0.98063 221 219 201
0.07960 0.15858 -0.98182 226 217 195
0.08819 0.15485 -0.98073 203 187 181
0.09873 0.15264 -0.98428 161 104 121
0.11841 0.15751 -1.00942 140 39 64
0.12672 0.15335 -1.00723 131 27 48
0.14395 0.14541 -1.00411 107 22 33
0.15555 0.14906 -0.99655 104 20 37
0.15653 0.14436 -1.01162 101 15 29
0.16820 0.14803 -1.00401 97 20 29
0.16808 0.14245 -1.01655 104 25 21
0.17979 0.14613 -1.00891 92 20 28
0.18072 0.14124 -1.02377 119 46 28
0.19248 0.14494 -1.01610 74 19 30
0.19395 0.14037 -1.03213 106 47 26
0.20443 0.13744 -1.03415 70 32 23
0.21944 0.13763 -1.04606 76 52 48
0.23381 0.13723 -1.05630 99 92 85
0.24213 0.13259 -1.05313 84 80 83
0.24490 0.11825 -1.05055 81 57 62
0.25386 0.13024 -1.05728 63 53 65
0.25664 0.11585 -1.05470 72 61 70
0.44570 0.00090 -0.93820 56 60 75
0.44292 0.01536 -0.94080 40 51 67
0.43825 0.00623 -0.94345 51 51 62
0.46186 -0.00914 -0.92992 52 59 79
0.46465 -0.02361 -0.92732 52 47 60
0.47114 -0.01361 -0.92784 49 51 79
0.47393 -0.02810 -0.92524 51 52 55
0.48004 -0.01828 -0.92506 52 61 83
0.48805 -0.02337 -0.92072 58 68 81
0.49084 -0.03788 -0.91811 54 48 48
0.49599 -0.02850 -0.91625 45 48 65
0.52125 -0.04330 -0.90517 55 40 64
0.51656 -0.05248 -0.90783 55 51 66
0.52690 -0.04944 -0.89685 51 35 53
0.53714 -0.05362 -0.89611 50 38 40
0.54622 -0.05831 -0.89343 48 45 59
0.56933 -0.07416 -0.87853 61 53 61
0.57684 -0.07953 -0.87324 46 45 59
0.58174 -0.08592 -0.86384 53 51 70
0.58309 -0.09366 -0.84892 81 72 98
0.59686 -0.09658 -0.85348 56 53 73
0.60887 -0.10840 -0.83835 59 63 70
0.60992 -0.11611 -0.82327 81 84 95
0.61696 -0.12159 -0.81740 63 49 52
0.61975 -0.13604 -0.81480 65 67 90
0.62141 -0.12799 -0.80764 55 46 67
0.63333 -0.14749 -0.77663 63 56 54
0.62132 -0.15126 -0.78446 44 41 56
0.64036 -0.15289 -0.77090 68 68 60
0.64312 -0.16722 -0.76832 70 71 66
0.64771 -0.15818 -0.76564 66 59 55
0.66425 -0.16816 -0.75778 58 65 46
0.66269 -0.17630 -0.73982 78 86 72
0.66544 -0.19057 -0.73725 43 39 47
0.67127 -0.18117 -0.73637 68 78 67
0.68773 -0.18362 -0.74398 49 49 41
0.69631 -0.18854 -0.74042 38 34 44
0.69908 -0.20291 -0.73784 42 48 49
0.70518 -0.19340 -0.73723 32 37 59
0.70795 -0.20778 -0.73465 50 53 57
0.71611 -0.19765 -0.73687 39 43 60
0.71889 -0.21206 -0.73428 54 54 64
0.74491 -0.22648 -0.69960 55 64 54
0.73289 -0.23026 -0.70743 48 52 53
0.74029 -0.23554 -0.70223 54 59 61
0.74768 -0.24082 -0.69702 58 62 66
0.74793 -0.23294 -0.68860 64 74 66
0.75068 -0.24725 -0.68603 56 60 65
0.75355 -0.23868 -0.68111 69 70 71
0.75631 -0.25297 -0.67854 51 54 60
0.78724 -0.26577 -0.65118 57 64 71
0.79761 -0.27029 -0.64982 60 66 79
0.83948 -0.28854 -0.64438 55 55 50
0.82742 -0.29233 -0.65224 61 66 69
0.84887 -0.29340 -0.64159 48 46 31
0.84752 -0.30062 -0.62567 69 75 56
0.86110 -0.30457 -0.62797 65 50 53
0.85844 -0.31200 -0.61063 45 40 41
0.86120 -0.32630 -0.60806 56 48 51
0.86043 -0.31838 -0.59900 47 45 51
0.87865 -0.34155 -0.56527 45 44 44
0.88911 -0.34618 -0.56378 54 50 55
0.93553 -0.37714 -0.53565 33 29 49
0.94145 -0.38261 -0.52893 59 63 100
0.97715 -0.38326 -0.55502 159 174 199
0.99065 -0.38761 -0.55642 238 248 241
0.99329 -0.39368 -0.54594 243 227 197
1.01480 -0.39686 -0.55592 175 125 90
1.01872 -0.40274 -0.54680 56 17 18
1.02714 -0.40795 -0.54254 41 35 42
1.02993 -0.42246 -0.53993 45 41 45
1.02908 -0.41408 -0.53140 38 43 51
1.02855 -0.42052 -0.51773 46 72 81
1.04953 -0.42399 -0.52670 86 103 157
1.06211 -0.42866 -0.52674 79 69 119
1.06492 -0.44321 -0.52413 36 33 29
1.04190 -0.43761 -0.49278 48 38 37
1.04467 -0.45196 -0.49020 40 33 27
1.06240 -0.46593 -0.45019 158 151 160
1.06804 -0.47136 -0.44334 234 244 239
1.07079 -0.48558 -0.44078 253 254 253
1.33806 -0.64359 -0.29594 253 253 249
1.32600 -0.64738 -0.30381 254 254 254
1.33342 -0.65268 -0.29858 254 254 253
1.33207 -0.65998 -0.25757 251 250 241
1.32455 -0.66544 -0.24055 253 253 244
1.32466 -0.67599 -0.21888 233 214 166
1.32685 -0.68121 -0.20982 223 215 182
-0.37666 0.34316 -1.03323 254 253 247
-0.38711 0.33988 -1.04004 254 254 254
-0.38068 0.33528 -1.03551 254 254 254
-0.37425 0.33068 -1.03098 254 254 252
-0.36986 0.33919 -1.03028 254 249 218
-0.36745 0.32671 -1.02804 254 253 250
-0.36372 0.33409 -1.02448 254 239 181
-0.35387 0.33518 -1.03440 254 220 160
-0.34424 0.33572 -1.04302 252 183 89
-0.33367 0.33904 -1.03614 253 133 21
-0.33774 0.33107 -1.03845 252 150 6
-0.31805 0.34738 -1.08760 246 127 14
-0.31070 0.34375 -1.08580 219 120 45
-0.29500 0.35298 -1.11717 190 140 109
-0.28200 0.35770 -1.13708 182 141 128
-0.27005 0.36059 -1.15240 169 108 96
-0.26749 0.34732 -1.15001 141 52 37
-0.25914 0.36171 -1.16321 155 75 51
-0.25657 0.34836 -1.16081 134 47 40
-0.25632 0.35088 -1.14294 142 56 49
-0.23694 0.36400 -1.18525 152 74 104
-0.23433 0.35050 -1.18283 149 85 124
-0.19725 0.39005 -1.27018 208 177 241
-0.18883 0.38659 -1.26956 203 193 235
-0.18057 0.38287 -1.26829 217 207 238
-0.17306 0.37810 -1.26425 229 207 210
-0.16790 0.37022 -1.25190 160 119 118
-0.14872 0.38069 -1.28856 64 25 29
-0.11224 0.20064 -0.94340 112 21 46
-0.12302 0.19725 -0.95043 111 36 44
-0.11639 0.19251 -0.94576 118 31 40
-0.10269 0.19889 -0.94720 114 53 81
-0.10020 0.18597 -0.94488 125 88 110
-0.08681 0.20348 -0.96909 162 149 168
-0.07741 0.20135 -0.97201 195 194 204
-0.04208 0.17875 -0.95261 210 207 209
-0.05306 0.17529 -0.95977 210 206 215
-0.04630 0.17046 -0.95501 211 208 215
-0.03955 0.16563 -0.95025 212 209 216
-0.03502 0.17419 -0.94865 216 210 214
-0.02660 0.17088 -0.94835 225 221 227
-0.02406 0.15774 -0.94599 233 231 234
-0.01929 0.16653 -0.94500 235 230 223
-0.00255 0.17058 -0.96644 198 182 160
0.00618 0.16735 -0.96654 137 105 83
0.01512 0.16426 -0.96709 128 123 131
0.02204 0.15938 -0.96236 122 106 134
0.03604 0.16052 -0.97562 173 165 150
0.05020 0.16164 -0.98897 218 215 201
0.05781 0.15718 -0.98563 240 240 225
0.06505 0.15241 -0.98139 243 243 235
0.07508 0.14989 -0.98395 215 198 197
0.08761 0.14930 -0.99248 170 109 127
0.10275 0.15065 -1.00708 150 50 68
0.11326 0.14824 -1.01027 140 28 47
0.12304 0.14521 -1.01160 127 22 41
0.12970 0.13977 -1.00549 115 19 36
0.14050 0.13743 -1.00904 114 34 39
0.15373 0.13682 -1.01808 140 58 63
0.16320 0.13334 -1.01824 166 108 82
0.19513 0.14603 -1.06942 191 154 109
0.20100 0.13971 -1.06089 193 164 109
0.20634 0.13305 -1.05122 168 136 83
0.21852 0.13118 -1.05683 140 113 76
0.22995 0.12871 -1.06060 111 98 80
0.24082 0.12578 -1.06298 86 65 69
0.35113 0.10451 -1.10475 38 47 69
0.34826 0.11938 -1.10742 46 56 75
0.34347 0.10999 -1.11014 47 56 72
0.35592 0.11390 -1.10202 38 49 73
0.36358 0.10842 -1.09663 29 43 72
0.35399 0.08964 -1.10207 31 37 51
0.41821 -0.00154 -0.93694 58 62 74
0.41081 0.00375 -0.94216 64 68 71
0.42285 0.00754 -0.93431 51 51 65
0.42099 -0.01592 -0.93436 50 42 50
0.42669 -0.00631 -0.93365 52 45 62
0.43357 -0.01187 -0.92747 53 52 68
0.43634 -0.02625 -0.92488 51 47 54
0.44186 -0.01674 -0.92382 53 59 79
0.44463 -0.03113 -0.92123 53 51 61
0.45110 -0.02118 -0.92181 52 51 67
0.48097 -0.03363 -0.91924 55 53 59
0.47630 -0.04278 -0.92189 53 53 55
0.49711 -0.04376 -0.91079 63 52 58
0.50494 -0.04893 -0.90615 67 56 60
0.51357 -0.06231 -0.88511 58 65 67
0.51635 -0.07675 -0.88251 69 90 82
0.52377 -0.06647 -0.88443 70 75 65
0.53373 -0.07075 -0.88330 59 57 51
0.54967 -0.08102 -0.87441 81 83 42
0.55799 -0.08602 -0.87052 85 81 45
0.56079 -0.10052 -0.86791 52 59 70
0.56244 -0.09255 -0.86042 41 35 63
0.56773 -0.09872 -0.85173 44 42 64
0.58038 -0.10206 -0.85467 70 71 65
0.58287 -0.10928 -0.84162 61 58 71
0.58840 -0.11533 -0.83339 62 60 65
0.59497 -0.12097 -0.82680 62 61 78
0.59975 -0.12724 -0.81749 53 37 50
0.60253 -0.14165 -0.81490 48 42 41
0.60144 -0.13460 -0.80354 58 52 44
0.61093 -0.14702 -0.78516 47 51 64
0.61735 -0.16038 -0.76245 52 46 59
0.61276 -0.16937 -0.76506 52 44 38
0.62453 -0.16568 -0.75704 58 57 68
0.63997 -0.17591 -0.74784 65 57 58
0.63538 -0.18490 -0.75044 62 67 57
0.65002 -0.18029 -0.74657 53 44 51
0.65982 -0.18477 -0.74491 50 41 44
0.67328 -0.19568 -0.73275 42 38 46
0.68183 -0.20058 -0.72925 42 41 44
0.75860 -0.25952 -0.66674 45 51 66
0.76354 -0.26537 -0.65845 54 66 74
0.76628 -0.27960 -0.65589 59 44 75
0.76888 -0.27110 -0.65072 59 69 81
0.76430 -0.27920 -0.63034 42 38 45
0.77935 -0.28256 -0.63509 49 51 63
0.78878 -0.28729 -0.63263 59 62 72
0.80155 -0.29126 -0.63431 62 65 81
0.82297 -0.30026 -0.63232 61 63 54
0.82913 -0.30579 -0.62565 43 50 52
0.83697 -0.31095 -0.62105 71 93 91
0.84760 -0.31552 -0.61984 83 85 75
0.84014 -0.32386 -0.59673 66 54 40
0.85155 -0.33496 -0.58259 52 52 56
0.85889 -0.34018 -0.57748 57 52 56
0.86369 -0.34588 -0.56938 53 46 44
0.87437 -0.35045 -0.56821 46 41 34
0.88249 -0.35553 -0.56400 60 61 44
0.88974 -0.36076 -0.55879 68 62 49
0.89656 -0.36607 -0.55307 56 41 40
0.90578 -0.37097 -0.55011 48 32 35
0.91767 -0.36723 -0.54235 40 41 46
0.91275 -0.37625 -0.54457 51 39 37
0.91957 -0.38156 -0.53885 59 51 45
0.92508 -0.38709 -0.53169 56 49 47
0.93175 -0.39241 -0.52584 43 42 58
0.94759 -0.39629 -0.53012 98 106 133
0.97871 -0.39787 -0.55108 218 230 229
0.98614 -0.40317 -0.54585 250 237 217
0.98803 -0.40930 -0.53462 197 149 116
1.01238 -0.41215 -0.54767 72 23 15
1.01518 -0.42664 -0.54507 53 36 34
1.01919 -0.41758 -0.54170 48 36 37
1.02198 -0.43207 -0.53910 49 44 46
1.02419 -0.42959 -0.52068 33 40 42
1.02697 -0.44401 -0.51808 45 42 30
1.02987 -0.43513 -0.51360 28 39 56
1.03265 -0.44953 -0.51101 45 40 40
1.04500 -0.46421 -0.46503 61 53 50
1.05131 -0.46958 -0.45882 76 71 61
1.05944 -0.47474 -0.45444 171 159 167
1.06225 -0.48047 -0.44473 237 244 239
1.06499 -0.49469 -0.44218 253 254 254
1.32654 -0.65824 -0.28169 253 250 243
1.31455 -0.66201 -0.28950 254 254 254
1.32192 -0.66728 -0.28431 254 254 251
1.32850 -0.66360 -0.27211 249 240 224
1.32187 -0.66904 -0.25565 248 238 223
1.32461 -0.68323 -0.25310 251 247 234
1.31541 -0.67441 -0.23947 252 253 241
1.31813 -0.68852 -0.23693 254 254 247
1.30760 -0.68495 -0.21154 251 243 201
1.30265 -0.69014 -0.19690 235 216 154
1.31060 -0.69526 -0.19248 230 224 198
1.31517 -0.70038 -0.18541 247 251 254
1.32680 -0.69672 -0.17783 254 254 254
1.32232 -0.70549 -0.18037 254 254 254
-0.35709 0.32862 -1.04022 254 252 243
-0.36761 0.32531 -1.04708 254 254 254
-0.36114 0.32068 -1.04252 254 254 251
-0.34906 0.32652 -1.04216 254 248 213
-0.34386 0.31980 -1.03223 254 233 171
-0.33117 0.32502 -1.05315 240 176 103
-0.31568 0.33432 -1.08481 197 112 48
-0.30569 0.33476 -1.09362 167 111 97
-0.29528 0.33568 -1.10374 154 84 73
-0.27842 0.34608 -1.13880 148 58 32
-0.25318 0.33844 -1.14276 126 43 60
-0.25062 0.32516 -1.14037 141 83 90
-0.20691 0.37405 -1.25368 198 169 206
-0.19329 0.37782 -1.27231 224 206 237
-0.18509 0.37402 -1.27085 227 212 243
-0.17758 0.36925 -1.26681 214 204 233
-0.16828 0.36684 -1.26910 184 162 182
-0.16557 0.35279 -1.26658 149 117 136
-0.14999 0.37602 -1.30272 110 67 85
-0.10760 0.18996 -0.94739 109 23 44
-0.11841 0.18657 -0.95443 123 34 41
-0.11176 0.18181 -0.94975 121 29 40
-0.08107 0.19364 -0.97602 176 169 184
-0.07228 0.19082 -0.97704 201 197 206
-0.06129 0.19427 -0.96987 205 201 209
-0.06552 0.18598 -0.97227 207 203 210
-0.02805 0.16512 -0.95827 222 220 226
-0.03230 0.15680 -0.96068 223 221 226
-0.02551 0.15194 -0.95590 231 230 232
-0.01134 0.15819 -0.95697 227 221 213
0.00632 0.16282 -0.98058 157 135 136
0.00738 0.15286 -0.96060 129 102 89
0.02360 0.15597 -0.97990 153 129 147
0.03948 0.15859 -0.99790 209 205 206
0.04767 0.15462 -0.99608 241 245 241
0.05344 0.14863 -0.98811 234 236 238
0.06210 0.14501 -0.98739 206 187 202
0.07853 0.14759 -1.00575 164 103 120
0.08998 0.14604 -1.01154 154 46 63
0.09907 0.14255 -1.01143 152 35 41
0.11054 0.14087 -1.01697 140 31 32
0.11744 0.13561 -1.01142 139 39 44
0.12501 0.13085 -1.00746 154 73 73
0.14175 0.13292 -1.02498 175 130 125
0.15571 0.13276 -1.03567 219 183 186
0.16410 0.12844 -1.03327 249 233 216
0.16681 0.11440 -1.03074 254 254 254
0.17932 0.12899 -1.04642 254 252 225
0.18204 0.11485 -1.04388 254 254 254
0.19135 0.12713 -1.05204 254 252 223
0.20566 0.12680 -1.06264 251 244 205
0.21961 0.12608 -1.07216 215 199 150
0.21712 0.11406 -1.04507 150 131 95
0.23547 0.11622 -1.06406 111 66 54
0.24410 0.11174 -1.06152 107 56 48
0.25152 0.10644 -1.05629 88 62 68
0.33320 0.09727 -1.10159 49 57 69
0.33035 0.11207 -1.10426 53 61 77
0.32557 0.10272 -1.10697 56 63 76
0.34269 0.09293 -1.10002 39 46 61
0.34555 0.07811 -1.09736 40 40 44
0.35354 0.06958 -1.05978 36 37 63
0.35071 0.08427 -1.06242 23 37 61
0.34597 0.07499 -1.06511 31 36 51
0.35828 0.07886 -1.05709 21 37 60
0.36585 0.07345 -1.05176 23 36 61
0.35407 0.06015 -1.04051 40 39 68
0.36632 0.06400 -1.03253 27 35 58
0.35510 0.05110 -1.02241 42 41 63
0.36729 0.05493 -1.01447 32 38 54
0.36260 0.04575 -1.01713 42 43 54
0.35791 0.03656 -1.01980 49 51 44
0.40090 -0.00797 -0.93510 49 57 58
0.39814 0.00635 -0.93768 51 51 64
0.39352 -0.00270 -0.94030 40 47 58
0.38890 -0.01174 -0.94292 45 45 50
0.40709 -0.01384 -0.92774 50 52 58
0.42201 -0.02429 -0.91766 55 46 52
0.45118 -0.03683 -0.91449 60 58 64
0.43914 -0.04062 -0.92234 57 54 58
0.46113 -0.04097 -0.91370 58 63 63
0.47662 -0.05129 -0.90434 57 58 62
0.47829 -0.05913 -0.88929 89 93 101
0.48442 -0.06497 -0.88192 80 83 91
0.49527 -0.06877 -0.88255 49 52 65
0.49804 -0.08315 -0.87996 54 55 67
0.50227 -0.07424 -0.87664 51 60 76
0.51970 -0.08375 -0.87052 62 67 50
0.51506 -0.09285 -0.87316 54 58 68
0.52248 -0.09815 -0.86793 60 63 105
0.52627 -0.08940 -0.86391 54 55 55
0.55307 -0.11170 -0.83847 50 62 69
0.55897 -0.11756 -0.83088 36 38 29
0.56539 -0.12320 -0.82414 36 35 58
0.57377 -0.12812 -0.82048 70 69 69
0.58139 -0.13332 -0.81563 69 64 75
0.58564 -0.13973 -0.80558 55 40 48
0.58840 -0.15406 -0.80300 44 40 49
0.58823 -0.15452 -0.77673 51 42 61
0.59162 -0.16111 -0.76564 48 44 60
0.59247 -0.16851 -0.75084 56 45 51
0.60658 -0.17905 -0.73994 49 51 54
0.60203 -0.18797 -0.74253 51 48 57
0.61676 -0.18331 -0.73909 55 59 61
0.63551 -0.19241 -0.73485 54 56 57
0.64431 -0.19717 -0.73185 55 62 64
0.64962 -0.20301 -0.72385 76 87 90
0.65710 -0.20818 -0.71896 85 89 91
0.67106 -0.21143 -0.72318 65 61 62
0.67380 -0.22566 -0.72062 44 41 47
0.68180 -0.21568 -0.72278 46 44 47
0.68915 -0.22093 -0.71760 45 48 51
0.68455 -0.22994 -0.72021 45 44 45
0.73755 -0.26557 -0.66252 54 55 58
0.73025 -0.26035 -0.66766 61 60 67
0.72568 -0.26931 -0.67026 68 65 82
0.74146 -0.27164 -0.65292 34 41 43
0.74511 -0.27774 -0.64305 40 35 43
0.75809 -0.28851 -0.63078 52 38 52
0.76889 -0.29289 -0.63017 45 47 57
0.77699 -0.29790 -0.62609 55 62 80
0.79629 -0.30041 -0.63608 63 83 106
0.79699 -0.30712 -0.62261 57 64 73
0.79973 -0.32130 -0.62006 44 43 31
0.80814 -0.31151 -0.62223 62 57 55
0.81481 -0.31688 -0.61628 56 52 56
0.82054 -0.32245 -0.60917 58 70 73
0.82226 -0.32883 -0.59718 79 94 84
0.83625 -0.33269 -0.60016 60 66 55
0.83704 -0.33922 -0.58715 47 42 54
0.84437 -0.34442 -0.58206 42 40 36
0.85326 -0.34933 -0.57882 51 34 30
0.85915 -0.35481 -0.57200 54 28 26
0.86650 -0.36002 -0.56694 52 31 24
0.88990 -0.38185 -0.53977 101 95 88
0.89736 -0.38702 -0.53487 108 112 103
0.90463 -0.39222 -0.52975 114 123 109
0.90558 -0.39843 -0.51752 103 108 88
0.92338 -0.40196 -0.52419 59 56 58
0.91755 -0.40918 -0.50451 87 81 100
0.96450 -0.40840 -0.54318 211 212 208
0.97737 -0.41288 -0.54398 252 243 221
0.98340 -0.41837 -0.53725 210 170 124
1.00828 -0.42122 -0.55095 95 45 21
1.02748 -0.46861 -0.46707 53 47 56
1.02581 -0.47485 -0.45271 70 63 53
1.04110 -0.47919 -0.45571 80 64 50
1.05044 -0.48421 -0.45260 190 181 155
1.05499 -0.48973 -0.44465 245 247 243
1.05773 -0.50393 -0.44210 254 254 254
1.31624 -0.67270 -0.26849 253 250 241
1.30432 -0.67645 -0.27626 254 254 254
1.31165 -0.68169 -0.27110 254 254 252
1.29754 -0.69892 -0.19895 251 244 204
1.29918 -0.70402 -0.18958 237 221 180
1.28850 -0.70905 -0.17065 238 231 228
-0.35130 0.32153 -1.05217 254 250 232
-0.36189 0.31820 -1.05907 254 254 253
-0.34559 0.31560 -1.04427 253 222 174
-0.32764 0.32907 -1.08697 232 144 87
-0.31691 0.33076 -1.09912 175 76 30
-0.30529 0.33362 -1.11444 156 60 27
-0.28795 0.34492 -1.15210 155 35 18
-0.28260 0.33786 -1.14152 145 36 14
-0.27560 0.33329 -1.13749 135 47 28
-0.26824 0.32924 -1.13485 130 48 25
-0.25951 0.32712 -1.13738 125 48 30
-0.21217 0.36419 -1.25327 187 175 199
-0.21664 0.35543 -1.25581 156 144 158
-0.19819 0.36845 -1.27343 191 190 229
-0.19162 0.36245 -1.26608 181 169 201
-0.18486 0.35672 -1.25940 175 160 192
-0.18217 0.34275 -1.25689 154 137 153
-0.17267 0.35814 -1.27216 174 155 176
-0.10065 0.18155 -0.95809 105 32 59
-0.11151 0.17813 -0.96517 125 30 49
-0.08522 0.18543 -0.97860 144 119 145
-0.07498 0.18403 -0.98384 192 188 199
-0.06772 0.17965 -0.98044 208 206 211
-0.05670 0.18312 -0.97325 209 205 213
-0.06094 0.17481 -0.97566 210 207 213
-0.06518 0.16649 -0.97807 206 204 212
-0.01133 0.15361 -0.97073 234 230 231
-0.02246 0.15011 -0.97799 227 225 230
-0.01562 0.14522 -0.97317 229 227 234
0.00560 0.15751 -0.99250 212 198 198
0.01203 0.15215 -0.98637 211 190 156
0.02466 0.15207 -0.99630 233 226 211
0.03544 0.15031 -1.00122 238 239 241
0.04305 0.14585 -0.99792 218 219 230
0.04621 0.13774 -0.98337 187 151 182
0.06009 0.13836 -0.99578 152 72 115
0.07866 0.14257 -1.01951 148 39 66
0.09335 0.13286 -1.01082 175 53 60
0.10054 0.12789 -1.00611 177 92 77
0.12288 0.13438 -1.03765 198 147 143
0.11551 0.11836 -0.99802 234 215 200
0.11816 0.10460 -0.99555 254 254 254
0.13035 0.11902 -1.01129 251 248 229
0.13303 0.10516 -1.00880 254 254 254
0.14223 0.11737 -1.01733 254 254 248
0.14491 0.10346 -1.01483 254 254 254
0.15957 0.11957 -1.03584 254 254 254
0.16228 0.10553 -1.03331 254 254 254
0.20010 0.11711 -1.06309 254 254 250
0.18815 0.11335 -1.07088 254 254 254
0.19550 0.10810 -1.06570 254 254 254
0.20285 0.10285 -1.06052 254 254 254
0.20971 0.11341 -1.06298 254 249 234
0.21521 0.10688 -1.05364 226 222 197
0.21935 0.09947 -1.04135 191 146 107
0.24068 0.10345 -1.06680 151 82 39
0.25899 0.09508 -1.06383 71 58 54
0.27109 0.09888 -1.05594 60 65 79
0.27197 0.09327 -1.07041 60 61 71
0.28412 0.09709 -1.06249 59 67 78
0.28476 0.09126 -1.07640 59 64 75
0.29696 0.09509 -1.06845 58 65 78
0.29968 0.09048 -1.08670 59 64 72
0.31592 0.09039 -1.09951 56 61 68
0.32421 0.08537 -1.09558 48 55 60
0.32705 0.07062 -1.09292 40 40 46
0.33209 0.08010 -1.09079 41 45 52
0.34058 0.06533 -1.06650 46 42 52
0.34341 0.05065 -1.06386 56 56 71
0.34358 0.05730 -1.05200 53 48 70
0.34640 0.04267 -1.04937 55 63 75
0.34362 0.04767 -1.03175 57 60 79
0.34732 0.04019 -1.01896 57 62 65
0.36095 0.01943 -0.98618 54 57 67
0.35817 0.03385 -0.98877 44 47 56
0.35352 0.02474 -0.99141 48 49 51
0.35630 0.01032 -0.98882 54 61 68
0.37303 0.02323 -0.97830 53 54 68
0.36838 0.01412 -0.98095 54 56 72
0.39192 -0.01919 -0.92967 50 46 43
0.39691 -0.02560 -0.92016 51 49 47
0.40357 -0.03118 -0.91375 63 62 63
0.40961 -0.03705 -0.90623 85 76 81
0.42050 -0.04061 -0.90745 66 57 64
0.44118 -0.04838 -0.90765 69 73 73
0.45055 -0.05276 -0.90592 70 77 73
0.45331 -0.06710 -0.90335 64 65 60
0.45682 -0.05854 -0.89878 56 56 44
0.45959 -0.07287 -0.89620 68 74 66
0.46289 -0.06440 -0.89129 53 55 52
0.46861 -0.07040 -0.88325 79 84 89
0.48130 -0.07338 -0.88712 76 71 97
0.48407 -0.08774 -0.88454 57 62 64
0.51922 -0.10767 -0.84528 50 54 68
0.50724 -0.11144 -0.85309 43 45 84
0.52713 -0.11273 -0.84098 37 43 30
0.53146 -0.11916 -0.83090 44 49 57
0.53853 -0.12453 -0.82526 51 44 56
0.54199 -0.13124 -0.81390 40 30 28
0.54936 -0.13647 -0.80878 36 33 53
0.55210 -0.15070 -0.80622 38 39 39
0.55561 -0.14210 -0.80192 39 39 56
0.56507 -0.14658 -0.80008 54 50 65
0.56945 -0.15287 -0.79034 54 49 69
0.57026 -0.16809 -0.75895 47 42 60
0.57002 -0.17582 -0.74250 72 83 112
0.57438 -0.18194 -0.73309 79 90 109
0.57708 -0.19594 -0.73058 53 53 65
0.58022 -0.18754 -0.72598 57 57 59
0.60315 -0.19513 -0.72835 57 53 65
0.59861 -0.20401 -0.73092 56 49 61
0.61421 -0.19911 -0.72883 63 69 73
0.62287 -0.20387 -0.72574 66 71 82
0.63264 -0.20830 -0.72422 65 62 92
0.63904 -0.21377 -0.71784 57 62 96
0.65019 -0.21782 -0.71823 46 48 74
0.66026 -0.22223 -0.71701 42 36 53
0.66299 -0.23640 -0.71446 47 46 53
0.69638 -0.25560 -0.67567 50 51 57
0.69366 -0.24149 -0.67820 40 44 47
0.68911 -0.25040 -0.68079 43 42 51
0.70093 -0.24669 -0.67308 48 51 55
0.70821 -0.25189 -0.66796 56 57 61
0.69910 -0.26971 -0.67313 60 65 61
0.70161 -0.26133 -0.66778 60 62 64
0.71341 -0.25762 -0.66008 60 58 68
0.70887 -0.26653 -0.66266 64 65 74
0.72636 -0.27617 -0.65635 67 62 81
0.73396 -0.28129 -0.65166 49 48 54
0.73771 -0.28734 -0.64192 45 45 53
0.74194 -0.29325 -0.63288 72 79 80
0.75213 -0.30460 -0.61714 36 37 58
0.76398 -0.30873 -0.61792 38 37 62
0.77559 -0.31295 -0.61833 42 46 67
0.78763 -0.31712 -0.61919 38 44 54
0.80103 -0.32778 -0.60747 52 46 45
0.80367 -0.33394 -0.59662 43 29 38
0.81046 -0.33923 -0.59091 44 27 32
0.82120 -0.35035 -0.57611 55 41 50
0.82391 -0.36441 -0.57358 167 191 170
0.83107 -0.35503 -0.57416 68 64 71
0.82482 -0.36274 -0.55292 98 83 86
0.82689 -0.36883 -0.54177 123 112 103
0.84348 -0.37227 -0.54779 140 140 126
0.85749 -0.37624 -0.55065 148 160 134
0.86020 -0.39030 -0.54812 53 52 77
0.88553 -0.39074 -0.54257 117 123 116
0.89039 -0.39633 -0.53468 100 93 108
0.89613 -0.40176 -0.52784 82 65 96
0.90485 -0.40672 -0.52439 63 48 63
0.90637 -0.41279 -0.51283 35 28 40
0.90841 -0.41874 -0.50194 75 74 93
0.94269 -0.41996 -0.52680 204 203 203
0.94543 -0.43417 -0.52424 251 252 241
0.95579 -0.42437 -0.52798 251 247 234
0.97144 -0.42847 -0.53188 223 191 163
0.98067 -0.43349 -0.52870 124 66 61
1.00316 -0.43677 -0.53980 63 32 38
1.00750 -0.44249 -0.53123 57 52 54
1.01935 -0.47798 -0.46601 62 56 50
1.02130 -0.48378 -0.45536 57 37 46
1.03257 -0.48857 -0.45428 118 79 77
1.06026 -0.49172 -0.46982 219 214 195
1.06302 -0.50604 -0.46725 254 254 253
1.04475 -0.49926 -0.44154 251 251 249
1.04748 -0.51342 -0.43900 254 254 254
1.29415 -0.70770 -0.20236 253 252 244
1.28250 -0.71136 -0.20995 250 246 233
1.28113 -0.71270 -0.18142 248 239 218
1.26596 -0.72254 -0.14856 242 245 244
-0.35494 0.31426 -1.05635 253 250 246
-0.35008 0.30696 -1.04482 252 233 215
-0.33694 0.31280 -1.06785 225 154 135
-0.32348 0.31884 -1.09157 175 52 66
-0.31647 0.31467 -1.08842 198 113 89
-0.31399 0.30179 -1.08610 229 136 65
-0.30731 0.31375 -1.09390 203 131 78
-0.30481 0.30082 -1.09157 217 109 21
-0.27902 0.32618 -1.14320 142 31 9
-0.27163 0.32215 -1.14066 129 33 11
-0.26377 0.31878 -1.13987 117 41 23
-0.24688 0.32804 -1.17322 126 75 71
-0.20970 0.35005 -1.25003 160 153 187
-0.19939 0.34923 -1.25665 156 141 168
-0.19580 0.33935 -1.23861 154 134 155
-0.17649 0.33566 -1.24645 152 133 143
-0.18098 0.32686 -1.24900 144 126 137
-0.16438 0.33681 -1.25872 121 89 86
-0.10283 0.17535 -0.96631 119 24 50
-0.11373 0.17192 -0.97341 122 32 46
-0.10703 0.16714 -0.96869 123 28 47
-0.09477 0.17191 -0.96556 117 53 77
-0.07911 0.17583 -0.98658 167 156 177
-0.06921 0.17399 -0.99070 199 199 213
-0.00237 0.14587 -0.98530 232 231 230
0.00860 0.14444 -0.99116 234 234 225
0.02118 0.14428 -1.00103 223 223 228
0.02885 0.13991 -0.99798 192 178 198
0.03860 0.13723 -1.00020 156 113 153
0.05318 0.13842 -1.01454 140 47 79
0.06551 0.13764 -1.02291 157 39 51
0.07005 0.13058 -1.01162 178 65 75
0.07354 0.12276 -0.99786 193 116 140
0.08802 0.12349 -1.01114 229 166 190
0.09618 0.11925 -1.00879 250 228 210
0.09883 0.10550 -1.00632 254 254 254
0.10428 0.11495 -1.00624 254 252 235
0.10693 0.10119 -1.00376 254 254 254
0.11404 0.11187 -1.00761 254 254 250
0.11670 0.09807 -1.00513 254 254 254
0.19975 0.09058 -1.03199 254 253 247
0.18790 0.08685 -1.03971 254 254 254
0.19519 0.08164 -1.03458 254 254 254
0.19844 0.07967 -1.00780 254 241 204
0.21145 0.07828 -1.01540 217 185 116
0.23530 0.08379 -1.04645 169 139 69
0.25003 0.08321 -1.05715 118 90 41
0.26759 0.08430 -1.07370 71 51 43
0.27906 0.08144 -1.07695 55 49 60
0.29025 0.07834 -1.07944 52 48 58
0.30213 0.07561 -1.08329 49 45 48
0.31418 0.07290 -1.08733 41 39 40
0.32702 0.06073 -1.07193 48 46 54
0.32985 0.04606 -1.06930 59 56 73
0.33122 0.05340 -1.05980 57 52 64
0.33404 0.03876 -1.05717 55 53 69
0.33718 0.02801 -1.01080 58 62 62
0.32508 0.02420 -1.01869 51 53 67
0.33252 0.01888 -1.01345 58 58 62
0.34131 0.02087 -0.99902 54 51 43
0.34409 0.00645 -0.99642 55 56 60
0.34615 0.01416 -0.98872 51 52 52
0.35744 0.00171 -0.97149 55 61 70
0.36946 0.00549 -0.96365 52 54 70
0.36443 -0.00378 -0.96551 55 50 63
0.37645 -0.00000 -0.95768 55 53 65
0.37183 -0.00906 -0.96030 54 43 63
0.37434 -0.01681 -0.94592 53 49 64
0.37895 -0.00778 -0.94330 49 47 59
0.37822 -0.02381 -0.93423 59 59 63
0.38097 -0.03807 -0.93167 73 83 88
0.38280 -0.03042 -0.92393 65 72 68
0.38776 -0.03681 -0.91440 56 61 68
0.39492 -0.04212 -0.90894 59 59 76
0.39808 -0.04932 -0.89625 86 88 99
0.41036 -0.05221 -0.90009 77 69 73
0.41310 -0.06641 -0.89753 67 73 90
0.42052 -0.05613 -0.90000 62 51 50
0.42852 -0.06108 -0.89601 62 58 67
0.43848 -0.06515 -0.89546 60 65 70
0.45581 -0.08295 -0.87176 47 49 65
0.46262 -0.08841 -0.86571 47 40 76
0.46536 -0.10263 -0.86315 43 51 57
0.50691 -0.11971 -0.83528 50 45 74
0.49500 -0.12345 -0.84305 44 47 62
0.50232 -0.12869 -0.83789 69 73 64
0.51437 -0.12490 -0.83033 48 42 43
0.51914 -0.13111 -0.82104 43 42 49
0.52517 -0.13682 -0.81382 52 54 59
0.53120 -0.14252 -0.80663 55 67 65
0.53661 -0.14843 -0.79848 46 57 51
0.53933 -0.16258 -0.79593 49 39 44
0.54798 -0.15999 -0.78318 59 52 54
0.54342 -0.16892 -0.78577 46 43 49
0.55174 -0.16643 -0.77259 60 58 58
0.55445 -0.18052 -0.77006 46 46 49
0.55087 -0.17441 -0.75497 42 42 35
0.55358 -0.18843 -0.75245 47 51 65
0.55449 -0.18079 -0.74436 43 42 53
0.55717 -0.18746 -0.73241 53 50 71
0.56002 -0.19402 -0.72082 53 56 77
0.57759 -0.20323 -0.71553 59 57 64
0.57309 -0.21203 -0.71808 65 73 78
0.59983 -0.21106 -0.71697 46 42 60
0.61501 -0.21379 -0.72350 72 74 85
0.62575 -0.21792 -0.72343 99 93 102
0.62847 -0.23203 -0.72090 57 51 70
0.63219 -0.22336 -0.71713 86 83 78
0.63860 -0.22881 -0.71079 63 59 57
0.64946 -0.23297 -0.71077 52 46 54
0.66662 -0.24265 -0.70417 49 47 56
0.67848 -0.23892 -0.69645 43 42 48
0.67220 -0.24832 -0.69666 54 49 58
0.68404 -0.24460 -0.68894 41 40 53
0.67805 -0.25391 -0.68955 53 46 50
0.68131 -0.26018 -0.67891 51 40 37
0.68512 -0.26626 -0.66910 55 53 42
0.69840 -0.27692 -0.65728 60 59 66
0.70620 -0.28196 -0.65293 62 59 70
0.71389 -0.28702 -0.64842 70 61 68
0.72221 -0.29194 -0.64475 43 41 58
0.72673 -0.29776 -0.63606 31 35 60
0.74071 -0.30822 -0.62524 39 40 50
0.74559 -0.31391 -0.61713 35 21 31
0.75265 -0.31911 -0.61183 39 15 19
0.76250 -0.32371 -0.61008 40 16 24
0.77060 -0.32869 -0.60606 45 22 32
0.78579 -0.33221 -0.61093 56 53 53
0.78807 -0.33843 -0.59960 88 77 94
0.79008 -0.34466 -0.58802 108 96 92
0.81196 -0.35356 -0.58689 156 163 146
0.82877 -0.37003 -0.56562 155 175 161
0.83248 -0.37583 -0.55632 140 147 158
0.83372 -0.38204 -0.54415 116 107 141
0.83641 -0.39602 -0.54164 27 13 38
0.84902 -0.38580 -0.54860 91 76 106
0.85818 -0.40333 -0.51886 16 21 42
0.86787 -0.40807 -0.51668 22 22 45
0.87829 -0.41271 -0.51529 38 22 38
0.88612 -0.41777 -0.51091 57 20 17
0.89352 -0.42289 -0.50605 63 20 22
0.90075 -0.42804 -0.50100 109 77 95
0.93811 -0.42894 -0.52940 210 201 208
0.96864 -0.43727 -0.53650 233 211 173
0.96708 -0.44372 -0.52155 155 98 59
0.99605 -0.44620 -0.53978 74 33 30
0.99477 -0.45261 -0.52517 57 47 59
1.00310 -0.48818 -0.45650 55 34 23
1.01440 -0.49296 -0.45554 93 50 43
1.01725 -0.49861 -0.44587 196 168 154
1.02567 -0.50369 -0.44193 246 246 237
1.02839 -0.51780 -0.43939 254 254 254
1.28390 -0.71643 -0.20032 251 249 237
1.27943 -0.72519 -0.20286 249 242 219
1.27299 -0.72136 -0.18102 251 247 242
1.26896 -0.72629 -0.16729 235 220 210
1.27159 -0.73998 -0.16483 228 210 188
-0.39264 0.31183 -1.04289 254 254 254
-0.39505 0.32431 -1.04513 254 254 254
-0.39907 0.31643 -1.04742 254 254 254
-0.38861 0.31971 -1.04060 254 254 254
-0.38218 0.31512 -1.03607 254 254 254
-0.38362 0.31164 -1.04990 254 253 253
-0.37311 0.31494 -1.04306 254 254 254
-0.37473 0.31109 -1.05602 254 253 254
-0.36717 0.30823 -1.05613 254 249 251
-0.35973 0.30512 -1.05560 252 238 229
-0.35045 0.30491 -1.06280 246 194 174
-0.33907 0.30787 -1.07848 224 115 105
-0.33202 0.30389 -1.07578 201 84 67
-0.32955 0.29110 -1.07348 203 97 67
-0.32276 0.30326 -1.08204 224 132 92
-0.29750 0.29700 -1.08943 194 82 27
-0.28190 0.30513 -1.11963 160 59 27
-0.27211 0.30461 -1.12656 134 41 12
-0.26224 0.30408 -1.13355 130 56 55
-0.24749 0.31018 -1.15871 144 117 128
-0.22694 0.32388 -1.20487 150 135 150
-0.21529 0.32510 -1.21704 148 125 146
-0.20342 0.32641 -1.22961 142 123 144
-0.19406 0.32428 -1.23275 143 124 140
-0.17836 0.31593 -1.22783 139 113 113
-0.16629 0.31701 -1.24005 97 69 74
-0.15914 0.31183 -1.23488 58 28 47
-0.14746 0.31551 -1.22727 57 40 45
-0.15195 0.30670 -1.22982 51 36 42
-0.09770 0.16493 -0.97163 108 19 51
-0.10863 0.16149 -0.97875 117 34 45
-0.08692 0.16406 -0.97865 124 95 134
-0.07242 0.16665 -0.99610 174 174 199
-0.06566 0.16174 -0.99118 198 195 206
-0.05459 0.16522 -0.98396 208 205 215
-0.05885 0.15687 -0.98638 205 201 210
-0.03907 0.15274 -0.99381 214 210 220
-0.04164 0.16604 -0.99620 216 211 217
-0.04593 0.15763 -0.99863 209 204 214
-0.03478 0.16114 -0.99137 219 216 222
-0.02793 0.15624 -0.98654 222 220 227
-0.03222 0.14784 -0.98898 219 218 226
-0.02250 0.14547 -0.99192 223 222 229
-0.01423 0.14178 -0.99085 220 222 231
-0.00292 0.14068 -0.99777 212 216 226
0.00637 0.13776 -0.99918 192 196 208
0.02156 0.13974 -1.01590 161 127 170
0.02960 0.13561 -1.01368 140 68 108
0.03838 0.13206 -1.01333 160 94 112
0.04554 0.12718 -1.00878 174 102 98
0.05584 0.12479 -1.01216 202 143 136
0.06900 0.12459 -1.02256 237 209 197
0.07165 0.11086 -1.02009 254 254 254
0.07593 0.11942 -1.01722 252 246 233
0.07858 0.10569 -1.01475 254 254 254
0.08377 0.11495 -1.01412 254 253 249
0.08642 0.10122 -1.01165 254 254 254
0.09126 0.11020 -1.01013 254 254 254
0.09391 0.09646 -1.00766 254 254 254
0.18307 0.06367 -0.98624 254 254 248
0.17142 0.06001 -0.99384 254 254 254
0.17858 0.05489 -0.98879 254 254 254
0.18575 0.04977 -0.98374 254 254 254
0.18511 0.05522 -0.96986 254 252 226
0.19526 0.05206 -0.97145 247 241 193
0.20656 0.04956 -0.97541 196 169 103
0.25557 0.07055 -1.06054 117 72 36
0.28940 0.07147 -1.09031 46 25 34
0.29710 0.06617 -1.08533 49 31 25
0.30470 0.06081 -1.08012 49 39 19
0.31439 0.05667 -1.07926 48 43 33
0.31722 0.04200 -1.07662 60 55 61
0.31609 0.04788 -1.06189 53 50 58
0.31891 0.03328 -1.05926 62 61 79
0.33081 0.00860 -0.99008 62 58 54
0.32618 -0.00047 -0.99271 70 73 57
0.34128 -0.00425 -0.97125 50 59 69
0.34562 -0.01110 -0.96020 67 76 86
0.34587 -0.02000 -0.94139 90 88 96
0.34861 -0.03419 -0.93884 87 93 87
0.35687 -0.02336 -0.94326 83 72 72
0.36419 -0.02861 -0.93807 66 59 57
0.37189 -0.03367 -0.93358 67 68 78
0.38151 -0.04659 -0.91391 66 68 76
0.38894 -0.05176 -0.90897 54 42 59
0.39446 -0.05782 -0.90057 59 52 61
0.40053 -0.06360 -0.89320 61 61 76
0.41735 -0.07303 -0.88690 52 59 76
0.42534 -0.07795 -0.88296 36 39 51
0.43168 -0.08360 -0.87611 46 47 50
0.43771 -0.08936 -0.86876 51 54 53
0.44207 -0.09583 -0.85853 35 34 48
0.45056 -0.10053 -0.85548 38 34 53
0.45329 -0.11467 -0.85294 44 46 48
0.49886 -0.13803 -0.81509 61 67 62
0.50750 -0.14272 -0.81218 36 37 27
0.51217 -0.14889 -0.80284 43 42 48
0.51859 -0.15440 -0.79636 44 53 63
0.52336 -0.16049 -0.78727 44 46 49
0.52607 -0.17456 -0.78474 63 46 44
0.53699 -0.17884 -0.75929 46 43 49
0.53247 -0.18768 -0.76186 40 39 37
0.54569 -0.19856 -0.72433 46 45 52
0.54947 -0.20476 -0.71418 37 41 45
0.55215 -0.21862 -0.71169 49 49 56
0.55706 -0.20972 -0.70984 47 49 64
0.55974 -0.22358 -0.70734 59 46 65
0.57914 -0.21752 -0.71134 55 55 63
0.58749 -0.22229 -0.70802 34 36 41
0.59518 -0.22727 -0.70370 36 38 55
0.61108 -0.22983 -0.71130 48 44 72
0.62874 -0.23923 -0.70574 57 49 66
0.63968 -0.24336 -0.70592 54 43 55
0.64240 -0.25744 -0.70339 60 57 67
0.64807 -0.24823 -0.70242 48 39 45
0.65077 -0.25466 -0.69090 61 60 63
0.64870 -0.26234 -0.67279 92 97 93
0.65358 -0.26810 -0.66451 91 98 92
0.66653 -0.27174 -0.66739 68 77 73
0.67399 -0.27683 -0.66264 58 70 65
0.68206 -0.28177 -0.65873 57 65 61
0.68950 -0.28688 -0.65394 47 50 48
0.69039 -0.29357 -0.64037 36 32 27
0.70148 -0.29778 -0.64050 47 25 25
0.70047 -0.30487 -0.62454 41 13 16
0.72377 -0.31309 -0.62614 44 19 30
0.72749 -0.31902 -0.61652 55 49 36
0.72476 -0.32634 -0.59865 75 71 79
0.72667 -0.33258 -0.58688 112 92 82
0.73650 -0.33711 -0.58529 140 136 113
0.74044 -0.34288 -0.57621 159 170 155
0.76043 -0.34536 -0.58736 174 194 171
0.77648 -0.34872 -0.59337 174 198 176
0.80016 -0.35727 -0.59459 148 161 173
0.79852 -0.36413 -0.57858 128 125 173
0.78033 -0.37400 -0.54256 101 90 141
0.78300 -0.38781 -0.54007 41 8 22
0.78795 -0.37900 -0.53814 51 58 106
0.79808 -0.38355 -0.53675 17 26 70
0.86239 -0.40445 -0.54499 51 10 8
0.85340 -0.41218 -0.52108 54 9 5
0.86337 -0.41688 -0.51924 60 15 7
0.87498 -0.42136 -0.51922 75 39 18
0.88182 -0.42657 -0.51372 108 78 58
0.91906 -0.42742 -0.54252 167 122 116
0.90808 -0.43522 -0.51684 228 190 176
0.91079 -0.44930 -0.51431 254 254 254
0.92711 -0.43879 -0.52486 250 252 242
0.92985 -0.45296 -0.52231 254 254 254
0.94325 -0.44283 -0.52950 254 254 250
0.95587 -0.44738 -0.53016 252 240 220
0.97761 -0.45081 -0.54071 220 168 133
0.98110 -0.45659 -0.53124 124 40 34
0.98430 -0.46238 -0.52150 72 18 17
0.96479 -0.48284 -0.46175 63 25 11
0.97203 -0.48800 -0.45669 61 23 16
0.97872 -0.49322 -0.45104 56 18 34
0.98564 -0.49841 -0.44565 106 70 90
1.00008 -0.50285 -0.44803 198 153 146
1.00716 -0.50805 -0.44275 244 242 227
1.00987 -0.52211 -0.44022 254 254 254
1.01673 -0.51301 -0.44002 253 253 251
1.01944 -0.52709 -0.43749 254 254 254
1.28013 -0.71508 -0.22503 253 252 247
1.27294 -0.70994 -0.23009 254 254 253
1.26844 -0.71876 -0.23265 254 254 254
1.28463 -0.70627 -0.22247 252 248 238
1.27563 -0.72390 -0.22758 254 254 252
1.25923 -0.73485 -0.16562 250 244 226
-0.40453 0.30603 -1.04311 254 247 243
-0.40693 0.31848 -1.04535 254 254 254
-0.40854 0.29817 -1.04539 246 139 126
-0.39932 0.29936 -1.03310 254 228 215
-0.38769 0.30368 -1.05208 253 191 187
-0.38189 0.29795 -1.04460 252 156 171
-0.37412 0.29551 -1.04580 251 129 119
-0.36628 0.29312 -1.04721 242 119 72
-0.35563 0.29515 -1.06045 226 108 52
-0.35319 0.28249 -1.05818 208 94 32
-0.34604 0.29531 -1.06880 211 91 39
-0.34359 0.28259 -1.06651 194 85 31
-0.33771 0.29338 -1.07157 209 98 51
-0.31958 0.29149 -1.08262 191 73 45
-0.32373 0.28336 -1.08497 162 53 14
-0.31205 0.28809 -1.08157 191 75 17
-0.30392 0.28554 -1.08288 221 106 33
-0.28819 0.29387 -1.11392 236 132 62
-0.25217 0.30124 -1.15978 161 121 94
-0.24959 0.28787 -1.15738 186 160 131
-0.23946 0.30422 -1.17680 146 113 114
-0.22341 0.31148 -1.20580 138 113 133
-0.21094 0.31365 -1.22086 137 115 133
-0.20829 0.29992 -1.21839 129 106 118
-0.20257 0.31027 -1.22056 137 115 131
-0.19412 0.30695 -1.22045 136 118 128
-0.19147 0.29316 -1.21797 130 111 116
-0.18673 0.30223 -1.21647 135 116 120
-0.18054 0.29601 -1.20824 126 96 100
-0.16786 0.29783 -1.22272 74 47 55
-0.16154 0.29171 -1.21484 54 30 24
-0.14993 0.29536 -1.20727 53 41 44
-0.15440 0.28661 -1.20981 53 42 39
-0.15887 0.27786 -1.21235 53 38 46
-0.10028 0.15828 -0.97879 118 29 42
-0.11123 0.15484 -0.98593 115 35 43
-0.09297 0.15402 -0.97574 102 52 70
-0.07768 0.15736 -0.99567 160 152 175
-0.06916 0.15411 -0.99576 199 195 201
-0.06188 0.14967 -0.99228 210 201 204
-0.05933 0.13644 -0.98990 241 240 238
-0.05371 0.14604 -0.99128 216 203 210
-0.04376 0.14397 -0.99513 220 211 216
-0.03481 0.14095 -0.99608 219 217 221
-0.02488 0.13874 -0.99960 207 207 218
-0.01038 0.14043 -1.01532 175 186 202
-0.00229 0.13645 -1.01350 140 139 182
0.00775 0.13409 -1.01680 125 81 130
0.01608 0.13025 -1.01548 142 102 148
0.02321 0.12538 -1.01095 211 154 195
0.03844 0.12709 -1.02732 248 230 216
0.04107 0.11343 -1.02486 254 254 254
0.04584 0.12235 -1.02329 254 246 218
0.04848 0.10868 -1.02083 254 254 254
0.05433 0.11846 -1.02200 254 252 233
0.05697 0.10477 -1.01954 254 254 254
0.06325 0.11488 -1.02174 254 254 250
0.06590 0.10117 -1.01927 254 254 254
0.17697 0.03450 -0.94357 254 254 248
0.16547 0.03089 -0.95107 254 254 254
0.17254 0.02583 -0.94609 254 254 254
0.18118 0.02765 -0.93235 243 240 204
0.20264 0.03154 -0.95860 191 157 109
0.22679 0.03684 -0.99013 135 86 58
0.25732 0.04571 -1.03468 114 72 48
0.25875 0.03689 -1.01689 125 97 53
0.27802 0.03865 -1.03673 133 114 46
0.29439 0.03855 -1.05015 91 77 36
0.31710 0.00390 -0.99454 60 64 57
0.30971 0.00918 -0.99974 52 51 60
0.32644 -0.00953 -0.97344 62 64 63
0.33184 -0.01580 -0.96443 56 56 64
0.33758 -0.02188 -0.95614 65 65 79
0.34424 -0.02747 -0.94967 78 82 95
0.35268 -0.04102 -0.92754 80 88 84
0.36280 -0.04486 -0.92771 55 60 83
0.37469 -0.05661 -0.91234 75 77 67
0.37742 -0.07078 -0.90979 66 74 86
0.38178 -0.06193 -0.90681 77 74 71
0.38451 -0.07609 -0.90426 55 62 73
0.38575 -0.06868 -0.89560 58 55 56
0.38947 -0.07551 -0.88402 39 41 59
0.39839 -0.07995 -0.88188 42 51 77
0.40111 -0.09406 -0.87934 50 62 83
0.40541 -0.08526 -0.87632 41 46 62
0.41858 -0.09623 -0.86368 39 38 43
0.42540 -0.10161 -0.85780 49 53 65
0.43432 -0.10610 -0.85557 52 67 98
0.43808 -0.11275 -0.84440 49 57 72
0.47976 -0.14452 -0.81078 50 56 58
0.47252 -0.13934 -0.81588 48 47 48
0.46799 -0.14822 -0.81846 74 65 61
0.48718 -0.14963 -0.80597 46 56 54
0.49119 -0.15600 -0.79562 50 53 32
0.49652 -0.16185 -0.78746 59 56 70
0.50328 -0.16717 -0.78164 38 37 46
0.50807 -0.17318 -0.77271 40 40 48
0.51858 -0.18482 -0.75643 42 42 42
0.52126 -0.19876 -0.75392 46 41 50
0.52709 -0.19704 -0.73723 46 42 54
0.53110 -0.20319 -0.72735 53 51 57
0.53666 -0.20880 -0.71990 51 47 46
0.54086 -0.21484 -0.71041 45 42 42
0.56759 -0.22846 -0.70338 53 42 53
0.57949 -0.23214 -0.70539 48 39 36
0.58667 -0.23726 -0.70036 50 39 45
0.59699 -0.24146 -0.69992 61 58 65
0.60848 -0.24536 -0.70110 85 86 96
0.61251 -0.25140 -0.69147 87 83 98
0.62418 -0.25529 -0.69283 71 72 77
0.63993 -0.26523 -0.68456 59 59 70
0.64257 -0.27159 -0.67307 68 84 86
0.65147 -0.27629 -0.67039 70 84 84
0.66348 -0.28718 -0.65698 51 41 27
0.67269 -0.29182 -0.65467 62 44 32
0.68081 -0.29674 -0.65085 62 40 34
0.68613 -0.30233 -0.64325 64 44 38
0.70356 -0.30507 -0.65188 82 71 69
0.72190 -0.30769 -0.66154 109 97 83
0.69544 -0.32053 -0.61185 143 134 114
0.71896 -0.32199 -0.62832 172 183 159
0.70771 -0.33118 -0.59917 187 210 170
0.71350 -0.33657 -0.59241 186 210 186
0.72098 -0.34159 -0.58784 169 191 174
0.72885 -0.34653 -0.58377 150 163 172
0.73576 -0.35167 -0.57847 129 122 175
0.73843 -0.36550 -0.57598 22 9 39
0.74899 -0.35555 -0.58115 103 87 143
0.75167 -0.36943 -0.57865 36 8 29
0.76717 -0.36504 -0.57589 30 39 74
0.77304 -0.37041 -0.56922 11 22 59
0.78073 -0.37543 -0.56483 9 14 55
0.78690 -0.38074 -0.55855 20 9 34
0.79213 -0.39255 -0.53749 54 8 10
0.84877 -0.41475 -0.53694 147 114 49
0.86771 -0.41812 -0.54548 198 153 84
0.88044 -0.42249 -0.54669 236 198 153
0.88985 -0.42738 -0.54401 246 225 182
0.88791 -0.43390 -0.52837 249 242 204
0.89063 -0.44797 -0.52584 254 254 253
0.89379 -0.43927 -0.52171 251 248 224
0.89650 -0.45333 -0.51918 254 254 254
0.90691 -0.44365 -0.52322 253 252 239
0.90963 -0.45776 -0.52068 254 254 254
0.95412 -0.45604 -0.53592 254 253 250
0.94215 -0.45980 -0.54372 254 254 254
0.94951 -0.46506 -0.53853 254 254 254
0.97220 -0.45999 -0.54249 253 245 224
0.98125 -0.46508 -0.53907 238 207 145
0.98568 -0.47073 -0.53062 188 138 49
0.95699 -0.49795 -0.44814 145 107 31
0.95508 -0.50400 -0.43351 190 144 80
0.98501 -0.50688 -0.45227 232 220 201
0.98771 -0.52092 -0.44975 254 254 253
0.99246 -0.51203 -0.44740 250 245 231
0.99517 -0.52607 -0.44487 254 254 254
1.00131 -0.51705 -0.44397 253 253 251
1.00402 -0.53110 -0.44145 254 254 254
1.25680 -0.73861 -0.18023 246 235 222
1.25042 -0.75309 -0.14376 231 201 188
1.25303 -0.76663 -0.14133 231 222 221
-0.38530 0.29110 -1.04971 243 119 51
-0.37778 0.28823 -1.04984 237 109 27
-0.37535 0.27567 -1.04758 211 107 22
-0.36930 0.28686 -1.05404 226 103 21
-0.36687 0.27426 -1.05178 212 107 19
-0.36048 0.28593 -1.05947 212 98 32
-0.35804 0.27328 -1.05720 203 100 18
-0.33528 0.28058 -1.06916 166 61 19
-0.33940 0.27252 -1.07150 165 58 17
-0.31857 0.27645 -1.07435 189 77 8
-0.31016 0.27435 -1.07689 223 105 13
-0.30768 0.26148 -1.07457 234 108 18
-0.30090 0.27341 -1.08267 232 114 28
-0.28223 0.28568 -1.12505 233 124 76
-0.26396 0.29689 -1.16479 242 178 142
-0.26628 0.27931 -1.12472 232 211 179
-0.26373 0.26612 -1.12235 238 222 203
-0.23640 0.29137 -1.17612 144 104 70
-0.22342 0.29436 -1.19356 129 99 95
-0.20292 0.29266 -1.20720 127 111 117
-0.18717 0.28459 -1.20301 131 106 105
-0.19160 0.27591 -1.20553 133 109 109
-0.18104 0.27837 -1.19473 108 74 72
-0.17126 0.27660 -1.19914 67 29 22
-0.10311 0.15137 -0.98528 123 30 35
-0.09652 0.14641 -0.98009 104 18 41
-0.07927 0.15154 -1.00579 159 129 156
-0.07357 0.14562 -0.99776 214 217 217
-0.04751 0.13606 -0.99907 232 235 233
-0.03587 0.13541 -1.00750 199 200 208
-0.02508 0.13390 -1.01334 178 143 168
-0.01529 0.13143 -1.01626 131 106 129
-0.00826 0.12654 -1.01160 71 61 148
0.00218 0.12453 -1.01606 163 116 193
0.01212 0.12202 -1.01903 238 226 224
0.02211 0.11949 -1.02198 253 253 250
0.02473 0.10589 -1.01953 254 254 254
0.02879 0.11422 -1.01621 254 254 254
0.03141 0.10063 -1.01376 254 254 254
0.17774 0.01962 -0.93700 250 253 247
0.18600 0.01531 -0.93465 243 237 212
0.19435 0.01104 -0.93245 225 193 157
0.24880 0.01523 -0.98754 231 208 119
0.27730 0.02225 -1.02684 138 120 68
0.29031 0.02015 -1.03327 63 55 60
0.29774 0.01484 -1.02804 65 64 73
0.29791 0.00552 -1.00798 66 65 63
0.30190 -0.00161 -0.99589 54 52 53
0.30594 -0.00867 -0.98402 55 56 54
0.31022 -0.01555 -0.97271 61 62 62
0.31796 -0.02057 -0.96836 65 69 86
0.32457 -0.02619 -0.96179 69 70 96
0.32763 -0.03361 -0.94828 60 50 67
0.33036 -0.04778 -0.94573 46 31 34
0.33084 -0.04089 -0.93522 48 41 51
0.33858 -0.04586 -0.93097 60 66 72
0.34764 -0.05020 -0.92922 67 78 89
0.35275 -0.05647 -0.91996 43 46 67
0.35943 -0.06196 -0.91370 33 36 47
0.36216 -0.07609 -0.91116 44 48 54
0.40121 -0.10235 -0.86144 43 52 61
0.41307 -0.11378 -0.84669 46 48 55
0.40856 -0.12263 -0.84926 50 43 44
0.41805 -0.11987 -0.83769 51 61 86
0.42665 -0.12445 -0.83504 48 48 57
0.42935 -0.13845 -0.83253 60 63 97
0.43127 -0.13065 -0.82550 40 37 36
0.44298 -0.12698 -0.81787 59 59 72
0.43847 -0.13580 -0.82043 47 41 57
0.43397 -0.14463 -0.82299 54 52 76
0.46582 -0.15693 -0.79775 48 48 59
0.45413 -0.16060 -0.80537 72 60 69
0.46852 -0.17089 -0.79524 38 40 34
0.47219 -0.16237 -0.79132 40 43 49
0.47544 -0.16895 -0.77980 76 73 35
0.48601 -0.17285 -0.78029 94 78 81
0.48870 -0.18680 -0.77778 39 37 41
0.48987 -0.17917 -0.76987 37 35 33
0.49541 -0.18486 -0.76220 38 40 32
0.49806 -0.19153 -0.74997 57 52 52
0.50458 -0.19684 -0.74398 52 50 61
0.50725 -0.21069 -0.74149 47 46 47
0.51398 -0.20865 -0.72632 51 56 70
0.51554 -0.21553 -0.71272 78 84 105
0.52305 -0.22047 -0.70838 84 86 95
0.53175 -0.22503 -0.70584 64 58 63
0.53440 -0.23880 -0.70336 63 59 72
0.54077 -0.22950 -0.70376 57 48 61
0.54712 -0.23481 -0.69762 74 57 84
0.54296 -0.24327 -0.67577 107 114 149
0.54696 -0.24921 -0.66628 122 126 148
0.57067 -0.24939 -0.68592 89 81 84
0.58189 -0.25330 -0.68693 57 58 72
0.59146 -0.25771 -0.68545 66 77 92
0.60125 -0.26208 -0.68425 73 87 82
0.61594 -0.26514 -0.69003 70 73 60
0.62418 -0.27000 -0.68647 61 43 42
0.63098 -0.27524 -0.68084 46 22 38
0.64724 -0.28504 -0.67334 51 50 43
0.64627 -0.29224 -0.65692 70 67 64
0.64903 -0.29844 -0.64580 103 91 100
0.64733 -0.30569 -0.62865 142 130 124
0.66033 -0.30937 -0.63168 174 179 166
0.68074 -0.31136 -0.64461 190 207 181
0.69098 -0.31579 -0.64364 189 209 182
0.71303 -0.32439 -0.64363 157 163 190
0.69769 -0.33448 -0.60881 131 118 186
0.70424 -0.33971 -0.60301 102 94 153
0.70691 -0.35356 -0.60052 37 5 35
0.71018 -0.34506 -0.59642 64 70 121
0.72147 -0.34930 -0.59677 29 41 94
0.76822 -0.37925 -0.57136 53 8 7
0.77611 -0.38424 -0.56721 60 17 7
0.78159 -0.38966 -0.56008 75 46 21
0.76439 -0.39898 -0.52535 104 80 55
0.77969 -0.40264 -0.53036 147 113 39
0.81244 -0.40347 -0.55623 199 154 94
0.81480 -0.40939 -0.54537 234 195 154
0.83159 -0.41300 -0.55174 247 228 184
0.83450 -0.41883 -0.54157 249 243 202
0.84621 -0.42329 -0.54179 251 248 202
0.84891 -0.43730 -0.53927 254 254 253
0.85786 -0.42780 -0.54187 252 251 213
