ply
format ascii 1.0
element face 0
property list uchar int vertex_indices
element vertex 1308
property float x
property float y
property float z
property uchar diffuse_red
property uchar diffuse_green
property uchar diffuse_blue
end_header
0.70864 0.10448 -0.87147 82 104 169
0.71867 0.10228 -0.87158 81 105 167
0.73154 0.10107 -0.87572 76 102 163
0.73566 0.09671 -0.86729 72 96 154
0.74288 0.09347 -0.86332 69 97 149
0.76130 0.09414 -0.87511 64 91 145
0.77478 0.08727 -0.86568 55 82 120
0.77959 0.07576 -0.86308 112 139 181
0.81479 0.08928 -0.89266 40 58 80
0.82290 0.08624 -0.88965 39 41 60
0.84058 0.08060 -0.88557 37 19 23
0.90345 0.05011 -0.84539 40 45 50
0.89238 0.04460 -0.84904 26 26 38
0.90035 0.04153 -0.84590 21 28 41
0.90478 0.04512 -0.83389 55 54 62
0.96119 -0.00134 -0.75099 45 37 27
0.96910 -0.00429 -0.74810 43 30 29
0.97654 -0.00736 -0.74467 35 26 38
0.98390 -0.01045 -0.74115 30 28 48
0.99108 -0.01358 -0.73744 28 34 57
0.99917 -0.01649 -0.73476 30 45 72
1.00474 -0.01999 -0.72923 37 59 86
1.01556 -0.02226 -0.72963 48 79 107
1.02579 -0.02469 -0.72930 62 101 134
1.03048 -0.02838 -0.72284 67 114 159
1.03513 -0.03206 -0.71636 73 131 188
1.05023 -0.03342 -0.72134 80 147 205
1.06726 -0.03440 -0.72833 88 159 219
1.08004 -0.03634 -0.73060 93 167 236
1.09494 -0.03786 -0.73510 95 171 245
1.21502 -0.07852 -0.70149 102 195 252
1.21475 -0.08301 -0.69032 97 170 231
1.22146 -0.08625 -0.68607 78 125 191
1.22631 -0.08980 -0.68003 95 167 212
1.24025 -0.09180 -0.68281 183 194 184
1.24506 -0.10332 -0.68021 218 195 166
1.44571 -0.13381 -0.69295 159 121 96
1.43439 -0.13943 -0.69668 196 172 146
1.44254 -0.14257 -0.69347 195 162 124
1.45175 -0.14143 -0.67757 192 184 186
1.44859 -0.15016 -0.67809 162 141 136
1.45670 -0.15328 -0.67489 201 187 182
-0.62610 0.52037 -1.17737 222 173 187
-0.63327 0.52314 -1.18020 254 253 247
-0.63607 0.51542 -1.18066 252 228 222
-0.62171 0.50989 -1.17500 217 108 52
-0.58447 0.49490 -1.13761 237 121 47
-0.58724 0.48725 -1.13807 239 119 25
-0.57758 0.49084 -1.13140 245 159 115
-0.56840 0.49976 -1.15863 252 219 198
-0.56537 0.47477 -1.09848 254 248 245
-0.55562 0.47961 -1.09526 254 254 254
-0.55835 0.47207 -1.09571 254 254 254
-0.43551 0.43635 -1.07602 254 231 194
-0.38501 0.41911 -1.06159 251 197 127
-0.36293 0.41251 -1.05760 252 208 165
-0.35858 0.40209 -1.05525 253 191 111
-0.35584 0.40968 -1.05455 253 221 178
-0.34661 0.41147 -1.06414 249 174 104
-0.33620 0.41556 -1.08009 240 115 2
-0.33179 0.40500 -1.07770 235 112 1
-0.32106 0.41139 -1.07823 236 112 8
-0.32388 0.40360 -1.07869 232 114 2
-0.31328 0.40967 -1.07834 234 124 48
-0.29804 0.42242 -1.11840 235 164 133
-0.28878 0.42316 -1.12541 244 223 222
-0.28127 0.42049 -1.12299 250 245 249
-0.27334 0.41856 -1.12267 251 246 237
-0.26957 0.40912 -1.10141 235 221 202
-0.10357 0.30562 -0.93810 122 85 107
-0.09925 0.29527 -0.93576 153 143 154
-0.05125 0.26943 -0.87782 186 178 176
-0.06092 0.26462 -0.88101 194 197 196
-0.04565 0.26537 -0.87091 92 70 103
-0.03774 0.26364 -0.87105 88 88 114
-0.02475 0.26686 -0.88627 156 177 177
-0.01779 0.26410 -0.88333 154 154 182
-0.01275 0.25951 -0.87479 120 106 133
-0.00652 0.25610 -0.86983 105 71 56
0.00562 0.25817 -0.88175 99 70 55
0.00881 0.25193 -0.86808 140 133 125
0.02819 0.26039 -0.89986 196 196 187
0.03254 0.24999 -0.89751 217 214 213
0.03611 0.25836 -0.89926 218 218 212
0.05226 0.25451 -0.89875 217 217 220
0.06392 0.25562 -0.90802 194 181 215
0.07049 0.25233 -0.90357 153 128 176
0.07828 0.25007 -0.90232 137 123 137
0.08767 0.24911 -0.90521 121 107 101
0.09773 0.24866 -0.90971 101 85 84
0.10556 0.24636 -0.90838 79 67 92
0.11280 0.24357 -0.90553 85 67 107
0.14351 0.25914 -0.96122 174 168 201
0.15816 0.26185 -0.97613 232 242 243
0.16508 0.25852 -0.97174 226 226 230
0.17616 0.25834 -0.97751 222 223 231
0.19548 0.26422 -1.00285 239 241 243
0.20639 0.26370 -1.00768 247 244 231
0.22771 0.27068 -1.03687 214 178 153
0.24711 0.26746 -1.03974 180 146 168
0.26085 0.26863 -1.05031 240 249 254
0.34055 0.27180 -1.10272 252 252 252
0.33562 0.28360 -1.10538 254 254 254
0.33247 0.27491 -1.10590 254 254 254
0.32933 0.26622 -1.10642 254 254 253
0.35947 0.27566 -1.12283 193 219 244
0.36536 0.27108 -1.11479 172 212 241
0.37523 0.26903 -1.11524 176 229 247
0.38190 0.26496 -1.10890 180 233 247
0.39309 0.26369 -1.11202 231 251 253
0.40441 0.26246 -1.11530 210 238 251
0.41857 0.26288 -1.12426 194 233 246
0.42206 0.25691 -1.11143 170 204 237
0.45071 0.26571 -1.14923 185 227 244
0.46505 0.26596 -1.15787 202 239 249
0.47500 0.26363 -1.15765 209 240 245
0.48746 0.26270 -1.16232 192 217 219
0.48407 0.25286 -1.13608 190 219 174
0.69410 0.19370 -1.10712 234 220 184
0.70098 0.18973 -1.10115 204 180 169
0.69557 0.18056 -1.07542 106 85 124
0.69326 0.17281 -1.05496 97 96 121
0.67969 0.16049 -1.01688 97 111 147
0.67440 0.15177 -0.99234 83 108 139
0.67413 0.14521 -0.97597 73 104 136
0.67100 0.13759 -0.95536 75 105 139
0.66862 0.13036 -0.93614 74 108 145
0.66620 0.12320 -0.91708 83 114 153
0.66962 0.11841 -0.90714 91 123 157
0.67999 0.11633 -0.90778 96 126 161
0.68368 0.11169 -0.89837 99 126 167
0.69040 0.10822 -0.89355 97 124 168
0.69767 0.10497 -0.88955 99 125 174
0.70658 0.10232 -0.88799 101 129 179
0.71296 0.09875 -0.88271 102 133 174
0.72154 0.09598 -0.88065 99 131 177
0.73109 0.09355 -0.87998 102 137 178
0.74237 0.09171 -0.88174 108 139 180
0.75291 0.08959 -0.88239 108 136 182
0.76687 0.08862 -0.88780 105 132 184
0.78097 0.08766 -0.89330 108 132 184
0.79208 0.08564 -0.89452 113 140 183
0.80405 0.07251 -0.86872 117 145 169
0.82882 0.06924 -0.87446 108 128 138
0.84007 0.06719 -0.87570 104 121 133
0.87091 0.07121 -0.90289 102 116 125
0.88274 0.06924 -0.90461 89 97 94
0.89330 0.06685 -0.90460 61 72 62
0.90220 0.05839 -0.88865 32 32 41
0.91345 0.06398 -0.88494 32 33 29
0.91030 0.05527 -0.88546 27 28 37
0.90654 0.03796 -0.84052 28 32 53
0.90345 0.02939 -0.84103 24 36 59
0.91141 0.02633 -0.83789 21 35 60
0.90240 0.03150 -0.82222 29 31 60
0.90723 0.01995 -0.81961 20 35 55
0.94542 -0.00795 -0.74867 30 43 54
0.93768 -0.00497 -0.75172 26 41 56
0.95319 -0.01092 -0.74566 42 54 58
0.96021 -0.01408 -0.74177 56 74 79
0.97463 -0.01544 -0.74645 68 95 109
0.98496 -0.01783 -0.74633 75 110 129
0.99030 -0.02140 -0.74048 80 120 144
0.99722 -0.02458 -0.73647 82 128 159
1.00424 -0.02774 -0.73257 85 135 173
1.01134 -0.03088 -0.72877 90 145 189
1.01438 -0.03493 -0.72046 95 155 203
1.03199 -0.03572 -0.72835 97 159 215
1.04266 -0.03808 -0.72847 97 161 223
1.05192 -0.04077 -0.72700 98 163 230
1.06422 -0.04281 -0.72883 98 164 234
1.07699 -0.04477 -0.73110 98 163 237
1.09050 -0.04661 -0.73411 98 164 239
1.10390 -0.04850 -0.73693 95 162 239
1.11727 -0.05042 -0.73966 95 165 239
1.12985 -0.05253 -0.74147 97 168 239
1.14087 -0.04705 -0.73784 98 180 254
1.14137 -0.05487 -0.74211 100 169 240
1.15240 -0.04938 -0.73847 99 182 254
1.15406 -0.05700 -0.74394 98 168 239
1.16512 -0.05150 -0.74029 98 183 254
1.16436 -0.05961 -0.74323 96 170 240
1.17544 -0.05411 -0.73958 100 185 254
1.17515 -0.06215 -0.74299 98 170 241
1.18625 -0.05663 -0.73933 102 188 254
1.18430 -0.06500 -0.74104 101 175 243
1.19540 -0.05949 -0.73737 102 190 254
1.19106 -0.06831 -0.73662 100 174 243
1.20215 -0.06280 -0.73296 102 192 254
1.19634 -0.07189 -0.73073 100 175 242
1.20742 -0.06638 -0.72708 101 194 254
1.20014 -0.08021 -0.71226 98 172 238
1.19901 -0.08487 -0.70010 100 173 237
1.20409 -0.08840 -0.69421 98 165 231
1.20821 -0.09209 -0.68739 99 150 209
1.19950 -0.09794 -0.66804 89 108 148
1.19823 -0.10246 -0.65613 60 86 129
1.22789 -0.10182 -0.67431 170 182 170
-0.59461 0.48825 -1.13637 241 125 24
-0.60171 0.49098 -1.13916 239 127 37
-0.60447 0.48335 -1.13962 239 130 51
-0.57981 0.48640 -1.14016 244 120 38
-0.58258 0.47874 -1.14062 244 116 11
-0.57302 0.48177 -1.13245 250 162 102
-0.56411 0.48868 -1.15475 252 216 192
-0.56345 0.45235 -1.06445 253 245 243
-0.55383 0.45713 -1.06128 254 254 254
-0.55818 0.44153 -1.04045 254 253 254
-0.54866 0.44627 -1.03730 254 254 254
-0.55132 0.43889 -1.03774 254 254 254
-0.43780 0.43007 -1.08012 254 252 242
-0.44768 0.42516 -1.08338 254 254 254
-0.44057 0.42242 -1.08058 254 254 253
-0.43047 0.42795 -1.07899 253 233 204
-0.40323 0.41384 -1.05923 252 209 145
-0.39632 0.41066 -1.05522 250 208 139
-0.36378 0.40919 -1.07001 253 191 122
-0.35940 0.39872 -1.06764 253 175 79
-0.33916 0.42585 -1.12556 249 140 44
-0.33857 0.40873 -1.08317 239 108 1
-0.33415 0.39816 -1.08078 234 111 2
-0.31583 0.40240 -1.08027 224 108 13
-0.30752 0.40165 -1.08311 215 112 55
-0.29353 0.41163 -1.11597 221 162 142
-0.28403 0.41274 -1.12412 239 230 229
-0.27670 0.40971 -1.12070 251 249 248
-0.26975 0.40601 -1.11543 247 240 234
-0.24658 0.41471 -1.15028 161 105 150
-0.05200 0.26393 -0.88434 198 192 180
-0.06170 0.25910 -0.88754 196 198 196
-0.04397 0.26227 -0.88476 134 114 105
-0.04380 0.25286 -0.86136 81 61 69
-0.03323 0.25373 -0.86953 88 80 131
-0.01451 0.25289 -0.87807 127 107 125
-0.00224 0.25510 -0.89054 178 166 116
0.00823 0.25552 -0.89751 195 185 146
0.01624 0.25361 -0.89729 208 205 188
0.02638 0.25359 -0.90300 215 212 211
0.03992 0.24747 -0.89542 225 221 216
0.04787 0.24544 -0.89486 213 206 200
0.06200 0.24863 -0.91084 158 109 129
0.06356 0.24114 -0.89303 112 61 99
0.07630 0.24301 -0.90493 128 133 135
0.08337 0.24014 -0.90177 114 123 101
0.09348 0.23972 -0.90647 98 100 92
0.11026 0.24455 -0.92803 159 144 144
0.12561 0.24806 -0.94550 177 149 155
0.13012 0.23729 -0.94307 211 213 215
0.13771 0.24888 -0.95442 208 210 214
0.15064 0.25026 -0.96519 228 232 234
0.16116 0.24970 -0.96978 223 224 227
0.17705 0.25310 -0.98726 224 225 234
0.19781 0.25992 -1.01608 247 252 253
0.20249 0.24873 -1.01355 251 252 253
0.20655 0.25776 -1.01565 253 252 246
0.22246 0.26073 -1.03208 240 230 200
0.24518 0.26839 -1.06409 178 137 107
0.24691 0.26108 -1.04681 143 83 114
0.26092 0.26236 -1.05797 221 232 251
0.27018 0.26030 -1.05806 254 254 254
0.28110 0.26573 -1.05445 254 254 254
0.27804 0.25726 -1.05496 254 254 254
0.27498 0.24880 -1.05546 254 254 254
0.33799 0.26349 -1.10449 247 242 239
0.35676 0.26718 -1.12436 64 95 201
0.36717 0.26545 -1.12594 29 117 200
0.37403 0.26148 -1.11994 43 131 196
0.38213 0.25829 -1.11658 58 141 201
0.38996 0.25494 -1.11266 191 237 246
0.40192 0.25407 -1.11727 130 181 228
0.40825 0.24981 -1.11023 99 149 212
0.41562 0.24619 -1.10536 80 142 212
0.42373 0.24300 -1.10200 85 155 215
0.42872 0.23106 -1.09931 101 156 209
0.43741 0.23520 -1.09030 115 171 222
0.44240 0.22328 -1.08760 101 160 211
0.45272 0.23605 -1.10111 118 173 215
0.63425 0.20166 -1.11826 148 163 59
0.63720 0.19589 -1.10553 150 168 61
0.64805 0.19373 -1.10629 138 150 62
0.63347 0.18025 -1.06438 100 104 70
0.65768 0.18403 -1.08757 116 116 132
0.68062 0.18020 -1.09100 233 216 185
0.70728 0.18468 -1.11732 182 157 140
0.67918 0.16601 -1.05477 58 46 75
0.68403 0.16135 -1.04591 47 47 82
0.69141 0.15777 -1.04115 46 53 90
0.68031 0.14670 -1.00721 34 48 82
0.68321 0.14142 -0.99569 23 39 80
0.67836 0.13311 -0.97220 18 41 88
0.67795 0.12666 -0.95588 20 46 93
0.68063 0.12149 -0.94448 19 47 94
0.68737 0.11792 -0.93939 18 49 98
0.69091 0.11314 -0.92948 19 46 102
0.69643 0.10915 -0.92264 19 47 104
0.70341 0.10572 -0.91803 20 48 104
0.71205 0.10290 -0.91592 24 50 105
0.71917 0.09953 -0.91153 21 51 105
0.72896 0.09712 -0.91109 17 49 104
0.73942 0.09494 -0.91156 14 48 104
0.74897 0.09241 -0.91069 14 46 105
0.75898 0.09004 -0.91044 16 49 111
0.76581 0.08655 -0.90561 14 47 113
0.77069 0.07488 -0.90297 22 35 79
0.77541 0.08402 -0.90474 15 41 113
0.78030 0.07233 -0.90210 24 37 73
0.78333 0.08091 -0.90147 17 41 107
0.78822 0.06922 -0.89883 23 37 79
0.79501 0.07905 -0.90344 19 46 112
0.79991 0.06733 -0.90080 20 37 79
0.79913 0.07468 -0.89489 17 47 115
0.80402 0.06299 -0.89225 23 39 77
0.81417 0.07388 -0.90141 17 47 116
0.81908 0.06214 -0.89876 22 39 80
0.83814 0.07019 -0.90580 20 52 117
0.84308 0.05839 -0.90313 20 39 84
0.84866 0.06784 -0.90591 21 49 116
0.86738 0.06801 -0.91695 23 51 114
0.87235 0.05611 -0.91426 27 42 83
0.87517 0.06476 -0.91327 26 52 110
0.88014 0.05287 -0.91058 27 46 84
0.88265 0.06143 -0.90919 31 58 97
0.88762 0.04954 -0.90650 28 46 84
0.89000 0.05806 -0.90494 31 53 82
0.89497 0.04617 -0.90226 27 45 80
0.89616 0.05434 -0.89917 31 46 68
0.90113 0.04247 -0.89649 25 44 78
0.90162 0.05043 -0.89251 27 39 64
0.90328 0.04545 -0.88101 25 36 58
0.90550 0.04066 -0.87032 27 35 54
0.91042 0.02890 -0.86766 24 40 67
0.90144 0.03414 -0.85175 24 35 52
0.90632 0.02247 -0.84911 23 40 69
0.91368 -0.01364 -0.73944 28 43 68
0.92443 -0.01583 -0.74007 26 47 74
0.92913 -0.02706 -0.73753 29 56 93
0.93772 -0.01742 -0.74364 28 50 81
0.94244 -0.02869 -0.74110 31 57 98
0.94609 -0.02023 -0.74136 32 56 90
0.95080 -0.03151 -0.73881 30 57 100
0.95572 -0.02275 -0.74055 35 65 103
0.96044 -0.03404 -0.73800 26 58 104
0.96726 -0.02483 -0.74191 35 73 119
0.97820 -0.02706 -0.74254 38 83 132
0.98949 -0.02924 -0.74351 40 87 139
0.99626 -0.03246 -0.73931 41 89 144
1.00435 -0.03538 -0.73660 40 86 147
1.01234 -0.03833 -0.73378 39 83 151
1.01974 -0.04141 -0.73030 42 91 158
1.02864 -0.04415 -0.72850 42 91 161
1.04063 -0.04625 -0.73007 41 90 161
1.05213 -0.04846 -0.73107 40 90 163
1.06579 -0.05025 -0.73436 40 91 165
1.07959 -0.05203 -0.73774 42 96 169
1.09400 -0.05372 -0.74169 42 96 171
1.10823 -0.05549 -0.74537 41 96 171
1.12258 -0.05725 -0.74909 41 97 170
1.13564 -0.05931 -0.75138 42 99 170
1.14813 -0.06150 -0.75300 42 99 170
1.16021 -0.06379 -0.75413 45 102 176
1.17087 -0.06637 -0.75374 45 105 177
1.18052 -0.06915 -0.75226 44 106 179
1.18751 -0.07243 -0.74804 46 108 182
1.19126 -0.07630 -0.74052 46 104 181
1.19300 -0.08051 -0.73100 48 108 179
1.18835 -0.09027 -0.70401 55 109 180
1.18523 -0.09521 -0.68990 62 112 179
1.18672 -0.09932 -0.68050 65 106 175
1.19191 -0.10277 -0.67481 72 102 163
1.18958 -0.10747 -0.66178 70 84 108
1.18959 -0.11173 -0.65114 31 34 60
1.22068 -0.11093 -0.67078 166 179 151
1.22968 -0.11376 -0.66882 223 197 167
1.24056 -0.10835 -0.66523 220 193 166
1.23752 -0.11678 -0.66573 224 196 166
1.23447 -0.12521 -0.66623 228 199 168
-0.63979 0.49860 -1.15767 242 175 170
-0.64690 0.50133 -1.16047 253 249 242
-0.64967 0.49369 -1.16093 249 215 204
-0.63545 0.48821 -1.15533 223 112 52
-0.59016 0.47860 -1.13591 243 120 26
-0.57575 0.47431 -1.13339 246 121 30
-0.57852 0.46666 -1.13385 244 115 11
-0.56837 0.47304 -1.13445 245 150 97
-0.56094 0.47186 -1.13575 248 202 187
-0.56077 0.43457 -1.04198 252 240 242
-0.55486 0.42737 -1.02725 254 253 254
-0.54538 0.43209 -1.02412 254 254 254
-0.54804 0.42474 -1.02456 254 254 254
-0.53677 0.40941 -0.99242 252 251 249
-0.54089 0.41926 -0.99465 254 254 254
-0.54352 0.41200 -0.99508 254 254 254
-0.54614 0.40475 -0.99552 254 254 254
-0.43309 0.42071 -1.08058 254 252 245
-0.44298 0.41579 -1.08384 254 254 254
-0.43586 0.41305 -1.08103 254 254 254
-0.42599 0.41791 -1.07762 253 237 213
-0.41961 0.41319 -1.06940 252 215 164
-0.41281 0.40965 -1.06440 253 226 180
-0.40642 0.40512 -1.05670 253 248 223
-0.39973 0.40143 -1.05124 252 239 196
-0.39189 0.40055 -1.05356 251 199 114
-0.34849 0.40402 -1.08728 248 125 24
-0.32691 0.39536 -1.07791 226 106 2
-0.32973 0.38758 -1.07837 219 92 4
-0.31917 0.39358 -1.07789 213 93 5
-0.31110 0.39239 -1.07952 208 88 30
-0.30440 0.38852 -1.07363 217 129 110
-0.28681 0.40495 -1.12513 242 230 223
-0.27941 0.40207 -1.12214 253 253 252
-0.27198 0.39921 -1.11921 249 245 239
-0.25114 0.40381 -1.14279 163 86 106
-0.24198 0.40370 -1.14779 164 113 127
-0.05280 0.25834 -0.89073 200 199 197
-0.04534 0.25609 -0.88938 194 179 170
-0.04003 0.24229 -0.85768 101 81 68
-0.01089 0.25131 -0.89716 191 176 169
-0.00045 0.25170 -0.90417 215 210 194
0.00771 0.24992 -0.90439 215 210 203
0.01568 0.24796 -0.90403 215 210 211
0.02371 0.24602 -0.90378 212 216 218
0.03134 0.24370 -0.90233 194 211 217
0.03569 0.23328 -0.89997 64 56 88
0.03897 0.24139 -0.90089 187 207 215
0.05079 0.24263 -0.91083 177 182 196
0.05985 0.24144 -0.91305 143 118 129
0.06614 0.23791 -0.90779 146 136 127
0.07616 0.23746 -0.91242 164 171 170
0.07935 0.23142 -0.89904 123 108 138
0.08676 0.22883 -0.89680 114 110 139
0.11805 0.24508 -0.95574 186 190 189
0.15049 0.24433 -0.97252 197 209 218
0.15819 0.24161 -0.97010 193 206 219
0.17822 0.24801 -0.99775 226 233 235
0.19867 0.25449 -1.02585 249 253 254
0.21700 0.25067 -1.02677 247 245 235
0.24087 0.25906 -1.06165 206 176 172
0.25283 0.25046 -1.04687 196 180 213
0.26958 0.25350 -1.06418 247 253 254
0.27440 0.24198 -1.06158 254 254 254
0.31409 0.24972 -1.08029 253 253 252
0.30921 0.26139 -1.08293 254 254 254
0.30610 0.25280 -1.08344 254 254 254
0.30299 0.24421 -1.08395 254 254 254
0.33787 0.25673 -1.11162 232 226 222
0.34767 0.25467 -1.11209 62 61 158
0.35984 0.25407 -1.11758 66 132 196
0.36481 0.24217 -1.11489 85 138 193
0.36798 0.25093 -1.11436 83 136 192
0.37505 0.24713 -1.10887 99 148 199
0.38733 0.24649 -1.11432 183 233 239
0.39350 0.24215 -1.10696 127 165 217
0.40221 0.23934 -1.10488 151 187 215
0.45975 0.21757 -1.08320 129 177 214
0.48608 0.18022 -1.00434 145 191 198
0.48918 0.18879 -1.00383 134 173 136
0.48299 0.17166 -1.00485 164 199 202
0.53185 0.17457 -1.01647 158 205 201
0.55282 0.17755 -1.03602 169 214 202
0.56222 0.17500 -1.03504 190 223 203
0.58269 0.17753 -1.05319 185 216 191
0.58544 0.17188 -1.04054 186 217 183
0.59057 0.16736 -1.03211 194 217 171
0.63421 0.17305 -1.07158 96 94 56
0.68935 0.16937 -1.09405 166 135 112
0.69323 0.16421 -1.08330 43 16 35
0.69838 0.15189 -1.08051 21 19 45
0.69785 0.15940 -1.07384 14 13 60
0.70298 0.14711 -1.07106 23 27 39
0.67806 0.12552 -0.97716 20 28 51
0.68301 0.11369 -0.97448 20 28 52
0.67483 0.11802 -0.95639 21 29 58
0.67974 0.10627 -0.95374 22 26 50
0.67745 0.11285 -0.94489 20 29 55
0.68234 0.10115 -0.94225 24 28 48
0.68759 0.11057 -0.94499 22 28 54
0.69249 0.09885 -0.94234 22 30 58
0.68855 0.10484 -0.93113 20 26 69
0.69343 0.09318 -0.92849 21 31 59
0.69409 0.10086 -0.92429 19 28 71
0.69896 0.08922 -0.92166 21 32 65
0.70064 0.09728 -0.91903 19 30 69
0.70550 0.08565 -0.91640 20 37 68
0.70896 0.09434 -0.91643 21 30 69
0.71382 0.08271 -0.91380 19 36 63
0.71607 0.09097 -0.91204 21 30 71
0.72093 0.07935 -0.90942 20 36 65
0.72586 0.08855 -0.91160 20 32 70
0.73073 0.07692 -0.90897 25 35 69
0.73631 0.08635 -0.91207 21 32 71
0.74119 0.07470 -0.90944 19 37 69
0.74586 0.08382 -0.91120 18 32 73
0.75074 0.07215 -0.90856 23 40 68
0.75587 0.08143 -0.91095 19 35 77
0.76076 0.06975 -0.90831 24 39 72
0.76270 0.07796 -0.90612 20 35 80
0.76758 0.06628 -0.90348 23 38 76
0.84002 0.06306 -0.91315 19 40 81
0.82877 0.05747 -0.91686 24 42 79
0.83687 0.05435 -0.91367 24 43 79
0.84497 0.05123 -0.91047 25 44 81
0.86421 0.05925 -0.91747 23 40 85
0.86104 0.05049 -0.91799 26 44 82
0.86919 0.04735 -0.91478 28 45 82
0.89978 0.03665 -0.88106 25 42 77
0.88856 0.03108 -0.88476 26 46 82
0.89664 0.02796 -0.88158 27 44 82
0.90471 0.02485 -0.87839 27 43 78
0.90285 0.03213 -0.87145 26 40 70
0.90777 0.02037 -0.86879 26 42 76
0.87883 -0.01036 -0.75062 24 41 70
0.87116 -0.00741 -0.75365 22 40 68
0.86818 -0.01566 -0.75414 23 43 77
0.87585 -0.01861 -0.75111 26 43 80
0.88831 -0.01286 -0.74980 25 42 72
0.89246 -0.01670 -0.74250 26 44 74
0.90048 -0.01957 -0.73991 27 46 79
0.90917 -0.02227 -0.73812 29 49 83
0.92063 -0.02430 -0.73960 30 53 88
0.96801 -0.03705 -0.73477 24 60 107
0.97273 -0.04834 -0.73222 35 63 109
0.97754 -0.03962 -0.73378 26 62 109
0.98226 -0.05092 -0.73123 35 64 108
0.98798 -0.04200 -0.73381 26 63 109
0.99967 -0.04880 -0.72343 26 61 110
1.00439 -0.06009 -0.72087 39 69 107
1.02194 -0.04864 -0.73665 26 63 111
1.02671 -0.06003 -0.73408 39 68 110
1.02919 -0.05176 -0.73297 28 65 115
1.03395 -0.06314 -0.73039 36 69 110
1.05516 -0.05561 -0.73823 24 65 116
1.05995 -0.06706 -0.73565 33 72 110
1.07245 -0.05669 -0.74547 23 66 116
1.07727 -0.06820 -0.74287 33 73 112
1.08536 -0.05870 -0.74782 22 68 118
1.09018 -0.07025 -0.74521 32 75 116
1.10122 -0.06016 -0.75330 22 69 122
1.10606 -0.07175 -0.75068 33 75 115
1.11296 -0.06246 -0.75425 24 70 121
1.11781 -0.07408 -0.75163 34 74 112
1.12274 -0.06517 -0.75307 25 70 120
1.12760 -0.07680 -0.75044 35 75 113
1.13199 -0.06799 -0.75130 26 71 120
1.13686 -0.07962 -0.74867 34 78 117
1.14117 -0.07082 -0.74944 23 72 122
1.14603 -0.08247 -0.74681 37 79 119
1.14886 -0.07395 -0.74601 26 73 126
1.15373 -0.08559 -0.74338 38 79 119
1.15802 -0.07680 -0.74411 28 75 127
1.16289 -0.08845 -0.74148 39 80 120
1.16724 -0.07964 -0.74225 26 76 128
1.17211 -0.09130 -0.73962 43 81 119
1.17884 -0.08206 -0.74284 28 77 129
1.18372 -0.09374 -0.74020 39 83 116
1.19153 -0.08430 -0.74450 28 75 127
1.19642 -0.09601 -0.74185 44 86 119
1.19775 -0.08771 -0.73951 32 80 129
1.20264 -0.09940 -0.73687 51 88 122
1.18392 -0.09899 -0.70315 41 83 132
1.18874 -0.11050 -0.70055 59 91 123
1.18114 -0.10382 -0.68937 48 86 132
1.18593 -0.11528 -0.68678 63 92 124
1.18165 -0.10807 -0.67898 55 87 131
1.18347 -0.11206 -0.66997 61 87 125
1.18831 -0.11554 -0.66401 55 75 89
1.19112 -0.11933 -0.65608 36 47 48
1.21636 -0.11956 -0.67004 177 191 143
1.22566 -0.12234 -0.66839 228 199 165
1.23045 -0.13378 -0.66580 232 203 171
1.59317 -0.19988 -0.68476 234 211 198
1.59824 -0.21201 -0.68202 213 189 170
-0.60029 0.47197 -1.13462 246 132 47
-0.60304 0.46434 -1.13507 242 130 51
-0.58564 0.46936 -1.13655 243 118 16
-0.58129 0.45897 -1.13420 246 117 9
-0.57131 0.46443 -1.13241 243 111 28
-0.57408 0.45678 -1.13286 248 115 7
-0.56324 0.46666 -1.14279 243 138 89
-0.55764 0.45617 -1.11942 247 192 178
-0.55737 0.42076 -1.02963 251 238 240
-0.55133 0.41448 -1.01720 254 253 254
-0.53893 0.40413 -0.99817 254 252 249
-0.42874 0.41030 -1.07823 254 253 249
-0.43863 0.40539 -1.08150 254 254 254
-0.43151 0.40264 -1.07869 254 254 254
-0.42439 0.39990 -1.07588 254 254 254
-0.42220 0.40600 -1.07112 254 253 239
-0.41786 0.39562 -1.06878 254 254 254
-0.41579 0.40146 -1.06333 254 253 242
-0.41146 0.39110 -1.06099 254 254 254
-0.39599 0.38968 -1.04498 250 208 137
-0.29600 0.38530 -1.09229 250 202 169
-0.28263 0.39348 -1.12088 250 246 251
-0.26921 0.38529 -1.10793 210 183 175
-0.25527 0.39367 -1.13735 167 81 83
-0.24728 0.39161 -1.13679 153 64 65
-0.06154 0.25450 -0.89707 197 199 199
-0.06583 0.26475 -0.89938 191 191 192
-0.06856 0.25721 -0.89983 192 192 192
-0.05726 0.24426 -0.89475 203 209 209
-0.05442 0.25192 -0.89465 202 205 205
-0.05013 0.24167 -0.89234 207 210 211
-0.04623 0.25036 -0.89549 207 208 206
-0.04194 0.24009 -0.89317 211 214 214
-0.03795 0.24887 -0.89655 209 205 190
-0.02946 0.24755 -0.89814 209 203 171
-0.02515 0.23724 -0.89581 212 213 214
-0.02150 0.24568 -0.89805 213 209 184
-0.01719 0.23536 -0.89572 213 217 217
-0.01234 0.24491 -0.90146 216 213 207
-0.00500 0.24242 -0.89941 220 221 221
0.00242 0.23999 -0.89757 221 227 228
0.01238 0.23982 -0.90297 225 231 227
0.02066 0.23810 -0.90345 181 175 193
0.03047 0.23769 -0.90813 102 88 122
0.03484 0.22724 -0.90576 107 89 85
0.04789 0.23481 -0.91099 97 96 117
0.05827 0.23471 -0.91681 103 107 108
0.06461 0.23122 -0.91164 92 104 118
0.07052 0.22739 -0.90537 119 110 129
0.07894 0.22560 -0.90575 150 132 125
0.09718 0.23157 -0.93158 196 204 196
0.10163 0.22091 -0.92917 224 226 230
0.13218 0.23313 -0.95599 205 205 204
0.14528 0.23455 -0.96724 136 128 147
0.15334 0.23213 -0.96580 123 121 144
0.17801 0.24186 -1.00495 213 231 241
0.19418 0.24513 -1.02271 245 249 253
0.20186 0.24218 -1.01968 248 247 252
0.21644 0.24409 -1.03307 243 238 237
0.25163 0.24330 -1.05162 151 103 131
0.26941 0.24697 -1.07134 231 246 254
0.31089 0.24108 -1.08062 251 251 251
0.29980 0.23557 -1.08428 254 254 254
0.33783 0.24998 -1.11896 203 192 204
0.34198 0.24436 -1.10713 60 67 110
0.35172 0.24225 -1.10746 67 137 196
0.36892 0.23660 -1.10314 82 141 198
0.37388 0.22474 -1.10046 138 177 218
0.37597 0.23283 -1.09770 133 187 218
0.38657 0.23117 -1.09967 105 140 205
0.39233 0.22667 -1.09159 155 200 223
0.44111 0.20798 -1.07264 135 177 217
0.44606 0.19613 -1.06996 139 183 223
0.45860 0.20240 -1.06870 129 176 213
0.49271 0.16945 -1.00492 152 201 224
0.48164 0.16395 -1.00858 154 195 203
0.50050 0.16629 -1.00145 180 216 233
0.50537 0.15465 -0.99882 200 228 236
0.51766 0.16759 -1.01477 204 228 234
0.52257 0.15586 -1.01212 173 211 228
0.52552 0.16442 -1.01131 182 215 227
0.53735 0.16309 -1.01484 190 225 232
0.54730 0.16086 -1.01499 218 244 244
0.55223 0.14907 -1.01233 205 234 242
0.55937 0.15956 -1.01876 213 237 240
0.57007 0.15762 -1.02007 216 238 243
0.58309 0.15667 -1.02528 227 243 241
0.59229 0.15400 -1.02388 210 221 210
0.64045 0.16138 -1.07076 87 101 111
0.65536 0.16095 -1.07838 177 188 164
0.66548 0.15845 -1.07795 215 194 162
0.68370 0.15929 -1.09073 163 126 100
0.68809 0.15438 -1.08082 43 13 24
0.69323 0.14208 -1.07804 23 21 43
0.88550 -0.02107 -0.75051 29 44 84
0.89113 -0.02454 -0.74500 32 46 87
0.89639 -0.02808 -0.73906 33 48 90
0.90606 -0.03055 -0.73846 36 52 94
0.91448 -0.03332 -0.73632 36 54 98
0.92473 -0.03567 -0.73635 36 56 100
0.93471 -0.03809 -0.73603 37 58 98
0.94631 -0.04016 -0.73757 38 59 99
0.95903 -0.04199 -0.74035 34 61 104
0.96487 -0.04539 -0.73511 32 62 107
0.99273 -0.05331 -0.73128 35 67 108
0.98197 -0.05866 -0.73483 49 77 117
0.98972 -0.06165 -0.73178 50 77 117
0.99747 -0.06463 -0.72873 49 78 117
1.18363 -0.11992 -0.67364 66 91 118
1.17280 -0.12531 -0.67721 63 94 125
1.18429 -0.12406 -0.66352 47 60 88
1.19398 -0.12675 -0.66234 72 74 75
1.21128 -0.12829 -0.66856 199 205 151
1.21606 -0.13970 -0.66598 238 212 176
1.21961 -0.13122 -0.66597 235 205 167
1.22439 -0.14264 -0.66339 235 208 176
1.53227 -0.19044 -0.69827 225 210 197
1.52722 -0.17835 -0.70100 235 216 197
1.52400 -0.18725 -0.70153 216 200 189
1.52078 -0.19615 -0.70206 192 164 139
1.52905 -0.19934 -0.69880 199 177 167
1.58767 -0.20902 -0.68343 216 191 179
-0.66852 0.46624 -1.10111 254 254 253
-0.67274 0.47634 -1.10339 254 254 254
-0.67543 0.46891 -1.10383 254 254 254
-0.67812 0.46147 -1.10427 254 254 254
-0.65121 0.49969 -1.19710 243 156 130
-0.64680 0.48915 -1.19472 233 118 53
-0.64482 0.48848 -1.17217 231 114 62
-0.55918 0.45466 -1.13628 244 134 79
-0.55426 0.44119 -1.10468 248 194 170
-0.55338 0.40991 -1.02503 252 240 238
-0.54719 0.40450 -1.01482 254 253 254
-0.54091 0.39966 -1.00615 254 252 249
-0.53441 0.39587 -1.00028 237 230 232
-0.52761 0.39336 -0.99790 232 228 229
-0.52085 0.39070 -0.99510 245 245 246
-0.51671 0.38081 -0.99286 252 254 254
-0.40117 0.37622 -1.02897 252 233 196
-0.39247 0.37751 -1.03744 251 207 148
-0.38713 0.37087 -1.02359 251 210 157
-0.38157 0.36491 -1.01162 253 222 159
-0.30112 0.37322 -1.08062 248 152 99
-0.28897 0.37924 -1.10325 229 172 183
-0.27271 0.37625 -1.10525 192 160 150
-0.25748 0.38680 -1.14132 166 82 70
-0.24905 0.38546 -1.14288 158 48 58
-0.19731 0.40753 -1.23013 217 170 168
-0.11934 0.25922 -0.89626 98 24 48
-0.12629 0.26189 -0.89900 104 13 34
-0.12899 0.25442 -0.89945 105 16 31
-0.11664 0.26669 -0.89582 113 61 74
-0.10969 0.26401 -0.89308 161 158 160
-0.11240 0.25654 -0.89352 148 129 146
-0.06889 0.25211 -0.90797 191 191 193
-0.07319 0.26239 -0.91030 187 184 188
-0.07593 0.25482 -0.91075 187 183 190
-0.07867 0.24725 -0.91120 186 183 188
-0.07163 0.24453 -0.90842 189 188 191
-0.06231 0.24894 -0.90375 198 204 205
-0.03085 0.24125 -0.90271 212 214 215
-0.00810 0.23448 -0.89886 211 221 223
-0.00002 0.23265 -0.89896 181 194 217
0.00919 0.23179 -0.90223 175 184 206
0.01354 0.22140 -0.89988 84 71 79
0.01809 0.23062 -0.90448 110 100 146
0.02245 0.22020 -0.90213 67 60 86
0.02810 0.23035 -0.90973 94 93 112
0.04575 0.22764 -0.91326 115 94 98
0.05521 0.22675 -0.91658 108 107 119
0.05980 0.22183 -0.90672 69 57 92
0.06979 0.22132 -0.91133 105 86 112
0.08809 0.22737 -0.93769 187 179 182
0.12494 0.22186 -0.94543 171 168 189
0.14347 0.22734 -0.97047 84 86 132
0.15573 0.22799 -0.97940 99 119 144
0.16991 0.22995 -0.99282 170 180 208
0.19209 0.23752 -1.02539 218 225 237
0.20306 0.23689 -1.03027 235 237 242
0.21525 0.23704 -1.03790 225 220 223
0.22376 0.23459 -1.03666 161 119 141
0.22850 0.22325 -1.03410 119 31 58
0.25247 0.23750 -1.06116 124 65 107
0.26927 0.24041 -1.07859 218 233 249
0.28218 0.24063 -1.08681 253 254 254
0.29326 0.24614 -1.08316 254 254 254
0.29016 0.23756 -1.08367 254 254 254
0.28705 0.22899 -1.08418 253 254 254
0.31403 0.23644 -1.09495 249 248 250
0.30287 0.23090 -1.09863 254 254 253
0.32703 0.23646 -1.10271 162 153 204
0.33603 0.23392 -1.10156 69 79 117
0.34426 0.23090 -1.09869 77 140 195
0.34919 0.21910 -1.09603 76 130 184
0.35423 0.22893 -1.09956 83 136 192
0.36123 0.22517 -1.09406 103 149 203
0.37907 0.21991 -1.09115 126 152 196
0.38325 0.21454 -1.07988 151 195 229
0.38818 0.20275 -1.07722 162 196 230
0.49707 0.15756 -1.00136 182 219 237
0.50194 0.14592 -0.99873 193 222 234
0.53158 0.15322 -1.01070 185 225 236
0.52042 0.14767 -1.01438 165 208 231
0.54199 0.15119 -1.01169 207 239 247
0.54690 0.13943 -1.00903 195 232 248
0.56250 0.14694 -1.01296 217 243 248
0.57696 0.14663 -1.02073 229 250 245
0.59313 0.14698 -1.03122 191 202 201
0.63378 0.15772 -1.08288 106 105 124
0.63759 0.15258 -1.07194 90 101 95
0.63430 0.14450 -1.04930 160 168 138
0.65515 0.14651 -1.06681 210 195 164
0.67341 0.14735 -1.07979 165 130 97
0.68395 0.14497 -1.07995 45 14 22
0.68909 0.13268 -1.07717 25 23 30
0.87838 -0.02549 -0.75840 30 48 87
0.87068 -0.02252 -0.76143 24 46 83
0.86769 -0.03080 -0.76193 26 49 89
0.88308 -0.03673 -0.75586 45 60 98
0.88370 -0.02904 -0.75246 40 57 93
0.88840 -0.04027 -0.74992 50 66 103
0.88835 -0.03274 -0.74574 47 62 98
0.89304 -0.04395 -0.74321 49 69 104
0.89389 -0.03621 -0.74013 49 62 99
0.89857 -0.04740 -0.73760 54 71 104
0.90111 -0.03926 -0.73659 51 65 100
0.90579 -0.05045 -0.73406 55 74 109
0.90983 -0.04196 -0.73483 52 68 105
0.91451 -0.05316 -0.73230 53 75 113
0.92035 -0.04426 -0.73520 53 70 109
0.92504 -0.05547 -0.73267 52 76 111
0.93020 -0.04672 -0.73473 54 74 106
0.93489 -0.05795 -0.73219 50 78 111
0.94202 -0.04875 -0.73655 51 74 107
0.94673 -0.06000 -0.73400 51 81 111
1.18360 -0.12785 -0.67712 65 91 116
1.17275 -0.13324 -0.68070 63 95 124
1.18648 -0.13161 -0.66917 32 41 93
1.19595 -0.13436 -0.66775 113 104 123
1.21073 -0.13632 -0.67149 219 214 176
1.21551 -0.14775 -0.66890 235 211 184
1.58293 -0.21808 -0.68272 226 199 183
1.57141 -0.22381 -0.68651 236 211 188
1.57970 -0.22700 -0.68325 240 217 187
-0.67112 0.46008 -1.10490 254 253 246
-0.68073 0.45530 -1.10808 254 254 254
-0.65489 0.48193 -1.17118 240 124 55
-0.65053 0.47151 -1.16883 236 128 46
-0.56168 0.44837 -1.14050 247 112 21
-0.57162 0.44343 -1.14378 248 111 7
-0.56447 0.44068 -1.14096 252 114 8
-0.55378 0.44924 -1.14750 249 139 69
-0.55051 0.42826 -1.09523 250 194 164
-0.54887 0.40148 -1.02697 252 238 235
-0.54284 0.39538 -1.01481 254 251 249
-0.53650 0.39084 -1.00687 238 231 231
-0.52963 0.38854 -1.00506 230 223 225
-0.52325 0.38433 -0.99804 243 243 244
-0.51911 0.37443 -0.99580 252 253 254
-0.31109 0.36847 -1.08475 253 129 18
-0.30250 0.36808 -1.08891 241 122 46
-0.25887 0.38133 -1.14945 167 90 67
-0.25092 0.37913 -1.14854 166 61 53
-0.22732 0.40252 -1.22324 203 156 167
-0.22256 0.39115 -1.22067 199 201 224
-0.11677 0.25760 -0.91503 99 12 37
-0.12650 0.25276 -0.91825 102 19 36
-0.11949 0.25006 -0.91548 103 13 35
-0.06362 0.24280 -0.90876 193 193 198
-0.07341 0.23793 -0.91199 188 186 189
-0.06636 0.23521 -0.90921 190 186 193
-0.05588 0.24076 -0.90814 199 201 207
-0.04784 0.23899 -0.90841 205 205 211
-0.04049 0.23654 -0.90650 209 209 212
-0.03360 0.23365 -0.90316 205 211 215
-0.02528 0.23209 -0.90414 204 215 217
-0.01769 0.22982 -0.90285 204 209 213
-0.00927 0.22830 -0.90398 155 140 179
-0.00067 0.22690 -0.90554 78 61 131
0.00766 0.22523 -0.90624 103 105 116
0.03663 0.22340 -0.91896 105 120 124
0.02663 0.21844 -0.92226 89 64 60
0.03383 0.21566 -0.91942 95 82 96
0.04727 0.22350 -0.92560 135 129 126
0.06246 0.22726 -0.94448 171 156 150
0.06868 0.22356 -0.93866 201 190 169
0.07684 0.22145 -0.93811 206 203 185
0.08243 0.21729 -0.93073 215 222 221
0.10931 0.21269 -0.93500 168 173 198
0.13633 0.22461 -0.98211 129 122 141
0.13780 0.21727 -0.96400 66 58 99
0.14597 0.21492 -0.96286 63 65 127
0.16529 0.22060 -0.98918 121 120 158
0.18513 0.22643 -1.01619 193 208 218
0.19880 0.22770 -1.02771 218 221 222
0.21125 0.22802 -1.03604 194 183 191
0.21598 0.21671 -1.03348 121 38 50
0.22375 0.22830 -1.04429 124 69 105
0.22851 0.21693 -1.04172 117 33 70
0.28811 0.24633 -1.12966 191 186 216
0.28513 0.23599 -1.10114 243 250 252
0.31427 0.22991 -1.10296 245 245 244
0.32306 0.22726 -1.10139 104 119 195
0.33090 0.22402 -1.09773 75 89 141
0.33872 0.22077 -1.09402 122 153 197
0.35531 0.21484 -1.08867 110 156 208
0.35974 0.20961 -1.07783 125 169 222
0.36465 0.19787 -1.07518 122 166 206
0.37952 0.20552 -1.07917 144 194 238
0.39345 0.18318 -1.02979 130 169 215
0.45062 0.16259 -1.01096 131 181 219
0.44577 0.17420 -1.01358 135 180 223
0.44267 0.16566 -1.01409 144 188 231
0.45371 0.17114 -1.01045 133 182 219
0.46166 0.16808 -1.00732 144 189 210
0.45981 0.16014 -1.01015 130 185 210
0.47085 0.16564 -1.00651 154 193 200
0.46479 0.15564 -1.00151 148 200 211
0.46964 0.14405 -0.99889 193 208 201
0.48374 0.15099 -1.00089 152 197 216
0.49029 0.14726 -0.99520 182 220 233
0.49515 0.13566 -0.99258 200 231 246
0.52092 0.14116 -0.99784 174 225 243
0.57575 0.13873 -1.02459 195 231 231
0.59276 0.13939 -1.03654 128 155 175
0.63429 0.14358 -1.07238 145 131 130
0.63912 0.13892 -1.06324 174 162 134
0.64650 0.13534 -1.05841 185 171 138
0.66804 0.13746 -1.07687 157 133 108
0.67941 0.13542 -1.07843 45 20 13
0.68455 0.12313 -1.07565 24 23 36
1.18404 -0.13572 -0.68108 64 89 104
1.20217 -0.13719 -0.68819 27 29 70
1.21410 -0.13962 -0.68910 141 141 146
1.21202 -0.14411 -0.67623 225 216 194
1.21681 -0.15557 -0.67364 231 204 182
1.50701 -0.20609 -0.69355 191 150 95
1.51860 -0.20894 -0.69316 184 150 120
1.52640 -0.21216 -0.68953 192 166 146
1.53144 -0.22421 -0.68681 181 146 131
1.53331 -0.21546 -0.68515 198 176 162
-0.66408 0.48634 -1.19925 244 169 143
-0.65769 0.47402 -1.17102 242 124 40
-0.63691 0.46008 -1.14733 223 112 10
-0.63258 0.44972 -1.14499 215 107 11
-0.55794 0.43486 -1.12977 252 114 16
-0.56784 0.42994 -1.13304 254 118 14
-0.56071 0.42719 -1.13023 253 118 6
-0.54990 0.43636 -1.13860 250 141 65
-0.54722 0.41348 -1.08054 251 191 165
-0.54454 0.39216 -1.02654 252 232 230
-0.53867 0.38552 -1.01278 236 225 228
-0.53099 0.38636 -1.01967 228 218 221
-0.52521 0.37964 -1.00566 241 241 243
-0.52106 0.36970 -1.00342 252 253 253
-0.38424 0.35608 -1.03035 254 253 242
-0.39401 0.35122 -1.03358 254 254 254
-0.38697 0.34851 -1.03080 254 254 252
-0.30705 0.35707 -1.08011 225 108 20
-0.29568 0.36165 -1.09900 184 107 63
-0.26519 0.36749 -1.13288 169 101 67
-0.26063 0.35656 -1.13041 157 61 15
-0.24595 0.36872 -1.14787 162 91 114
-0.18276 0.39201 -1.24726 152 125 126
-0.19375 0.38655 -1.25088 195 191 221
-0.08767 0.25333 -0.94346 184 178 180
-0.07777 0.25825 -0.94019 186 183 184
-0.08054 0.25058 -0.94065 187 183 184
-0.08332 0.24292 -0.94111 185 182 185
-0.05618 0.23556 -0.91632 193 193 201
-0.06602 0.23067 -0.91957 189 187 193
-0.04883 0.23308 -0.91436 191 200 207
-0.04140 0.23068 -0.91263 183 202 212
-0.04110 0.22159 -0.88909 152 162 201
-0.03188 0.22092 -0.89297 134 151 197
-0.02252 0.22032 -0.89713 161 172 206
-0.01159 0.22106 -0.90573 106 78 139
-0.00323 0.21944 -0.90662 83 53 92
0.00778 0.22009 -0.91506 153 149 130
0.01552 0.21784 -0.91391 127 104 92
0.04194 0.21364 -0.91911 126 104 130
0.05969 0.21945 -0.94512 187 177 184
0.06305 0.21347 -0.93157 221 224 216
0.07609 0.21526 -0.94419 190 182 201
0.08341 0.21244 -0.94132 182 182 200
0.09003 0.20908 -0.93658 193 200 194
0.11121 0.21683 -0.96975 129 112 125
0.11571 0.21176 -0.95928 71 46 67
0.12754 0.21219 -0.96762 91 89 106
0.14407 0.21597 -0.98759 138 133 146
0.15158 0.21306 -0.98459 144 116 129
0.17035 0.21819 -1.00944 162 148 146
0.18430 0.21971 -1.02194 196 204 213
0.19055 0.21577 -1.01547 194 192 206
0.20902 0.22023 -1.03842 155 133 143
0.25925 0.22084 -1.07072 134 64 112
0.29637 0.23662 -1.13458 206 210 227
0.29459 0.22718 -1.10885 241 250 254
0.30434 0.22514 -1.10949 250 252 253
0.31529 0.22382 -1.11274 233 230 238
0.33157 0.22572 -1.12765 70 70 195
0.33046 0.21698 -1.10415 104 104 178
0.32925 0.20831 -1.08079 222 237 228
0.33710 0.20513 -1.07728 112 148 187
0.34542 0.20223 -1.07480 114 152 203
0.38644 0.17255 -1.02241 125 169 218
0.40690 0.16888 -1.02536 141 186 225
0.41484 0.16583 -1.02223 130 176 227
0.41175 0.15729 -1.02274 120 168 217
0.43560 0.15513 -1.00700 143 188 230
0.43077 0.16670 -1.00961 144 185 225
0.42768 0.15818 -1.01012 141 185 224
0.42460 0.14966 -1.01063 123 177 221
0.44336 0.15200 -1.00358 127 169 216
0.45304 0.14981 -1.00377 134 174 201
0.46167 0.14709 -1.00195 172 201 204
0.47883 0.14158 -0.99805 175 200 209
0.48302 0.13678 -0.98809 187 220 236
0.49982 0.13111 -0.98358 172 214 240
0.52316 0.12832 -0.99056 171 221 249
0.52803 0.11668 -0.98793 202 236 246
0.56012 0.12467 -1.00362 184 222 231
0.60241 0.13600 -1.05902 131 146 181
0.60702 0.12472 -1.03242 190 190 175
0.62617 0.12603 -1.04753 219 197 156
0.65358 0.13054 -1.07606 175 147 119
0.67529 0.13262 -1.09474 123 102 86
0.67515 0.12598 -1.07735 37 19 16
0.66387 0.08400 -0.96089 27 31 57
0.65895 0.09576 -0.96354 24 29 43
0.65582 0.08710 -0.96406 24 30 48
0.66700 0.09266 -0.96037 25 29 51
0.67505 0.08955 -0.95720 22 29 51
0.66958 0.08005 -0.95408 27 32 55
0.68074 0.08560 -0.95040 25 28 49
0.67399 0.07567 -0.94533 28 26 51
0.68512 0.08120 -0.94165 31 30 56
0.68475 0.07355 -0.94637 34 27 57
0.69590 0.07909 -0.94269 26 33 53
0.69177 0.07010 -0.94168 28 27 54
0.70292 0.07564 -0.93800 21 32 57
0.69980 0.06701 -0.93852 20 32 57
1.10801 -0.08623 -0.78810 36 69 108
1.10309 -0.07446 -0.79075 46 76 113
1.09995 -0.08313 -0.79127 44 74 114
1.11114 -0.07757 -0.78758 38 71 112
1.11919 -0.08067 -0.78440 34 70 111
1.11505 -0.08952 -0.78382 35 65 102
1.12623 -0.08396 -0.78013 38 72 110
1.11887 -0.09338 -0.77607 44 67 99
1.13002 -0.08784 -0.77239 42 73 108
1.12425 -0.09695 -0.77006 52 71 99
1.13539 -0.09141 -0.76638 41 73 109
1.13227 -0.10003 -0.76690 47 72 100
1.12915 -0.10866 -0.76741 50 68 92
1.18420 -0.13947 -0.69573 64 94 125
1.17940 -0.12797 -0.69833 62 93 127
1.17633 -0.13643 -0.69884 65 93 128
1.17327 -0.14490 -0.69934 66 94 127
1.19157 -0.14257 -0.69213 58 82 94
1.20359 -0.14500 -0.69314 35 29 46
1.21977 -0.14685 -0.69821 162 173 145
1.22225 -0.15067 -0.68975 228 209 192
1.22707 -0.16221 -0.68715 231 200 175
1.39367 -0.21014 -0.63931 227 196 168
1.38881 -0.19853 -0.64194 215 186 157
1.38263 -0.21563 -0.64296 232 203 183
1.39676 -0.20159 -0.63880 205 176 157
1.41152 -0.21221 -0.64482 223 191 159
1.43944 -0.21332 -0.65899 215 182 161
1.46356 -0.21487 -0.66968 214 178 151
1.49808 -0.21549 -0.68916 212 177 128
1.51233 -0.21810 -0.69107 202 171 126
1.52847 -0.22055 -0.69454 191 155 124
1.54438 -0.22697 -0.68750 190 161 149
1.54943 -0.23905 -0.68477 179 142 118
1.55407 -0.23003 -0.68544 202 183 163
1.56287 -0.23317 -0.68262 214 200 183
-0.73176 0.50994 -1.24204 156 158 184
-0.67643 0.44629 -1.10875 254 252 235
-0.68606 0.44151 -1.11192 254 254 254
-0.66630 0.48653 -1.22101 244 177 146
-0.66026 0.46876 -1.17794 244 133 52
-0.65334 0.46353 -1.16848 235 130 45
-0.64630 0.45978 -1.16297 229 114 34
-0.64195 0.44937 -1.16061 225 112 5
-0.55382 0.42335 -1.12439 252 119 17
-0.56371 0.41843 -1.12765 252 121 6
-0.55659 0.41569 -1.12484 253 118 4
-0.54614 0.42313 -1.12857 252 136 75
-0.54165 0.40889 -1.09388 248 174 148
-0.53794 0.39226 -1.05236 233 198 199
-0.53179 0.38647 -1.04093 226 211 217
-0.52638 0.37806 -1.02214 240 240 242
-0.37847 0.34900 -1.03736 254 252 234
-0.38829 0.34412 -1.04060 254 254 254
-0.38122 0.34139 -1.03781 254 254 252
-0.21249 0.38807 -1.24325 170 157 205
-0.20769 0.37658 -1.24065 204 205 235
-0.09050 0.24561 -0.94374 177 176 181
-0.05696 0.22986 -0.92306 193 190 187
-0.06682 0.22495 -0.92632 190 188 194
-0.05453 0.22265 -0.90559 151 135 147
-0.04520 0.22208 -0.90987 83 79 129
-0.03806 0.21940 -0.90724 49 57 101
-0.03099 0.21667 -0.90445 34 44 82
-0.02050 0.21702 -0.91186 91 97 135
-0.01616 0.20662 -0.90951 121 120 109
-0.01267 0.21492 -0.91120 124 111 137
-0.00728 0.21065 -0.90330 108 79 88
0.00545 0.21278 -0.91681 156 154 146
0.02318 0.21014 -0.92086 136 117 78
0.03231 0.20899 -0.92348 133 110 91
0.05104 0.21564 -0.95262 184 172 172
0.05439 0.20962 -0.93884 218 219 214
0.06344 0.20822 -0.94079 212 205 198
0.07302 0.20721 -0.94405 162 143 135
0.08413 0.20733 -0.95127 148 141 139
0.10789 0.20851 -0.96912 107 115 133
0.11636 0.20642 -0.96888 108 110 95
0.12433 0.20394 -0.96729 83 76 105
0.14016 0.20716 -0.98560 133 119 136
0.15161 0.20708 -0.99248 158 127 141
0.16819 0.21056 -1.01192 190 188 181
0.18172 0.21174 -1.02344 195 200 203
0.18803 0.20785 -1.01709 163 149 165
0.20730 0.21278 -1.04204 117 58 86
0.21204 0.20144 -1.03948 116 20 53
0.27905 0.21884 -1.10253 153 75 120
0.30924 0.22972 -1.14990 171 198 233
0.30752 0.22039 -1.12427 207 228 242
0.36134 0.24532 -1.22332 196 201 214
0.32686 0.20013 -1.08290 228 251 249
0.33040 0.19442 -1.07006 197 205 225
0.33617 0.19007 -1.06218 141 151 192
0.34248 0.18605 -1.05553 105 150 207
0.34861 0.18196 -1.04856 126 166 210
0.35477 0.17051 -1.02220 110 160 213
0.36625 0.16943 -1.02648 123 150 202
0.37260 0.16556 -1.02023 131 164 211
0.39010 0.16039 -1.01747 116 166 214
0.39493 0.14885 -1.01486 129 175 216
0.42971 0.14523 -1.00213 123 179 224
0.41874 0.13977 -1.00575 126 176 221
0.43879 0.14276 -1.00125 130 171 208
0.44877 0.14071 -1.00204 163 176 193
0.45919 0.13884 -1.00359 195 192 199
0.48034 0.13517 -1.00703 182 188 207
0.47834 0.12753 -0.98569 200 217 235
0.49181 0.12039 -0.97524 165 205 237
0.49895 0.11702 -0.97079 160 208 235
0.51143 0.11599 -0.97581 185 227 244
0.51627 0.10442 -0.97320 214 239 246
0.57904 0.11873 -1.02499 159 166 189
0.60874 0.11790 -1.04124 206 212 194
0.61999 0.11595 -1.04307 243 217 183
0.64557 0.11965 -1.06870 215 178 134
0.66622 0.11475 -1.06860 35 20 12
0.67229 0.11065 -1.06157 25 27 27
0.68390 0.11642 -1.05774 31 31 39
0.68065 0.10743 -1.05828 30 31 38
0.66761 0.08388 -0.98816 30 34 61
0.66264 0.09577 -0.99085 27 32 46
0.65948 0.08702 -0.99137 28 33 51
0.65631 0.07827 -0.99189 31 32 49
0.66480 0.07681 -0.96778 40 48 74
0.67371 0.07400 -0.96591 43 57 80
0.68209 0.07099 -0.96320 49 62 80
0.68758 0.06698 -0.95603 61 70 87
0.69374 0.06322 -0.94996 51 57 74
0.69783 0.05877 -0.94078 33 35 62
0.70898 0.06432 -0.93710 21 33 57
0.70586 0.05568 -0.93761 26 34 53
0.72192 0.04950 -0.93129 31 38 62
0.73308 0.05504 -0.92761 24 38 69
0.73018 0.04647 -0.92846 27 39 72
0.74133 0.05202 -0.92478 29 38 70
0.73821 0.04338 -0.92529 32 39 73
0.75410 0.04277 -0.93354 33 40 74
0.75724 0.05145 -0.93302 28 38 73
0.76531 0.04834 -0.92984 28 40 73
0.76217 0.03966 -0.93036 25 40 75
1.10316 -0.09520 -0.78674 35 66 100
1.11048 -0.09843 -0.78277 33 57 89
1.11539 -0.11018 -0.78011 40 49 75
1.11448 -0.10224 -0.77521 39 55 81
1.11938 -0.11397 -0.77256 42 52 74
1.11906 -0.10593 -0.76834 43 59 80
1.19058 -0.14655 -0.70573 63 91 122
1.17959 -0.15202 -0.70935 64 93 127
1.19474 -0.15014 -0.69886 47 62 91
1.21181 -0.15188 -0.70486 64 54 62
1.22446 -0.15428 -0.70639 188 195 160
1.22932 -0.16590 -0.70377 234 205 175
1.23028 -0.15764 -0.70117 231 204 180
1.23513 -0.16924 -0.69855 234 202 175
1.39542 -0.21821 -0.64408 233 205 182
1.40029 -0.22985 -0.64145 238 214 192
1.41865 -0.21981 -0.65429 234 205 181
1.42355 -0.23153 -0.65164 239 215 189
1.44495 -0.22117 -0.66703 235 206 181
1.46986 -0.22273 -0.67838 237 205 173
1.49671 -0.22417 -0.69126 234 201 166
1.50971 -0.22691 -0.69210 228 196 154
1.51681 -0.23018 -0.68789 222 188 154
1.52746 -0.23315 -0.68668 214 174 145
1.54727 -0.23535 -0.69318 199 155 129
1.56974 -0.24126 -0.69155 173 151 152
1.56165 -0.24575 -0.67469 183 170 176
-0.72747 0.48081 -1.19031 203 205 216
-0.67911 0.43914 -1.11002 254 252 240
-0.68874 0.43436 -1.11319 254 254 254
-0.66894 0.48132 -1.22855 245 189 164
-0.66343 0.45636 -1.16566 240 133 50
-0.65638 0.45285 -1.16078 234 121 38
-0.65204 0.44246 -1.15843 232 113 11
-0.64935 0.44931 -1.15580 230 113 20
-0.64501 0.43894 -1.15346 229 113 4
-0.54948 0.41290 -1.12190 253 114 17
-0.55937 0.40798 -1.12516 253 121 1
-0.55225 0.40524 -1.12235 254 121 5
-0.54513 0.40249 -1.11955 246 120 16
-0.54252 0.40947 -1.11718 243 126 52
-0.53526 0.40733 -1.11606 226 152 126
-0.53222 0.38816 -1.06703 222 192 193
-0.52825 0.37379 -1.03132 239 235 238
-0.52205 0.36859 -1.02139 252 252 252
-0.51253 0.37332 -1.01825 254 254 254
-0.51519 0.36595 -1.01869 254 254 254
-0.51786 0.35857 -1.01913 254 254 254
-0.37349 0.34008 -1.03918 254 252 242
-0.38333 0.33519 -1.04242 254 254 254
-0.37625 0.33246 -1.03963 254 254 254
-0.31904 0.34599 -1.08918 236 119 17
-0.31150 0.34363 -1.08768 192 111 46
-0.27979 0.35205 -1.13004 156 82 76
-0.27003 0.35305 -1.13883 146 58 33
-0.26546 0.34210 -1.13635 127 39 11
-0.20868 0.39030 -1.27650 172 152 196
-0.17680 0.37804 -1.26398 147 109 117
-0.17193 0.36640 -1.26135 94 44 44
-0.10620 0.23457 -0.92708 117 80 96
-0.11601 0.22969 -0.93031 103 21 34
-0.10895 0.22697 -0.92753 100 32 58
-0.08484 0.23654 -0.94576 186 181 185
-0.07492 0.24146 -0.94249 187 183 187
-0.07770 0.23378 -0.94295 188 184 187
-0.05671 0.22512 -0.93313 194 191 185
-0.06662 0.22019 -0.93640 193 191 195
-0.05344 0.21869 -0.91811 158 141 123
-0.04835 0.21409 -0.90909 70 61 72
-0.03933 0.21316 -0.91229 105 116 116
-0.03189 0.21074 -0.91054 119 117 116
-0.02723 0.20582 -0.90038 83 70 83
-0.01308 0.20037 -0.89483 114 71 73
0.00175 0.20430 -0.91462 141 116 128
0.01572 0.20732 -0.93145 198 198 198
0.02013 0.19678 -0.92906 216 218 218
0.02480 0.20609 -0.93389 222 219 188
0.02921 0.19553 -0.93151 217 217 217
0.03456 0.20539 -0.93819 223 223 189
0.04449 0.20476 -0.94277 222 222 211
0.05231 0.20240 -0.94140 220 219 219
0.06099 0.20069 -0.94233 220 218 209
0.07158 0.20043 -0.94831 181 172 164
0.08620 0.20322 -0.96493 140 126 132
0.10498 0.20050 -0.96954 95 108 133
0.11658 0.20072 -0.97742 104 119 127
0.12359 0.19751 -0.97331 106 102 131
0.14301 0.20323 -1.00073 175 177 149
0.15480 0.20331 -1.00839 200 200 186
0.16477 0.20204 -1.01130 200 202 195
0.17940 0.20395 -1.02558 168 156 164
0.19329 0.20522 -1.03771 121 63 90
0.19802 0.19393 -1.03516 107 14 43
0.20746 0.20658 -1.05024 109 15 45
0.21222 0.19520 -1.04767 111 22 47
0.31319 0.21709 -1.14479 111 115 163
0.32275 0.21477 -1.14464 110 100 158
0.32819 0.20996 -1.13529 50 68 138
0.32374 0.19150 -1.08341 201 239 250
0.32564 0.18488 -1.06700 175 196 234
0.33051 0.17323 -1.06437 116 153 193
0.32879 0.17906 -1.05351 136 150 195
0.33540 0.17525 -1.04756 93 142 212
0.33461 0.16735 -1.02606 197 213 237
0.34712 0.16688 -1.03268 165 178 233
0.35053 0.16140 -1.02027 197 211 221
0.35829 0.15832 -1.01696 217 200 214
0.36726 0.15587 -1.01611 199 211 221
0.37207 0.14437 -1.01351 153 180 213
0.38192 0.15639 -1.02672 154 182 204
0.38676 0.14482 -1.02411 145 185 221
0.41910 0.13307 -0.98814 116 173 220
0.40819 0.12765 -0.99174 146 190 227
0.42754 0.13033 -0.98619 161 196 221
0.43415 0.12672 -0.98075 217 231 231
0.45115 0.12128 -0.97700 234 237 239
0.45941 0.11844 -0.97465 231 236 243
0.46986 0.11659 -0.97631 228 237 248
0.47677 0.11312 -0.97145 188 214 244
0.48157 0.10163 -0.96885 173 215 241
0.48590 0.11065 -0.97063 162 203 241
0.48999 0.10597 -0.96076 189 228 245
0.49479 0.09450 -0.95817 207 240 249
0.50296 0.10515 -0.96674 213 241 247
0.50777 0.09363 -0.96414 209 239 247
0.62001 0.10836 -1.04903 235 213 185
0.66073 0.10490 -1.06548 57 43 20
0.66707 0.10092 -1.05889 43 40 43
0.67217 0.08873 -1.05614 50 45 61
0.66947 0.09550 -1.04598 41 37 43
0.68101 0.10123 -1.04217 29 31 46
0.67778 0.09230 -1.04270 35 32 44
0.66795 0.07639 -0.99424 37 37 60
0.65662 0.07076 -0.99797 42 39 51
0.66420 0.06903 -0.97229 57 72 85
0.66914 0.05721 -0.96962 64 81 94
0.68215 0.05752 -0.95302 103 89 89
0.68916 0.05407 -0.94826 97 83 78
0.69948 0.05173 -0.94854 43 53 73
0.70440 0.03996 -0.94588 38 43 73
0.70647 0.04828 -0.94376 36 43 65
0.71589 0.04562 -0.94263 44 49 63
0.72376 0.04246 -0.93918 52 53 75
0.73220 0.03947 -0.93657 51 54 78
0.74463 0.03775 -0.93981 49 54 77
0.75303 0.03473 -0.93707 56 57 73
0.76129 0.03167 -0.93414 42 50 71
0.77252 0.03725 -0.93044 25 41 75
0.76938 0.02855 -0.93095 34 45 73
1.08995 -0.10112 -0.78818 43 72 111
1.07879 -0.10667 -0.79186 54 80 117
1.10052 -0.10377 -0.78779 38 64 96
1.10543 -0.11553 -0.78513 45 55 81
1.19277 -0.15432 -0.71154 62 88 118
1.18176 -0.15979 -0.71517 63 91 127
