ply
format ascii 1.0
element face 0
property list uchar int vertex_indices
element vertex 1318
property float x
property float y
property float z
property uchar diffuse_red
property uchar diffuse_green
property uchar diffuse_blue
end_header
1.37377 0.03416 -0.44884 24 28 62
1.38801 0.03219 -0.44951 146 162 155
1.39243 0.02087 -0.44685 222 221 214
-0.41140 0.73613 -1.27754 210 169 165
-0.40141 0.74115 -1.27293 206 196 204
-0.40605 0.72992 -1.26700 215 167 162
-0.39851 0.72769 -1.26503 222 169 165
-0.24416 0.69719 -1.25467 247 247 240
-0.24855 0.70844 -1.25732 179 192 166
-0.24125 0.70538 -1.25363 202 204 200
-0.24707 0.68899 -1.25571 244 247 249
-0.23395 0.70233 -1.24995 170 155 124
-0.23838 0.69206 -1.24640 239 232 206
-0.22819 0.69719 -1.24169 92 59 50
-0.22945 0.69121 -1.24761 212 191 156
-0.21923 0.69635 -1.24289 49 31 66
-0.15254 0.60871 -1.10934 167 156 200
-0.15957 0.61166 -1.11288 35 23 111
-0.16237 0.60376 -1.11388 110 96 137
-0.06542 0.41919 -0.76265 155 161 179
-0.07411 0.41481 -0.76666 149 153 162
-0.06146 0.41476 -0.75517 168 175 201
-0.04381 0.41373 -0.75884 166 179 199
-0.04013 0.40911 -0.75089 155 153 189
-0.01794 0.41891 -0.77748 128 100 161
-0.02501 0.40597 -0.74957 100 43 109
-0.01886 0.40329 -0.74627 81 9 61
-0.01425 0.39945 -0.74017 72 21 45
0.01718 0.40828 -0.76781 136 138 117
0.03006 0.41042 -0.77622 172 176 158
0.15867 0.45684 -0.90969 93 113 103
0.15591 0.44907 -0.91067 129 118 159
0.19543 0.46659 -0.94090 239 229 197
0.19262 0.45867 -0.94190 238 250 239
0.19967 0.45572 -0.93834 236 219 158
0.19904 0.46133 -0.93165 114 109 70
0.70059 0.73545 -1.63634 41 53 67
0.80092 0.72687 -1.65186 35 33 47
0.81621 0.72601 -1.65510 51 36 39
0.84380 0.71256 -1.63745 154 144 88
0.54865 0.42244 -0.96795 149 121 107
0.60598 0.38208 -0.90669 68 102 178
0.61865 0.38125 -0.90914 73 111 204
0.62720 0.37854 -0.90654 75 111 222
0.61751 0.36137 -0.86945 103 146 239
0.61913 0.35574 -0.85883 97 144 244
0.62381 0.35147 -0.85190 92 143 243
0.62852 0.34722 -0.84503 94 143 240
0.63854 0.34524 -0.84436 96 141 241
0.65192 0.34465 -0.84751 95 138 239
0.66503 0.34390 -0.85028 94 139 240
0.67999 0.34387 -0.85506 94 141 240
0.69371 0.34327 -0.85833 97 144 240
0.70140 0.34020 -0.85474 98 137 227
0.72401 0.34310 -0.86779 56 82 191
0.71796 0.33452 -0.84888 55 82 183
0.73892 0.33666 -0.85989 74 111 201
0.74204 0.33175 -0.85119 80 110 203
0.75090 0.32909 -0.84879 68 92 198
0.77118 0.33079 -0.85872 61 76 168
0.76571 0.32264 -0.84083 66 97 180
0.78400 0.32351 -0.84847 71 105 184
0.78675 0.31851 -0.83948 68 104 187
0.79399 0.31521 -0.83529 63 96 183
0.80317 0.31262 -0.83314 59 92 173
0.80514 0.30741 -0.82347 53 82 158
0.80541 0.30162 -0.81210 48 66 141
0.81023 0.29750 -0.80551 48 64 135
0.81384 0.29296 -0.79771 50 70 130
0.84098 0.29668 -0.81386 47 65 121
0.87816 0.30375 -0.83988 36 60 115
0.91041 0.30894 -0.86060 35 54 109
0.96502 0.31554 -0.89134 31 52 106
0.96878 0.31080 -0.88318 34 53 104
0.95311 0.29966 -0.85606 32 47 96
0.89201 0.25146 -0.74094 27 43 103
0.92604 0.25666 -0.76224 22 40 98
0.94418 0.25678 -0.76835 20 35 87
0.96444 0.23021 -0.72235 14 22 53
0.96896 0.21864 -0.71963 15 14 40
0.97681 0.22848 -0.72294 14 21 50
0.98134 0.21688 -0.72022 15 14 39
0.99591 0.22867 -0.72949 13 22 44
1.00046 0.21699 -0.72675 14 13 39
1.05423 0.21316 -0.71771 13 17 42
1.05882 0.20142 -0.71495 8 11 27
1.06201 0.21001 -0.71400 13 19 38
1.06660 0.19827 -0.71124 7 11 26
1.07251 0.20759 -0.71261 12 19 37
1.07711 0.19583 -0.70985 8 11 27
1.07901 0.20410 -0.70781 11 18 39
1.08360 0.19234 -0.70505 8 12 29
1.08087 0.19939 -0.69910 11 18 41
1.08151 0.18417 -0.66920 11 16 37
1.08604 0.17257 -0.66648 8 12 27
1.14545 0.16979 -0.66146 61 63 65
1.18555 0.11604 -0.56813 88 99 83
1.19201 0.11275 -0.56371 100 108 105
1.19734 0.10923 -0.55846 104 109 97
1.36529 0.02928 -0.45471 46 45 45
1.35504 0.02412 -0.45945 52 57 55
1.36237 0.02105 -0.45575 43 48 37
1.37515 0.02661 -0.45262 47 36 55
1.36808 0.02129 -0.43980 181 199 176
1.37247 0.01004 -0.43716 221 218 216
-0.44019 0.71220 -1.23831 214 155 159
-0.43027 0.71468 -1.24651 215 148 138
-0.42604 0.70384 -1.24396 219 136 101
-0.42400 0.71035 -1.23996 216 143 115
-0.41707 0.70726 -1.23609 219 140 100
-0.40752 0.70879 -1.24228 223 143 104
-0.39378 0.71749 -1.26414 228 166 144
-0.25644 0.68917 -1.25300 234 242 248
-0.26083 0.70040 -1.25563 119 99 132
-0.26373 0.69222 -1.25667 161 153 177
-0.25206 0.67795 -1.25036 244 247 250
-0.24613 0.67734 -1.23282 240 241 241
-0.24901 0.66920 -1.23384 239 240 245
-0.24121 0.67121 -1.22223 248 245 235
-0.22756 0.66412 -1.21262 233 231 196
-0.21748 0.66920 -1.20796 143 148 143
-0.17328 0.58079 -1.06455 207 201 225
-0.07522 0.42164 -0.77989 162 168 181
-0.07898 0.43127 -0.78215 168 177 189
-0.08147 0.42426 -0.78304 174 181 199
-0.07146 0.41201 -0.77763 157 157 163
-0.06844 0.41177 -0.76247 157 162 175
-0.06573 0.40635 -0.75257 170 180 202
-0.05713 0.40568 -0.75407 163 164 193
-0.03204 0.41795 -0.78676 137 105 148
-0.02870 0.41296 -0.77794 114 45 95
-0.02753 0.40636 -0.76518 100 18 68
-0.02536 0.40060 -0.75441 87 14 45
-0.02089 0.39663 -0.74799 76 22 30
-0.01274 0.39546 -0.74834 103 88 73
0.00712 0.40293 -0.76977 168 182 162
0.01094 0.39317 -0.76748 176 192 207
0.01348 0.40030 -0.76661 185 200 195
0.05197 0.41360 -0.80578 210 235 240
0.08888 0.42506 -0.84078 107 110 199
0.63454 0.73548 -1.63878 98 49 9
0.62120 0.72876 -1.64495 252 252 233
0.63074 0.72477 -1.64014 217 206 138
0.74489 0.72437 -1.65301 30 27 58
0.74613 0.71514 -1.63504 39 24 24
0.74784 0.70629 -1.61797 47 20 20
0.78046 0.71595 -1.64796 58 24 37
0.77011 0.69029 -1.59346 142 131 88
0.54371 0.41295 -0.96652 146 119 107
0.55279 0.39013 -0.92405 33 39 81
0.64297 0.37180 -0.91727 61 108 183
0.66647 0.37551 -0.93239 68 105 193
0.68254 0.37590 -0.93847 63 97 191
0.68057 0.36855 -0.92319 60 91 189
0.68540 0.36415 -0.91600 60 88 183
0.69732 0.36272 -0.91710 57 84 177
0.70832 0.36088 -0.91706 53 88 167
0.72273 0.36042 -0.92088 50 83 161
0.72386 0.35451 -0.90949 48 82 156
0.72229 0.34756 -0.89513 43 81 150
0.72703 0.34320 -0.88800 40 78 135
0.74408 0.34373 -0.89467 34 62 116
0.75391 0.34136 -0.89319 39 66 116
0.78101 0.34568 -0.91073 45 67 123
0.78436 0.34073 -0.90197 38 64 121
0.77959 0.32657 -0.87219 41 56 81
0.79036 0.32452 -0.87167 43 61 90
0.78528 0.31657 -0.85415 49 67 105
0.79369 0.31367 -0.85115 52 69 111
0.79845 0.30943 -0.84427 50 66 110
0.80732 0.30669 -0.84175 43 66 105
0.79814 0.29748 -0.82038 39 65 97
0.80799 0.29514 -0.81895 37 62 84
0.82964 0.29693 -0.82966 36 58 78
0.84848 0.29765 -0.83730 35 54 72
0.91371 0.29643 -0.85637 21 33 61
0.91841 0.28440 -0.85354 8 14 35
0.92082 0.29293 -0.85175 20 32 59
0.92552 0.28091 -0.84892 8 13 30
0.92593 0.28878 -0.84516 21 34 58
0.93062 0.27677 -0.84233 7 12 27
0.92396 0.28233 -0.83165 20 31 58
0.92311 0.27629 -0.81936 19 29 57
1.17120 0.17827 -0.70588 64 77 77
1.17586 0.16633 -0.70307 70 81 96
1.15112 0.16836 -0.67952 78 88 95
1.15573 0.15656 -0.67675 73 86 105
1.19738 0.11082 -0.58018 94 109 123
1.19747 0.10619 -0.57098 102 107 128
1.19264 0.10058 -0.55821 102 100 95
1.21731 0.10099 -0.56715 56 41 26
1.23457 0.09984 -0.57056 49 34 32
1.30712 0.09090 -0.57666 47 44 50
1.30256 0.10259 -0.57940 46 48 53
1.29954 0.09407 -0.58048 48 46 51
1.31015 0.09941 -0.57558 45 49 56
1.31773 0.09624 -0.57176 44 48 61
1.28703 0.08252 -0.55334 47 39 53
1.29751 0.08779 -0.54850 43 48 64
1.19785 0.04849 -0.45618 48 51 51
1.20779 0.05349 -0.45159 49 51 54
1.41592 0.02511 -0.48149 110 113 74
1.40546 0.01985 -0.48632 55 66 63
1.42042 0.01359 -0.47879 174 184 187
1.38171 0.01562 -0.45132 206 219 211
1.38613 0.00430 -0.44866 193 181 192
-0.49648 0.69821 -1.20905 201 201 214
-0.43508 0.70309 -1.23943 218 138 114
-0.41986 0.69938 -1.23709 219 135 89
-0.40725 0.70630 -1.25520 224 156 117
-0.39063 0.70455 -1.25725 250 242 235
-0.38635 0.69359 -1.25467 254 254 254
-0.38273 0.70291 -1.25660 254 252 245
-0.37844 0.69193 -1.25402 254 254 254
-0.37232 0.70540 -1.26509 254 252 246
-0.36230 0.71044 -1.26046 241 222 215
-0.36281 0.70625 -1.26999 254 253 245
-0.35276 0.71131 -1.26535 225 203 180
-0.35135 0.71015 -1.28165 240 227 215
-0.34123 0.71524 -1.27698 186 151 126
-0.34699 0.69901 -1.27903 225 172 152
-0.26339 0.67543 -1.24150 235 240 249
-0.24862 0.65708 -1.20966 247 248 249
-0.24430 0.64602 -1.20706 254 254 254
-0.24522 0.64912 -1.19484 253 254 251
-0.23901 0.64493 -1.18851 253 252 243
-0.22862 0.64610 -1.19435 240 231 212
-0.18659 0.58247 -1.08084 151 150 165
-0.19075 0.59312 -1.08335 35 30 58
-0.19351 0.58536 -1.08433 97 75 93
-0.18384 0.59023 -1.07986 74 59 88
-0.18107 0.57801 -1.07375 169 165 189
-0.09354 0.43295 -0.81223 195 203 213
-0.09734 0.44268 -0.81451 196 204 218
-0.09985 0.43559 -0.81541 202 208 218
-0.09102 0.44004 -0.81133 190 197 211
-0.08471 0.43740 -0.80815 183 190 207
-0.08799 0.42966 -0.80748 188 196 209
-0.07917 0.43410 -0.80340 178 185 205
-0.08568 0.42366 -0.79623 182 190 206
-0.08103 0.41968 -0.78980 178 187 199
-0.07786 0.41450 -0.78049 167 173 182
-0.07180 0.40408 -0.76162 158 165 176
-0.06974 0.39818 -0.75047 153 163 185
-0.03975 0.41439 -0.79304 128 106 132
-0.04050 0.40620 -0.77635 103 41 76
-0.03672 0.39650 -0.77407 82 20 47
-0.03577 0.40236 -0.77024 100 20 52
-0.02958 0.39966 -0.76691 89 22 48
-0.02739 0.39393 -0.75614 71 24 40
-0.01876 0.39309 -0.75737 92 75 74
-0.00636 0.39503 -0.76541 157 166 165
-0.00257 0.38531 -0.76313 176 191 212
0.00191 0.39384 -0.76579 179 196 205
0.00571 0.38410 -0.76350 177 192 215
0.68579 0.71945 -1.64792 49 17 20
0.70350 0.72046 -1.65588 52 20 36
0.71493 0.71749 -1.65375 59 37 55
0.75052 0.71922 -1.66917 53 53 31
0.75539 0.71217 -1.65666 101 80 33
0.80208 0.72006 -1.68813 196 178 118
0.79816 0.68829 -1.62312 220 202 135
0.53187 0.40013 -0.95604 147 118 107
0.53642 0.38849 -0.95331 37 13 24
0.56176 0.38732 -0.94038 24 33 56
0.56744 0.38329 -0.93420 30 34 69
0.62448 0.35020 -0.88697 28 52 78
0.63838 0.34979 -0.89079 30 44 72
0.66180 0.35333 -0.90574 31 43 73
0.66720 0.34923 -0.89934 33 44 73
0.67295 0.34529 -0.89337 30 41 68
0.70242 0.35109 -0.91487 34 47 66
0.71530 0.34367 -0.90431 31 42 76
0.71838 0.33863 -0.89524 27 40 72
0.72246 0.33402 -0.88736 22 35 65
0.73782 0.33385 -0.89217 20 35 58
0.76640 0.33876 -0.91159 21 29 54
0.78619 0.34014 -0.92098 18 23 48
0.79847 0.33857 -0.92196 16 20 44
0.80318 0.32651 -0.91912 8 7 19
0.81335 0.33796 -0.92571 15 16 39
0.81808 0.32585 -0.92287 6 9 24
0.84165 0.31755 -0.89428 8 13 40
0.84636 0.30551 -0.89146 7 7 20
0.84410 0.31236 -0.88471 10 14 36
0.84879 0.30036 -0.88189 8 6 21
0.84840 0.30787 -0.87713 11 13 39
0.91059 0.26460 -0.81122 7 11 27
0.89985 0.25920 -0.81618 5 7 17
0.90753 0.25598 -0.81231 4 7 17
0.91521 0.25277 -0.80844 4 7 12
1.06151 0.17384 -0.67981 8 8 12
1.06660 0.17008 -0.67397 9 9 9
1.07899 0.16814 -0.67423 10 10 10
1.09858 0.16794 -0.68040 11 11 14
1.11129 0.16601 -0.68080 12 12 23
1.11586 0.15429 -0.67804 32 40 55
1.19753 0.09847 -0.57427 86 78 113
1.20335 0.09503 -0.56934 93 88 80
1.24057 0.09785 -0.58746 84 65 36
1.30211 0.08661 -0.58555 52 54 65
1.30669 0.07489 -0.58280 74 87 98
1.26999 0.06703 -0.53551 112 101 83
1.27446 0.05558 -0.53283 156 156 128
-0.50234 0.70111 -1.23032 215 204 217
-0.49948 0.68997 -1.20880 221 189 189
-0.48732 0.68126 -1.19536 216 138 103
-0.47796 0.68337 -1.20282 218 136 75
-0.47011 0.68243 -1.20359 220 135 74
-0.46107 0.68368 -1.20920 220 131 79
-0.43928 0.69264 -1.23473 221 135 90
-0.42984 0.69415 -1.24098 223 146 115
-0.42325 0.69044 -1.23574 225 166 148
-0.40708 0.68830 -1.23693 248 243 236
-0.40284 0.67745 -1.23438 254 254 254
-0.39860 0.68780 -1.23882 254 254 252
-0.39436 0.67693 -1.23627 254 254 254
-0.36630 0.69716 -1.26873 254 254 254
-0.37633 0.69211 -1.27336 254 254 254
-0.35781 0.69626 -1.26981 246 236 233
-0.35348 0.68518 -1.26721 226 186 159
-0.29158 0.63255 -1.16375 218 206 217
-0.30136 0.62762 -1.16827 176 115 110
-0.25694 0.64180 -1.19424 250 252 252
-0.24355 0.63472 -1.18450 252 253 251
-0.23408 0.63474 -1.18778 249 241 230
-0.22978 0.62374 -1.18520 210 142 149
-0.23083 0.62686 -1.17297 223 163 173
-0.22090 0.63186 -1.16838 178 128 112
-0.22655 0.61591 -1.17040 207 124 67
-0.19637 0.59945 -1.12939 105 83 93
-0.20060 0.61029 -1.13194 40 35 69
-0.20340 0.60239 -1.13294 44 28 55
-0.19357 0.60735 -1.12839 41 28 48
-0.18654 0.60440 -1.12485 39 26 43
-0.21524 0.56653 -1.05649 131 122 113
-0.20124 0.57191 -1.07212 159 155 153
-0.19783 0.56512 -1.05957 191 194 206
-0.12776 0.45581 -0.86277 190 209 227
-0.13161 0.46568 -0.86509 191 204 217
-0.13416 0.45849 -0.86600 189 207 222
-0.12521 0.46300 -0.86186 194 207 220
-0.11880 0.46032 -0.85863 200 211 223
-0.11948 0.44638 -0.84655 201 221 236
-0.11057 0.45086 -0.84243 206 213 225
-0.11495 0.44207 -0.83941 202 220 235
-0.10606 0.44655 -0.83530 204 212 225
-0.11039 0.43783 -0.83240 199 218 233
-0.10151 0.44230 -0.82830 204 210 223
-0.10677 0.43280 -0.82348 196 213 231
-0.10464 0.42655 -0.81159 191 207 227
-0.10224 0.42060 -0.80038 186 200 222
-0.09667 0.41738 -0.79579 184 199 218
-0.09295 0.41263 -0.78746 180 198 214
-0.08776 0.40914 -0.78219 165 186 203
-0.08128 0.40672 -0.77951 148 166 189
-0.08117 0.39916 -0.76428 142 151 171
-0.06536 0.40425 -0.77994 129 119 140
-0.04272 0.41459 -0.80856 100 57 94
-0.03888 0.40477 -0.80625 86 20 43
-0.05070 0.40067 -0.77772 87 18 56
-0.04692 0.39099 -0.77544 79 23 46
-0.04666 0.39630 -0.77027 89 16 50
-0.03469 0.39063 -0.76290 64 19 42
-0.02722 0.38891 -0.76199 84 65 73
-0.01791 0.38856 -0.76445 152 159 159
-0.01024 0.38695 -0.76381 178 196 208
0.62491 0.70260 -1.61767 196 185 146
0.61166 0.69593 -1.62379 254 254 253
0.62113 0.69196 -1.61901 254 250 238
0.63061 0.68800 -1.61424 246 242 191
0.67539 0.72481 -1.67973 149 103 28
0.66825 0.71009 -1.64758 150 109 70
0.66273 0.69659 -1.61842 168 130 82
0.65950 0.68468 -1.59329 182 155 96
0.66565 0.67869 -1.58329 169 148 89
0.72428 0.70469 -1.65577 56 59 46
0.68173 0.66910 -1.56942 148 166 134
0.69440 0.66710 -1.56969 205 202 157
0.72767 0.66763 -1.58211 233 233 199
0.56062 0.37971 -0.94385 19 24 33
0.55005 0.37439 -0.94873 15 19 35
0.55761 0.37122 -0.94492 17 24 40
0.56518 0.36806 -0.94111 17 28 42
0.56727 0.37613 -0.93887 21 23 37
0.57182 0.36448 -0.93614 19 28 45
0.60892 0.35552 -0.91148 22 33 67
0.62739 0.35709 -0.92093 13 9 34
0.63196 0.34539 -0.91818 7 8 15
0.63633 0.35449 -0.91873 11 9 41
0.64476 0.35166 -0.91589 11 8 32
0.73465 0.35677 -0.95687 10 8 28
0.73936 0.34470 -0.95403 9 6 19
0.76627 0.34376 -0.94137 5 9 34
0.77098 0.33168 -0.93854 5 8 14
0.76501 0.33696 -0.92721 7 11 31
0.76970 0.32494 -0.92439 7 8 24
0.77418 0.33422 -0.92482 9 11 31
0.77888 0.32219 -0.92199 7 7 15
0.78446 0.33189 -0.92362 6 10 25
0.78916 0.31985 -0.92079 5 7 30
0.79252 0.32872 -0.91995 7 10 23
0.79722 0.31667 -0.91712 5 6 29
1.03497 0.18484 -0.71213 13 7 11
1.03953 0.17315 -0.70938 54 63 69
1.05256 0.18426 -0.71695 13 8 13
1.06322 0.18962 -0.71203 5 10 21
1.05507 0.17975 -0.70872 14 11 18
1.06570 0.18511 -0.70381 6 9 22
1.05976 0.17075 -0.69213 20 23 36
1.06431 0.15909 -0.68939 71 82 89
1.05917 0.16054 -0.67132 24 35 32
1.06368 0.14897 -0.66860 78 87 75
1.05653 0.15492 -0.65907 27 41 36
1.20431 0.08747 -0.57329 156 142 119
1.21978 0.08593 -0.57544 161 139 107
1.23195 0.08371 -0.57512 165 136 115
1.24396 0.08145 -0.57464 166 142 125
1.25099 0.07822 -0.57052 165 135 112
1.34389 0.05884 -0.56306 171 161 132
1.34846 0.04712 -0.56031 198 187 162
1.80064 0.03710 -0.67492 164 176 167
-0.50188 0.68296 -1.21122 214 146 130
-0.49613 0.67791 -1.20296 214 133 100
-0.48978 0.67411 -1.19744 217 133 83
-0.48033 0.67638 -1.20532 219 132 57
-0.47350 0.67347 -1.20178 218 130 51
-0.44523 0.67900 -1.22282 232 176 145
-0.44122 0.67078 -1.20752 241 206 188
-0.42273 0.67316 -1.21876 246 242 238
-0.41854 0.66242 -1.21624 252 254 254
-0.41221 0.67637 -1.22893 252 253 252
-0.40799 0.66557 -1.22640 254 254 254
-0.28082 0.63061 -1.18147 236 222 238
-0.27085 0.63153 -1.18679 250 251 252
-0.26295 0.62963 -1.18568 252 254 254
-0.25566 0.62691 -1.18267 248 252 254
-0.24766 0.62510 -1.18176 248 249 252
-0.23839 0.62486 -1.18450 248 238 228
-0.22161 0.55468 -1.04764 185 182 181
-0.21137 0.55578 -1.05344 174 173 184
-0.21236 0.54416 -1.02945 212 219 224
-0.19030 0.50791 -0.96343 247 250 253
-0.15999 0.45548 -0.86734 159 186 205
-0.15108 0.45997 -0.86323 189 201 210
-0.15238 0.45398 -0.86693 161 186 208
-0.14345 0.45847 -0.86280 191 208 218
-0.14249 0.45456 -0.87154 162 182 219
-0.13975 0.44851 -0.86018 156 168 217
-0.12929 0.44954 -0.86591 151 154 213
-0.12325 0.44653 -0.86188 152 148 212
-0.12029 0.44076 -0.85118 154 142 210
-0.11567 0.43653 -0.84419 155 132 204
-0.10611 0.43665 -0.84774 152 112 191
-0.10320 0.43096 -0.83718 150 96 178
-0.09771 0.42755 -0.83215 138 81 160
-0.08805 0.42766 -0.83574 132 78 145
-0.09093 0.41723 -0.81354 140 107 167
-0.08858 0.41129 -0.80227 136 109 176
-0.08623 0.40542 -0.79115 93 62 124
-0.08113 0.40186 -0.78567 57 34 83
-0.07598 0.39834 -0.78032 59 28 70
-0.07221 0.38870 -0.77805 82 21 37
-0.06972 0.39573 -0.77718 74 23 57
-0.06595 0.38609 -0.77491 87 26 36
-0.06263 0.39377 -0.77564 84 18 46
-0.05886 0.38412 -0.77337 79 23 38
-0.04238 0.38703 -0.76896 59 16 42
-0.03071 0.38848 -0.77597 73 50 74
-0.02627 0.38445 -0.76932 147 147 160
-0.02248 0.37476 -0.76704 178 191 208
-0.02412 0.37875 -0.75848 179 195 203
-0.02035 0.36910 -0.75621 174 187 199
-0.01360 0.37925 -0.76314 174 187 203
-0.00981 0.36955 -0.76086 172 183 196
-0.00111 0.38111 -0.77125 167 181 198
0.00270 0.37136 -0.76896 171 181 196
0.03143 0.38996 -0.80053 172 184 206
0.02885 0.38272 -0.80145 173 183 199
0.06337 0.39785 -0.82764 195 208 215
0.07581 0.39915 -0.83460 203 217 222
0.64462 0.68688 -1.61682 237 232 189
0.63134 0.68019 -1.62296 253 250 244
0.65124 0.68111 -1.60739 240 235 196
0.65695 0.66649 -1.60396 226 226 223
0.66073 0.67714 -1.60261 239 232 202
0.65617 0.66461 -1.57556 230 210 162
0.70307 0.68331 -1.62985 76 93 56
0.67237 0.65518 -1.56200 141 172 167
0.68369 0.65239 -1.56025 192 198 189
0.68935 0.63790 -1.55685 195 188 184
0.51848 0.37965 -0.94848 152 124 113
0.54650 0.38620 -0.97152 36 14 26
0.55412 0.38301 -0.96768 12 15 38
0.59496 0.35519 -0.92527 24 54 94
0.60322 0.35232 -0.92232 28 70 112
0.60645 0.34729 -0.91321 22 42 74
0.62436 0.34856 -0.92201 13 10 22
0.64173 0.34312 -0.91697 9 9 12
0.82461 0.31439 -0.92198 3 9 18
0.81675 0.31768 -0.92595 5 7 28
0.83401 0.31165 -0.91966 5 8 9
0.83816 0.30703 -0.91171 10 7 11
0.83798 0.30091 -0.89921 11 7 13
0.83790 0.29488 -0.88692 11 6 10
0.84221 0.29041 -0.87933 12 7 10
1.21388 0.08155 -0.58363 188 172 147
1.21838 0.07002 -0.58092 214 204 187
1.22997 0.08007 -0.58620 192 172 155
1.23449 0.06850 -0.58348 217 206 186
1.25489 0.08023 -0.59517 193 172 158
1.25944 0.06857 -0.59243 221 209 187
1.26921 0.07833 -0.59627 195 174 161
1.27378 0.06663 -0.59353 222 211 188
1.25482 0.06654 -0.56732 180 150 103
1.25933 0.05500 -0.56461 213 186 128
-0.51811 0.68137 -1.21990 203 146 135
-0.51399 0.67083 -1.21743 215 130 71
-0.51176 0.67748 -1.21417 209 136 110
-0.50536 0.67373 -1.20876 214 130 89
-0.49868 0.67058 -1.20466 216 129 73
-0.49249 0.66646 -1.19841 219 135 78
-0.45898 0.68249 -1.24305 234 189 159
-0.46540 0.65470 -1.18388 241 217 203
-0.45603 0.65652 -1.19093 248 234 225
-0.45191 0.64597 -1.18845 252 253 254
-0.44573 0.65986 -1.20140 252 247 242
-0.44158 0.64924 -1.19891 250 252 254
-0.43762 0.65913 -1.20277 252 252 249
-0.28857 0.61604 -1.16712 239 231 228
-0.29838 0.61110 -1.17165 211 133 124
-0.27894 0.61658 -1.17163 245 250 253
-0.27056 0.61539 -1.17216 234 230 250
-0.26632 0.60453 -1.16960 185 169 197
-0.25276 0.61421 -1.17602 235 233 246
-0.24417 0.61315 -1.17688 245 233 217
-0.23990 0.60221 -1.17431 196 106 95
-0.23500 0.61277 -1.17933 202 118 110
-0.23071 0.60180 -1.17675 186 89 26
-0.23815 0.57437 -1.09962 64 44 74
-0.24441 0.55586 -1.05950 144 150 142
-0.23991 0.55035 -1.04981 208 214 215
-0.22759 0.54331 -1.03975 197 200 212
-0.22041 0.54097 -1.03749 206 210 218
-0.22025 0.53076 -1.01665 235 246 243
-0.21657 0.52462 -1.00537 246 252 251
-0.21124 0.52037 -0.99855 238 252 251
-0.20736 0.51457 -0.98805 229 251 249
-0.20401 0.50828 -0.97635 210 231 238
-0.20259 0.50003 -0.95996 216 233 241
-0.19987 0.49326 -0.94707 213 242 252
-0.19772 0.48599 -0.93294 198 215 254
-0.18804 0.48652 -0.93744 188 198 252
-0.19179 0.47341 -0.90928 176 188 245
-0.19381 0.46226 -0.88574 148 154 225
-0.18696 0.46006 -0.88364 117 121 197
-0.17821 0.45970 -0.88599 102 108 184
-0.17191 0.45691 -0.88252 87 96 167
-0.16684 0.45297 -0.87623 72 80 150
-0.16372 0.44720 -0.86553 66 68 125
-0.14940 0.45197 -0.88034 64 54 101
-0.13976 0.45226 -0.88433 65 38 93
-0.12947 0.45306 -0.88960 71 26 90
-0.12217 0.45109 -0.88815 84 23 90
-0.11721 0.44701 -0.88155 95 23 88
-0.11332 0.43704 -0.87921 113 30 51
-0.11079 0.44426 -0.87817 102 22 92
-0.10690 0.43428 -0.87583 122 31 56
-0.10937 0.43713 -0.86407 110 23 94
-0.10549 0.42721 -0.86174 127 35 58
-0.10581 0.43193 -0.85470 116 20 87
-0.10195 0.42205 -0.85237 126 36 55
-0.10210 0.42693 -0.84576 120 23 82
-0.09825 0.41707 -0.84344 123 38 52
-0.09781 0.42246 -0.83813 122 28 77
-0.09388 0.41773 -0.82984 121 32 77
-0.08843 0.41431 -0.82474 115 33 83
-0.09067 0.40457 -0.80402 93 19 75
-0.08688 0.39486 -0.80174 79 15 47
-0.08822 0.39881 -0.79309 75 9 58
-0.08444 0.38914 -0.79082 78 18 44
-0.08374 0.39473 -0.78632 70 11 44
-0.07998 0.38508 -0.78405 79 20 42
-0.07888 0.39100 -0.78039 72 15 38
-0.07511 0.38136 -0.77813 84 24 40
-0.05072 0.38294 -0.77383 63 20 40
-0.04125 0.38274 -0.77676 78 58 77
-0.03437 0.38054 -0.77470 140 141 159
-0.02904 0.37720 -0.76972 174 189 201
-0.02525 0.36750 -0.76745 173 188 201
0.04264 0.38515 -0.81128 177 189 198
0.03355 0.38057 -0.81548 173 183 200
0.05855 0.38894 -0.82467 191 203 208
0.06250 0.37884 -0.82230 201 215 220
0.06850 0.38853 -0.82733 203 214 222
0.09692 0.40061 -0.86208 181 186 202
0.66799 0.65380 -1.58188 114 137 113
0.67441 0.64806 -1.57238 129 142 147
0.67545 0.63919 -1.55460 188 194 185
0.69109 0.62955 -1.54037 200 200 197
0.69678 0.62354 -1.53007 219 219 215
0.70625 0.60152 -1.48834 245 232 205
0.69334 0.59501 -1.49431 238 237 230
0.68868 0.58291 -1.44405 175 163 108
0.69926 0.57992 -1.44165 75 84 88
0.71666 0.58058 -1.44915 143 179 204
0.50544 0.36645 -0.93627 173 137 122
0.49500 0.36119 -0.94110 254 250 248
0.54468 0.37821 -0.97419 72 22 29
0.55071 0.37428 -0.96827 48 14 25
0.55645 0.37023 -0.96199 51 17 16
0.56077 0.36555 -0.95393 53 20 18
0.56879 0.36256 -0.95064 55 23 19
0.57336 0.35085 -0.94789 218 205 191
0.59351 0.34094 -0.91512 52 23 62
0.61165 0.34232 -0.92434 59 26 40
0.61895 0.33903 -0.92017 60 27 8
0.62927 0.33700 -0.91967 62 30 9
0.63870 0.33459 -0.91805 62 32 13
0.72841 0.33918 -0.95909 19 9 17
0.76466 0.33425 -0.96180 18 16 23
0.76942 0.32975 -0.95427 23 20 16
0.76654 0.32238 -0.93816 28 25 8
0.77525 0.31943 -0.93519 27 15 12
0.78180 0.31567 -0.92981 25 20 11
0.78900 0.31217 -0.92517 23 19 22
0.79920 0.30975 -0.92382 23 14 28
0.81471 0.30925 -0.92826 24 22 23
0.82613 0.30722 -0.92815 24 24 22
0.84015 0.30610 -0.93079 26 26 38
0.85663 0.30580 -0.93599 25 29 53
0.86508 0.30265 -0.93252 27 33 63
0.87045 0.29843 -0.92578 27 39 66
0.88939 0.29886 -0.93335 28 46 75
0.90707 0.29880 -0.93946 30 52 73
0.91190 0.28643 -0.93655 46 86 123
1.30443 0.18733 -0.85143 100 106 122
1.31604 0.18460 -0.84993 93 102 126
1.33308 0.18308 -0.85284 114 140 180
1.32469 0.17048 -0.82407 117 132 167
1.34240 0.15853 -0.80586 59 98 154
1.36921 0.15904 -0.81636 59 97 156
1.38532 0.15720 -0.81828 60 98 157
1.39479 0.15394 -0.81495 62 96 144
1.36640 0.12754 -0.75089 189 194 173
1.18996 0.06917 -0.56914 211 202 175
1.19442 0.05775 -0.56646 234 227 212
1.46558 0.03998 -0.60661 102 90 68
-0.52141 0.67249 -1.21819 211 133 86
-0.50643 0.66943 -1.21726 218 133 83
-0.50053 0.66467 -1.20955 224 152 107
-0.47935 0.65734 -1.20205 245 222 208
-0.47500 0.64978 -1.18803 250 242 231
-0.47089 0.63928 -1.18557 252 253 254
-0.46777 0.64769 -1.18631 253 253 247
-0.46366 0.63718 -1.18384 252 253 254
-0.45978 0.64696 -1.18768 253 254 252
-0.43111 0.65260 -1.20959 249 252 254
-0.42131 0.65461 -1.21724 248 252 254
-0.41374 0.65271 -1.21605 248 248 254
-0.40399 0.65762 -1.21154 254 254 254
-0.37037 0.65147 -1.22905 210 179 168
-0.36049 0.65645 -1.22448 201 113 54
-0.36330 0.64851 -1.22548 198 124 72
-0.30265 0.59306 -1.13294 220 193 196
-0.29849 0.58243 -1.13044 177 151 177
-0.28980 0.59803 -1.14779 209 200 232
-0.25270 0.60993 -1.18562 210 203 217
-0.24627 0.60609 -1.18003 229 218 210
-0.24199 0.59514 -1.17745 184 100 76
-0.24732 0.55894 -1.08244 122 129 157
-0.25689 0.55413 -1.08686 94 72 98
-0.24892 0.54611 -1.05541 192 222 221
-0.24192 0.54356 -1.05267 208 229 239
-0.23940 0.53583 -1.03764 177 200 215
-0.23079 0.53515 -1.03931 168 190 231
-0.22512 0.53111 -1.03303 183 207 244
-0.22037 0.52608 -1.02436 190 204 252
-0.21480 0.52200 -1.01795 189 203 252
-0.23412 0.49089 -0.94689 161 163 241
-0.21333 0.50354 -0.98042 125 132 209
-0.22247 0.48404 -0.93695 76 100 188
-0.20580 0.49203 -0.95939 111 132 200
-0.20606 0.48220 -0.93903 88 114 179
-0.20327 0.47566 -0.92655 53 56 131
-0.19632 0.47342 -0.92443 35 39 105
-0.19118 0.46936 -0.91791 33 36 92
-0.18445 0.46692 -0.91528 28 28 83
-0.18055 0.45694 -0.91294 27 24 34
-0.17439 0.46773 -0.92056 23 22 78
-0.17047 0.45771 -0.91821 27 23 29
-0.16654 0.46631 -0.92045 20 21 74
-0.16262 0.45627 -0.91809 27 24 21
-0.16057 0.46306 -0.91590 17 19 65
-0.15423 0.46018 -0.91224 20 20 68
-0.14801 0.45718 -0.90829 38 19 64
-0.14410 0.44716 -0.90593 57 26 39
-0.14653 0.44980 -0.89359 58 19 50
-0.14264 0.43983 -0.89125 69 26 30
-0.13840 0.44862 -0.89408 69 18 38
-0.13450 0.43863 -0.89173 76 22 25
-0.09536 0.41147 -0.83294 120 42 54
-0.09343 0.40513 -0.82056 104 36 52
-0.08962 0.39536 -0.81826 80 16 45
-0.09291 0.39772 -0.80547 84 21 48
-0.08912 0.38801 -0.80319 80 17 43
-0.05939 0.37860 -0.77808 71 27 42
-0.06567 0.38123 -0.78124 81 21 38
-0.05612 0.37369 -0.76913 91 81 80
-0.04284 0.37636 -0.77941 136 147 148
-0.03511 0.37480 -0.77895 159 176 184
-0.02957 0.37159 -0.77432 168 185 197
0.04244 0.37950 -0.81648 176 186 198
0.03333 0.37492 -0.82069 172 183 197
0.05638 0.38188 -0.82637 188 200 206
0.08374 0.38599 -0.84466 188 197 202
0.20041 0.43324 -0.98393 113 115 93
0.66237 0.64210 -1.58027 174 153 134
0.67633 0.64082 -1.58264 129 98 123
0.66546 0.62502 -1.54616 188 201 193
0.67347 0.62035 -1.53940 199 196 188
0.67913 0.61434 -1.52905 193 191 193
0.68425 0.60807 -1.51796 207 209 215
0.68940 0.60185 -1.50699 228 230 226
0.69895 0.58915 -1.48424 244 241 231
0.69528 0.57880 -1.48555 242 243 241
0.70495 0.58354 -1.47482 242 225 184
0.69948 0.57177 -1.44859 142 106 81
0.70586 0.56649 -1.43999 112 122 148
0.72500 0.56799 -1.44995 186 212 232
0.73639 0.56532 -1.44854 242 250 254
0.74922 0.57178 -1.44261 254 254 254
0.74557 0.56148 -1.44392 254 254 254
0.54854 0.37285 -0.98435 198 177 185
0.55315 0.36105 -0.98158 254 254 247
0.54958 0.36661 -0.97185 195 172 173
0.55417 0.35485 -0.96909 254 254 248
0.55467 0.36226 -0.96470 201 184 173
0.55925 0.35052 -0.96194 254 254 250
0.56805 0.36167 -0.96829 206 189 180
0.57265 0.34989 -0.96552 254 254 252
0.58683 0.34374 -0.93807 151 149 142
0.59139 0.33205 -0.93533 228 242 231
0.59441 0.34057 -0.93425 174 158 128
0.59898 0.32887 -0.93150 254 254 251
0.63183 0.34362 -0.95396 237 221 197
0.63517 0.33858 -0.94477 243 228 191
0.64687 0.33703 -0.94578 248 233 193
0.67228 0.34110 -0.96328 253 239 195
0.68074 0.33813 -0.96019 248 234 187
0.68012 0.33148 -0.94628 240 225 179
0.70362 0.32819 -0.94791 47 48 48
0.78471 0.34715 -1.01609 50 78 99
0.78957 0.33471 -1.01317 49 81 129
0.79325 0.34395 -1.01257 48 76 100
0.80361 0.34145 -1.01112 43 74 95
0.81965 0.34107 -1.01610 83 102 106
0.83374 0.33348 -1.00551 125 119 102
0.82651 0.32446 -0.98431 117 115 106
0.83432 0.32101 -0.98000 116 113 111
0.84803 0.31968 -0.98219 115 111 110
0.86685 0.32015 -0.98991 117 113 106
0.89545 0.32401 -1.00812 117 116 115
0.91648 0.32507 -1.01786 118 115 116
0.92845 0.32291 -1.01769 66 86 91
0.93823 0.31997 -1.01514 47 76 112
0.94107 0.31465 -1.00519 46 79 118
0.94569 0.30997 -0.99721 50 81 123
0.95108 0.30557 -0.99007 49 84 128
0.95603 0.29290 -0.98710 34 52 88
1.06573 0.26310 -0.94364 25 27 45
1.07427 0.25972 -0.93974 49 55 61
1.08073 0.25575 -0.93387 37 42 47
1.09227 0.26155 -0.92854 12 12 25
1.08898 0.25229 -0.92971 13 15 28
1.27232 0.18213 -0.85083 94 109 185
1.27730 0.16936 -0.84783 42 59 131
1.29005 0.18084 -0.85454 98 122 195
1.30907 0.17980 -0.85922 109 145 196
1.33500 0.15360 -0.81452 59 108 185
1.34471 0.15045 -0.81150 62 107 183
1.36670 0.14986 -0.81818 61 106 183
1.37825 0.14705 -0.81652 61 106 182
1.38942 0.14414 -0.81454 64 105 171
1.40968 0.13270 -0.79823 70 128 187
1.40195 0.12605 -0.78174 200 224 212
1.39164 0.11896 -0.76342 232 230 216
1.37720 0.11115 -0.74214 234 230 217
1.38210 0.09861 -0.73919 225 221 215
-0.52596 0.66096 -1.21049 222 148 94
-0.50056 0.64596 -1.18861 249 240 225
-0.49648 0.63551 -1.18615 254 254 254
-0.49542 0.63995 -1.17802 253 251 242
-0.49135 0.62953 -1.17557 254 254 254
-0.48735 0.63960 -1.18022 254 253 249
-0.48327 0.62915 -1.17777 253 254 254
-0.47915 0.63944 -1.18287 253 254 252
-0.45403 0.63937 -1.19190 249 252 253
-0.44627 0.63808 -1.19205 243 241 248
-0.43926 0.63546 -1.18919 237 217 235
-0.42739 0.64113 -1.20527 231 195 215
-0.42212 0.63544 -1.19538 226 181 196
-0.41464 0.63350 -1.19410 218 167 176
-0.40421 0.63636 -1.20383 222 179 192
-0.39149 0.64273 -1.22170 237 216 240
-0.37660 0.65230 -1.24700 230 212 227
-0.36987 0.64872 -1.24204 211 181 182
-0.30934 0.60458 -1.17246 196 94 55
-0.30282 0.60100 -1.16741 179 87 91
-0.29685 0.59671 -1.16069 181 138 149
-0.24855 0.54212 -1.06498 118 114 153
-0.24175 0.53928 -1.06156 122 106 162
-0.22336 0.54975 -1.09001 69 70 135
-0.22357 0.53881 -1.06722 45 52 126
-0.22179 0.53029 -1.05018 46 55 124
-0.22037 0.52150 -1.03245 46 50 119
-0.22180 0.50973 -1.00749 46 51 109
-0.21072 0.51171 -1.01565 38 34 102
-0.20757 0.50509 -1.00305 27 27 88
-0.20355 0.49480 -1.00063 30 24 35
-0.20488 0.49808 -0.98948 17 22 83
-0.20728 0.48585 -0.96320 25 29 80
-0.20647 0.47714 -0.94543 20 28 67
-0.20254 0.46709 -0.94307 34 28 42
-0.20205 0.47226 -0.93690 25 20 56
-0.19813 0.46223 -0.93455 34 29 41
-0.19847 0.46658 -0.92641 27 23 46
-0.19457 0.45659 -0.92407 32 30 36
-0.19366 0.46220 -0.91907 27 26 36
-0.18976 0.45222 -0.91673 29 30 35
-0.18693 0.45974 -0.91643 27 25 31
-0.18303 0.44977 -0.91409 30 30 35
-0.15682 0.45288 -0.91316 28 23 35
-0.16592 0.44830 -0.91737 31 26 22
-0.15941 0.44557 -0.91409 29 23 29
-0.15290 0.44285 -0.91081 36 23 28
-0.15039 0.45008 -0.90970 40 23 43
-0.14648 0.44005 -0.90735 51 27 30
-0.11012 0.41822 -0.85824 123 42 53
-0.10609 0.41350 -0.84993 118 41 46
-0.09741 0.40472 -0.83487 97 29 43
-0.09357 0.39490 -0.83256 74 18 38
-0.09626 0.39776 -0.82083 84 20 47
-0.09245 0.38799 -0.81854 77 17 39
-0.06971 0.37299 -0.77909 75 32 35
-0.07598 0.37561 -0.78224 77 18 30
-0.06869 0.36637 -0.76572 102 97 86
-0.05661 0.36818 -0.77389 146 157 151
-0.04666 0.36832 -0.77779 155 168 170
-0.04287 0.35862 -0.77552 149 158 178
-0.03861 0.36698 -0.77796 152 164 182
-0.03230 0.36435 -0.77480 155 170 188
-0.02537 0.36217 -0.77281 166 180 191
-0.01655 0.36661 -0.76874 174 186 198
-0.01906 0.35953 -0.76963 171 182 194
0.03901 0.37161 -0.81590 177 186 197
0.02991 0.36703 -0.82011 173 187 197
0.03642 0.36431 -0.81683 177 190 199
0.05305 0.37402 -0.82603 183 197 206
0.06244 0.37320 -0.82774 192 209 219
0.08622 0.38196 -0.85460 178 187 196
0.10914 0.38991 -0.87949 112 107 141
0.12338 0.39197 -0.88896 122 129 157
0.15736 0.39933 -0.91663 161 142 124
0.16154 0.38863 -0.91411 101 79 133
0.17194 0.40128 -0.92601 150 131 162
0.17614 0.39051 -0.92347 206 237 252
0.64954 0.62617 -1.56720 199 187 169
0.67160 0.62964 -1.58246 124 107 83
0.65504 0.61066 -1.53701 185 207 194
0.66192 0.60538 -1.52856 209 209 205
0.66751 0.59107 -1.52520 207 218 225
0.66883 0.60015 -1.52022 202 195 193
0.67461 0.59430 -1.51018 197 197 198
0.68128 0.58899 -1.50159 213 215 217
0.68827 0.58388 -1.49354 233 236 235
0.70281 0.57403 -1.47839 247 246 230
0.71081 0.56953 -1.47197 231 216 167
0.70547 0.55797 -1.44602 123 113 108
0.71934 0.55664 -1.44832 120 150 186
0.73532 0.55637 -1.45357 197 227 246
0.75131 0.55602 -1.45868 240 250 254
0.76420 0.56251 -1.45273 254 254 254
0.76084 0.55232 -1.45448 252 252 254
0.77374 0.55881 -1.44852 254 254 254
0.77313 0.55000 -1.45416 252 253 253
0.78605 0.55651 -1.44819 254 254 254
0.78710 0.54850 -1.45614 252 253 253
0.80005 0.55502 -1.45016 254 254 254
0.80082 0.54683 -1.45768 252 253 254
0.81381 0.55337 -1.45168 254 254 254
0.81011 0.54295 -1.45300 252 253 254
0.78149 0.34460 -1.03074 42 71 107
0.79138 0.34189 -1.02872 49 79 123
0.79626 0.32938 -1.02579 47 84 131
0.81046 0.33617 -1.02382 41 76 132
0.82437 0.33493 -1.02632 100 124 165
0.83423 0.33215 -1.02415 168 191 194
0.84519 0.32976 -1.02318 180 191 192
0.85092 0.32545 -1.01633 174 189 203
0.85867 0.32189 -1.01177 181 204 212
0.87039 0.31974 -1.01159 182 204 211
0.88041 0.31697 -1.00949 187 208 208
0.88708 0.31302 -1.00372 183 208 211
0.91716 0.31718 -1.02334 178 195 193
0.93296 0.31001 -1.01420 58 83 132
0.93353 0.30396 -1.00185 46 84 133
0.94241 0.30073 -0.99838 53 83 124
0.93502 0.29212 -0.97781 46 75 107
1.02529 0.29674 -1.02034 13 18 37
1.03035 0.28377 -1.01730 12 21 32
1.06867 0.25564 -0.95085 30 47 49
1.07110 0.25049 -0.94104 40 58 61
1.07825 0.24671 -0.93581 28 32 51
1.08343 0.20301 -0.84697 5 7 17
1.07861 0.21537 -0.84987 3 6 11
1.07541 0.20637 -0.85101 4 5 11
1.07222 0.19736 -0.85215 4 5 11
1.10599 0.20346 -0.85612 18 21 34
1.11085 0.19101 -0.85320 25 30 43
1.32025 0.18457 -0.89510 38 43 112
1.30841 0.17861 -0.90057 20 19 44
1.29845 0.16878 -0.85435 58 86 159
1.30830 0.16562 -0.85140 81 119 193
1.32119 0.14730 -0.81806 73 121 187
1.32616 0.13456 -0.81506 63 117 199
1.33005 0.14397 -0.81437 63 110 189
1.33417 0.13964 -0.80689 65 111 193
1.34671 0.13707 -0.80613 66 114 193
1.39477 0.13134 -0.81177 59 101 164
1.39929 0.12709 -0.80459 36 48 129
1.37694 0.11255 -0.76626 168 203 211
1.39057 0.11016 -0.76627 220 224 218
1.38019 0.10320 -0.74802 225 221 218
1.38510 0.09063 -0.74507 213 209 207
1.63234 0.09283 -0.81851 220 198 161
1.71507 0.09108 -0.84505 51 42 50
1.71685 0.08623 -0.83563 59 79 119
-0.53396 0.64222 -1.18629 241 207 173
-0.52006 0.63747 -1.18152 250 241 225
-0.51600 0.62709 -1.17908 254 254 254
-0.51217 0.63695 -1.18335 253 252 246
-0.50811 0.62654 -1.18090 254 254 254
-0.50458 0.63576 -1.18369 254 254 252
-0.50051 0.62534 -1.18124 254 254 254
-0.47527 0.62858 -1.17954 252 254 254
-0.46851 0.62566 -1.17594 249 247 250
-0.46031 0.62533 -1.17829 236 219 230
-0.45161 0.62580 -1.18250 223 183 200
-0.44122 0.62909 -1.19324 221 162 182
-0.43145 0.63115 -1.20117 222 152 169
-0.42464 0.62807 -1.19727 216 139 138
-0.41428 0.63089 -1.20700 204 115 97
-0.40617 0.62987 -1.20788 203 115 98
-0.39074 0.64055 -1.23594 210 141 143
-0.37740 0.63342 -1.22597 210 176 182
-0.36877 0.63289 -1.22809 225 194 166
-0.31921 0.62524 -1.23047 202 130 105
-0.32191 0.60849 -1.19444 196 104 66
-0.32068 0.59751 -1.17194 180 76 36
-0.31370 0.59458 -1.16842 168 70 50
-0.30580 0.59289 -1.16779 168 100 92
-0.30001 0.58836 -1.16048 172 131 124
-0.23149 0.56879 -1.14499 46 38 79
-0.24132 0.56384 -1.14953 77 75 109
-0.23429 0.56089 -1.14598 57 59 91
-0.22726 0.55795 -1.14244 77 54 79
-0.22397 0.52325 -1.05256 33 22 44
-0.21988 0.51279 -1.05010 41 31 24
-0.21137 0.52680 -1.06465 30 23 36
-0.20725 0.51625 -1.06217 40 31 35
-0.20949 0.51854 -1.04808 32 26 39
-0.20539 0.50806 -1.04562 37 30 40
-0.20826 0.50970 -1.03006 30 23 37
-0.20419 0.49929 -1.02761 36 27 32
-0.20809 0.49987 -1.00955 30 24 31
-0.20406 0.48954 -1.00712 34 26 29
-0.20990 0.47847 -0.96413 30 24 32
-0.21252 0.47109 -0.96506 33 26 29
-0.20594 0.46834 -0.96175 32 28 34
-0.20833 0.47058 -0.94822 30 27 33
-0.20440 0.46051 -0.94586 33 31 39
-0.11186 0.41170 -0.86091 91 20 52
-0.10799 0.40180 -0.85858 74 15 42
-0.10798 0.40687 -0.85224 84 16 48
-0.10412 0.39699 -0.84992 70 15 41
-0.10419 0.40201 -0.84348 76 15 44
-0.10035 0.39216 -0.84117 69 17 39
-0.08788 0.36874 -0.77997 74 17 22
-0.09164 0.37836 -0.78223 80 18 38
-0.09413 0.37135 -0.78312 79 20 34
-0.08540 0.37575 -0.77908 80 21 34
-0.07848 0.36857 -0.78310 77 37 39
-0.07620 0.36291 -0.77211 108 110 98
-0.06430 0.36459 -0.78004 143 167 159
-0.05883 0.36136 -0.77531 147 168 178
-0.04881 0.36152 -0.77938 152 161 178
-0.03311 0.35852 -0.77892 149 162 181
-0.03562 0.35143 -0.77982 155 162 177
-0.01342 0.35826 -0.78568 172 183 197
-0.00453 0.36273 -0.78157 172 184 194
-0.00707 0.35560 -0.78248 175 187 195
0.04989 0.36630 -0.82599 181 194 206
0.04073 0.36168 -0.83023 176 190 205
0.05811 0.36467 -0.82564 174 198 212
0.08560 0.37581 -0.85914 157 169 185
0.10923 0.38414 -0.88532 130 133 163
0.15120 0.39673 -0.92723 221 235 236
0.65305 0.61988 -1.58007 205 194 196
0.63988 0.61324 -1.58616 254 254 251
0.66156 0.61540 -1.57388 157 133 138
0.65162 0.60038 -1.53878 187 193 200
0.65466 0.59294 -1.52434 206 212 224
0.66548 0.58089 -1.50316 201 212 219
0.67139 0.57519 -1.49344 196 196 205
0.67693 0.56100 -1.49011 191 179 202
0.68060 0.57134 -1.48880 209 212 225
0.68612 0.56549 -1.47862 229 231 238
0.69629 0.56217 -1.47545 240 238 241
0.70820 0.55976 -1.47483 246 243 233
0.71776 0.55609 -1.47070 193 196 182
0.71543 0.54623 -1.44923 94 103 125
0.72798 0.54415 -1.44954 107 150 195
0.74857 0.53762 -1.44352 212 220 244
0.77932 0.53607 -1.45170 223 228 242
0.78488 0.52183 -1.44835 185 187 208
0.79191 0.53385 -1.45172 225 235 245
0.79749 0.51958 -1.44837 186 191 211
0.80505 0.53186 -1.45243 226 239 247
0.81803 0.53839 -1.44644 253 253 254
0.81064 0.51755 -1.44907 184 191 214
0.83200 0.53648 -1.47211 227 240 248
0.84511 0.54308 -1.46606 253 253 254
0.85489 0.53901 -1.48588 228 242 250
0.86809 0.54565 -1.47978 253 254 254
0.86433 0.53506 -1.48112 230 245 252
0.79612 0.33581 -1.03917 48 81 123
0.81438 0.32971 -1.03320 39 80 140
0.82195 0.32608 -1.02842 109 114 164
0.83258 0.32357 -1.02712 134 124 180
0.84301 0.32098 -1.02556 131 120 181
0.93939 0.32303 -1.06562 151 140 202
0.94400 0.31820 -1.05724 145 146 198
0.93763 0.30968 -1.03707 95 89 153
0.98938 0.31436 -1.06605 31 41 78
1.07199 0.24825 -0.95846 22 32 56
1.07646 0.24368 -0.95056 20 26 49
1.35127 0.17730 -0.91375 11 17 50
1.33929 0.17127 -0.91928 10 15 24
1.34786 0.16768 -0.91496 11 16 30
1.35246 0.17208 -0.90328 18 26 77
1.33811 0.16350 -0.88002 25 40 107
1.33367 0.15717 -0.86513 42 73 135
1.29790 0.14420 -0.82473 60 102 163
1.30965 0.14149 -0.82342 71 122 198
1.32853 0.12989 -0.80618 70 118 201
1.34198 0.12750 -0.80616 72 120 203
1.40603 0.11968 -0.81360 47 61 144
1.40377 0.11414 -0.80115 39 96 175
1.37533 0.09868 -0.75829 206 215 210
1.38025 0.08608 -0.75533 213 207 202
1.74143 0.10152 -0.90008 235 226 209
1.73842 0.09577 -0.88695 229 208 173
1.69566 0.08370 -0.84585 193 163 116
1.72012 0.08247 -0.85234 144 111 75
1.70767 0.07540 -0.83295 97 75 58
1.72115 0.07242 -0.83171 86 87 117
1.72648 0.05878 -0.82851 104 102 112
1.68369 0.02290 -0.71425 167 184 203
1.79180 0.03294 -0.77538 204 221 224
1.47770 -0.03959 -0.50714 58 66 77
-0.56685 0.67531 -1.26145 226 168 127
-0.54912 0.62525 -1.16271 249 234 227
-0.54512 0.61501 -1.16030 254 254 254
-0.54051 0.62657 -1.16874 253 250 240
-0.53649 0.61628 -1.16633 254 254 254
-0.48578 0.62191 -1.17958 250 252 253
-0.49256 0.62475 -1.18300 253 254 254
-0.47910 0.61888 -1.17571 243 237 248
-0.47461 0.61190 -1.16271 230 201 220
-0.46426 0.61548 -1.17416 215 158 173
-0.45315 0.62020 -1.18829 212 138 147
-0.44422 0.62091 -1.19316 219 146 155
-0.43571 0.62082 -1.19617 222 149 151
-0.42909 0.61748 -1.19164 216 138 118
-0.41785 0.62176 -1.20491 205 115 78
-0.40919 0.62165 -1.20793 202 105 61
-0.40500 0.61092 -1.20541 199 102 55
-0.40157 0.61978 -1.20686 199 102 69
-0.39286 0.61961 -1.20979 196 118 119
-0.38015 0.62559 -1.22720 210 172 180
-0.37137 0.62529 -1.22987 231 217 208
-0.36249 0.62506 -1.23274 245 230 202
-0.33943 0.63217 -1.25643 220 136 92
-0.32994 0.63249 -1.26068 214 142 120
-0.32960 0.60657 -1.20622 201 119 79
-0.32612 0.59861 -1.19077 193 95 60
-0.32311 0.59016 -1.17409 175 84 52
-0.31622 0.58709 -1.17024 168 108 81
-0.31316 0.57891 -1.15417 168 123 105
-0.30654 0.57557 -1.14962 170 131 122
-0.30236 0.56486 -1.14710 169 137 140
-0.09359 0.36672 -0.79014 68 15 31
-0.09736 0.37637 -0.79240 80 17 44
-0.09985 0.36934 -0.79329 67 18 36
-0.08768 0.36382 -0.78628 77 43 64
-0.08737 0.35664 -0.77125 102 113 120
-0.07695 0.35722 -0.77642 125 147 152
-0.07291 0.35295 -0.76894 101 106 157
-0.06577 0.35101 -0.76756 88 93 158
-0.04921 0.35601 -0.78433 129 143 175
-0.03998 0.35550 -0.78674 150 162 177
-0.03617 0.34575 -0.78445 158 166 183
-0.01281 0.35334 -0.79245 173 187 201
-0.00119 0.35434 -0.79894 173 190 208
0.00777 0.35885 -0.79480 173 187 194
0.01091 0.35560 -0.80615 157 177 199
0.02369 0.35724 -0.81443 164 175 191
0.02759 0.34724 -0.81209 176 194 208
0.04651 0.35842 -0.82554 169 181 202
0.07731 0.37181 -0.86535 112 132 178
0.09215 0.37436 -0.87634 95 110 154
0.12963 0.37690 -0.89583 224 240 246
0.15274 0.38432 -0.92017 206 201 184
0.61160 0.56933 -1.48300 233 236 239
0.64737 0.58051 -1.52004 204 211 235
0.65502 0.57575 -1.51290 197 197 223
0.65805 0.56846 -1.49869 200 195 217
0.66777 0.56488 -1.49482 198 189 205
0.68475 0.55640 -1.48337 196 192 208
0.69621 0.55375 -1.48211 211 213 226
0.71566 0.55526 -1.49264 224 226 232
0.71515 0.54630 -1.47358 224 214 218
0.71939 0.53988 -1.46165 173 157 153
0.73060 0.53706 -1.45994 90 82 105
0.74773 0.53721 -1.46674 69 87 151
0.74768 0.52870 -1.44878 125 147 199
0.86956 0.53712 -1.51251 187 193 219
0.87717 0.53223 -1.50508 193 200 224
0.89048 0.53893 -1.49893 233 247 253
0.87457 0.52262 -1.48388 198 209 231
0.88780 0.52929 -1.47777 235 248 253
0.88122 0.51737 -1.47532 203 213 236
0.81081 0.32689 -1.04758 47 74 116
0.80755 0.31769 -1.04874 42 73 122
0.82471 0.32556 -1.05002 37 63 101
0.83530 0.32298 -1.04859 77 53 100
0.83748 0.31735 -1.03756 95 38 108
0.84237 0.31273 -1.02968 92 33 114
0.94734 0.31103 -1.06571 109 96 155
0.95241 0.29804 -1.06266 29 21 41
0.97726 0.31469 -1.08472 43 35 85
0.98239 0.30156 -1.08163 18 18 43
0.96908 0.30559 -1.06246 23 23 61
0.97416 0.29257 -1.05940 14 19 39
1.05346 0.24628 -0.96938 17 22 42
1.05846 0.23347 -0.96637 25 29 43
1.07807 0.24158 -0.96878 18 21 47
1.08068 0.23648 -0.95903 14 16 36
1.08569 0.22365 -0.95601 10 13 17
1.08679 0.23238 -0.95270 10 12 26
1.35932 0.15929 -0.90161 9 15 44
1.36044 0.15413 -0.89118 11 22 63
1.33279 0.14296 -0.85721 18 34 90
1.33678 0.13853 -0.84940 26 53 131
1.33233 0.13239 -0.83478 37 83 166
1.32140 0.11986 -0.80427 79 129 208
1.39663 0.10406 -0.79938 51 75 149
1.36646 0.09340 -0.76555 114 153 196
1.73587 0.09629 -0.91105 221 218 218
1.74245 0.09209 -0.90468 228 224 215
1.74447 0.08717 -0.89508 233 226 213
1.75769 0.08403 -0.89347 238 232 206
1.75256 0.07804 -0.87891 226 219 177
1.71352 0.06692 -0.84075 175 148 101
1.71832 0.06259 -0.83346 115 86 91
1.68534 0.04771 -0.78967 80 84 99
1.45954 -0.05000 -0.49866 100 101 58
-0.56942 0.61375 -1.14831 251 241 230
-0.56546 0.60360 -1.14593 254 254 254
-0.56086 0.61528 -1.15485 254 253 244
-0.55688 0.60509 -1.15246 254 254 254
-0.55194 0.61742 -1.16282 254 254 252
-0.54794 0.60718 -1.16041 254 254 254
-0.49829 0.61141 -1.17065 251 250 250
-0.50503 0.61423 -1.17405 254 254 254
-0.50771 0.60667 -1.17501 253 253 254
-0.49176 0.60820 -1.16634 239 224 224
-0.49023 0.59584 -1.14071 222 178 183
-0.47082 0.61599 -1.19091 210 140 146
-0.46398 0.61315 -1.18751 206 125 117
-0.45622 0.61191 -1.18785 214 135 125
-0.45210 0.60136 -1.18537 222 146 144
-0.43246 0.60870 -1.19016 214 134 108
-0.42120 0.61300 -1.20361 205 118 76
-0.41257 0.61284 -1.20658 203 110 59
-0.40839 0.60212 -1.20406 200 104 51
-0.39577 0.61157 -1.21033 195 108 88
-0.38671 0.61185 -1.21440 209 160 156
-0.37241 0.62006 -1.23732 233 224 231
-0.36200 0.62209 -1.24562 248 246 241
-0.35679 0.61625 -1.23523 236 203 190
-0.35251 0.60530 -1.23265 201 80 75
-0.34661 0.61777 -1.24236 212 128 113
-0.34231 0.60677 -1.23978 203 101 53
-0.34397 0.60828 -1.22323 201 107 72
-0.33970 0.59735 -1.22066 209 115 36
-0.33959 0.60144 -1.21040 201 112 67
-0.33534 0.59055 -1.20784 212 114 57
-0.33020 0.58895 -1.18751 209 111 65
-0.33300 0.58107 -1.18851 215 116 61
-0.32598 0.57814 -1.18497 210 115 52
-0.32744 0.58019 -1.17000 195 111 62
-0.31815 0.56815 -1.14803 168 125 103
-0.31074 0.56589 -1.14607 168 130 127
-0.30657 0.55521 -1.14356 168 130 136
-0.09979 0.36432 -0.79943 44 17 36
-0.10357 0.37400 -0.80170 70 20 37
-0.10607 0.36695 -0.80259 56 19 33
-0.09998 0.35666 -0.78310 57 46 55
-0.09621 0.35215 -0.77498 82 91 90
-0.09247 0.34256 -0.77273 42 7 25
-0.09120 0.34862 -0.76942 73 82 103
-0.07627 0.35260 -0.78358 41 37 83
-0.06410 0.35438 -0.79205 24 9 57
-0.05826 0.35139 -0.78794 49 38 78
-0.05560 0.34609 -0.77771 114 122 146
-0.04057 0.34979 -0.79134 152 167 182
-0.03675 0.34002 -0.78904 158 172 183
0.01304 0.35159 -0.81572 114 141 169
0.02165 0.35033 -0.81636 147 161 178
0.04217 0.34992 -0.82336 150 160 181
0.07774 0.35913 -0.85656 82 118 129
0.08648 0.35767 -0.85681 114 123 164
0.11686 0.37003 -0.89470 186 203 222
0.12367 0.36716 -0.89121 222 239 249
0.13649 0.36805 -0.89803 219 224 208
0.16850 0.38080 -0.93735 157 140 124
0.17273 0.36998 -0.93481 112 75 102
0.60098 0.55518 -1.47327 254 254 253
0.58831 0.54880 -1.47912 254 254 254
0.59738 0.54501 -1.47455 254 254 254
0.60644 0.54122 -1.46999 254 254 254
0.61210 0.55253 -1.47191 254 253 250
0.61756 0.53855 -1.46863 254 254 254
0.62571 0.55124 -1.47439 254 250 245
0.63118 0.53721 -1.47109 254 254 254
0.63668 0.54845 -1.47269 254 250 244
0.64216 0.53441 -1.46940 254 254 253
0.65338 0.54874 -1.47972 247 246 240
0.67264 0.55033 -1.49048 225 218 222
0.68385 0.54754 -1.48885 198 187 195
0.69524 0.54482 -1.48747 190 176 188
0.70493 0.54119 -1.48349 198 182 196
0.71850 0.53957 -1.48524 209 200 215
0.72729 0.53546 -1.47990 215 206 210
0.72048 0.52347 -1.45186 176 161 151
0.75128 0.53046 -1.47851 77 82 84
0.77645 0.53444 -1.49662 91 124 126
0.75318 0.51451 -1.44540 180 206 202
0.76808 0.51343 -1.44884 228 238 231
0.77730 0.50957 -1.44419 239 243 234
0.79086 0.50778 -1.44559 236 241 234
0.82166 0.51408 -1.47078 231 239 233
0.84354 0.51602 -1.48329 227 236 233
0.85721 0.51405 -1.48435 224 236 235
0.87746 0.42824 -1.31009 124 91 143
0.87035 0.41055 -1.26985 70 63 133
0.86355 0.40055 -1.24602 81 89 141
0.82438 0.37782 -1.18277 109 118 155
0.82116 0.36959 -1.16407 133 144 180
0.82306 0.36345 -1.15176 142 148 182
0.82351 0.35679 -1.13782 103 96 137
0.81604 0.31437 -1.04496 43 73 119
0.81278 0.30517 -1.04612 49 81 135
0.83200 0.31374 -1.04975 73 96 126
0.84385 0.30522 -1.03621 104 112 142
0.86084 0.30486 -1.04198 111 121 157
0.91473 0.30441 -1.06171 129 136 177
1.08842 0.21866 -0.94646 12 11 17
1.08512 0.20934 -0.94764 21 19 40
1.09207 0.21393 -0.93785 11 9 15
1.10365 0.21977 -0.93249 6 6 10
1.10036 0.21047 -0.93367 6 8 13
1.35956 0.14509 -0.89446 13 16 37
1.34763 0.13909 -0.89998 12 16 29
1.35616 0.13552 -0.89568 13 17 28
1.36469 0.13195 -0.89138 14 18 27
1.34491 0.13674 -0.87112 13 16 44
1.33691 0.12464 -0.84238 16 34 86
1.30688 0.10840 -0.79641 81 125 189
1.28589 0.09927 -0.76898 122 162 203
1.30183 0.09740 -0.77113 139 166 194
1.30671 0.08489 -0.76819 149 170 190
1.31274 0.08960 -0.75877 143 163 191
1.36508 0.08455 -0.76816 114 151 183
1.74858 0.08869 -0.92411 198 191 196
1.74807 0.08335 -0.91259 209 206 200
1.74463 0.07759 -0.89906 219 217 217
1.74754 0.07285 -0.89013 220 222 231
1.74654 0.06754 -0.87848 200 192 213
1.71316 0.05241 -0.83357 147 132 105
1.78054 0.01748 -0.78532 119 92 104
1.77815 0.01234 -0.77350 104 94 93
1.78343 -0.00118 -0.77032 112 96 62
1.80124 0.01050 -0.77846 118 118 123
1.46913 -0.05704 -0.50773 158 130 94
1.47372 -0.06880 -0.50497 73 57 75
1.48416 -0.06345 -0.49989 164 209 219
-0.50319 0.59966 -1.16181 251 250 249
-0.51258 0.59494 -1.16614 252 253 254
-0.50586 0.59213 -1.16276 251 253 253
-0.49784 0.59434 -1.15252 241 228 221
-0.49154 0.59080 -1.14742 228 191 175
-0.46664 0.60558 -1.18872 216 148 101
-0.46004 0.60233 -1.18434 219 146 115
-0.44472 0.59940 -1.18408 221 140 130
-0.43590 0.59980 -1.18837 212 126 95
