ply
format ascii 1.0
element face 0
property list uchar int vertex_indices
element vertex 1307
property float x
property float y
property float z
property uchar diffuse_red
property uchar diffuse_green
property uchar diffuse_blue
end_header
-0.82973 -0.22746 -0.81722 106 124 182
-0.82431 -0.23106 -0.80902 135 155 202
-0.81872 -0.23441 -0.80251 169 179 213
-0.81466 -0.23955 -0.78343 192 203 231
-0.80445 -0.24705 -0.76416 225 232 250
-0.79855 -0.24986 -0.76114 229 237 253
-0.79011 -0.24599 -0.75677 254 254 254
-0.79253 -0.25254 -0.75904 229 243 252
-0.78409 -0.24867 -0.75466 254 254 254
-0.78672 -0.25545 -0.75531 230 248 254
-0.77828 -0.25158 -0.75094 254 254 254
-0.78089 -0.25833 -0.75176 228 248 254
-0.77245 -0.25446 -0.74739 254 254 254
-0.77537 -0.26150 -0.74604 229 249 254
-0.76694 -0.25764 -0.74167 254 254 254
-0.76931 -0.26415 -0.74421 228 249 254
-0.76331 -0.26687 -0.74184 227 246 252
-0.75777 -0.26999 -0.73641 224 218 242
-0.75073 -0.27182 -0.74092 195 195 221
-0.74288 -0.27303 -0.75029 156 164 195
-0.73658 -0.27559 -0.74941 122 144 165
-0.72883 -0.27702 -0.75741 89 88 121
-0.72464 -0.28125 -0.74341 53 58 91
-0.71165 -0.28615 -0.74353 69 70 84
-0.70828 -0.29579 -0.74159 98 100 105
-0.70511 -0.28860 -0.74370 87 82 93
-0.69750 -0.29036 -0.74971 95 100 97
-0.69017 -0.29235 -0.75387 107 115 103
-0.68341 -0.29477 -0.75468 85 89 88
-0.68000 -0.30452 -0.75272 51 47 62
-0.56869 -0.33346 -0.78032 30 26 42
-0.56047 -0.33566 -0.78516 14 12 32
-0.55692 -0.34583 -0.78312 8 8 27
-0.53680 -0.34291 -0.79440 15 8 29
-0.54589 -0.34707 -0.79912 8 6 22
-0.52766 -0.34493 -0.80205 33 40 75
-0.52081 -0.34782 -0.80052 22 27 89
-0.51720 -0.35814 -0.79844 10 19 100
-0.51469 -0.35097 -0.79612 12 24 104
-0.51108 -0.36129 -0.79404 8 18 107
-0.46143 -0.36996 -0.80259 33 31 88
-0.47071 -0.37421 -0.80741 30 30 88
-0.45478 -0.37301 -0.79976 45 47 95
-0.45052 -0.37671 -0.78874 57 58 107
-0.42255 -0.39317 -0.75772 84 85 143
-0.41519 -0.39603 -0.75734 117 107 166
-0.40761 -0.39886 -0.75759 194 199 223
-0.39852 -0.40139 -0.76248 244 252 252
-0.39488 -0.41182 -0.76038 253 253 253
0.25543 -0.72344 -0.37034 250 243 237
0.26389 -0.72678 -0.36965 184 137 188
0.26656 -0.72931 -0.36160 216 181 186
0.28196 -0.73364 -0.36962 249 254 254
0.29337 -0.73957 -0.36114 254 254 254
0.29614 -0.73233 -0.35981 254 254 254
0.30251 -0.73539 -0.35640 254 254 254
0.29976 -0.74263 -0.35775 254 254 254
0.30889 -0.73845 -0.35302 254 254 254
0.30219 -0.74511 -0.34953 254 254 254
0.31129 -0.74093 -0.34480 254 254 254
0.30443 -0.74754 -0.34114 252 254 254
0.31351 -0.74338 -0.33643 254 254 254
0.30921 -0.75034 -0.33588 249 253 254
0.31828 -0.74619 -0.33117 254 254 254
0.31463 -0.75324 -0.33141 245 252 254
0.32369 -0.74909 -0.32671 254 254 254
0.32108 -0.75630 -0.32819 242 251 249
0.33015 -0.75214 -0.32349 254 254 254
0.32764 -0.75937 -0.32510 238 250 243
0.33353 -0.76234 -0.32121 234 247 240
0.34375 -0.76802 -0.31164 227 227 230
0.34988 -0.77102 -0.30806 228 220 227
0.35414 -0.77371 -0.30234 225 208 222
0.36095 -0.77682 -0.29956 215 196 212
0.37000 -0.78031 -0.29930 202 182 205
0.37897 -0.78378 -0.29891 191 173 196
0.38600 -0.78694 -0.29632 178 166 181
0.40013 -0.79130 -0.30159 166 158 160
0.41245 -0.79538 -0.30476 153 144 143
0.42052 -0.79874 -0.30319 139 132 137
0.42586 -0.80163 -0.29862 131 122 141
0.42948 -0.80421 -0.29221 130 112 133
0.42872 -0.80601 -0.28112 127 100 121
0.43921 -0.80980 -0.28216 122 87 119
0.44663 -0.81304 -0.27987 115 78 113
0.45023 -0.82335 -0.27780 84 70 60
0.45196 -0.81591 -0.27537 108 75 99
0.45556 -0.82621 -0.27329 86 73 62
0.45688 -0.81871 -0.27045 102 71 85
0.46047 -0.82900 -0.26838 89 75 63
0.46292 -0.82170 -0.26672 93 65 75
0.46652 -0.83199 -0.26465 90 79 58
0.46925 -0.82475 -0.26329 86 67 63
0.47285 -0.83504 -0.26122 93 81 55
0.47570 -0.82782 -0.25998 78 66 58
0.48173 -0.83082 -0.25625 75 63 62
0.48838 -0.83392 -0.25314 76 63 65
0.49197 -0.84421 -0.25107 94 83 64
0.49506 -0.83704 -0.25007 79 64 67
0.49866 -0.84733 -0.24800 94 81 60
0.50282 -0.84036 -0.24808 84 66 65
0.50642 -0.85066 -0.24600 94 81 60
-0.94879 -0.18777 -0.82979 50 47 54
-0.95210 -0.17830 -0.83169 52 50 59
-0.95465 -0.18496 -0.83292 52 50 59
-0.94625 -0.18111 -0.82856 48 46 57
-0.94040 -0.18392 -0.82543 46 46 52
-0.94325 -0.19145 -0.82129 50 48 48
-0.93488 -0.18761 -0.81695 49 48 51
-0.93741 -0.19425 -0.81817 51 49 52
-0.90552 -0.20260 -0.83880 124 104 79
-0.90888 -0.19299 -0.84074 61 56 55
-0.91146 -0.19975 -0.84198 92 72 55
-0.91404 -0.20650 -0.84322 122 98 68
-0.90294 -0.19584 -0.83756 73 70 61
-0.88599 -0.20798 -0.84995 52 37 53
-0.83865 -0.23185 -0.81854 57 61 89
-0.84723 -0.23578 -0.82299 80 75 82
-0.83527 -0.24152 -0.81660 66 66 76
-0.83274 -0.23480 -0.81475 44 59 99
-0.82936 -0.24447 -0.81281 60 62 73
-0.82688 -0.23782 -0.81053 50 64 107
-0.82087 -0.24064 -0.80764 74 74 127
-0.81547 -0.24419 -0.79958 93 102 158
-0.80044 -0.25584 -0.76761 122 141 187
-0.79533 -0.25949 -0.75839 123 149 182
-0.79011 -0.26298 -0.75030 125 161 182
-0.78324 -0.26482 -0.75453 127 161 179
-0.77833 -0.26857 -0.74439 128 162 184
-0.77264 -0.27155 -0.73999 125 162 182
-0.76712 -0.27467 -0.73447 124 156 174
-0.75812 -0.27477 -0.75250 119 119 163
-0.75079 -0.27643 -0.75867 96 88 141
-0.74471 -0.27917 -0.75636 70 61 107
-0.73854 -0.28185 -0.75456 46 57 83
-0.73228 -0.28447 -0.75334 40 50 79
-0.72676 -0.28766 -0.74745 65 64 82
-0.72034 -0.29018 -0.74709 79 80 82
-0.71409 -0.29282 -0.74567 87 86 89
-0.70162 -0.29819 -0.74235 96 99 97
-0.69389 -0.29992 -0.74896 72 81 82
-0.69050 -0.30962 -0.74701 44 45 57
-0.68395 -0.30032 -0.76729 48 49 61
-0.68052 -0.31012 -0.76532 52 52 60
-0.59082 -0.33752 -0.75817 60 62 63
-0.56577 -0.34382 -0.77571 15 13 32
-0.56224 -0.35394 -0.77367 8 10 26
-0.54277 -0.35128 -0.78280 17 11 29
-0.55181 -0.35543 -0.78749 7 6 24
-0.53251 -0.35291 -0.79515 43 69 81
-0.52563 -0.35578 -0.79381 24 24 85
-0.52204 -0.36606 -0.79174 10 18 99
-0.46821 -0.37840 -0.78993 33 33 93
-0.47742 -0.38262 -0.79471 27 32 97
-0.46059 -0.38117 -0.79067 43 43 101
-0.45551 -0.38461 -0.78254 54 53 116
-0.44927 -0.38774 -0.77848 62 63 124
-0.44286 -0.39083 -0.77498 69 68 134
-0.43786 -0.39424 -0.76684 76 71 142
-0.43423 -0.40461 -0.76476 86 85 150
-0.43248 -0.39755 -0.76004 83 78 145
-0.42538 -0.40047 -0.75889 89 90 146
-0.42020 -0.40380 -0.75154 127 116 168
-0.41118 -0.40633 -0.75647 200 204 224
-0.40228 -0.40892 -0.76084 245 252 253
-0.39864 -0.41934 -0.75874 253 253 253
0.21664 -0.71485 -0.38282 254 254 254
0.21307 -0.70463 -0.38488 254 254 254
0.21032 -0.71181 -0.38620 254 254 254
0.21938 -0.70766 -0.38150 254 254 254
0.22570 -0.71069 -0.37812 254 254 254
0.22418 -0.71805 -0.38107 254 254 254
0.23325 -0.71389 -0.37636 254 254 254
0.23185 -0.72127 -0.37945 254 254 254
0.24093 -0.71711 -0.37474 254 254 254
0.23779 -0.72426 -0.37556 253 254 254
0.24451 -0.72735 -0.37268 251 253 253
0.25038 -0.73032 -0.36871 239 232 227
0.26815 -0.73502 -0.37995 147 104 174
0.26620 -0.73687 -0.36596 208 218 212
0.27715 -0.74059 -0.36838 237 250 245
0.28297 -0.74357 -0.36429 234 244 241
0.28874 -0.74653 -0.36014 229 234 234
0.29473 -0.74953 -0.35629 227 224 236
0.30001 -0.75242 -0.35158 227 214 230
0.30261 -0.75488 -0.34360 221 201 224
0.30850 -0.75786 -0.33967 209 186 216
0.31408 -0.76078 -0.33538 197 176 202
0.32018 -0.76378 -0.33173 186 169 189
0.32531 -0.76663 -0.32691 171 162 171
0.33529 -0.77026 -0.32785 159 153 155
0.35033 -0.77474 -0.33466 146 138 131
0.35418 -0.77738 -0.32830 133 127 136
0.36644 -0.78142 -0.33171 129 116 134
0.37773 -0.78532 -0.33391 127 108 132
0.38501 -0.78855 -0.33147 124 95 122
0.38622 -0.79074 -0.32214 122 85 117
0.38984 -0.80109 -0.32006 87 71 65
0.39496 -0.79422 -0.32136 116 79 108
0.39858 -0.80458 -0.31927 89 73 60
0.40072 -0.79718 -0.31721 108 75 94
0.40434 -0.80754 -0.31512 92 74 63
0.40815 -0.80043 -0.31492 100 70 80
0.41177 -0.81080 -0.31283 92 73 64
0.41709 -0.80396 -0.31430 92 62 71
0.42072 -0.81435 -0.31221 93 77 58
0.42474 -0.80726 -0.31222 81 61 61
0.43137 -0.81038 -0.30901 76 64 56
0.43700 -0.81333 -0.30471 76 64 58
0.44063 -0.82372 -0.30262 92 83 57
0.44125 -0.81602 -0.29893 78 63 61
0.44488 -0.82639 -0.29685 93 82 58
0.44362 -0.81835 -0.29117 80 65 65
0.44724 -0.82870 -0.28909 93 83 56
0.44810 -0.82107 -0.28571 83 67 63
0.45172 -0.83141 -0.28364 91 83 55
0.48674 -0.83954 -0.26554 94 82 58
0.47757 -0.84374 -0.27029 91 82 54
0.49157 -0.84230 -0.26053 94 83 64
0.53538 -0.86712 -0.21669 89 81 59
0.52905 -0.86408 -0.22008 91 81 60
0.54034 -0.86988 -0.21200 89 81 56
0.54769 -0.87313 -0.20959 89 80 53
0.55576 -0.87652 -0.20785 87 80 55
0.56393 -0.87995 -0.20619 85 78 53
0.57303 -0.87578 -0.20148 91 80 55
0.57272 -0.88350 -0.20509 84 76 54
0.58183 -0.87933 -0.20037 91 79 53
0.58221 -0.88721 -0.20460 83 73 52
0.59133 -0.88303 -0.19987 90 79 56
0.59054 -0.89068 -0.20302 82 72 51
0.59968 -0.88649 -0.19828 89 79 54
0.59788 -0.89395 -0.20050 79 69 46
0.60702 -0.88976 -0.19576 89 79 50
0.60911 -0.89804 -0.20152 74 66 43
0.61828 -0.89384 -0.19677 88 78 53
0.62886 -0.90396 -0.21021 70 62 51
0.63810 -0.89973 -0.20541 86 77 50
-0.96248 -0.18690 -0.84894 58 56 63
-0.95992 -0.18021 -0.84771 54 55 60
-0.96504 -0.19359 -0.85017 70 65 73
-0.95675 -0.19022 -0.84278 61 53 65
-0.95143 -0.19471 -0.82924 71 63 69
-0.94575 -0.19798 -0.82319 71 68 58
-0.94001 -0.20107 -0.81830 57 51 51
-0.93164 -0.19723 -0.81396 53 54 58
-0.93418 -0.20387 -0.81518 56 53 65
-0.93671 -0.21051 -0.81640 56 51 69
-0.90781 -0.20874 -0.84406 173 133 109
-0.91039 -0.21551 -0.84531 116 111 130
-0.90177 -0.21142 -0.84204 170 116 113
-0.89578 -0.21420 -0.83939 137 107 84
-0.88925 -0.21600 -0.84321 57 32 42
-0.88587 -0.22567 -0.84127 51 53 59
-0.88352 -0.21929 -0.83718 43 44 61
-0.82382 -0.24787 -0.80579 48 57 79
-0.82044 -0.25752 -0.80385 67 66 67
-0.81820 -0.25114 -0.79962 42 53 84
-0.81483 -0.26078 -0.79768 66 63 72
-0.80771 -0.25842 -0.78165 35 49 90
-0.80436 -0.26801 -0.77972 65 61 63
-0.80244 -0.26196 -0.77328 37 46 81
-0.79910 -0.27152 -0.77135 59 60 71
-0.79703 -0.26531 -0.76626 34 46 80
-0.79369 -0.27485 -0.76434 60 58 68
-0.79141 -0.26842 -0.76096 37 51 73
-0.78628 -0.27198 -0.75215 39 50 68
-0.78072 -0.27510 -0.74671 41 50 75
-0.76820 -0.28005 -0.74589 39 49 59
-0.76203 -0.28264 -0.74466 37 49 61
-0.75466 -0.28425 -0.75131 42 50 78
-0.74759 -0.28618 -0.75565 55 59 74
-0.74101 -0.28853 -0.75656 69 66 81
-0.73435 -0.29086 -0.75778 74 69 86
-0.72833 -0.29368 -0.75498 81 81 87
-0.72270 -0.29678 -0.74976 95 97 97
-0.71657 -0.29953 -0.74755 96 98 93
-0.70992 -0.30193 -0.74837 83 86 88
-0.70654 -0.31160 -0.74643 42 31 56
-0.70324 -0.30435 -0.74916 69 55 76
-0.69986 -0.31403 -0.74721 44 44 51
-0.69405 -0.30519 -0.76393 42 45 56
-0.69064 -0.31496 -0.76196 47 48 52
-0.60020 -0.34180 -0.76037 69 69 72
-0.60368 -0.33183 -0.76238 75 75 75
-0.60636 -0.33884 -0.76367 74 74 77
-0.60904 -0.34585 -0.76496 71 70 77
-0.59511 -0.34521 -0.75237 60 61 64
-0.57047 -0.35169 -0.76865 18 17 32
-0.54739 -0.35911 -0.77649 12 11 36
-0.55640 -0.36324 -0.78116 8 8 26
-0.53693 -0.36070 -0.78983 34 57 85
-0.53335 -0.37094 -0.78777 21 25 90
-0.53030 -0.36364 -0.78764 21 23 89
-0.52672 -0.37389 -0.78558 14 21 100
-0.46048 -0.39245 -0.77631 54 56 128
-0.45402 -0.39551 -0.77310 64 69 139
-0.45040 -0.40587 -0.77101 75 80 153
-0.44189 -0.40181 -0.76401 80 77 149
-0.43827 -0.41215 -0.76193 83 80 146
-0.43034 -0.40821 -0.75311 91 90 147
-0.42456 -0.41140 -0.74776 144 125 164
-0.41564 -0.41396 -0.75248 216 212 224
-0.40619 -0.41645 -0.75869 248 253 254
-0.40255 -0.42686 -0.75660 253 253 253
0.15836 -0.69713 -0.40411 254 254 254
0.15480 -0.68695 -0.40616 254 254 254
0.15207 -0.69411 -0.40748 254 254 254
0.16109 -0.68997 -0.40280 254 254 254
0.16739 -0.69299 -0.39943 254 254 254
0.16541 -0.70025 -0.40181 254 254 254
0.17444 -0.69611 -0.39713 254 254 254
0.17195 -0.70330 -0.39879 253 254 254
0.18099 -0.69916 -0.39411 254 254 254
0.17886 -0.70641 -0.39627 251 253 254
0.18790 -0.70227 -0.39158 254 254 254
0.18519 -0.70944 -0.39294 247 253 254
0.19423 -0.70530 -0.38825 254 254 254
0.19196 -0.71253 -0.39020 243 251 254
0.20100 -0.70838 -0.38552 254 254 254
0.19905 -0.71566 -0.38791 239 250 251
0.20637 -0.71883 -0.38589 236 248 245
0.21364 -0.72200 -0.38380 231 240 238
0.22052 -0.72511 -0.38118 227 230 233
0.22326 -0.72763 -0.37308 225 217 238
0.23099 -0.73086 -0.37158 226 212 228
0.23364 -0.73335 -0.36345 216 199 216
0.25140 -0.73808 -0.37489 188 165 179
0.26557 -0.74231 -0.38153 102 73 117
0.26683 -0.74460 -0.37160 149 161 160
0.28032 -0.74875 -0.37721 168 163 171
0.28296 -0.75123 -0.36908 157 151 155
0.28579 -0.75374 -0.36125 139 137 144
0.29685 -0.75754 -0.36368 130 125 147
0.30100 -0.76025 -0.35752 130 113 138
0.31467 -0.76652 -0.35184 123 88 130
0.32018 -0.76943 -0.34738 118 82 115
0.32378 -0.77974 -0.34530 86 74 65
0.32532 -0.77229 -0.34250 112 79 100
0.32892 -0.78259 -0.34043 89 75 62
0.33327 -0.77561 -0.34099 103 73 87
0.33688 -0.78592 -0.33891 90 77 62
0.34099 -0.77890 -0.33918 94 68 71
0.34460 -0.78922 -0.33710 91 81 52
0.34915 -0.78226 -0.33786 85 65 53
0.35689 -0.78556 -0.33602 77 64 59
0.36547 -0.78901 -0.33514 74 62 63
0.36909 -0.79937 -0.33306 94 84 60
0.37253 -0.79220 -0.33249 73 67 68
0.37616 -0.80256 -0.33040 95 84 56
0.38076 -0.79559 -0.33114 79 66 66
0.38439 -0.80597 -0.32906 97 83 60
0.38638 -0.79853 -0.32681 84 67 67
0.39000 -0.80890 -0.32472 96 83 63
0.43785 -0.82131 -0.31000 94 83 54
0.48396 -0.84680 -0.26688 90 81 61
0.48966 -0.84974 -0.26275 89 82 70
0.49628 -0.85285 -0.25958 88 81 63
0.50279 -0.85594 -0.25629 89 80 54
0.50660 -0.85849 -0.25028 88 80 53
0.51574 -0.85430 -0.24554 93 82 58
0.51426 -0.86181 -0.24815 86 80 47
0.52341 -0.85762 -0.24340 92 82 54
0.52099 -0.86495 -0.24508 84 78 42
0.53014 -0.86075 -0.24033 91 81 56
0.52534 -0.86760 -0.23967 81 75 44
0.53449 -0.86341 -0.23493 92 80 62
0.52854 -0.87001 -0.23316 81 72 46
0.53106 -0.87227 -0.22602 79 69 44
0.53310 -0.87442 -0.21846 75 67 44
0.53540 -0.87661 -0.21121 72 65 45
0.54123 -0.87955 -0.20738 67 63 45
0.54940 -0.88297 -0.20576 62 59 44
0.56220 -0.88738 -0.20848 57 55 41
0.57294 -0.89137 -0.20921 54 51 39
0.58047 -0.89467 -0.20689 52 46 38
0.59198 -0.89884 -0.20825 50 43 36
0.60081 -0.90243 -0.20708 46 39 33
0.60656 -0.90536 -0.20307 43 35 32
0.62257 -0.91053 -0.20838 44 31 36
-0.97086 -0.19054 -0.85471 73 72 73
-0.95955 -0.19769 -0.83902 85 79 91
-0.96210 -0.20436 -0.84025 105 116 136
-0.95365 -0.20038 -0.83671 101 113 113
-0.94789 -0.20351 -0.83158 95 116 95
-0.94233 -0.20712 -0.82330 62 59 57
-0.93902 -0.21658 -0.82140 57 50 64
-0.92384 -0.21336 -0.82826 57 59 63
-0.92717 -0.20384 -0.83018 55 53 63
-0.92973 -0.21053 -0.83141 54 53 64
-0.93228 -0.21723 -0.83264 54 54 65
-0.92640 -0.22005 -0.82949 51 56 63
-0.91728 -0.21469 -0.83497 88 85 86
-0.91393 -0.22426 -0.83304 49 55 79
-0.90464 -0.21875 -0.83950 120 106 130
-0.89842 -0.22108 -0.83991 98 81 108
-0.89505 -0.23070 -0.83797 53 55 54
-0.89346 -0.22575 -0.82438 56 40 48
-0.88162 -0.23141 -0.81819 38 44 55
-0.87608 -0.23486 -0.81075 37 37 59
-0.86935 -0.23643 -0.81654 55 52 61
-0.85645 -0.24064 -0.82078 75 77 80
-0.85049 -0.24350 -0.81759 81 80 80
-0.83233 -0.25173 -0.81064 74 69 73
-0.83830 -0.24887 -0.81383 76 73 76
-0.83492 -0.25852 -0.81189 79 79 77
-0.82896 -0.26139 -0.80870 75 79 78
-0.78857 -0.27841 -0.75542 63 60 67
-0.78292 -0.28146 -0.75052 63 59 69
-0.77713 -0.28436 -0.74675 62 60 68
-0.77381 -0.29386 -0.74484 65 64 74
-0.77077 -0.28676 -0.74699 61 61 59
-0.76744 -0.29629 -0.74507 72 71 78
-0.76442 -0.28920 -0.74705 64 61 59
-0.76108 -0.29874 -0.74513 72 73 76
-0.75748 -0.29119 -0.75089 66 64 69
-0.75060 -0.29327 -0.75409 68 73 70
-0.74354 -0.29526 -0.75814 79 79 92
-0.73703 -0.29771 -0.75850 93 93 101
-0.73030 -0.30003 -0.76004 94 97 96
-0.72447 -0.30299 -0.75600 83 90 91
-0.71914 -0.30630 -0.74893 64 70 69
-0.71577 -0.31595 -0.74699 43 39 49
-0.71190 -0.30833 -0.75321 50 47 50
-0.70852 -0.31801 -0.75126 47 44 52
-0.60011 -0.35314 -0.74332 59 57 66
-0.59201 -0.35530 -0.74870 49 48 54
-0.57716 -0.36025 -0.75305 23 24 32
-0.56909 -0.36253 -0.75767 12 14 27
-0.56558 -0.37256 -0.75566 11 9 27
-0.55483 -0.36785 -0.75863 11 8 37
-0.54272 -0.36890 -0.77894 23 30 75
-0.51473 -0.38016 -0.77623 10 21 113
-0.51831 -0.36993 -0.77829 8 18 105
-0.52106 -0.37713 -0.77961 10 21 108
-0.51198 -0.37297 -0.77490 9 18 105
-0.50566 -0.37601 -0.77152 16 24 101
-0.50801 -0.38309 -0.77434 15 26 114
-0.49893 -0.37893 -0.76964 20 31 101
-0.50168 -0.38613 -0.77097 19 34 113
-0.49260 -0.38197 -0.76626 28 32 97
-0.49507 -0.38909 -0.76860 28 37 110
-0.48726 -0.39175 -0.77055 30 38 110
-0.47967 -0.39449 -0.77160 38 42 113
-0.47291 -0.39745 -0.76961 49 53 123
-0.46586 -0.40034 -0.76859 60 65 137
-0.45870 -0.40322 -0.76791 68 75 148
-0.43417 -0.41568 -0.75099 102 89 142
-0.43506 -0.42013 -0.72403 177 163 178
-0.41792 -0.42115 -0.75543 236 233 233
-0.41430 -0.43151 -0.75334 253 253 253
-0.41023 -0.42399 -0.75607 252 254 253
-0.40660 -0.43438 -0.75398 253 253 253
0.08148 -0.67279 -0.42197 253 253 253
0.07795 -0.66271 -0.42399 252 252 253
0.07524 -0.66980 -0.42530 252 252 253
0.08418 -0.66570 -0.42066 253 253 253
0.09041 -0.66869 -0.41733 253 253 253
0.08951 -0.67599 -0.42136 253 253 253
0.09846 -0.67189 -0.41672 253 253 253
0.09800 -0.67925 -0.42139 254 253 253
0.10697 -0.67514 -0.41674 254 253 253
0.10591 -0.68246 -0.42053 253 253 253
0.11489 -0.67834 -0.41587 254 253 254
0.11387 -0.68567 -0.41969 250 253 254
0.12287 -0.68155 -0.41503 254 254 254
0.12132 -0.68883 -0.41807 246 252 254
0.13033 -0.68470 -0.41340 254 254 254
0.12822 -0.69192 -0.41562 242 251 254
0.13723 -0.68779 -0.41095 254 254 254
0.13485 -0.69498 -0.41277 238 250 251
0.14386 -0.69085 -0.40809 254 254 254
0.14138 -0.69803 -0.40976 235 248 247
0.14851 -0.70116 -0.40762 232 243 240
0.15579 -0.70431 -0.40566 229 233 234
0.16214 -0.70734 -0.40237 227 222 232
0.16948 -0.71050 -0.40048 224 209 228
0.17886 -0.71395 -0.40138 216 194 219
0.18712 -0.71726 -0.40068 203 184 210
0.19784 -0.72092 -0.40332 189 175 201
0.20621 -0.72426 -0.40267 175 167 186
0.21772 -0.72806 -0.40622 163 157 166
0.21890 -0.73036 -0.39584 144 142 148
0.21158 -0.73138 -0.37425 130 127 140
0.22204 -0.73503 -0.37641 123 113 149
0.22318 -0.73727 -0.36624 131 110 142
0.23564 -0.74124 -0.37094 123 98 126
0.25557 -0.74638 -0.38519 97 69 100
0.26494 -0.74991 -0.38562 65 54 66
0.26856 -0.76025 -0.38354 82 74 69
0.26862 -0.75255 -0.37874 90 74 90
0.27223 -0.76287 -0.37666 88 75 68
0.27466 -0.75556 -0.37489 98 69 83
0.27826 -0.76588 -0.37281 92 75 49
0.28016 -0.75848 -0.37038 91 62 58
0.28489 -0.76128 -0.36490 78 61 61
0.29001 -0.76413 -0.35995 71 62 62
0.30395 -0.77044 -0.35464 74 63 60
0.30755 -0.78074 -0.35257 94 85 68
0.31047 -0.77352 -0.35142 78 67 70
0.31407 -0.78383 -0.34935 94 84 64
0.35609 -0.79318 -0.33967 93 82 56
0.34691 -0.79739 -0.34444 93 85 57
0.35331 -0.80047 -0.34101 92 85 59
0.35971 -0.80354 -0.33759 94 84 64
0.36494 -0.79669 -0.33910 94 83 61
0.43965 -0.83137 -0.30592 88 84 56
0.44353 -0.83396 -0.29973 88 83 53
0.44944 -0.83695 -0.29575 88 83 52
0.45528 -0.83992 -0.29171 87 82 53
0.46448 -0.83570 -0.28694 91 83 56
0.45883 -0.84243 -0.28526 85 80 47
0.46802 -0.83822 -0.28050 92 83 56
0.46574 -0.84561 -0.28237 85 77 42
0.47493 -0.84140 -0.27760 92 83 54
0.47217 -0.84869 -0.27897 84 76 40
0.48606 -0.85506 -0.27323 77 68 48
0.49145 -0.85793 -0.26876 74 66 54
0.49780 -0.86099 -0.26528 70 62 48
0.50481 -0.86419 -0.26247 66 59 42
0.50875 -0.86676 -0.25656 62 57 39
0.51694 -0.87020 -0.25493 56 55 32
0.52422 -0.87346 -0.25237 52 53 27
0.52881 -0.87616 -0.24716 49 50 26
0.53010 -0.87815 -0.23872 48 46 28
0.53361 -0.88061 -0.23252 49 42 29
0.53606 -0.88284 -0.22532 50 36 32
0.54246 -0.88590 -0.22197 45 35 36
0.54606 -0.89618 -0.21990 28 25 22
0.54683 -0.88852 -0.21667 40 34 34
0.55042 -0.89879 -0.21461 26 24 17
0.56409 -0.89561 -0.21421 28 24 27
0.56769 -0.90590 -0.21213 26 19 21
0.57411 -0.89946 -0.21423 26 20 31
0.57772 -0.90978 -0.21216 26 18 23
0.57815 -0.90201 -0.20864 24 16 31
0.58175 -0.91232 -0.20657 25 17 20
0.58901 -0.90606 -0.20940 23 16 30
0.59262 -0.91639 -0.20732 22 17 18
0.59731 -0.90955 -0.20775 19 17 27
0.60093 -0.91989 -0.20567 22 16 17
0.60509 -0.91293 -0.20560 21 18 24
0.60871 -0.92328 -0.20352 23 16 20
0.61205 -0.91612 -0.20269 25 19 24
0.61567 -0.92648 -0.20061 20 15 18
-0.96741 -0.19967 -0.85536 78 75 92
-0.96408 -0.20921 -0.85345 85 87 98
-0.95500 -0.20345 -0.86120 105 142 152
-0.95165 -0.21304 -0.85927 56 49 69
-0.95033 -0.20986 -0.83480 88 114 110
-0.94458 -0.21298 -0.82970 61 62 70
-0.90797 -0.22699 -0.83059 49 48 79
-0.91645 -0.23088 -0.83499 55 55 52
-0.90462 -0.23656 -0.82866 48 49 51
-0.90184 -0.22943 -0.83024 46 49 74
-0.89002 -0.23515 -0.82367 52 54 47
-0.88464 -0.23890 -0.81410 40 43 43
-0.88131 -0.24845 -0.81217 29 21 35
-0.84716 -0.25319 -0.81528 67 73 73
-0.84102 -0.25582 -0.81386 75 77 71
-0.79641 -0.28171 -0.76438 69 68 73
-0.80231 -0.27888 -0.76753 67 67 75
-0.80487 -0.28559 -0.76877 75 77 72
-0.79308 -0.29125 -0.76246 76 79 76
-0.79120 -0.28518 -0.75602 72 68 75
-0.78560 -0.28825 -0.75084 70 69 77
-0.77987 -0.29121 -0.74662 67 67 79
-0.75323 -0.30006 -0.75497 73 77 77
-0.74627 -0.30214 -0.75848 69 75 75
-0.73960 -0.30448 -0.75987 74 83 82
-0.73283 -0.30677 -0.76175 63 65 77
-0.72945 -0.31645 -0.75980 40 39 53
-0.72783 -0.31032 -0.75251 48 49 57
-0.72217 -0.31338 -0.74756 34 38 41
-0.71880 -0.32301 -0.74562 47 44 52
-0.59086 -0.36609 -0.73665 40 39 47
-0.58319 -0.36847 -0.74002 28 28 37
-0.57587 -0.37100 -0.74175 17 16 32
-0.57239 -0.38095 -0.73975 14 10 33
-0.56101 -0.37607 -0.74566 12 8 35
-0.55033 -0.37761 -0.76055 21 26 72
-0.54055 -0.37951 -0.77136 25 35 92
-0.53356 -0.38231 -0.77083 24 34 104
-0.52691 -0.38522 -0.76886 19 30 117
-0.51866 -0.38769 -0.77304 17 29 125
-0.51302 -0.39090 -0.76711 20 33 128
-0.50672 -0.39393 -0.76375 25 39 127
-0.50315 -0.40413 -0.76170 33 45 137
-0.49985 -0.39681 -0.76245 33 44 125
-0.49628 -0.40702 -0.76040 38 48 133
-0.49236 -0.39955 -0.76337 39 45 123
-0.48879 -0.40978 -0.76131 42 51 132
-0.48496 -0.40233 -0.76386 45 51 125
-0.48138 -0.41258 -0.76179 48 56 133
-0.47826 -0.40529 -0.76179 53 59 131
-0.47199 -0.40834 -0.75817 60 65 139
-0.46475 -0.41119 -0.75791 65 73 147
-0.46116 -0.42146 -0.75584 57 56 136
-0.45744 -0.41404 -0.75781 70 75 148
-0.45199 -0.41727 -0.75135 71 69 141
-0.44605 -0.42040 -0.74657 85 70 140
-0.44061 -0.42362 -0.74021 145 126 162
-0.43105 -0.42607 -0.74735 217 218 218
-0.42745 -0.43637 -0.74527 253 254 254
-0.42162 -0.42860 -0.75381 248 253 249
-0.41800 -0.43895 -0.75173 253 253 253
0.02587 -0.65327 -0.45844 252 251 252
0.02233 -0.64316 -0.46048 252 250 251
0.01962 -0.65027 -0.46178 252 251 252
0.02858 -0.64616 -0.45713 252 251 251
0.03483 -0.64916 -0.45379 252 251 251
0.03225 -0.65629 -0.45532 253 252 252
0.04121 -0.65218 -0.45067 252 251 252
0.03917 -0.65936 -0.45305 253 253 253
0.04814 -0.65525 -0.44840 252 252 252
0.04501 -0.66232 -0.44905 251 252 253
0.05398 -0.65821 -0.44440 252 252 252
0.05378 -0.66790 -0.43649 243 250 253
0.06272 -0.66381 -0.43185 252 252 252
0.05907 -0.67079 -0.43170 240 250 253
0.06800 -0.66669 -0.42707 252 252 253
0.06442 -0.67367 -0.42700 237 249 252
0.07132 -0.67674 -0.42473 234 247 246
0.07887 -0.67989 -0.42342 231 239 237
0.08683 -0.68309 -0.42272 229 229 238
0.09380 -0.68618 -0.42048 229 218 235
0.10051 -0.68924 -0.41782 225 204 230
0.10605 -0.69215 -0.41344 215 193 220
0.11286 -0.69522 -0.41094 201 185 209
0.12018 -0.69836 -0.40916 187 177 197
0.12665 -0.70139 -0.40614 173 170 182
0.13560 -0.70476 -0.40668 159 161 165
0.15031 -0.70893 -0.41542 147 148 150
0.16106 -0.71258 -0.41834 136 134 141
0.17103 -0.71614 -0.42009 130 121 142
0.18077 -0.71967 -0.42144 129 107 143
0.18995 -0.72314 -0.42194 127 92 134
0.19986 -0.72672 -0.42340 121 83 122
0.20923 -0.73023 -0.42405 113 78 111
0.21286 -0.74061 -0.42196 87 71 71
0.21618 -0.73339 -0.42134 103 71 97
0.21981 -0.74378 -0.41925 88 73 69
0.22313 -0.73655 -0.41863 94 64 79
0.22981 -0.73968 -0.41555 79 57 63
0.23376 -0.74238 -0.40881 69 54 55
0.24015 -0.74546 -0.40535 64 55 58
0.24545 -0.74836 -0.40046 65 56 60
0.25076 -0.75126 -0.39560 62 57 55
0.25438 -0.76162 -0.39352 62 56 54
0.25681 -0.75428 -0.39173 51 43 55
0.26560 -0.75774 -0.39139 69 62 58
0.26923 -0.76811 -0.38930 88 81 67
0.29170 -0.77212 -0.36684 96 81 61
0.29531 -0.78245 -0.36476 93 83 56
0.29758 -0.77510 -0.36280 95 82 58
0.30425 -0.77821 -0.35974 95 84 60
0.36980 -0.80730 -0.33844 92 85 57
0.37791 -0.81069 -0.33696 91 84 50
0.38518 -0.81394 -0.33450 92 83 55
0.39808 -0.82012 -0.32766 89 80 61
0.40730 -0.81589 -0.32288 96 83 67
0.40549 -0.82339 -0.32533 88 78 63
0.41472 -0.81917 -0.32054 94 82 63
0.41387 -0.82686 -0.32406 86 75 51
0.42217 -0.83031 -0.32267 82 73 49
0.42841 -0.83337 -0.31899 79 74 48
0.43688 -0.83686 -0.31776 75 71 47
0.44146 -0.83959 -0.31226 72 69 44
0.45257 -0.84543 -0.30345 65 62 41
0.45882 -0.84848 -0.29979 62 59 40
0.47517 -0.85358 -0.30685 59 57 33
0.48336 -0.85704 -0.30518 56 54 28
0.48967 -0.86012 -0.30152 56 52 26
0.49219 -0.86419 -0.28378 47 40 32
0.49583 -0.87462 -0.28168 30 22 21
0.49432 -0.86639 -0.27590 48 35 29
0.49795 -0.87679 -0.27381 32 23 17
0.49750 -0.86880 -0.26915 44 30 28
0.50113 -0.87918 -0.26706 31 23 21
0.50289 -0.87166 -0.26468 38 27 31
0.50651 -0.88203 -0.26259 30 24 23
0.51019 -0.87493 -0.26216 33 26 31
0.51382 -0.88531 -0.26007 27 25 17
0.51743 -0.87818 -0.25954 27 24 24
0.52106 -0.88857 -0.25746 25 24 17
0.52361 -0.88122 -0.25588 23 24 20
0.52724 -0.89160 -0.25379 24 24 20
0.52883 -0.88404 -0.25126 21 24 18
0.53245 -0.89441 -0.24917 25 23 23
0.53104 -0.88621 -0.24371 22 22 22
0.53466 -0.89656 -0.24163 26 22 22
0.53570 -0.88891 -0.23860 26 22 26
0.53932 -0.89925 -0.23652 25 21 19
0.53730 -0.89094 -0.23054 30 21 24
0.54091 -0.90124 -0.22846 25 21 18
0.54670 -0.89466 -0.23005 29 22 24
0.55031 -0.90498 -0.22797 25 22 18
-0.97594 -0.20381 -0.85806 72 67 74
-0.97850 -0.21051 -0.85929 79 70 79
-0.97261 -0.21333 -0.85614 60 56 69
-0.95928 -0.21536 -0.82831 76 81 105
-0.96765 -0.21920 -0.83265 45 47 63
-0.96182 -0.22200 -0.82953 36 38 58
-0.94700 -0.21933 -0.83306 49 46 59
-0.94955 -0.22600 -0.83428 36 41 40
-0.94102 -0.22184 -0.83201 52 54 62
-0.93535 -0.22515 -0.82552 49 53 58
-0.92949 -0.22796 -0.82238 48 52 49
-0.91095 -0.23453 -0.82616 58 54 54
-0.91941 -0.23841 -0.83055 29 19 35
-0.89432 -0.24486 -0.80353 31 35 24
-0.88852 -0.24776 -0.79976 24 23 30
-0.87594 -0.25209 -0.80303 32 23 35
-0.85652 -0.25820 -0.81147 23 19 34
-0.85316 -0.26781 -0.80954 21 17 28
-0.85053 -0.26098 -0.80886 38 39 45
-0.84383 -0.26288 -0.81301 49 55 56
-0.83766 -0.26548 -0.81182 58 63 70
-0.83184 -0.26852 -0.80725 61 73 78
-0.82608 -0.27160 -0.80233 69 74 77
-0.81754 -0.26769 -0.79790 76 72 72
-0.82063 -0.27501 -0.79477 75 74 70
-0.81211 -0.27111 -0.79035 72 68 70
-0.80980 -0.28178 -0.77982 74 74 71
-0.79888 -0.28833 -0.76631 74 78 73
-0.78765 -0.29449 -0.75583 73 79 79
-0.78215 -0.29765 -0.74984 64 72 81
-0.77595 -0.30021 -0.74898 58 56 69
-0.76954 -0.30261 -0.74955 58 61 65
-0.76350 -0.30533 -0.74735 54 56 58
-0.76017 -0.31487 -0.74543 32 25 28
-0.75805 -0.30850 -0.74124 51 41 49
-0.75070 -0.31026 -0.74766 34 32 36
-0.74379 -0.31240 -0.75084 31 33 44
-0.73725 -0.31483 -0.75150 28 29 54
-0.72581 -0.32084 -0.74239 45 46 50
-0.72839 -0.32759 -0.74363 51 49 59
-0.72245 -0.33044 -0.74046 48 49 52
-0.59748 -0.37446 -0.72062 43 42 48
-0.60618 -0.37845 -0.72513 51 50 54
-0.58935 -0.37666 -0.72628 30 30 42
-0.58178 -0.37908 -0.72929 18 17 37
-0.57833 -0.38896 -0.72730 16 12 31
-0.56454 -0.38337 -0.74347 14 11 46
-0.55619 -0.38566 -0.74905 23 30 76
-0.54702 -0.38776 -0.75768 32 44 95
-0.54084 -0.39076 -0.75415 36 50 109
-0.53459 -0.39375 -0.75088 34 49 123
-0.52532 -0.39592 -0.75924 30 42 134
-0.51811 -0.39869 -0.75949 28 38 136
-0.51199 -0.40174 -0.75556 30 40 138
-0.47670 -0.41597 -0.75259 50 55 134
-0.46982 -0.41889 -0.75117 54 56 136
-0.45608 -0.42475 -0.74814 79 61 131
-0.45037 -0.42791 -0.74266 137 115 161
-0.44423 -0.43098 -0.73865 209 200 213
-0.44065 -0.44121 -0.73659 254 254 254
-0.43346 -0.43326 -0.74983 248 247 247
-0.42986 -0.44356 -0.74776 254 253 254
-0.03398 -0.63329 -0.48826 252 251 251
-0.03751 -0.62319 -0.49029 251 250 251
-0.04022 -0.63030 -0.49160 252 251 252
-0.03126 -0.62619 -0.48695 251 250 250
-0.02502 -0.62919 -0.48361 251 250 250
-0.02703 -0.63636 -0.48615 252 251 251
-0.01807 -0.63225 -0.48150 251 250 250
-0.01957 -0.63947 -0.48491 251 252 252
-0.01059 -0.63536 -0.48025 251 250 251
-0.01298 -0.64251 -0.48212 248 251 252
-0.00401 -0.63839 -0.47747 251 250 251
-0.00230 -0.64594 -0.48632 244 250 252
0.00671 -0.64181 -0.48164 252 250 251
0.00291 -0.64885 -0.48114 241 249 252
0.01191 -0.64473 -0.47647 252 250 251
0.00796 -0.65174 -0.47572 238 249 251
0.01695 -0.64762 -0.47106 252 251 252
0.01357 -0.65469 -0.47128 236 248 245
0.01961 -0.65767 -0.46756 232 241 236
0.02336 -0.66040 -0.46009 230 234 240
0.03113 -0.66357 -0.45922 230 221 245
0.04182 -0.66708 -0.46302 229 208 236
0.04837 -0.67013 -0.46008 221 199 226
0.05377 -0.67304 -0.45532 207 192 214
0.05859 -0.67589 -0.44966 194 184 207
0.06027 -0.67834 -0.43911 180 177 198
0.06748 -0.68146 -0.43727 169 170 182
0.07607 -0.68476 -0.43753 155 161 164
0.08571 -0.68819 -0.43936 142 150 149
0.09564 -0.69168 -0.44155 135 134 154
0.10842 -0.69556 -0.44795 135 118 155
0.11578 -0.69874 -0.44609 134 100 152
0.12216 -0.70179 -0.44275 128 89 140
0.12883 -0.70488 -0.43984 120 83 124
0.13242 -0.71514 -0.43778 85 73 78
0.13669 -0.70814 -0.43867 112 78 107
0.14028 -0.71841 -0.43660 89 77 71
0.14333 -0.71123 -0.43570 102 72 85
0.14693 -0.72151 -0.43363 92 79 61
0.15078 -0.71443 -0.43388 91 65 65
0.15989 -0.71788 -0.43443 81 58 54
0.16876 -0.72131 -0.43457 71 54 52
0.17732 -0.72470 -0.43423 66 56 56
0.18618 -0.72814 -0.43427 67 58 65
0.18981 -0.73851 -0.43218 97 83 63
0.19419 -0.73145 -0.43307 74 60 69
0.19782 -0.74184 -0.43098 96 84 63
0.20118 -0.73462 -0.43043 80 65 70
0.20482 -0.74502 -0.42834 94 83 66
0.21022 -0.73811 -0.43059 85 70 71
0.21386 -0.74852 -0.42850 92 83 64
0.22964 -0.74740 -0.42041 90 75 62
0.22040 -0.75163 -0.42520 91 80 64
0.22684 -0.75472 -0.42176 91 80 62
0.23328 -0.75781 -0.41832 93 81 56
0.23425 -0.75020 -0.41453 93 78 55
0.23788 -0.76060 -0.41244 89 81 54
0.23907 -0.75303 -0.40895 92 80 50
0.24950 -0.75879 -0.39894 81 76 44
0.25313 -0.76916 -0.39686 57 52 55
0.26332 -0.76512 -0.39338 76 73 58
0.30185 -0.78554 -0.36154 91 85 59
0.31012 -0.78895 -0.36044 90 85 67
0.31788 -0.79226 -0.35869 91 83 59
0.32545 -0.79555 -0.35668 90 82 58
0.33464 -0.79134 -0.35192 94 84 61
0.33368 -0.79896 -0.35545 88 81 56
0.34287 -0.79474 -0.35068 95 84 63
0.33871 -0.80178 -0.35037 88 79 50
0.34632 -0.80508 -0.34838 85 78 46
0.35428 -0.80845 -0.34677 82 75 50
0.36142 -0.81167 -0.34418 82 72 59
0.36985 -0.81514 -0.34308 79 69 50
0.37750 -0.81846 -0.34106 74 66 40
0.38428 -0.82162 -0.33800 70 63 41
0.39169 -0.82490 -0.33567 67 59 44
0.40174 -0.82869 -0.33632 65 55 46
0.42101 -0.83615 -0.33651 57 48 35
0.42872 -0.83951 -0.33441 53 46 32
0.43446 -0.84248 -0.33011 53 46 32
0.44143 -0.84569 -0.32717 52 44 34
0.44510 -0.85619 -0.32506 33 29 30
0.44843 -0.84891 -0.32425 48 41 36
0.45210 -0.85941 -0.32214 30 29 30
0.45367 -0.85178 -0.31944 42 37 36
0.45734 -0.86227 -0.31732 31 30 28
0.47007 -0.85871 -0.31616 36 32 32
0.47374 -0.86923 -0.31404 35 30 20
0.47858 -0.86225 -0.31481 34 30 26
0.48226 -0.87278 -0.31269 34 30 22
0.48843 -0.86784 -0.30454 29 27 23
0.49210 -0.87835 -0.30242 32 24 28
0.48952 -0.86982 -0.29543 24 26 27
0.49318 -0.88029 -0.29332 31 25 26
-0.95498 -0.22195 -0.84584 35 37 47
-0.94400 -0.22961 -0.82570 35 40 39
-0.94069 -0.23907 -0.82380 18 8 21
-0.93863 -0.23358 -0.81451 32 35 35
-0.93534 -0.24301 -0.81261 17 10 18
-0.93278 -0.23633 -0.81173 29 30 29
-0.92442 -0.23250 -0.80739 51 55 50
-0.92949 -0.24576 -0.80983 18 12 23
-0.91549 -0.24510 -0.79966 28 18 33
-0.92384 -0.24893 -0.80399 23 15 23
-0.90934 -0.24730 -0.80090 27 13 27
-0.89149 -0.25513 -0.79578 23 17 34
-0.88496 -0.25686 -0.80068 39 31 40
-0.87882 -0.25927 -0.80067 49 47 42
-0.87240 -0.26131 -0.80343 48 46 46
-0.85924 -0.26514 -0.81131 28 26 33
-0.84658 -0.26986 -0.81266 19 15 39
-0.84033 -0.27236 -0.81228 22 18 35
-0.83448 -0.27536 -0.80805 29 30 44
-0.83111 -0.28500 -0.80611 22 18 26
-0.82842 -0.27811 -0.80577 40 42 48
-0.82505 -0.28775 -0.80383 21 16 41
-0.82237 -0.28087 -0.80337 45 45 47
-0.81900 -0.29052 -0.80143 19 16 37
-0.81737 -0.28473 -0.79201 48 50 51
-0.81233 -0.28847 -0.78137 50 52 57
-0.80692 -0.29180 -0.77413 53 55 61
-0.80157 -0.29516 -0.76659 51 56 61
-0.79635 -0.29859 -0.75824 54 57 61
-0.79028 -0.30126 -0.75646 50 55 62
-0.78696 -0.31078 -0.75455 28 30 50
-0.78469 -0.30433 -0.75118 38 48 59
-0.77904 -0.30734 -0.74639 26 24 41
-0.77280 -0.30987 -0.74582 21 21 29
-0.76684 -0.31264 -0.74320 24 24 32
-0.75330 -0.31701 -0.74871 33 33 38
-0.74618 -0.31902 -0.75333 41 39 44
-0.74019 -0.32184 -0.75045 47 45 52
-0.73684 -0.33145 -0.74852 56 52 58
-0.73417 -0.32463 -0.74783 50 47 57
-0.73081 -0.33424 -0.74590 56 54 58
-0.60211 -0.38204 -0.71313 45 44 48
-0.61077 -0.38601 -0.71762 54 49 56
-0.59450 -0.38441 -0.71673 33 32 42
-0.58696 -0.38685 -0.71980 20 19 36
-0.58353 -0.39667 -0.71782 17 14 28
-0.57078 -0.39146 -0.73002 17 15 51
-0.56124 -0.39340 -0.74070 26 32 80
-0.55230 -0.39557 -0.74861 40 49 99
-0.54522 -0.39831 -0.74876 47 60 114
-0.54106 -0.40184 -0.73743 50 66 125
-0.52339 -0.40646 -0.75106 45 51 140
-0.51653 -0.40931 -0.75004 44 51 145
-0.50877 -0.41197 -0.75230 40 52 144
-0.50044 -0.41452 -0.75650 39 52 139
-0.49269 -0.41722 -0.75842 42 52 132
-0.48638 -0.42025 -0.75507 47 52 128
-0.47922 -0.42311 -0.75472 44 48 119
-0.47338 -0.42624 -0.74964 65 50 121
-0.46679 -0.42922 -0.74723 93 77 130
-0.46111 -0.43237 -0.74167 152 131 157
-0.45330 -0.43514 -0.74336 219 205 209
-0.44973 -0.44537 -0.74130 254 254 253
-0.44684 -0.43815 -0.74045 249 246 244
-0.44326 -0.44839 -0.73839 254 254 254
-0.09935 -0.61040 -0.52251 252 250 252
-0.10288 -0.60030 -0.52454 251 249 251
-0.10559 -0.60740 -0.52585 251 250 252
-0.09664 -0.60330 -0.52121 251 249 251
-0.09040 -0.60629 -0.51787 251 249 251
-0.09320 -0.61339 -0.51900 252 250 252
-0.08425 -0.60929 -0.51436 251 249 251
-0.08796 -0.61631 -0.51379 250 250 252
-0.07901 -0.61221 -0.50915 251 249 251
-0.08299 -0.61920 -0.50809 248 250 252
-0.07406 -0.61511 -0.50346 251 249 251
-0.07687 -0.62219 -0.50457 246 250 252
-0.06793 -0.61809 -0.49994 251 250 251
-0.07084 -0.62516 -0.50087 243 249 252
-0.06191 -0.62107 -0.49624 251 250 251
-0.06438 -0.62817 -0.49797 240 248 251
-0.05545 -0.62408 -0.49334 251 251 252
-0.05772 -0.63120 -0.49542 237 248 248
-0.04879 -0.62710 -0.49079 251 251 252
-0.05024 -0.63430 -0.49433 235 244 240
-0.04327 -0.63737 -0.49229 233 235 237
-0.03597 -0.64047 -0.49083 233 226 241
-0.02918 -0.64352 -0.48843 233 218 239
-0.02004 -0.64681 -0.49012 227 212 234
-0.01215 -0.64999 -0.48955 216 205 226
-0.00434 -0.65317 -0.48881 203 197 217
0.00288 -0.65628 -0.48703 189 189 208
0.01026 -0.65943 -0.48550 175 183 194
0.01718 -0.66252 -0.48317 166 176 177
0.02705 -0.66826 -0.47193 144 150 165
0.03461 -0.67143 -0.47063 139 128 181
0.04700 -0.67518 -0.47715 144 107 166
0.05589 -0.67853 -0.47788 140 95 149
0.06199 -0.68155 -0.47410 130 89 128
0.06930 -0.68472 -0.47225 119 81 116
0.07289 -0.69498 -0.47018 89 76 64
0.07437 -0.68760 -0.46684 106 74 99
0.07795 -0.69786 -0.46477 92 78 62
0.09083 -0.69419 -0.46591 83 57 58
0.09756 -0.69729 -0.46308 69 57 52
0.10234 -0.70013 -0.45726 62 55 58
0.10834 -0.70314 -0.45332 63 54 68
0.11503 -0.70623 -0.45043 67 55 77
0.11862 -0.71651 -0.44836 96 83 66
0.12050 -0.70916 -0.44572 71 59 80
0.12409 -0.71943 -0.44365 96 83 70
0.16211 -0.72588 -0.44294 95 80 58
0.15293 -0.73009 -0.44770 93 84 64
0.15933 -0.73317 -0.44428 94 84 63
0.16573 -0.73624 -0.44085 92 83 65
0.16768 -0.72883 -0.43833 96 81 58
0.17130 -0.73918 -0.43624 92 83 66
0.17624 -0.73224 -0.43798 95 82 59
0.17986 -0.74260 -0.43589 93 82 62
0.18475 -0.73564 -0.43752 95 83 59
0.24182 -0.76326 -0.40570 85 80 50
0.26137 -0.77256 -0.39581 72 75 51
0.26730 -0.77555 -0.39175 84 79 55
0.27650 -0.77134 -0.38698 92 82 70
0.28597 -0.78469 -0.38074 85 76 45
0.28967 -0.78728 -0.37391 82 72 44
0.29711 -0.79054 -0.37179 77 70 45
0.30394 -0.79370 -0.36888 73 70 47
0.31257 -0.79718 -0.36819 70 67 50
0.33581 -0.80718 -0.36272 62 58 44
0.34374 -0.81056 -0.36106 59 54 38
0.35235 -0.81407 -0.36019 56 51 35
0.37002 -0.82119 -0.35889 54 41 45
0.37760 -0.82452 -0.35672 54 38 41
0.38126 -0.83500 -0.35461 36 27 24
0.38373 -0.82756 -0.35285 48 35 33
0.38739 -0.83804 -0.35074 35 27 16
0.38799 -0.83023 -0.34685 42 30 22
0.39165 -0.84069 -0.34474 33 25 23
0.39494 -0.83343 -0.34394 39 26 31
0.39860 -0.84390 -0.34183 32 24 25
0.40575 -0.83741 -0.34541 36 23 37
0.40942 -0.84791 -0.34330 30 24 21
0.41411 -0.84090 -0.34405 32 21 34
0.41778 -0.85141 -0.34194 28 26 21
0.42879 -0.84749 -0.33899 27 23 26
0.43247 -0.85801 -0.33687 32 26 23
0.43493 -0.85054 -0.33510 31 25 26
0.43861 -0.86105 -0.33299 31 25 24
0.43732 -0.85281 -0.32711 34 27 28
0.44099 -0.86330 -0.32500 29 26 25
-1.05173 -0.18302 -0.89985 58 48 69
-1.05506 -0.17348 -0.90177 58 52 60
-1.05762 -0.18019 -0.90300 57 47 59
-1.04917 -0.17631 -0.89862 59 54 67
-1.04327 -0.17914 -0.89546 56 54 65
-1.04591 -0.18710 -0.88885 56 50 68
-1.03749 -0.18324 -0.88448 56 55 61
-1.04004 -0.18992 -0.88570 56 54 66
-1.02803 -0.19323 -0.89430 62 58 64
-1.03137 -0.18366 -0.89623 58 58 58
-1.03394 -0.19039 -0.89747 57 57 63
-1.02546 -0.18650 -0.89307 63 61 61
-1.03060 -0.19996 -0.89554 51 55 57
-1.02469 -0.20280 -0.89238 59 64 64
-0.98133 -0.21824 -0.85356 76 83 86
-0.97521 -0.22018 -0.85637 56 59 59
-0.96932 -0.22301 -0.85322 44 45 47
-0.97188 -0.22971 -0.85445 34 27 39
-0.96342 -0.22578 -0.85049 32 32 39
-0.96597 -0.23248 -0.85172 29 18 29
-0.95793 -0.22977 -0.83928 21 20 34
-0.95288 -0.23476 -0.82088 16 12 27
-0.94767 -0.23913 -0.80673 17 8 21
-0.91793 -0.25157 -0.80206 23 20 31
-0.92047 -0.25819 -0.80328 40 37 39
-0.91173 -0.25366 -0.80414 30 24 31
-0.90629 -0.25718 -0.79572 34 30 31
-0.90027 -0.25964 -0.79509 36 36 32
-0.89391 -0.26158 -0.79849 42 41 43
-0.88758 -0.26364 -0.80112 53 52 51
-0.88426 -0.27313 -0.79921 69 64 64
-0.88139 -0.26598 -0.80170 63 60 57
-0.87806 -0.27548 -0.79979 70 67 67
-0.87486 -0.26787 -0.80577 64 62 60
-0.87153 -0.27741 -0.80385 74 69 66
-0.86817 -0.26962 -0.81117 66 62 56
-0.86167 -0.27169 -0.81410 58 57 46
-0.85534 -0.27404 -0.81491 50 45 43
-0.84922 -0.27669 -0.81343 42 38 45
-0.84290 -0.27913 -0.81368 34 29 34
-0.83698 -0.28204 -0.81011 25 22 28
-0.81505 -0.29535 -0.78143 18 16 25
-0.81035 -0.29934 -0.76833 18 15 29
-0.80484 -0.30251 -0.76218 19 16 29
-0.79986 -0.30613 -0.75198 22 19 29
-0.79359 -0.30859 -0.75197 25 24 42
-0.78172 -0.31412 -0.74669 36 35 38
-0.77545 -0.31663 -0.74638 38 36 34
-0.76970 -0.31955 -0.74234 40 39 40
-0.76363 -0.32223 -0.74054 44 41 42
-0.75646 -0.32416 -0.74597 46 44 49
-0.74940 -0.32621 -0.75041 49 48 53
-0.74604 -0.33579 -0.74848 59 58 60
-0.73133 -0.34096 -0.70360 56 56 57
-0.60634 -0.38944 -0.70729 47 45 48
-0.61497 -0.39339 -0.71176 54 51 56
-0.59858 -0.39177 -0.71169 34 34 40
-0.59096 -0.39418 -0.71526 22 20 33
-0.58753 -0.40398 -0.71328 19 17 31
-0.57582 -0.39912 -0.72138 20 15 52
-0.56767 -0.40147 -0.72656 34 32 81
-0.55840 -0.40355 -0.73606 46 51 103
-0.55152 -0.40632 -0.73567 56 65 116
-0.54414 -0.40897 -0.73718 63 70 125
-0.53657 -0.41160 -0.73925 65 75 131
-0.52890 -0.41423 -0.74160 64 75 136
-0.52239 -0.41715 -0.73943 65 75 142
-0.51351 -0.41955 -0.74605 65 70 139
-0.50552 -0.42217 -0.74917 66 68 131
-0.49748 -0.42482 -0.75227 75 73 119
-0.49120 -0.42784 -0.74891 89 84 116
-0.49065 -0.43195 -0.72512 101 99 115
-0.48174 -0.43445 -0.73121 146 130 133
-0.47699 -0.43772 -0.72264 200 184 161
-0.46691 -0.44006 -0.73252 237 229 207
-0.46336 -0.45022 -0.73047 254 254 253
-0.45811 -0.44267 -0.73772 252 250 243
-0.45454 -0.45287 -0.73566 254 254 254
-0.16788 -0.58466 -0.56653 251 250 252
-0.17142 -0.57453 -0.56857 250 249 251
-0.17414 -0.58166 -0.56988 251 250 252
-0.16515 -0.57754 -0.56523 250 249 251
-0.15889 -0.58055 -0.56188 250 249 251
-0.14962 -0.59365 -0.55540 247 250 252
-0.14064 -0.58954 -0.55075 250 249 251
-0.14515 -0.59655 -0.54842 245 249 252
-0.13619 -0.59245 -0.54378 250 249 251
-0.14049 -0.59945 -0.54188 243 249 252
-0.13155 -0.59535 -0.53724 251 249 252
-0.13609 -0.60233 -0.53487 241 248 251
-0.12717 -0.59824 -0.53024 250 250 252
-0.12950 -0.60534 -0.53227 239 248 248
-0.12057 -0.60125 -0.52764 250 250 252
-0.12242 -0.60839 -0.53062 236 244 244
-0.11348 -0.60429 -0.52598 251 250 252
-0.11502 -0.61147 -0.52958 234 238 243
-0.10849 -0.61449 -0.52681 234 232 246
-0.10112 -0.61757 -0.52563 235 227 240
-0.09222 -0.62079 -0.52733 233 220 236
-0.08087 -0.62423 -0.53358 225 212 230
-0.07340 -0.62735 -0.53240 216 207 225
-0.06748 -0.63034 -0.52831 206 201 219
-0.06307 -0.63320 -0.52146 194 194 210
-0.05940 -0.63597 -0.51331 181 188 200
-0.05723 -0.63859 -0.50251 168 181 185
-0.04960 -0.64410 -0.48716 149 151 160
-0.03970 -0.64747 -0.49034 147 134 175
-0.02529 -0.65133 -0.50133 148 118 172
-0.00508 -0.65821 -0.50779 135 96 142
0.00673 -0.66186 -0.51378 123 86 123
0.01033 -0.67217 -0.51171 86 74 67
0.00941 -0.66450 -0.50411 109 76 104
0.01300 -0.67477 -0.50204 90 78 66
0.01528 -0.66749 -0.49991 95 68 79
0.02113 -0.67048 -0.49568 84 60 63
0.03081 -0.67621 -0.48395 59 54 57
0.03752 -0.67929 -0.48120 54 53 75
0.04356 -0.68229 -0.47734 63 54 77
0.04713 -0.69252 -0.47528 94 86 56
0.04990 -0.68533 -0.47399 71 59 73
0.05348 -0.69556 -0.47193 94 87 57
0.05721 -0.68850 -0.47218 79 65 68
0.06078 -0.69874 -0.47012 94 86 63
0.06531 -0.69177 -0.47161 84 72 68
0.06890 -0.70203 -0.46955 95 86 64
0.08941 -0.70161 -0.46933 95 80 57
0.08028 -0.70580 -0.47407 95 86 64
0.08664 -0.70885 -0.47066 95 86 64
0.09301 -0.71191 -0.46725 93 85 67
0.09653 -0.70477 -0.46708 97 83 57
0.10013 -0.71508 -0.46500 93 85 68
0.10173 -0.70767 -0.46187 97 83 57
0.10533 -0.71797 -0.45980 92 83 66
0.10766 -0.71066 -0.45781 97 82 60
0.11297 -0.71356 -0.45282 96 82 64
0.19059 -0.74638 -0.43853 93 82 61
0.19821 -0.74967 -0.43676 91 81 55
0.20738 -0.75321 -0.43709 89 80 54
0.21440 -0.75640 -0.43443 86 79 51
0.22181 -0.75966 -0.43228 84 75 50
0.22770 -0.76267 -0.42806 82 73 50
0.23366 -0.76568 -0.42394 83 72 46
0.23801 -0.76842 -0.41769 77 69 48
0.24245 -0.77116 -0.41158 70 65 47
0.24980 -0.77441 -0.40935 62 57 33
0.25989 -0.77815 -0.41070 53 43 43
0.26518 -0.78104 -0.40574 55 57 37
0.27093 -0.78401 -0.40139 57 58 38
0.28032 -0.78765 -0.40171 57 55 34
0.28252 -0.78997 -0.39283 56 52 32
0.28493 -0.79231 -0.38429 55 48 29
0.29161 -0.79544 -0.38119 52 40 32
0.29525 -0.80583 -0.37910 29 26 27
0.31364 -0.80335 -0.38571 47 35 40
0.31729 -0.81381 -0.38361 33 25 27
0.32329 -0.80706 -0.38618 42 31 40
0.32695 -0.81755 -0.38407 31 27 25
0.32140 -0.80857 -0.37247 36 29 38
0.32504 -0.81898 -0.37038 31 26 20
0.32779 -0.81165 -0.36897 33 25 32
0.33143 -0.82207 -0.36687 29 25 26
0.33493 -0.81488 -0.36637 31 22 26
0.33857 -0.82530 -0.36427 29 26 27
0.34347 -0.81838 -0.36545 29 22 31
0.34712 -0.82882 -0.36335 29 26 21
0.35421 -0.82233 -0.36710 28 23 27
0.35787 -0.83280 -0.36500 29 27 16
0.36115 -0.82553 -0.36419 25 24 27
0.36481 -0.83600 -0.36209 30 27 22
0.37567 -0.83207 -0.35911 35 25 31
0.37934 -0.84255 -0.35700 32 26 17
-1.06017 -0.18595 -0.91018 52 44 56
-1.06351 -0.17639 -0.91210 48 47 55
-1.06608 -0.18311 -0.91334 50 50 55
-1.06864 -0.18983 -0.91457 56 55 59
-1.05428 -0.18944 -0.90286 46 34 57
-1.04846 -0.19366 -0.89088 45 35 52
-1.04257 -0.19631 -0.88882 48 43 53
-1.03669 -0.19910 -0.88592 48 52 55
-1.01292 -0.20886 -0.88354 96 102 98
-1.01626 -0.19930 -0.88546 87 87 74
-1.01883 -0.20602 -0.88670 74 81 72
-1.02139 -0.21274 -0.88794 26 34 28
-1.01035 -0.20214 -0.88231 109 109 93
-1.00445 -0.20497 -0.87915 127 125 114
-1.00749 -0.21429 -0.86298 112 112 118
-1.00176 -0.21774 -0.85557 103 101 109
-0.99613 -0.22156 -0.84560 82 84 95
-0.98980 -0.22230 -0.85654 64 64 80
-0.98649 -0.23180 -0.85463 29 16 29
-0.98340 -0.22307 -0.86750 48 50 59
-0.98006 -0.23263 -0.86558 28 19 37
-0.97788 -0.22728 -0.85483 38 40 43
-0.97456 -0.23679 -0.85292 35 26 43
-0.96056 -0.23665 -0.83900 24 13 28
-0.95540 -0.24137 -0.82226 21 14 37
-0.94982 -0.24478 -0.81472 25 16 35
-0.94406 -0.24771 -0.81064 31 23 32
-0.93813 -0.25023 -0.80949 33 27 28
-0.93484 -0.25964 -0.80760 44 42 42
-0.93223 -0.25285 -0.80762 37 30 32
-0.92894 -0.26227 -0.80572 44 41 38
-0.91441 -0.26057 -0.80333 43 39 45
-0.92278 -0.26441 -0.80767 42 40 41
-0.91695 -0.26721 -0.80455 43 40 46
-0.91111 -0.27001 -0.80143 46 40 50
-0.90886 -0.26387 -0.79646 46 44 46
-0.90557 -0.27329 -0.79457 46 43 51
-0.89671 -0.26866 -0.79644 50 52 53
-0.89341 -0.27811 -0.79453 57 57 60
-0.89042 -0.27077 -0.79878 59 57 59
-0.88711 -0.28024 -0.79688 63 63 65
-0.86432 -0.27854 -0.81456 69 66 60
-0.87283 -0.28244 -0.81898 71 67 72
-0.86690 -0.28529 -0.81580 68 68 72
-0.86096 -0.28814 -0.81263 64 64 65
-0.85739 -0.28015 -0.82161 63 63 57
-0.85402 -0.28979 -0.81967 61 62 59
-0.85119 -0.28273 -0.82073 59 62 54
-0.84782 -0.29239 -0.81878 59 58 55
-0.84505 -0.28539 -0.81926 56 56 46
-0.84167 -0.29506 -0.81731 56 55 50
-0.83926 -0.28847 -0.81429 50 50 38
-0.83589 -0.29813 -0.81235 53 52 51
-0.83344 -0.29150 -0.80971 47 43 37
-0.83007 -0.30115 -0.80777 54 50 56
-0.82243 -0.29814 -0.79542 42 39 44
-0.82501 -0.30490 -0.79667 51 48 54
-0.81731 -0.30178 -0.78528 41 36 38
-0.81226 -0.30543 -0.77493 41 34 38
-0.80696 -0.30881 -0.76688 41 36 38
-0.80161 -0.31210 -0.75950 41 37 40
-0.79615 -0.31528 -0.75315 41 39 46
-0.79051 -0.31828 -0.74828 44 42 51
-0.78472 -0.32115 -0.74463 48 46 47
-0.77869 -0.32384 -0.74273 48 47 48
-0.77251 -0.32643 -0.74176 49 49 55
-0.76615 -0.32890 -0.74201 51 51 55
-0.75887 -0.33077 -0.74825 55 53 57
-0.75160 -0.33270 -0.75412 56 56 62
-0.74824 -0.34230 -0.75219 65 66 64
-0.60800 -0.39598 -0.71281 46 45 52
-0.60060 -0.39845 -0.71559 34 33 42
-0.59718 -0.40823 -0.71362 23 23 38
-0.59301 -0.40090 -0.71902 23 21 34
-0.58958 -0.41071 -0.71705 23 20 34
-0.57950 -0.40634 -0.71832 22 15 53
-0.57227 -0.40895 -0.71985 43 34 80
-0.56357 -0.41120 -0.72718 54 53 103
-0.55634 -0.41387 -0.72836 65 66 119
-0.54879 -0.41648 -0.73065 76 74 124
-0.54088 -0.41903 -0.73423 83 82 127
-0.53357 -0.42174 -0.73529 86 86 127
-0.52781 -0.42481 -0.73036 93 91 131
-0.51933 -0.42730 -0.73567 108 97 126
-0.51254 -0.43017 -0.73450 124 107 121
-0.50714 -0.43331 -0.72816 146 130 111
-0.49949 -0.43603 -0.73007 174 157 125
-0.49307 -0.43898 -0.72743 205 185 150
-0.48615 -0.44185 -0.72655 235 220 183
-0.47900 -0.44470 -0.72641 250 244 217
-0.47547 -0.45480 -0.72437 254 254 253
-0.47098 -0.44742 -0.72919 254 253 243
-0.46744 -0.45755 -0.72715 254 254 254
-0.23326 -0.56455 -0.58353 250 250 252
-0.23677 -0.55449 -0.58555 250 249 251
-0.23947 -0.56156 -0.58685 251 250 252
-0.23056 -0.55748 -0.58223 250 249 251
-0.22434 -0.56046 -0.57891 250 249 251
-0.22748 -0.56752 -0.57921 249 250 252
-0.21857 -0.56344 -0.57459 250 249 251
-0.22212 -0.57047 -0.57397 247 250 252
-0.21322 -0.56639 -0.56936 250 249 251
-0.21624 -0.57344 -0.56993 245 249 251
-0.20734 -0.56936 -0.56532 250 249 251
-0.20949 -0.57644 -0.56782 243 249 250
-0.20059 -0.57236 -0.56320 250 250 252
-0.20171 -0.57949 -0.56796 242 248 248
-0.19279 -0.57540 -0.56333 250 250 252
-0.19404 -0.58255 -0.56779 240 245 245
-0.18510 -0.57845 -0.56315 250 250 252
-0.18590 -0.58563 -0.56855 238 240 242
-0.17766 -0.58874 -0.56948 237 234 244
-0.17017 -0.59181 -0.56874 237 230 239
-0.16291 -0.59488 -0.56748 233 225 235
-0.15560 -0.59795 -0.56628 225 218 233
-0.15134 -0.60084 -0.55878 215 210 226
-0.14461 -0.60388 -0.55637 204 205 221
-0.13976 -0.60679 -0.55015 198 200 214
-0.13213 -0.60989 -0.54956 186 195 200
-0.12509 -0.61296 -0.54773 177 189 187
-0.11750 -0.61608 -0.54697 164 179 174
-0.10964 -0.61922 -0.54671 154 161 175
-0.10189 -0.62237 -0.54618 151 146 185
-0.09642 -0.62532 -0.54121 153 136 173
-0.08954 -0.62840 -0.53896 153 119 163
-0.08045 -0.63168 -0.54086 145 103 149
-0.07393 -0.63473 -0.53786 135 94 135
-0.06670 -0.63785 -0.53618 125 87 121
-0.06313 -0.64809 -0.53412 85 74 68
-0.06032 -0.64090 -0.53291 113 76 102
-0.05674 -0.65113 -0.53085 89 78 63
-0.05414 -0.64392 -0.52926 98 66 79
