ply
format ascii 1.0
element face 0
property list uchar int vertex_indices
element vertex 1344
property float x
property float y
property float z
property uchar diffuse_red
property uchar diffuse_green
property uchar diffuse_blue
end_header
0.50026 -0.85808 -0.26738 102 95 73
0.51001 -0.87052 -0.25785 97 93 63
0.50808 -0.88397 -0.25555 75 62 59
0.52373 -0.87590 -0.26295 90 79 67
0.52179 -0.88942 -0.26064 75 60 69
0.53100 -0.88196 -0.26076 83 66 71
0.52905 -0.89551 -0.25844 74 57 64
0.55828 -0.89306 -0.27030 73 58 63
0.55632 -0.90675 -0.26796 70 57 39
2.02650 -1.78946 -0.32689 39 32 37
2.01338 -1.79047 -0.34340 27 27 27
2.03827 -1.80073 -0.32112 67 55 50
2.05313 -1.81271 -0.31725 86 75 53
2.05824 -1.82256 -0.30719 90 75 59
2.05016 -1.83342 -0.31371 89 75 58
2.89935 -2.37220 -0.28454 15 27 64
2.88373 -2.37340 -0.30419 15 21 86
2.88978 -2.38507 -0.29227 19 30 76
2.91150 -2.38577 -0.27563 16 34 29
2.92715 -2.38456 -0.25594 45 23 6
2.91547 -2.39679 -0.26266 13 36 15
2.91749 -2.40719 -0.24875 17 32 27
2.92381 -2.41894 -0.23696 29 39 51
2.92028 -2.44348 -0.23276 33 49 147
2.96852 -2.44302 -0.24359 76 73 111
2.96496 -2.46778 -0.23936 24 41 157
2.98929 -2.45953 -0.23855 88 71 120
2.98572 -2.48437 -0.23430 25 46 156
2.97265 -2.46393 -0.21570 76 45 124
2.84881 -2.45195 -0.11388 102 100 202
2.86130 -2.46552 -0.10529 44 33 161
2.85643 -2.47327 -0.08874 50 47 162
2.85800 -2.48316 -0.07518 80 95 165
2.86400 -2.49454 -0.06363 67 82 172
2.87084 -2.50622 -0.05247 57 70 174
2.88060 -2.51890 -0.04259 52 74 175
2.88235 -2.52881 -0.02916 85 105 186
2.88409 -2.53871 -0.01576 82 88 180
2.89393 -2.55144 -0.00588 71 73 166
2.89466 -2.56095 0.00792 57 58 156
2.91075 -2.57592 0.01516 41 43 135
2.92234 -2.58933 0.02436 25 31 122
2.91752 -2.60604 0.05452 18 25 119
2.91729 -2.61514 0.06862 25 33 128
2.76423 -2.63780 0.25164 24 43 150
2.74980 -2.63891 0.23349 28 46 153
2.75539 -2.64969 0.24450 27 48 160
2.76097 -2.66046 0.25551 30 49 162
2.77632 -2.65109 0.26018 27 44 159
2.80106 -2.67796 0.27717 35 37 114
2.79779 -2.70072 0.28106 25 24 70
2.82493 -2.69595 0.28147 31 27 78
2.82165 -2.71882 0.28538 23 24 65
2.87081 -2.74012 0.30435 53 49 39
2.85614 -2.74125 0.28590 29 25 49
2.89021 -2.75657 0.31062 90 76 46
2.89919 -2.76888 0.32069 111 92 55
2.91391 -2.76775 0.33921 122 96 59
2.90489 -2.77987 0.33192 122 96 64
2.89587 -2.79200 0.32464 117 96 67
0.30655 -0.66616 -0.39141 253 251 244
0.29837 -0.66679 -0.40169 254 254 254
0.27995 -0.68591 -0.33512 123 110 118
0.30053 -0.68796 -0.35215 212 239 242
0.37561 -0.77399 -0.29405 254 254 254
0.37746 -0.76107 -0.29626 254 254 254
0.37242 -0.76784 -0.30033 254 254 254
0.38065 -0.76721 -0.28998 254 254 254
0.38384 -0.77335 -0.28370 254 254 254
0.38811 -0.78531 -0.28897 218 238 242
0.39596 -0.79076 -0.28833 196 161 198
0.41108 -0.79516 -0.29642 144 115 148
0.40920 -0.80825 -0.29418 97 81 84
0.41989 -0.80057 -0.29676 99 84 109
0.41800 -0.81371 -0.29452 99 86 91
0.42855 -0.80605 -0.29687 95 72 110
0.42666 -0.81922 -0.29462 101 92 89
0.44046 -0.81785 -0.29049 98 83 77
0.43530 -0.82478 -0.29465 103 92 84
0.43856 -0.83106 -0.28823 102 93 86
0.48859 -0.85907 -0.27456 97 94 74
0.49052 -0.84568 -0.27685 104 91 76
0.48529 -0.85270 -0.28107 101 93 85
0.49382 -0.85205 -0.27033 102 93 83
0.49564 -0.86505 -0.27232 92 89 63
0.49371 -0.87848 -0.27002 76 61 64
0.50092 -0.87124 -0.26803 85 76 65
0.49899 -0.88468 -0.26573 74 61 65
0.50721 -0.87734 -0.26485 77 68 62
0.50528 -0.89080 -0.26255 72 60 61
2.53668 -1.51093 -1.28421 21 12 8
2.54031 -1.48570 -1.28852 5 5 6
2.53046 -1.49893 -1.29647 7 5 6
2.54653 -1.49770 -1.27626 11 6 8
2.55275 -1.50969 -1.26400 11 5 7
2.54352 -1.52300 -1.27243 20 12 10
2.55959 -1.52176 -1.25222 9 4 5
2.54974 -1.53500 -1.26017 11 7 9
2.34322 -1.61444 -0.93614 14 19 28
2.34659 -1.59092 -0.94016 12 14 17
2.33742 -1.60326 -0.94757 14 25 29
2.32824 -1.61560 -0.95498 15 30 39
2.33404 -1.62678 -0.94355 19 32 48
2.35819 -1.61329 -0.91729 11 8 10
2.33572 -1.62358 -0.91480 13 14 19
2.35064 -1.62243 -0.89602 11 8 9
2.34150 -1.63472 -0.90341 10 9 10
2.03112 -1.80306 -0.34152 37 33 32
2.01795 -1.80408 -0.35809 30 24 33
2.03878 -1.81347 -0.33310 65 56 44
2.05176 -1.82509 -0.32803 84 76 49
2.04878 -1.84584 -0.32449 88 76 66
2.88127 -2.39214 -0.27310 20 40 55
2.87173 -2.40496 -0.28081 25 40 94
2.88906 -2.40432 -0.26209 22 45 45
2.89654 -2.41642 -0.25091 26 43 81
2.93217 -2.43760 -0.25342 33 46 114
2.92864 -2.46224 -0.24920 37 50 155
2.82513 -2.46900 -0.10043 38 59 161
2.80999 -2.47017 -0.11949 52 62 174
2.81585 -2.48148 -0.10793 48 58 168
2.82767 -2.47918 -0.08734 58 76 174
2.84570 -2.49465 -0.08133 113 120 180
2.85143 -2.50593 -0.06968 74 63 161
2.86160 -2.51876 -0.06002 56 60 184
2.86436 -2.52901 -0.04703 52 81 197
2.86263 -2.53767 -0.03208 122 123 209
2.86686 -2.54840 -0.01979 126 121 214
2.87842 -2.56174 -0.01071 106 97 203
2.88429 -2.57307 0.00088 87 87 187
2.88874 -2.58388 0.01307 63 64 168
2.90195 -2.59786 0.02152 44 48 158
2.91764 -2.61278 0.02898 45 21 130
2.91386 -2.62060 0.04465 50 14 84
2.91029 -2.62846 0.06018 34 16 87
2.90690 -2.63634 0.07556 31 33 117
2.92203 -2.63517 0.09459 28 39 128
2.91276 -2.64763 0.08710 33 37 123
2.90349 -2.66009 0.07962 33 40 122
2.77001 -2.67259 0.26521 32 44 139
2.79245 -2.69001 0.26989 30 30 81
2.78918 -2.71278 0.27378 20 25 76
2.86853 -2.75490 0.29465 47 39 45
2.85385 -2.75603 0.27618 26 26 60
2.89099 -2.77266 0.29981 78 68 48
2.90235 -2.78596 0.30905 104 89 61
0.27187 -0.68655 -0.34509 220 207 197
0.27006 -0.69912 -0.34294 89 84 169
0.28669 -0.69659 -0.34434 203 224 227
0.35681 -0.76973 -0.30145 248 254 253
0.35866 -0.75686 -0.30365 254 254 254
0.35364 -0.76361 -0.30771 254 254 254
0.36183 -0.76298 -0.29740 254 254 254
0.36343 -0.77528 -0.29949 230 247 238
0.38447 -0.78522 -0.30507 172 148 188
0.39540 -0.79021 -0.30821 112 96 135
0.39352 -0.80327 -0.30598 96 85 83
0.40917 -0.80156 -0.30442 98 77 98
0.40728 -0.81468 -0.30218 105 93 86
0.47347 -0.85373 -0.28798 98 90 79
0.47539 -0.84036 -0.29027 106 95 90
0.47017 -0.84737 -0.29449 104 92 85
0.47869 -0.84672 -0.28377 104 92 84
0.48000 -0.85974 -0.28522 91 84 80
0.47807 -0.87314 -0.28293 76 62 70
0.48685 -0.86574 -0.28279 84 72 76
0.48492 -0.87916 -0.28050 72 63 60
0.49447 -0.87168 -0.28121 79 64 64
0.49254 -0.88514 -0.27891 72 62 61
2.50753 -1.52184 -1.27660 31 20 19
2.50392 -1.54694 -1.27231 27 28 33
2.51723 -1.53421 -1.26721 30 23 22
2.53212 -1.54725 -1.26192 19 15 18
2.54816 -1.54602 -1.24175 8 7 6
2.53833 -1.55923 -1.24968 11 9 11
2.32744 -1.60516 -0.97022 12 21 22
2.33082 -1.58161 -0.97425 9 12 14
2.32163 -1.59396 -0.98167 9 12 13
2.31244 -1.60631 -0.98909 10 10 17
2.32726 -1.63598 -0.92269 20 27 37
2.31233 -1.63713 -0.94147 20 32 50
2.31811 -1.64828 -0.93008 23 35 46
2.33377 -1.64724 -0.91184 12 16 14
2.34870 -1.64609 -0.89306 9 8 14
2.33955 -1.65839 -0.90045 9 10 12
2.04170 -1.81810 -0.36008 43 30 38
2.02845 -1.81912 -0.37674 28 26 39
2.04407 -1.82736 -0.34820 66 57 45
2.05251 -1.83800 -0.34021 83 77 56
2.04952 -1.85880 -0.33666 88 76 68
2.80237 -2.35407 -0.29029 14 16 80
2.80584 -2.32992 -0.29441 10 11 69
2.79641 -2.34258 -0.30202 11 10 68
2.81179 -2.34140 -0.28267 12 14 82
2.81555 -2.36783 -0.28221 23 26 89
2.81208 -2.39202 -0.27808 25 35 121
2.82811 -2.38142 -0.27377 34 37 93
2.82463 -2.40565 -0.26963 19 33 116
2.86428 -2.41225 -0.26223 19 40 102
2.85477 -2.42504 -0.26991 14 32 121
2.86078 -2.43663 -0.25807 18 36 132
2.88096 -2.42730 -0.25565 21 40 119
2.87745 -2.45173 -0.25147 25 43 145
2.91325 -2.44748 -0.25663 29 47 141
2.90972 -2.47207 -0.25242 34 48 155
2.81702 -2.49117 -0.09419 53 69 179
2.80188 -2.49233 -0.11323 42 50 172
2.83689 -2.50732 -0.08907 110 123 203
2.84011 -2.51773 -0.07627 77 67 190
2.85231 -2.53128 -0.06755 56 33 164
2.85622 -2.54192 -0.05506 34 45 184
2.85017 -2.54902 -0.03816 118 126 228
2.84905 -2.55783 -0.02352 166 150 234
2.85454 -2.56899 -0.01182 178 160 234
2.86589 -2.58227 -0.00267 150 116 223
2.87495 -2.59473 0.00750 129 101 187
2.88574 -2.60785 0.01696 123 106 180
2.89620 -2.62086 0.02659 165 144 182
2.90766 -2.63427 0.03583 193 184 114
2.89246 -2.63776 0.05624 83 77 99
2.88905 -2.66151 0.06030 41 35 98
2.88828 -2.64529 0.07195 35 38 116
2.88488 -2.66899 0.07601 30 39 120
2.74853 -2.67092 0.24976 36 54 159
2.74295 -2.66016 0.23876 35 52 167
2.73412 -2.67203 0.23163 41 54 166
2.75994 -2.68399 0.25854 31 39 116
2.75669 -2.70666 0.26241 20 23 82
2.77528 -2.69865 0.26586 23 28 78
2.77202 -2.72138 0.26974 19 25 80
2.86743 -2.77021 0.28449 46 38 49
2.85272 -2.77134 0.26598 25 24 65
2.89062 -2.78834 0.28937 71 63 51
2.90159 -2.80152 0.29876 96 80 61
2.89825 -2.82475 0.30273 109 92 55
2.90742 -2.81261 0.31001 114 92 61
2.92221 -2.81147 0.32862 123 98 72
2.91315 -2.82365 0.32130 123 97 59
2.90409 -2.83584 0.31398 119 97 56
2.66225 -2.88625 0.66600 127 96 51
2.65396 -2.89741 0.65930 117 87 54
2.65920 -2.90751 0.66963 113 84 54
0.26698 -0.69314 -0.34909 219 204 214
0.25898 -0.69375 -0.35916 254 251 250
0.28794 -0.70858 -0.34626 254 254 254
0.28612 -0.72125 -0.34409 254 254 254
0.33628 -0.75919 -0.31663 253 254 254
0.33812 -0.74637 -0.31882 254 254 254
0.33312 -0.75309 -0.32287 254 254 254
0.34128 -0.75247 -0.31259 254 254 254
0.34444 -0.75856 -0.30636 254 254 254
0.34108 -0.76500 -0.31248 241 253 253
0.34647 -0.77072 -0.30906 222 238 240
0.35732 -0.77556 -0.31246 197 167 197
0.36048 -0.78170 -0.30616 145 122 151
0.35863 -0.79461 -0.30395 95 83 75
0.37886 -0.78543 -0.31881 105 98 103
0.37699 -0.79846 -0.31658 99 87 89
0.38340 -0.79142 -0.31412 99 80 114
0.38153 -0.80446 -0.31189 105 92 83
0.39058 -0.79702 -0.31267 98 78 85
0.38870 -0.81009 -0.31044 103 94 85
0.44722 -0.84301 -0.29850 98 92 79
0.44395 -0.83668 -0.30496 100 91 85
0.45241 -0.83603 -0.29431 103 92 82
0.45569 -0.84235 -0.28785 100 92 85
0.45574 -0.84872 -0.29822 92 86 78
0.45382 -0.86205 -0.29594 77 68 73
0.46412 -0.85448 -0.29772 89 79 81
0.46220 -0.86785 -0.29543 76 63 73
0.47136 -0.86041 -0.29584 84 70 78
0.46944 -0.87381 -0.29355 73 62 74
2.43538 -1.48304 -1.30220 12 6 12
2.43895 -1.45818 -1.30645 6 4 8
2.42925 -1.47122 -1.31428 9 4 12
2.44508 -1.47000 -1.29436 6 4 9
2.45121 -1.48182 -1.28228 8 4 10
2.39836 -1.48988 -1.25459 14 8 11
2.48628 -1.53359 -1.27523 25 21 29
2.48269 -1.55862 -1.27096 25 27 32
2.52275 -1.56052 -1.27022 26 24 28
2.51292 -1.57373 -1.27816 30 35 33
2.32009 -1.62809 -0.96317 14 24 37
2.32899 -1.66026 -0.92250 15 26 29
2.32562 -1.68373 -0.91849 11 15 14
2.33600 -1.67162 -0.91200 9 14 14
2.35095 -1.67047 -0.89319 9 9 12
2.34179 -1.68278 -0.90059 9 12 8
2.33263 -1.69510 -0.90799 8 12 6
2.06398 -1.83594 -0.38637 43 33 43
2.05062 -1.83697 -0.40319 28 27 37
2.05428 -1.84249 -0.36657 65 57 51
2.05128 -1.86338 -0.36300 81 76 49
2.06005 -1.85257 -0.35681 82 76 61
2.05705 -1.87346 -0.35324 87 77 52
2.77310 -2.35089 -0.30245 12 12 72
2.77656 -2.32682 -0.30657 8 9 57
2.76716 -2.33945 -0.31415 8 9 62
2.75777 -2.35207 -0.32174 9 13 73
2.78525 -2.36430 -0.29394 19 24 87
2.78179 -2.38841 -0.28982 22 30 111
2.79745 -2.37776 -0.28542 25 32 106
2.79398 -2.40190 -0.28129 22 29 120
2.81147 -2.50493 -0.10341 45 51 178
2.80219 -2.51740 -0.11090 47 53 172
2.82410 -2.51861 -0.09497 88 75 192
2.82068 -2.54243 -0.09090 55 71 168
2.83439 -2.53149 -0.08542 65 50 181
2.84270 -2.54369 -0.07493 48 42 160
2.85239 -2.55639 -0.06505 16 23 177
2.84006 -2.56120 -0.04529 114 134 242
2.83952 -2.57019 -0.03089 181 182 250
2.84528 -2.58144 -0.01931 183 169 226
2.85569 -2.59440 -0.00976 142 119 151
2.86414 -2.60665 0.00067 146 133 145
2.87833 -2.62104 0.00864 171 174 158
2.88804 -2.63380 0.01858 189 180 159
2.89692 -2.64626 0.02891 193 164 120
2.87594 -2.64749 0.05181 93 69 67
2.73669 -2.68160 0.24380 39 44 143
2.74776 -2.69455 0.25268 29 27 99
2.74451 -2.71720 0.25655 22 22 79
2.86585 -2.78538 0.27447 45 31 52
2.85111 -2.78651 0.25593 29 21 59
2.87970 -2.79974 0.28274 68 57 49
2.89663 -2.81541 0.28995 91 78 56
2.89329 -2.83866 0.29393 105 89 55
0.26194 -0.69977 -0.35286 219 205 224
0.25393 -0.70038 -0.36293 254 251 251
0.26814 -0.71172 -0.34063 203 209 218
0.27890 -0.71609 -0.34477 254 254 254
0.27709 -0.72872 -0.34261 254 254 254
0.31827 -0.75494 -0.32449 249 254 253
0.32010 -0.74217 -0.32668 254 254 254
0.31512 -0.74887 -0.33070 254 254 254
0.32325 -0.74824 -0.32047 254 254 254
0.32407 -0.76054 -0.32169 232 247 243
0.35265 -0.76219 -0.34807 217 213 213
0.34592 -0.77006 -0.32908 176 156 177
0.34760 -0.77644 -0.32091 124 112 126
0.34575 -0.78934 -0.31870 96 80 86
0.35778 -0.78144 -0.32348 101 77 115
0.35592 -0.79439 -0.32126 102 87 85
0.36535 -0.78690 -0.32268 98 75 95
0.36349 -0.79989 -0.32046 104 93 82
0.42293 -0.83220 -0.31086 104 90 81
0.42483 -0.81898 -0.31312 104 95 87
0.41967 -0.82591 -0.31728 103 92 84
0.42809 -0.82527 -0.30669 103 93 88
0.43135 -0.83155 -0.30026 104 91 83
0.43002 -0.83801 -0.30904 101 90 73
0.43838 -0.84370 -0.30870 93 81 74
0.43647 -0.85699 -0.30642 78 63 68
0.44554 -0.84957 -0.30686 86 72 76
0.44363 -0.86289 -0.30458 73 63 65
0.45330 -0.85540 -0.30569 80 67 70
0.45138 -0.86875 -0.30341 73 65 58
2.52576 -1.48482 -1.42870 15 8 26
2.52944 -1.45922 -1.43307 16 16 21
2.51945 -1.47265 -1.44114 17 19 23
2.53575 -1.47139 -1.42063 11 5 11
2.42016 -1.49544 -1.30544 27 21 31
2.38338 -1.50213 -1.25787 31 28 25
2.39415 -1.51437 -1.24983 34 27 24
2.30580 -1.63962 -0.96668 12 14 30
2.29084 -1.64077 -0.98550 10 10 8
2.29664 -1.65194 -0.97408 10 11 14
2.31364 -1.65112 -0.95682 15 21 41
2.31431 -1.66145 -0.94151 16 28 48
2.32064 -1.67270 -0.93051 15 25 39
2.31727 -1.69618 -0.92649 10 12 12
2.07064 -1.85039 -0.40268 41 34 43
2.05721 -1.85143 -0.41956 26 26 34
2.06260 -1.85731 -0.38385 64 56 49
2.05959 -1.87831 -0.38026 82 76 51
2.73527 -2.35448 -0.29524 14 16 84
2.72005 -2.35566 -0.31439 11 14 82
2.72594 -2.36702 -0.30278 14 18 92
2.73184 -2.37839 -0.29116 19 24 102
2.74295 -2.36642 -0.28455 20 25 97
2.73951 -2.39034 -0.28046 23 29 110
2.80133 -2.50784 -0.12482 43 58 169
2.80475 -2.48403 -0.12889 34 54 169
2.79204 -2.52033 -0.13232 61 68 172
2.82215 -2.53370 -0.10588 42 47 175
2.83271 -2.55596 -0.08213 52 56 159
2.82928 -2.57981 -0.07806 44 37 72
2.83924 -2.56753 -0.07084 20 31 157
2.84053 -2.57721 -0.05717 63 73 165
2.83199 -2.58328 -0.03914 154 160 190
2.83665 -2.59413 -0.02707 191 193 219
2.84457 -2.60618 -0.01644 191 179 148
2.85917 -2.62072 -0.00871 180 163 135
2.86818 -2.63322 0.00150 172 158 133
2.87267 -2.64402 0.01368 155 145 120
2.88225 -2.65675 0.02367 152 144 99
2.87619 -2.66354 0.04031 116 95 71
2.84894 -2.66218 0.06578 55 37 91
2.86143 -2.67596 0.07446 35 36 122
2.72414 -2.68345 0.22494 43 54 163
2.72739 -2.66082 0.22108 34 50 166
2.71856 -2.67269 0.21394 40 54 170
2.70973 -2.68456 0.20681 48 59 170
2.72859 -2.69375 0.23639 36 36 122
2.72534 -2.71638 0.24025 23 21 82
2.73599 -2.70524 0.24668 26 24 89
2.73274 -2.72788 0.25055 23 23 72
2.86427 -2.80060 0.26441 43 25 44
2.84951 -2.80174 0.24583 26 22 53
2.85523 -2.81276 0.25710 39 26 32
2.87500 -2.81371 0.27384 65 53 41
2.89043 -2.82880 0.28158 87 76 53
0.25560 -0.70668 -0.35488 220 212 232
0.24760 -0.70729 -0.36494 254 252 252
0.26208 -0.71856 -0.34305 205 211 221
0.27447 -0.72261 -0.34943 254 254 254
0.27266 -0.73525 -0.34727 254 254 254
0.29348 -0.74540 -0.33347 253 254 254
0.29530 -0.73271 -0.33564 254 254 254
0.29035 -0.73937 -0.33964 254 254 254
0.29843 -0.73875 -0.32947 254 254 254
0.30156 -0.74478 -0.32330 254 254 254
0.30048 -0.75071 -0.33239 241 253 253
0.30739 -0.75607 -0.33113 224 238 237
0.31632 -0.76110 -0.33246 205 174 197
0.33274 -0.77154 -0.33305 111 100 107
0.33090 -0.78441 -0.33085 97 86 83
0.33867 -0.77720 -0.33032 103 83 105
0.34574 -0.78269 -0.32901 99 80 74
0.34389 -0.79561 -0.32681 107 93 85
0.41554 -0.83272 -0.32271 96 88 74
0.42004 -0.83886 -0.31778 92 80 67
0.41814 -0.85210 -0.31551 74 64 61
0.42663 -0.84475 -0.31536 83 72 66
0.42472 -0.85802 -0.31309 72 64 61
0.43512 -0.85045 -0.31520 79 67 66
0.43321 -0.86375 -0.31293 73 63 64
2.41382 -1.54193 -1.26471 50 45 43
2.43543 -1.55572 -1.26538 43 45 34
2.45022 -1.56869 -1.26037 31 31 24
2.48159 -1.58399 -1.26870 39 42 34
2.30858 -1.66413 -0.96737 10 12 20
2.29359 -1.66529 -0.98622 9 11 12
2.29940 -1.67648 -0.97478 10 10 13
2.30520 -1.68766 -0.96334 10 11 12
2.30660 -1.67401 -0.95001 11 15 27
2.30323 -1.69749 -0.94599 10 11 8
2.31296 -1.68527 -0.93902 11 17 22
2.30959 -1.70876 -0.93501 10 11 11
2.07581 -1.86460 -0.41811 37 34 41
2.06233 -1.86564 -0.43507 25 25 27
2.07159 -1.87242 -0.40167 65 60 47
2.06856 -1.89352 -0.39806 85 72 47
2.79206 -2.51108 -0.14671 63 72 165
2.79549 -2.48724 -0.15079 38 48 158
2.78618 -2.49975 -0.15830 48 47 162
2.77688 -2.51225 -0.16581 54 48 154
2.80272 -2.53337 -0.12301 54 62 168
2.79930 -2.55720 -0.11894 62 41 85
2.81422 -2.54671 -0.11405 45 59 165
2.81749 -2.55712 -0.10123 57 66 155
2.81406 -2.58097 -0.09716 96 82 75
2.82254 -2.56816 -0.08926 59 56 124
2.82808 -2.58855 -0.06325 91 87 108
2.81906 -2.59438 -0.04498 135 122 119
2.82733 -2.60656 -0.03452 139 124 115
2.82727 -2.61565 -0.02037 124 116 87
2.82865 -2.62524 -0.00688 109 101 88
2.83625 -2.63717 0.00387 93 75 98
2.85416 -2.65301 0.01016 98 86 92
2.85495 -2.66238 0.02389 120 108 67
2.86042 -2.67351 0.03559 127 107 75
2.84261 -2.67566 0.05713 69 47 104
2.85492 -2.68940 0.06588 45 45 137
2.85153 -2.71303 0.06992 53 66 166
2.71820 -2.69649 0.21667 41 45 139
2.72102 -2.70613 0.22876 31 29 104
2.71777 -2.72876 0.23263 25 22 78
2.86790 -2.82671 0.26579 63 51 33
2.85311 -2.82785 0.24719 35 31 32
2.88326 -2.84181 0.27354 85 74 50
2.89142 -2.85391 0.28398 103 87 61
2.90625 -2.85276 0.30264 116 96 52
2.89717 -2.86498 0.29530 116 96 64
2.88808 -2.87720 0.28796 113 95 63
0.24835 -0.71377 -0.35561 218 213 238
0.25503 -0.72560 -0.34409 210 216 224
0.26942 -0.72927 -0.35324 254 254 254
0.27680 -0.74106 -0.34249 249 253 254
0.28174 -0.73443 -0.33851 254 254 254
0.28039 -0.74698 -0.33697 233 247 248
0.29226 -0.75136 -0.34242 219 225 224
0.30342 -0.75594 -0.34682 177 165 174
0.31332 -0.76080 -0.34947 128 114 133
0.31148 -0.77363 -0.34728 93 79 84
0.32241 -0.77253 -0.34058 99 79 95
0.38510 -0.81621 -0.33730 102 94 84
0.38699 -0.80307 -0.33955 106 94 88
0.38186 -0.80996 -0.34369 104 93 86
0.39023 -0.80931 -0.33316 105 95 89
0.39347 -0.81556 -0.32678 103 93 85
0.39381 -0.82171 -0.33773 99 91 74
0.39192 -0.83489 -0.33548 81 66 67
0.40676 -0.83341 -0.33286 87 73 77
0.40486 -0.84664 -0.33060 75 61 66
0.41156 -0.83951 -0.32833 81 68 67
0.40966 -0.85275 -0.32607 75 60 59
0.41582 -0.84569 -0.32311 79 65 55
0.41392 -0.85893 -0.32084 74 63 63
2.59039 -1.48643 -1.57159 30 25 12
2.59416 -1.46014 -1.57609 25 18 27
2.58390 -1.47393 -1.58437 20 11 15
2.42196 -1.56823 -1.27010 55 57 52
2.41229 -1.58124 -1.27791 55 59 63
2.41841 -1.59303 -1.26586 54 59 62
2.44235 -1.58199 -1.26971 50 54 46
2.43878 -1.60689 -1.26546 56 62 66
2.46396 -1.59601 -1.27020 58 62 51
2.46037 -1.62101 -1.26593 57 66 69
2.49868 -1.61201 -1.28115 56 60 48
2.07337 -1.87710 -0.42862 34 33 33
2.05988 -1.87814 -0.44561 24 24 33
2.08306 -1.88826 -0.42125 70 62 44
2.08002 -1.90948 -0.41762 85 71 47
2.67125 -2.24102 -0.47932 53 46 35
2.67471 -2.21693 -0.48344 65 52 47
2.66531 -2.22956 -0.49103 61 51 41
2.68065 -2.22838 -0.47173 58 48 43
2.68659 -2.23984 -0.46002 50 44 32
2.67719 -2.25247 -0.46761 41 34 23
2.79270 -2.52712 -0.15899 74 80 146
2.79931 -2.53874 -0.14772 83 83 135
2.80435 -2.54980 -0.13569 69 62 103
2.80092 -2.57370 -0.13161 99 67 72
2.81400 -2.57175 -0.11146 78 65 96
2.81891 -2.59193 -0.08508 98 76 44
2.81405 -2.59929 -0.06860 104 89 67
2.82002 -2.61064 -0.05708 105 85 59
2.82073 -2.62002 -0.04320 78 68 56
2.81732 -2.64377 -0.03914 33 24 77
2.82093 -2.62918 -0.02913 49 43 71
2.82352 -2.63922 -0.01616 31 31 77
2.82734 -2.64972 -0.00374 17 26 84
2.83022 -2.65985 0.00906 47 57 84
2.84088 -2.67297 0.01849 119 121 56
2.85255 -2.68650 0.02752 160 147 81
2.83955 -2.69043 0.04708 88 81 106
2.83615 -2.71406 0.05112 52 64 150
2.83589 -2.69795 0.06257 53 61 149
2.83251 -2.72153 0.06660 49 67 164
2.70917 -2.69978 0.19636 45 55 159
2.71242 -2.67710 0.19248 41 52 171
2.70357 -2.68900 0.18534 46 57 169
2.71090 -2.70899 0.20892 35 37 118
2.71397 -2.71873 0.22093 28 25 90
2.71072 -2.74137 0.22480 22 22 77
2.85794 -2.83851 0.25881 61 53 28
2.84315 -2.83965 0.24021 35 31 29
2.87184 -2.85303 0.26707 84 73 42
2.87951 -2.86492 0.27767 101 86 59
2.87617 -2.88819 0.28165 111 92 56
0.24236 -0.72059 -0.35806 225 219 245
0.26266 -0.73626 -0.35475 242 253 252
0.26283 -0.74284 -0.34464 226 237 239
0.27797 -0.74652 -0.35469 205 176 202
0.28797 -0.75127 -0.35771 153 138 162
0.29679 -0.75629 -0.35907 121 105 120
0.29495 -0.76908 -0.35688 97 80 84
0.30160 -0.76207 -0.35505 105 81 102
0.30727 -0.76772 -0.35213 96 74 78
0.30543 -0.78054 -0.34994 105 95 83
0.37073 -0.81769 -0.34024 95 90 79
0.37261 -0.80460 -0.34248 102 94 85
0.36750 -0.81147 -0.34661 98 93 82
0.38067 -0.82300 -0.34232 90 80 72
0.37879 -0.83615 -0.34007 76 62 70
2.57970 -1.46469 -1.63499 16 13 13
2.58349 -1.43827 -1.63951 11 13 10
2.57318 -1.45213 -1.64783 11 13 7
2.59000 -1.45083 -1.62667 11 11 9
2.59652 -1.46339 -1.61383 12 10 11
2.57638 -1.47620 -1.61353 23 13 27
2.57217 -1.48756 -1.59137 33 26 33
2.56552 -1.49857 -1.56719 41 41 30
2.55899 -1.50953 -1.54325 44 45 40
2.55524 -1.53563 -1.53879 49 51 56
2.50299 -1.63839 -1.28325 50 54 51
2.48692 -1.63963 -1.30347 60 61 72
2.06860 -1.88907 -0.43762 35 34 37
2.05508 -1.89011 -0.45462 21 24 25
2.08029 -1.90074 -0.43157 71 63 43
2.59126 -2.22307 -0.46103 56 48 35
2.59466 -2.19936 -0.46509 67 55 44
2.58541 -2.21180 -0.47255 64 52 43
2.61830 -2.24066 -0.46176 44 36 25
2.61488 -2.26449 -0.45769 20 10 27
2.66070 -2.26297 -0.47113 30 20 22
2.67601 -2.26180 -0.45186 26 20 17
2.66663 -2.27441 -0.45944 17 12 30
2.65724 -2.28702 -0.46702 10 7 38
2.76333 -2.49544 -0.21475 46 55 159
2.76676 -2.47151 -0.21884 32 45 150
2.75743 -2.48406 -0.22638 35 48 151
2.74810 -2.49661 -0.23392 33 50 145
2.75400 -2.50798 -0.22229 44 50 138
2.76923 -2.50681 -0.20313 45 69 161
2.77715 -2.52818 -0.17799 68 70 105
2.78058 -2.50428 -0.18207 52 62 166
2.77126 -2.51681 -0.18960 56 61 142
2.79241 -2.54290 -0.17089 127 122 124
2.79818 -2.55424 -0.15918 140 120 108
2.79854 -2.56361 -0.14490 111 84 55
2.80532 -2.58451 -0.11929 106 87 86
2.80527 -2.59367 -0.10491 111 89 70
2.80946 -2.60439 -0.09253 102 74 54
2.81178 -2.61439 -0.07931 71 50 76
2.80836 -2.63822 -0.07523 61 43 68
2.81527 -2.62482 -0.06664 52 32 74
2.81185 -2.64864 -0.06257 59 34 61
2.81532 -2.63394 -0.05244 33 23 69
2.81519 -2.65201 -0.02404 41 35 91
2.81681 -2.66166 -0.01064 27 35 103
2.82094 -2.67225 0.00162 45 51 106
2.82808 -2.68402 0.01257 127 132 85
2.83498 -2.69570 0.02362 165 155 95
2.83018 -2.70277 0.03969 88 82 115
2.82679 -2.72640 0.04373 47 61 149
2.70871 -2.70658 0.17248 51 58 162
2.71198 -2.68382 0.16859 43 54 165
2.70310 -2.69576 0.16142 47 57 166
2.69422 -2.70769 0.15425 47 60 164
2.71088 -2.71599 0.18494 43 46 138
2.70894 -2.72370 0.19902 32 30 103
2.70568 -2.74639 0.20290 24 21 81
2.71144 -2.73321 0.21128 25 23 86
2.70818 -2.75588 0.21516 22 21 78
2.84581 -2.84937 0.25265 60 52 24
2.83103 -2.85051 0.23406 36 30 29
2.85525 -2.86201 0.26254 81 69 40
2.86338 -2.87408 0.27294 97 80 57
2.86004 -2.89732 0.27691 108 90 56
0.23445 -0.72119 -0.36821 254 253 254
0.23802 -0.72705 -0.36277 231 230 248
0.24787 -0.73163 -0.36599 159 171 232
0.24388 -0.73904 -0.35013 198 205 212
0.26830 -0.74745 -0.36271 137 123 158
0.26648 -0.76013 -0.36054 91 77 84
0.28052 -0.75177 -0.36882 114 84 121
0.27868 -0.76452 -0.36664 101 89 83
0.28587 -0.75742 -0.36559 100 78 95
0.28404 -0.77020 -0.36341 106 92 77
0.29112 -0.76312 -0.36220 94 74 72
0.28929 -0.77590 -0.36001 106 93 85
0.34291 -0.80782 -0.34669 100 90 80
0.34478 -0.79483 -0.34891 106 94 94
0.33971 -0.80164 -0.35300 106 91 89
0.34798 -0.80100 -0.34259 106 94 84
0.35119 -0.80718 -0.33628 101 95 84
0.34967 -0.81348 -0.34492 93 85 80
0.35727 -0.81906 -0.34419 89 75 80
0.35539 -0.83211 -0.34196 78 63 65
0.36660 -0.82443 -0.34561 84 71 74
0.36472 -0.83753 -0.34337 76 63 64
0.37742 -0.82965 -0.34883 80 65 68
0.37553 -0.84281 -0.34658 75 64 67
2.52726 -1.45047 -1.64292 16 13 16
2.53102 -1.42425 -1.64741 15 11 12
2.52079 -1.43801 -1.65567 15 10 11
2.53749 -1.43672 -1.63466 13 13 7
2.54790 -1.46442 -1.64281 17 22 21
2.56455 -1.47803 -1.63903 27 31 30
2.56077 -1.50441 -1.63452 42 43 48
2.56248 -1.48962 -1.61864 35 37 38
2.55870 -1.51595 -1.61414 45 43 52
2.56130 -1.50127 -1.59911 41 43 45
2.54734 -1.51139 -1.56850 44 41 50
2.54359 -1.53753 -1.56403 51 57 66
2.54814 -1.52314 -1.55090 47 48 55
2.49373 -1.65171 -1.29167 56 59 61
2.47766 -1.65295 -1.31189 55 58 75
2.48388 -1.66495 -1.29963 55 59 77
2.06157 -1.90050 -0.44514 34 34 28
2.04805 -1.90155 -0.46215 19 24 29
2.08398 -1.91489 -0.44622 72 63 43
2.08092 -1.93622 -0.44257 84 74 65
2.09743 -1.92710 -0.44125 85 73 51
2.11105 -1.92605 -0.42411 88 73 53
2.10271 -1.93726 -0.43085 87 75 60
2.09436 -1.94848 -0.43759 86 75 60
2.53017 -2.21056 -0.45296 57 49 37
2.53354 -2.18713 -0.45697 70 57 44
2.52440 -2.19942 -0.46435 66 54 42
2.51526 -2.21170 -0.47173 62 50 42
2.55261 -2.22669 -0.45131 48 38 30
2.58900 -2.24712 -0.45765 35 21 25
2.58559 -2.27083 -0.45359 16 9 25
2.76115 -2.51980 -0.21129 41 47 124
2.76484 -2.53039 -0.19857 86 80 113
2.77894 -2.54472 -0.19095 141 152 91
2.78738 -2.55703 -0.18054 148 137 71
2.78528 -2.56550 -0.16502 92 63 70
2.79184 -2.57713 -0.15370 76 47 66
2.79492 -2.58747 -0.14072 73 49 72
2.79636 -2.59718 -0.12699 64 42 82
2.79293 -2.62107 -0.12291 19 9 56
2.80671 -2.61021 -0.11747 50 31 72
2.80328 -2.63413 -0.11338 22 19 56
2.79837 -2.61622 -0.09922 48 45 75
2.79494 -2.64006 -0.09514 36 28 42
2.79867 -2.62545 -0.08506 54 41 75
2.80411 -2.65472 -0.04485 75 50 41
2.80481 -2.66401 -0.03101 93 66 56
2.80756 -2.67408 -0.01811 75 47 86
2.80891 -2.68359 -0.00461 80 65 98
2.80551 -2.70725 -0.00057 151 120 71
2.81661 -2.69557 0.00607 141 138 76
2.82320 -2.70712 0.01725 159 141 86
2.82076 -2.71509 0.03233 81 72 117
2.81737 -2.73872 0.03637 46 53 156
2.71482 -2.72466 0.15915 41 53 153
2.71045 -2.73140 0.17433 30 36 118
2.70718 -2.75418 0.17822 24 24 83
2.70718 -2.73854 0.18899 26 25 92
2.70392 -2.76128 0.19288 25 21 75
2.83105 -2.85909 0.24749 58 51 23
2.81630 -2.86022 0.22893 35 29 30
2.84007 -2.87153 0.25752 79 68 41
2.84725 -2.88320 0.26824 96 78 55
0.21867 -0.71687 -0.37771 252 254 254
0.22046 -0.70437 -0.37984 254 254 254
0.21558 -0.71093 -0.38378 254 254 254
0.22354 -0.71031 -0.37377 254 254 254
0.22426 -0.72227 -0.37516 242 252 251
0.22763 -0.72817 -0.36946 229 236 237
0.25951 -0.74157 -0.38236 120 111 136
0.26231 -0.74767 -0.37573 109 89 126
0.26049 -0.76037 -0.37356 103 88 89
0.26871 -0.75309 -0.37401 95 71 96
0.26689 -0.76581 -0.37184 106 92 86
0.32486 -0.79663 -0.36530 102 92 79
0.32672 -0.78366 -0.36751 105 95 81
0.32166 -0.79046 -0.37160 103 93 81
0.32992 -0.78983 -0.36121 106 94 86
0.31980 -0.80343 -0.36938 90 79 75
0.33312 -0.79599 -0.35491 104 92 86
0.33104 -0.80234 -0.36289 97 88 76
0.33456 -0.80847 -0.35700 94 80 81
0.33270 -0.82146 -0.35478 79 64 69
0.34043 -0.81426 -0.35412 87 73 76
0.33856 -0.82727 -0.35190 76 64 61
0.34736 -0.81992 -0.35260 81 68 70
0.34549 -0.83296 -0.35037 78 64 56
0.35496 -0.82552 -0.35188 80 65 67
0.35308 -0.83859 -0.34964 74 65 59
2.47956 -1.44860 -1.63586 24 21 22
2.53598 -1.47805 -1.64963 37 43 36
2.53221 -1.50435 -1.64513 46 47 48
2.55122 -1.49153 -1.64464 41 43 43
2.53826 -1.52523 -1.57772 47 49 57
2.52805 -1.53895 -1.58596 53 56 64
2.53450 -1.55138 -1.57325 54 59 68
2.06693 -1.91506 -0.46098 33 34 39
2.05336 -1.91611 -0.47805 21 24 35
2.09320 -1.93053 -0.46463 71 63 55
2.09013 -1.95197 -0.46097 85 74 59
2.54892 -2.23124 -0.47684 53 44 34
2.54924 -2.24079 -0.46214 41 31 26
2.54585 -2.26435 -0.45812 21 13 14
2.56698 -2.25564 -0.45766 27 17 20
2.56359 -2.27928 -0.45362 13 8 27
2.69186 -2.37098 -0.40912 12 9 46
2.69531 -2.34688 -0.41324 11 12 33
2.68591 -2.35952 -0.42083 15 10 35
2.67651 -2.37216 -0.42843 20 16 36
2.68245 -2.38362 -0.41671 11 7 40
2.70720 -2.36980 -0.38981 33 21 65
2.69370 -2.38110 -0.39515 10 10 62
2.70903 -2.37992 -0.37586 19 14 69
2.69508 -2.39104 -0.38095 14 13 75
2.71039 -2.38986 -0.36169 15 15 83
2.69092 -2.39912 -0.36379 25 18 85
2.70619 -2.39795 -0.34457 14 13 87
2.69683 -2.41053 -0.35213 17 16 83
2.67054 -2.42040 -0.30853 10 16 80
2.67395 -2.39664 -0.31259 12 14 87
2.66467 -2.40911 -0.32008 12 13 77
2.65540 -2.42157 -0.32756 15 10 72
2.68567 -2.41924 -0.28949 17 25 110
2.66661 -2.42836 -0.29181 18 26 105
2.68171 -2.42720 -0.27281 25 30 122
2.67246 -2.43963 -0.28028 28 36 121
2.76055 -2.51690 -0.25250 44 46 123
2.76400 -2.49285 -0.25661 25 42 147
2.75462 -2.50546 -0.26419 30 43 146
2.76215 -2.52678 -0.23863 59 67 102
2.76110 -2.53570 -0.22346 113 114 100
2.76728 -2.54720 -0.21194 150 158 92
2.76959 -2.55729 -0.19851 153 154 81
2.77415 -2.56819 -0.18620 114 109 54
2.78700 -2.58214 -0.17793 48 46 63
2.80194 -2.59689 -0.17061 33 28 76
2.80287 -2.60646 -0.15653 24 20 75
2.81474 -2.62012 -0.14768 15 14 71
2.79387 -2.64872 -0.08035 49 37 46
2.79508 -2.65824 -0.06665 66 49 53
2.78651 -2.66393 -0.04854 108 92 70
2.79021 -2.67436 -0.03607 137 112 60
2.78681 -2.69803 -0.03202 149 126 86
2.79460 -2.68504 -0.02391 139 104 73
2.79806 -2.69536 -0.01135 138 99 76
2.80396 -2.71555 0.01416 138 99 75
2.80057 -2.73917 0.01820 71 48 123
2.80556 -2.72508 0.02748 72 52 123
2.80217 -2.74868 0.03151 50 49 156
2.71775 -2.73299 0.13357 45 59 165
2.72105 -2.71005 0.12965 51 60 166
2.71210 -2.72208 0.12242 48 59 175
2.70315 -2.73411 0.11519 45 59 173
2.71924 -2.74217 0.14644 32 47 137
2.71001 -2.74687 0.16368 24 31 103
2.70674 -2.76970 0.16758 24 22 82
2.80990 -2.86597 0.24481 57 49 26
2.82104 -2.87933 0.25398 78 66 38
2.82777 -2.89078 0.26484 94 78 50
2.83644 -2.90309 0.27499 106 89 54
2.85118 -2.90196 0.29354 118 98 59
2.84215 -2.91410 0.28624 117 96 60
2.83311 -2.92625 0.27895 115 96 59
0.19348 -0.70811 -0.38398 254 254 254
0.19526 -0.69570 -0.38610 254 254 254
0.19042 -0.70221 -0.39001 254 254 254
0.19832 -0.70160 -0.38007 254 254 254
0.20138 -0.70750 -0.37403 254 254 254
0.19973 -0.71330 -0.38251 250 253 254
0.20667 -0.71837 -0.38198 237 248 248
0.21044 -0.72414 -0.37691 222 227 221
0.23569 -0.73206 -0.39159 139 126 146
0.23388 -0.74469 -0.38944 83 70 75
0.24507 -0.74345 -0.38369 75 64 106
0.25163 -0.74880 -0.38231 82 70 84
0.24981 -0.76147 -0.38014 101 91 84
0.25815 -0.75418 -0.38082 93 82 91
0.25632 -0.76689 -0.37864 103 91 89
0.32755 -0.80892 -0.36906 84 74 71
0.31927 -0.80955 -0.37947 80 67 71
0.32248 -0.81574 -0.37316 77 65 66
0.32568 -0.82192 -0.36684 78 66 65
0.33137 -0.81501 -0.36354 82 69 74
0.32950 -0.82801 -0.36132 78 64 62
2.30855 -1.41145 -1.55103 18 15 17
2.31215 -1.38641 -1.55531 11 12 10
2.30238 -1.39954 -1.56320 16 11 13
2.31832 -1.39831 -1.54314 11 11 10
2.29878 -1.42458 -1.55892 33 33 30
2.34675 -1.69974 -1.13634 14 7 7
2.36219 -1.69855 -1.11692 7 8 6
2.35273 -1.71126 -1.12456 8 6 4
2.34327 -1.72398 -1.13220 10 4 10
2.07181 -1.92961 -0.47659 35 33 44
2.05819 -1.93066 -0.49373 22 22 35
2.09669 -1.94483 -0.47933 72 64 50
2.09360 -1.96634 -0.47566 88 73 52
2.53187 -2.25064 -0.46474 34 25 15
2.52850 -2.27415 -0.46072 18 11 11
2.69061 -2.39581 -0.40622 11 9 72
2.69324 -2.40617 -0.39268 30 25 98
2.70437 -2.41937 -0.38380 46 41 107
2.68433 -2.42205 -0.35798 19 15 75
2.68089 -2.44601 -0.35388 27 12 44
2.67675 -2.43818 -0.32430 14 12 76
2.66744 -2.45069 -0.33182 22 13 51
2.67025 -2.44525 -0.30613 14 19 97
2.67174 -2.45503 -0.29226 22 34 117
2.68687 -2.45387 -0.27322 35 40 132
2.68307 -2.46824 -0.28358 28 41 131
2.69822 -2.46708 -0.26452 38 43 139
2.69967 -2.48333 -0.27760 32 37 130
2.71485 -2.48216 -0.25849 33 40 141
2.70555 -2.49467 -0.26601 39 33 113
2.73589 -2.51474 -0.26697 41 41 100
2.74711 -2.52805 -0.25801 97 97 112
2.74314 -2.53590 -0.24132 136 150 88
2.75079 -2.54793 -0.23055 141 144 64
2.75443 -2.55850 -0.21776 119 109 85
2.76791 -2.57268 -0.20986 90 74 81
2.77633 -2.58502 -0.19942 34 36 65
2.77713 -2.59454 -0.18524 15 13 67
2.79285 -2.60962 -0.17833 16 8 58
2.80074 -2.62179 -0.16758 24 4 54
2.79019 -2.63612 -0.13356 46 35 85
2.77562 -2.63964 -0.11229 48 36 105
2.78140 -2.65093 -0.10067 49 28 92
2.78332 -2.66072 -0.08726 52 33 101
2.77886 -2.66800 -0.07095 85 57 107
2.77447 -2.67526 -0.05473 105 95 108
2.77809 -2.68564 -0.04222 128 121 90
2.78729 -2.70715 -0.01812 156 125 82
2.77806 -2.71955 -0.02557 145 130 97
2.79120 -2.71762 -0.00577 157 119 72
2.78835 -2.72536 0.00953 124 77 68
2.78496 -2.74894 0.01357 84 58 119
2.71989 -2.74963 0.12169 40 55 157
2.71708 -2.75702 0.13640 31 39 118
2.71123 -2.76310 0.15231 25 26 92
2.70794 -2.78598 0.15622 21 20 78
2.78941 -2.86458 0.22853 36 30 31
2.79272 -2.84151 0.22459 21 19 44
2.78372 -2.85361 0.21732 21 18 43
2.77471 -2.86571 0.21005 23 18 41
2.79964 -2.87754 0.23800 58 48 31
2.81103 -2.89104 0.24706 77 64 38
2.81614 -2.90177 0.25853 91 77 48
2.82429 -2.91386 0.26885 104 88 53
2.82097 -2.93699 0.27281 112 93 59
0.17471 -0.70464 -0.38857 252 254 254
0.17648 -0.69229 -0.39068 254 254 254
0.17166 -0.69877 -0.39457 254 254 254
0.17952 -0.69816 -0.38468 254 254 254
0.17293 -0.71698 -0.38646 187 179 192
0.18087 -0.70980 -0.38709 243 252 252
0.18741 -0.71490 -0.38611 231 234 237
0.20226 -0.71820 -0.39704 211 188 206
0.20824 -0.72352 -0.39512 164 153 172
0.21344 -0.72902 -0.39204 131 120 127
0.21164 -0.74156 -0.38990 92 78 80
0.22927 -0.73899 -0.39346 92 69 80
0.24917 -0.75497 -0.38976 89 84 80
0.24108 -0.75560 -0.39994 82 77 81
0.24422 -0.76163 -0.39377 88 82 78
0.24735 -0.76767 -0.38759 97 90 80
0.29095 -0.78739 -0.38381 97 91 77
0.29280 -0.77451 -0.38601 105 93 81
0.28778 -0.78127 -0.39007 101 92 86
0.29598 -0.78064 -0.37975 104 94 83
0.29915 -0.78676 -0.37349 102 93 81
0.29920 -0.79270 -0.38438 92 84 74
0.30743 -0.79206 -0.37403 102 93 79
0.29735 -0.80561 -0.38217 79 69 63
0.30493 -0.79844 -0.38150 91 81 71
0.30812 -0.80459 -0.37521 84 72 73
0.30307 -0.81138 -0.37929 77 66 69
2.20546 -1.39313 -1.50722 23 17 16
2.20898 -1.36865 -1.51140 15 12 12
2.19942 -1.38149 -1.51912 16 13 14
2.21502 -1.38029 -1.49950 16 10 11
2.24869 -1.40840 -1.53006 28 25 22
2.07251 -1.94317 -0.48947 35 32 43
2.05886 -1.94422 -0.50666 21 24 32
2.09858 -1.95880 -0.49305 74 64 46
2.09548 -1.98038 -0.48936 84 72 49
2.52682 -2.26425 -0.47460 28 19 9
2.52344 -2.28779 -0.47057 16 9 10
2.68039 -2.39871 -0.42842 6 8 58
2.67443 -2.38723 -0.44016 9 9 43
2.68706 -2.41043 -0.41708 18 24 85
2.69462 -2.42245 -0.40624 57 59 108
2.69873 -2.43331 -0.39348 64 54 103
2.68004 -2.43635 -0.36830 32 12 32
2.67660 -2.46035 -0.36420 44 23 22
2.67325 -2.46201 -0.32018 13 14 72
2.65806 -2.46318 -0.33929 30 16 36
2.66394 -2.47452 -0.32770 19 13 43
2.67557 -2.47210 -0.30670 18 20 89
2.68318 -2.48404 -0.29603 27 30 94
2.69529 -2.49760 -0.28770 36 33 86
2.71675 -2.51454 -0.28419 77 68 78
2.73465 -2.53026 -0.27872 96 83 66
2.74097 -2.54183 -0.26723 110 82 84
2.73751 -2.56588 -0.26312 69 13 13
2.75865 -2.55756 -0.26153 97 70 46
2.75519 -2.58167 -0.25741 74 8 14
2.76425 -2.56890 -0.24964 77 51 40
2.76413 -2.57812 -0.23487 49 23 62
2.75560 -2.58418 -0.21596 35 12 68
2.77313 -2.59994 -0.21004 17 5 42
2.77460 -2.60969 -0.19616 10 3 50
2.78192 -2.62165 -0.18516 37 26 39
2.72131 -2.60772 -0.14125 102 71 85
2.72362 -2.61762 -0.12806 147 114 110
2.72023 -2.64125 -0.12402 242 121 73
2.73360 -2.63046 -0.11855 175 146 152
2.73020 -2.65411 -0.11451 244 129 77
2.74077 -2.64222 -0.10769 185 150 166
2.73737 -2.66589 -0.10364 245 134 77
2.74677 -2.65354 -0.09626 188 148 164
2.75553 -2.66594 -0.08613 188 152 175
2.76353 -2.67805 -0.07561 189 160 182
2.76295 -2.68677 -0.06114 100 93 160
2.76778 -2.69762 -0.04918 60 73 137
2.77287 -2.70856 -0.03735 105 108 117
2.78089 -2.72958 -0.01274 162 128 77
2.77167 -2.74197 -0.02018 160 134 62
2.77563 -2.73630 0.00366 132 88 73
2.77225 -2.75986 0.00769 94 58 114
2.73481 -2.76312 0.09067 47 60 166
2.73813 -2.73995 0.08671 46 56 168
2.72909 -2.75210 0.07941 50 58 174
2.72006 -2.76425 0.07211 54 61 171
2.72743 -2.76863 0.10746 37 46 131
2.71608 -2.77242 0.12583 29 31 99
2.71278 -2.79542 0.12976 24 22 78
2.78492 -2.87867 0.21950 40 33 30
2.77021 -2.87980 0.20100 29 21 37
2.80160 -2.89452 0.22649 59 50 30
2.80910 -2.90633 0.23706 75 61 36
2.81821 -2.91886 0.24703 89 74 45
2.82854 -2.93195 0.25657 101 86 51
2.82521 -2.95516 0.26053 109 90 62
0.15405 -0.69512 -0.40050 254 254 254
0.15582 -0.68283 -0.40261 254 254 254
0.15102 -0.68928 -0.40648 254 254 254
0.14622 -0.69573 -0.41035 243 252 251
0.15885 -0.68868 -0.39663 254 254 254
0.16188 -0.69452 -0.39066 254 254 254
0.15990 -0.70030 -0.39869 249 253 253
0.16396 -0.70592 -0.39422 237 247 246
0.16220 -0.71824 -0.39211 136 130 134
0.17109 -0.71084 -0.39421 221 224 224
0.19972 -0.72425 -0.40436 128 94 122
0.19793 -0.73677 -0.40222 101 87 84
0.21444 -0.73438 -0.40442 90 69 72
0.21263 -0.74696 -0.40226 104 93 83
0.22722 -0.74503 -0.40151 101 89 79
0.22229 -0.75166 -0.40549 103 93 82
0.22541 -0.75767 -0.39935 100 89 79
0.27379 -0.78288 -0.39246 96 89 78
0.27564 -0.77005 -0.39465 104 91 90
0.27063 -0.77678 -0.39870 98 91 81
0.27880 -0.77615 -0.38842 104 93 86
0.26879 -0.78962 -0.39650 86 76 69
0.28922 -0.79361 -0.39234 87 76 71
0.28737 -0.80652 -0.39013 75 66 60
0.29771 -0.79891 -0.39325 79 71 65
0.29585 -0.81186 -0.39103 76 67 57
2.13477 -1.36723 -1.50937 23 18 12
2.13824 -1.34305 -1.51351 14 14 7
2.12881 -1.35573 -1.52113 16 15 7
2.14421 -1.35455 -1.50175 17 13 12
2.15017 -1.36605 -1.49000 16 13 16
2.14569 -1.37919 -1.50234 28 21 19
2.16198 -1.39168 -1.50036 31 26 22
2.18220 -1.40463 -1.50199 34 33 27
2.17870 -1.42902 -1.49782 44 46 41
2.23014 -1.42047 -1.52950 37 39 32
2.22659 -1.44515 -1.52528 45 47 44
2.30806 -1.73194 -1.11906 13 8 13
2.32339 -1.73076 -1.09978 6 5 5
2.31400 -1.74338 -1.10736 6 4 6
2.10355 -1.96478 -0.52309 34 34 42
2.08974 -1.96585 -0.54047 19 24 31
2.09836 -1.97230 -0.50540 72 66 44
2.09525 -1.99393 -0.50170 81 71 51
2.67360 -2.41226 -0.43751 6 8 68
2.67013 -2.43642 -0.43338 27 18 55
2.68319 -2.42498 -0.42780 15 13 77
2.68707 -2.43577 -0.41489 36 24 78
2.68511 -2.44453 -0.39877 46 27 64
2.67456 -2.45029 -0.37799 53 22 19
2.67374 -2.48725 -0.31819 20 16 51
2.65853 -2.48843 -0.33732 9 9 44
2.68103 -2.49911 -0.30733 35 23 41
2.69039 -2.51172 -0.29755 52 28 46
2.70886 -2.52764 -0.29251 69 29 36
2.72154 -2.54151 -0.28436 67 20 23
2.74993 -2.58895 -0.24003 86 4 22
2.75257 -2.59914 -0.22669 100 30 43
2.76812 -2.62340 -0.20516 33 30 79
2.70705 -2.60919 -0.16060 129 131 146
2.70897 -2.61893 -0.14719 207 147 128
2.71672 -2.63091 -0.13663 235 132 66
2.74195 -2.67664 -0.09155 245 144 108
2.72689 -2.67780 -0.11050 219 167 112
2.76146 -2.69334 -0.08642 230 175 189
2.74785 -2.69683 -0.06588 96 77 178
2.75146 -2.70717 -0.05338 44 50 160
2.75676 -2.71818 -0.04166 43 62 138
2.75517 -2.72640 -0.02684 109 108 98
2.75179 -2.74996 -0.02281 158 144 64
2.75399 -2.74354 0.00178 141 94 71
2.75061 -2.76703 0.00579 97 63 99
2.73881 -2.78077 0.07779 46 54 156
2.72135 -2.78199 0.09894 34 36 111
2.71803 -2.80510 0.10289 25 24 83
2.71353 -2.78722 0.11588 27 26 87
2.71022 -2.81025 0.11981 24 21 73
2.76587 -2.88632 0.21616 45 37 25
2.75120 -2.88745 0.19770 32 24 31
2.75688 -2.89841 0.20890 48 39 19
2.78513 -2.90334 0.22208 62 53 25
2.79595 -2.91663 0.23134 76 63 31
2.82328 -2.94585 0.24781 99 83 49
0.14879 -0.70168 -0.40368 233 234 237
0.15602 -0.70654 -0.40395 212 196 208
0.17353 -0.70907 -0.41937 168 163 172
0.18124 -0.72056 -0.40958 114 91 109
0.18747 -0.72579 -0.40815 96 68 89
0.18568 -0.73827 -0.40601 107 95 82
0.19375 -0.73105 -0.40672 91 75 79
0.19196 -0.74355 -0.40458 105 94 85
0.25793 -0.77820 -0.40269 92 85 74
0.25478 -0.77212 -0.40891 91 89 78
0.26293 -0.77149 -0.39865 100 91 83
0.25610 -0.79100 -0.40050 81 67 73
0.26641 -0.78338 -0.40384 89 79 73
0.26457 -0.79622 -0.40164 79 67 68
0.27893 -0.79458 -0.39984 83 70 73
0.27390 -0.80134 -0.40390 78 66 67
0.27708 -0.80747 -0.39764 74 66 64
2.11851 -1.35736 -1.54547 18 14 18
2.12199 -1.33314 -1.54961 15 15 11
2.11254 -1.34585 -1.55724 16 14 10
2.12796 -1.34466 -1.53784 13 14 8
2.12173 -1.36863 -1.53103 25 20 27
2.12584 -1.37996 -1.51748 34 30 28
2.13454 -1.39173 -1.50834 39 35 33
2.15492 -1.40466 -1.51032 43 39 38
2.15143 -1.42897 -1.50617 53 49 58
2.17033 -1.41718 -1.50744 44 43 39
2.16683 -1.44155 -1.50327 50 49 53
2.35716 -1.72395 -1.22464 62 64 67
2.34151 -1.72516 -1.24433 59 68 77
2.34757 -1.73684 -1.23239 62 67 78
2.34119 -1.73161 -1.19464 57 60 52
2.33563 -1.74108 -1.17332 43 43 38
2.29892 -1.74461 -1.12685 24 17 28
2.28591 -1.75243 -1.09988 10 4 15
2.30116 -1.75126 -1.08069 5 5 5
2.29182 -1.76382 -1.08824 5 4 3
2.11627 -1.98181 -0.54444 33 32 37
2.10236 -1.98289 -0.56193 20 22 23
2.10150 -1.98676 -0.52010 71 63 41
2.09838 -2.00847 -0.51639 80 66 52
2.64971 -2.40110 -0.46715 8 11 57
2.65317 -2.37696 -0.47127 6 7 36
2.64375 -2.38962 -0.47888 9 8 55
2.63433 -2.40229 -0.48649 12 13 75
2.64624 -2.42525 -0.46302 19 20 79
2.66014 -2.41410 -0.45796 11 16 71
2.65667 -2.43827 -0.45383 33 23 65
2.68400 -2.45064 -0.42607 51 39 36
2.68560 -2.46063 -0.41187 87 67 21
2.67726 -2.46712 -0.39222 85 54 10
2.66675 -2.47277 -0.37149 52 29 14
2.66315 -2.48080 -0.35465 20 9 34
2.66643 -2.50050 -0.32679 10 11 35
2.67254 -2.51194 -0.31530 49 25 10
2.67961 -2.52373 -0.30431 72 13 15
2.70037 -2.54054 -0.30052 82 9 11
2.73506 -2.57183 -0.28906 67 30 56
2.74923 -2.58636 -0.28157 91 53 62
2.75385 -2.59735 -0.26914 138 55 26
2.75103 -2.60552 -0.25294 173 56 8
2.73859 -2.61000 -0.23194 195 85 42
2.69728 -2.60336 -0.19663 191 144 138
2.72658 -2.62365 -0.19675 75 67 130
2.72315 -2.64752 -0.19267 202 163 153
2.69787 -2.62162 -0.16808 170 169 169
2.69447 -2.64528 -0.16403 247 141 70
2.70078 -2.63173 -0.15514 238 132 76
2.70658 -2.64296 -0.14364 249 141 56
2.71167 -2.65391 -0.13179 233 151 101
2.71750 -2.66515 -0.12030 220 162 105
2.73432 -2.68969 -0.09976 216 170 139
2.71925 -2.69085 -0.11872 132 102 174
2.74099 -2.70128 -0.08865 181 145 177
2.73759 -2.72495 -0.08460 47 49 174
2.73081 -2.70606 -0.06969 78 57 171
2.72742 -2.72964 -0.06566 41 56 173
2.73406 -2.71623 -0.05704 43 50 167
2.74104 -2.72791 -0.04612 27 46 149
2.73718 -2.73514 -0.03026 102 110 100
2.73811 -2.75308 -0.00262 143 107 62
2.73474 -2.77653 0.00139 93 59 100
2.74040 -2.78885 0.05204 48 60 163
2.73464 -2.77776 0.04070 50 62 168
2.72554 -2.79000 0.03335 48 62 163
2.72698 -2.79178 0.07165 38 43 134
2.71433 -2.79497 0.09080 29 30 100
2.71101 -2.81809 0.09476 22 23 78
2.77344 -2.91427 0.21584 64 54 17
2.77013 -2.93737 0.21979 78 65 20
2.78723 -2.92891 0.22393 77 65 24
2.78391 -2.95206 0.22789 88 74 30
2.80302 -2.94450 0.23130 88 73 36
2.79969 -2.96770 0.23527 96 80 42
2.82539 -2.96314 0.23623 97 81 47
2.82205 -2.98644 0.24021 104 86 51
0.13731 -0.69660 -0.41855 223 227 223
0.13907 -0.68431 -0.42065 254 254 254
0.13428 -0.69076 -0.42452 239 249 248
0.14100 -0.70228 -0.41359 191 187 196
0.14981 -0.70676 -0.41628 153 140 168
0.16073 -0.71081 -0.42206 130 102 124
0.15895 -0.72321 -0.41994 99 89 81
0.16588 -0.71623 -0.41914 103 80 88
0.17196 -0.72147 -0.41756 88 75 69
0.17017 -0.73391 -0.41544 105 96 85
0.17678 -0.72700 -0.41409 94 84 80
0.17499 -0.73946 -0.41197 106 95 88
0.18333 -0.73218 -0.41314 106 90 85
0.18154 -0.74467 -0.41101 105 94 86
0.22816 -0.76286 -0.41429 98 86 78
0.22503 -0.75682 -0.42046 101 91 80
0.23625 -0.76223 -0.40411 85 75 80
0.23597 -0.76804 -0.41475 83 72 78
0.24409 -0.76741 -0.40454 84 77 78
0.23912 -0.77409 -0.40856 76 65 79
0.23415 -0.78077 -0.41257 68 56 68
0.24765 -0.77920 -0.40995 81 76 78
0.24582 -0.79198 -0.40777 77 66 76
0.25592 -0.78440 -0.41089 83 72 72
0.25408 -0.79722 -0.40870 77 65 71
2.10633 -1.35883 -1.56807 19 20 19
2.10981 -1.33459 -1.57221 16 16 13
2.10036 -1.34731 -1.57985 15 15 14
2.09090 -1.36002 -1.58749 14 14 14
2.11223 -1.37035 -1.55621 30 33 30
2.11667 -1.38173 -1.54293 40 42 40
2.11319 -1.40596 -1.53879 50 52 52
2.12030 -1.39303 -1.52887 45 44 44
2.11682 -1.41724 -1.52474 50 50 58
2.12754 -1.40467 -1.51833 46 45 51
2.12406 -1.42889 -1.51419 51 50 62
2.14008 -1.41686 -1.51285 51 47 59
2.13660 -1.44113 -1.50870 51 51 61
2.32730 -1.74361 -1.19874 62 65 75
2.31176 -1.74481 -1.21829 63 67 79
2.31778 -1.75641 -1.20643 65 65 82
2.32380 -1.76801 -1.19457 62 65 75
2.31718 -1.75216 -1.17366 56 61 63
2.26593 -1.76292 -1.09880 25 9 22
2.26685 -1.77328 -1.08319 12 3 3
2.28203 -1.77211 -1.06409 4 5 3
2.27273 -1.78462 -1.07160 5 3 3
2.12859 -1.99891 -0.56568 35 32 28
2.11460 -1.99999 -0.58327 22 21 27
2.12005 -2.00554 -0.54545 69 62 42
2.11691 -2.02741 -0.54171 78 66 56
2.60028 -2.36249 -0.51210 8 7 44
2.60373 -2.33845 -0.51621 10 6 21
2.59435 -2.35106 -0.52379 6 3 17
2.58497 -2.36367 -0.53136 4 3 11
2.61559 -2.36132 -0.49283 12 13 64
2.60621 -2.37393 -0.50041 13 15 70
2.67555 -2.45425 -0.44940 60 37 42
2.66010 -2.45543 -0.46883 44 24 53
2.67387 -2.46310 -0.43331 88 64 23
2.67108 -2.47152 -0.41665 109 85 16
2.66178 -2.47760 -0.39644 113 78 30
2.66965 -2.48973 -0.38581 68 48 61
2.65528 -2.49389 -0.36300 18 17 79
2.65581 -2.50333 -0.34843 10 18 80
2.65796 -2.51334 -0.33478 19 33 79
2.68268 -2.53159 -0.33327 105 89 73
2.69303 -2.54464 -0.32396 136 64 37
2.68958 -2.56867 -0.31986 153 138 143
2.71388 -2.56159 -0.32017 151 83 51
2.72416 -2.57467 -0.31073 142 111 111
2.74503 -2.59175 -0.30677 51 33 124
2.73355 -2.59668 -0.28595 83 76 136
2.73009 -2.62082 -0.28182 215 151 132
2.73433 -2.60619 -0.27155 196 137 100
2.74172 -2.61821 -0.26058 231 104 22
2.72685 -2.62168 -0.23830 239 120 60
2.69483 -2.61843 -0.20753 224 167 150
2.69167 -2.62623 -0.19147 137 104 136
2.69401 -2.65404 -0.14945 244 169 119
2.69062 -2.67766 -0.14542 220 156 180
2.70160 -2.66597 -0.13883 183 124 149
2.69821 -2.68961 -0.13479 197 146 192
2.70625 -2.67674 -0.12677 140 100 166
2.70547 -2.69418 -0.09790 104 90 175
2.70199 -2.70161 -0.08207 70 67 175
2.69862 -2.72511 -0.07805 43 51 179
2.72630 -2.73799 -0.05099 32 55 154
2.71131 -2.73914 -0.06985 41 56 178
2.71085 -2.74037 -0.02982 109 119 100
2.71295 -2.74997 -0.01676 156 136 67
2.71870 -2.76108 -0.00538 140 101 67
2.72386 -2.79792 0.04794 39 53 148
2.70546 -2.79861 0.06974 29 34 114
2.70569 -2.80726 0.08335 25 26 90
2.70238 -2.83038 0.08730 17 21 69
2.74964 -2.91128 0.20094 47 37 16
2.74395 -2.90032 0.18974 33 23 26
2.73496 -2.91241 0.18248 35 24 21
2.74064 -2.92337 0.19368 45 37 15
2.77759 -2.93237 0.20338 63 54 14
0.09509 -0.67969 -0.41755 252 254 254
0.09683 -0.66760 -0.41961 254 254 254
0.09211 -0.67394 -0.42343 254 254 254
0.09981 -0.67335 -0.41373 254 254 254
0.10279 -0.67910 -0.40786 254 254 254
0.10022 -0.68489 -0.41499 243 252 251
0.10793 -0.68430 -0.40529 254 254 254
0.10665 -0.68978 -0.41443 234 236 236
0.10965 -0.69555 -0.40853 211 202 212
0.10491 -0.70192 -0.41236 133 111 133
0.12751 -0.69768 -0.42537 171 170 182
0.13686 -0.70199 -0.42904 140 133 135
0.14313 -0.70709 -0.42795 114 90 110
0.14976 -0.71213 -0.42736 96 71 103
0.14798 -0.72451 -0.42524 107 93 87
0.15560 -0.71738 -0.42552 92 80 85
0.15382 -0.72978 -0.42340 104 95 87
0.16937 -0.72750 -0.42486 105 96 78
0.16451 -0.73404 -0.42879 104 96 88
0.16758 -0.73996 -0.42273 104 95 90
0.22079 -0.76335 -0.42548 94 85 76
0.22261 -0.75064 -0.42765 101 91 82
0.21765 -0.75731 -0.43166 96 89 79
0.21896 -0.77605 -0.42331 82 68 72
0.22765 -0.76870 -0.42464 89 78 76
0.22582 -0.78144 -0.42247 73 62 63
2.09879 -1.37172 -1.57760 21 21 25
2.08334 -1.37291 -1.59703 14 14 18
2.10718 -1.38348 -1.56818 35 39 36
2.10369 -1.40775 -1.56403 46 52 49
2.11358 -1.39506 -1.55679 46 51 46
2.11009 -1.41934 -1.55264 51 53 61
2.24299 -1.79294 -1.06266 15 6 6
2.25809 -1.79178 -1.04366 4 5 3
2.24884 -1.80421 -1.05113 6 3 7
2.15157 -2.01910 -0.59446 36 31 33
2.13746 -2.02019 -0.61221 19 20 34
2.14470 -2.02622 -0.57519 65 60 46
2.14153 -2.04830 -0.57141 78 66 52
2.59165 -2.37536 -0.52012 7 6 32
2.57633 -2.37654 -0.53939 3 3 8
2.59771 -2.38684 -0.50851 15 15 66
2.61302 -2.38566 -0.48924 16 17 77
2.60364 -2.39827 -0.49682 20 21 88
2.59426 -2.41089 -0.50440 19 22 90
2.64814 -2.48870 -0.40165 117 82 55
2.65956 -2.50210 -0.39301 59 40 97
2.64804 -2.50721 -0.37170 18 24 113
2.64549 -2.51552 -0.35543 17 28 114
2.65316 -2.52754 -0.34477 28 47 126
2.67224 -2.54378 -0.34026 105 113 156
2.69447 -2.56126 -0.33733 139 123 144
2.71375 -2.58697 -0.31782 126 112 169
2.73403 -2.60387 -0.31360 46 25 151
2.72096 -2.60813 -0.29190 107 102 170
2.72491 -2.62800 -0.26437 243 120 55
