ply
format ascii 1.0
element face 0
property list uchar int vertex_indices
element vertex 1329
property float x
property float y
property float z
property uchar diffuse_red
property uchar diffuse_green
property uchar diffuse_blue
end_header
0.93394 -3.41111 1.61815 176 174 147
0.95349 -3.43547 1.62076 166 167 136
0.94655 -3.45010 1.62109 221 224 210
0.94037 -3.43372 1.63123 159 163 129
0.93346 -3.44828 1.63156 218 220 203
2.19879 -2.08136 -0.67258 38 26 39
2.18864 -2.07712 -0.69402 21 21 24
2.18855 -2.09012 -0.68305 23 16 35
2.20897 -2.09624 -0.66946 48 39 46
2.22213 -2.11175 -0.66854 54 52 46
2.23234 -2.11601 -0.64697 76 62 60
2.23787 -2.12783 -0.66951 62 54 45
2.24813 -2.13212 -0.64785 76 61 61
2.25403 -2.14411 -0.67070 66 60 51
2.26433 -2.14841 -0.64895 73 65 65
2.25394 -2.15730 -0.65958 70 64 61
2.50918 -2.29200 -0.78083 64 62 43
2.52036 -2.26844 -0.78137 74 62 57
2.50928 -2.27793 -0.79270 76 62 52
2.54188 -2.31330 -0.79298 46 45 35
2.57680 -2.33533 -0.80656 27 22 28
2.56544 -2.35928 -0.80601 10 9 14
2.60715 -2.35656 -0.81661 11 11 22
2.59570 -2.38068 -0.81606 10 12 11
2.41354 -2.56044 -0.46847 33 23 25
2.40281 -2.55595 -0.49114 11 17 47
2.40271 -2.56970 -0.47955 18 17 38
2.40638 -2.57212 -0.45213 67 49 27
2.39047 -2.58116 -0.42997 88 73 37
2.38081 -2.59197 -0.41207 94 79 59
2.35843 -2.61244 -0.37441 130 111 68
2.34765 -2.63514 -0.37390 116 101 90
2.35210 -2.62407 -0.35888 143 122 72
2.34490 -2.63539 -0.34281 135 117 80
2.33473 -2.64571 -0.32484 108 97 83
2.32957 -2.65757 -0.31018 101 88 89
2.33087 -2.67149 -0.29973 123 130 111
2.33091 -2.68500 -0.28845 136 142 115
2.33274 -2.69911 -0.27833 112 110 97
2.33697 -2.71403 -0.26972 81 65 76
2.33536 -2.72701 -0.25738 67 62 87
2.33728 -2.74118 -0.24727 46 52 93
2.34908 -2.75877 -0.24337 80 89 130
2.35185 -2.77330 -0.23375 75 83 163
2.34815 -2.78558 -0.22007 59 50 122
2.36040 -2.81710 -0.20492 50 53 103
2.40294 -2.84610 -0.21966 130 188 181
2.40835 -2.86183 -0.21145 108 136 216
2.41675 -2.87870 -0.20503 107 105 224
2.40581 -2.90174 -0.20451 71 83 201
2.42943 -2.89722 -0.20115 86 94 210
2.41845 -2.92034 -0.20063 72 86 206
2.44672 -2.91756 -0.19998 68 82 207
2.43570 -2.94078 -0.19945 76 90 203
2.51852 -3.00115 -0.19584 66 83 195
2.50750 -2.99654 -0.21913 78 91 199
2.50731 -3.02478 -0.19531 54 69 178
2.64324 -3.23941 -0.11076 47 54 104
2.63188 -3.23466 -0.13475 32 37 117
2.63178 -3.24921 -0.12248 41 49 124
2.63168 -3.26377 -0.11020 53 67 108
2.64627 -3.25533 -0.10021 68 73 84
2.66407 -3.27779 -0.09773 62 60 63
2.66943 -3.29484 -0.08837 49 55 58
2.72132 -3.33277 -0.10419 90 101 109
2.71972 -3.34692 -0.09089 137 142 137
2.70795 -3.37173 -0.09032 165 174 167
2.71883 -3.36138 -0.07796 162 169 158
2.70706 -3.38618 -0.07740 162 167 162
2.75702 -3.46873 -0.02312 172 172 151
2.74535 -3.46385 -0.04777 169 175 159
2.74524 -3.47880 -0.03517 168 174 157
2.74514 -3.49375 -0.02256 165 168 159
2.75792 -3.48416 -0.01104 163 163 147
2.74604 -3.50919 -0.01047 167 169 157
2.75724 -3.49884 0.00187 158 159 143
2.75558 -3.51303 0.01527 156 159 133
2.74371 -3.53805 0.01584 159 163 151
2.72833 -3.51469 0.04165 156 163 133
2.71653 -3.53955 0.04221 150 151 155
2.69146 -3.51143 0.07272 155 166 148
2.67976 -3.53608 0.07328 144 151 154
1.07438 -2.88031 1.02698 240 252 254
1.17976 -3.13022 1.13954 235 243 249
1.17219 -3.14618 1.13990 86 96 169
1.20206 -3.15378 1.13882 175 168 216
1.19442 -3.16987 1.13919 65 78 146
1.12569 -3.11526 1.17659 68 75 149
1.11826 -3.13091 1.17694 62 89 160
1.07939 -3.15067 1.24868 65 64 142
1.11282 -3.28479 1.33029 79 80 109
1.10739 -3.29034 1.33991 19 30 98
1.11605 -3.30577 1.34489 76 78 117
1.09965 -3.30354 1.35806 178 192 189
1.09512 -3.32823 1.38287 234 235 227
1.08777 -3.34371 1.38322 253 253 250
0.90567 -3.23552 1.47896 204 217 221
0.89895 -3.23272 1.46479 243 247 248
0.89889 -3.24131 1.47204 239 244 246
0.90841 -3.24619 1.48538 193 213 219
0.89637 -3.24591 1.49618 185 207 217
0.89895 -3.25644 1.50263 176 200 213
0.89213 -3.27079 1.50296 204 223 232
0.87735 -3.29163 1.55188 155 192 229
0.88411 -3.27740 1.55156 135 174 207
0.87741 -3.28313 1.54471 155 191 224
0.87072 -3.28886 1.53787 180 209 236
0.88405 -3.28590 1.55873 139 176 210
0.86876 -3.29357 1.56138 154 193 230
0.87056 -3.30347 1.56803 162 196 229
0.86382 -3.31767 1.56835 185 211 236
0.86886 -3.31068 1.57562 170 199 229
0.86213 -3.32487 1.57594 190 214 237
0.87393 -3.32316 1.58141 176 204 230
0.86719 -3.33737 1.58173 199 221 241
0.92747 -3.40852 1.60377 222 231 227
0.92070 -3.40569 1.58947 224 234 239
0.92064 -3.41437 1.59679 228 237 239
0.92058 -3.42304 1.60410 228 234 235
0.93797 -3.42565 1.60849 225 232 223
0.93104 -3.44023 1.60882 223 227 230
0.95428 -3.44752 1.61184 224 228 216
0.94731 -3.46220 1.61218 221 224 228
0.89693 -3.45315 1.66912 189 176 159
0.90362 -3.45594 1.68326 152 131 117
0.89687 -3.46172 1.67635 183 162 136
2.58918 -1.48703 -1.55798 25 21 32
2.60059 -1.46298 -1.55852 20 16 25
2.58928 -1.47266 -1.57009 21 14 23
2.58167 -1.50122 -1.53916 35 34 41
2.35905 -1.75401 -1.12190 12 9 17
2.36966 -1.75844 -1.09950 9 8 14
2.35896 -1.76760 -1.11044 7 6 15
2.21885 -2.10876 -0.69544 25 17 43
2.20862 -2.10449 -0.71706 19 17 28
2.20853 -2.11760 -0.70600 16 10 28
2.20844 -2.13070 -0.69495 10 7 20
2.23443 -2.12483 -0.69639 25 23 34
2.22397 -2.14686 -0.69589 13 9 30
2.24786 -2.14060 -0.69560 26 24 32
2.25844 -2.15590 -0.69257 41 29 39
2.26936 -2.17134 -0.68974 58 59 41
2.27973 -2.17567 -0.66784 73 62 66
2.26927 -2.18462 -0.67854 70 62 59
2.44138 -2.27510 -0.76183 70 60 41
2.45240 -2.25188 -0.76236 76 62 54
2.44147 -2.26123 -0.77354 73 63 51
2.47552 -2.29651 -0.77546 44 43 37
2.51600 -2.31957 -0.79356 24 19 29
2.50477 -2.34323 -0.79303 10 11 12
2.38511 -2.57827 -0.45611 29 24 36
2.37442 -2.57381 -0.47868 14 15 37
2.37934 -2.59026 -0.44074 34 29 37
2.37166 -2.60164 -0.42412 46 40 53
2.35754 -2.61099 -0.40325 79 72 72
2.34147 -2.61964 -0.38117 107 98 84
2.32627 -2.64197 -0.34843 101 91 96
2.31819 -2.65290 -0.33181 62 69 101
2.31713 -2.66605 -0.31984 47 59 112
2.30644 -2.68858 -0.31932 48 58 156
2.31931 -2.68025 -0.30996 61 80 137
2.32190 -2.69460 -0.30034 69 91 147
2.32523 -2.70922 -0.29118 62 81 140
2.32739 -2.72347 -0.28125 54 63 136
2.32979 -2.73782 -0.27146 51 54 144
2.33959 -2.75473 -0.26637 81 82 155
2.34306 -2.76950 -0.25720 103 109 180
2.33847 -2.78148 -0.24294 52 49 117
2.34530 -2.79747 -0.23587 62 75 120
2.34663 -2.81154 -0.22532 29 25 102
2.36434 -2.83154 -0.22495 63 72 168
2.39684 -2.85705 -0.23362 108 124 212
2.38592 -2.88005 -0.23309 52 71 192
2.39185 -2.86899 -0.21902 65 82 196
2.38095 -2.89196 -0.21850 65 82 197
2.40176 -2.88643 -0.21358 63 80 203
2.39083 -2.90946 -0.21306 75 84 200
2.52557 -3.01780 -0.21803 67 83 193
2.51450 -3.01317 -0.24142 95 91 183
2.64775 -3.28551 -0.10686 57 57 57
2.63625 -3.29535 -0.11863 52 59 65
2.65548 -3.30363 -0.09883 51 55 61
2.68915 -3.33351 -0.10494 94 105 112
2.69187 -3.34954 -0.09403 144 147 153
2.68014 -3.37425 -0.09347 160 172 159
2.73449 -3.51854 0.00803 166 171 153
2.72285 -3.51367 -0.01656 166 178 166
2.72274 -3.52859 -0.00398 162 175 159
2.72264 -3.54350 0.00860 159 165 150
2.56180 -3.50587 0.15698 172 183 183
2.55043 -3.52983 0.15752 204 224 228
1.09052 -2.86240 0.97786 164 150 129
1.09058 -2.85315 0.97006 163 151 135
1.08330 -2.85938 0.96261 163 150 134
1.08317 -2.87788 0.97821 123 109 128
1.07684 -2.88266 1.00745 145 182 217
1.06011 -2.88255 1.02281 180 208 244
1.13693 -3.11446 1.14593 188 206 226
1.12958 -3.11139 1.13041 203 226 228
1.12952 -3.12080 1.13835 135 136 176
1.12945 -3.13022 1.14629 70 69 150
1.05877 -3.12967 1.23088 114 104 131
1.06544 -3.14323 1.23606 98 81 121
1.05815 -3.15857 1.23641 152 157 170
1.07213 -3.24921 1.31858 194 214 230
1.06495 -3.24621 1.30342 93 113 176
1.08217 -3.26545 1.32289 202 209 212
1.10165 -3.28837 1.32408 88 87 144
1.09394 -3.29228 1.33448 32 50 131
1.10116 -3.30671 1.33988 136 155 185
1.07815 -3.29969 1.35526 227 238 236
1.07083 -3.31511 1.35561 254 254 254
0.91091 -3.25888 1.47564 230 241 242
0.90417 -3.25606 1.46139 251 252 253
0.90411 -3.26470 1.46868 248 252 252
0.90405 -3.27334 1.47596 243 250 251
0.90143 -3.26049 1.48575 221 235 240
0.90374 -3.27087 1.49230 212 229 236
0.84963 -3.28116 1.55091 178 209 238
0.84305 -3.27841 1.53701 207 228 242
0.84299 -3.28684 1.54412 205 227 243
0.84293 -3.29527 1.55123 204 227 242
0.84624 -3.28702 1.55894 176 209 239
0.83956 -3.30111 1.55926 204 227 240
0.85366 -3.30125 1.56399 180 209 238
0.84696 -3.31538 1.56431 204 225 240
0.90158 -3.46837 1.65960 234 233 220
0.89473 -3.48279 1.65993 252 253 244
2.57151 -1.48222 -1.57576 29 23 28
2.58291 -1.45821 -1.57630 20 15 19
2.57161 -1.46787 -1.58786 23 17 17
2.57682 -1.49668 -1.56859 36 35 39
2.57669 -1.51105 -1.55645 44 44 46
2.57456 -1.52535 -1.54250 51 49 56
2.56316 -1.54938 -1.54196 56 57 67
2.31276 -1.74643 -1.11368 34 36 45
2.33384 -1.76183 -1.12043 21 17 28
2.32309 -1.78448 -1.11992 24 18 33
2.24766 -2.16475 -0.70298 23 16 34
2.26515 -2.18155 -0.70520 43 47 31
2.29101 -2.20019 -0.71368 62 62 54
2.30146 -2.20456 -0.69160 75 61 65
2.29091 -2.21359 -0.70239 71 63 62
2.44870 -2.30242 -0.77497 22 20 31
2.43763 -2.32575 -0.77444 9 13 15
2.46932 -2.32105 -0.77858 10 11 23
2.45819 -2.34450 -0.77805 11 14 12
2.37259 -2.58698 -0.46595 19 19 46
2.36634 -2.59880 -0.45024 17 21 55
2.35851 -2.61010 -0.43349 17 28 74
2.35208 -2.62177 -0.41773 28 47 100
2.32678 -2.62750 -0.38938 48 69 124
2.31715 -2.63801 -0.37161 73 83 141
2.31195 -2.64987 -0.35685 69 75 144
2.30907 -2.66245 -0.34364 48 63 145
2.30692 -2.67525 -0.33093 41 57 148
2.31191 -2.70389 -0.31160 54 58 161
2.31559 -2.71864 -0.30268 51 62 165
2.31919 -2.73339 -0.29369 49 61 170
2.32532 -2.74904 -0.28630 62 68 176
2.34822 -2.77055 -0.28962 136 143 197
2.33533 -2.77967 -0.26999 91 90 156
2.33495 -2.79313 -0.25837 63 66 116
2.33903 -2.80818 -0.24957 70 85 139
2.33299 -2.81961 -0.23439 44 47 136
2.35946 -2.84285 -0.23959 68 87 199
2.37364 -2.86175 -0.23697 52 58 208
2.52468 -3.03142 -0.23562 67 81 186
2.63075 -3.26362 -0.14007 35 45 130
2.63085 -3.24903 -0.15237 29 39 120
2.63540 -3.28033 -0.13042 36 54 113
2.62380 -3.30477 -0.12987 52 56 62
2.64480 -3.31387 -0.11109 59 69 65
2.66802 -3.33912 -0.11159 100 116 112
2.67261 -3.35599 -0.10174 145 160 156
2.61710 -3.53489 0.09967 153 158 157
2.60574 -3.53015 0.07569 162 164 154
2.60564 -3.54469 0.08796 159 163 151
2.52451 -3.50224 0.15856 170 183 186
2.51321 -3.52605 0.15910 190 202 208
1.07483 -2.88253 0.98986 116 138 163
1.06757 -2.88874 0.98244 124 139 160
1.06751 -2.89796 0.99021 122 144 167
1.05383 -2.88004 1.00734 114 147 181
1.04656 -2.89535 1.00769 117 141 169
1.04661 -2.88516 1.01835 117 149 196
1.03936 -2.90043 1.01869 115 140 174
0.98806 -2.87014 1.06029 139 173 217
0.98097 -2.88507 1.06063 118 147 191
1.07037 -3.25923 1.30927 156 186 210
1.06318 -3.25622 1.29408 82 91 148
1.08403 -3.27807 1.31232 151 156 194
1.08998 -3.29157 1.31808 63 46 130
1.10730 -3.31317 1.32003 93 93 165
1.06042 -3.28917 1.34360 195 211 229
1.05313 -3.30454 1.34395 253 254 254
1.07018 -3.30538 1.34808 246 251 252
1.06286 -3.32080 1.34843 254 254 254
2.55171 -1.46307 -1.60344 24 22 15
2.56308 -1.43911 -1.60398 19 16 18
2.55181 -1.44875 -1.61551 19 18 17
2.56298 -1.45342 -1.59191 19 16 13
2.55699 -1.47748 -1.59633 32 28 20
2.56179 -1.49192 -1.58876 38 37 34
2.56213 -1.50628 -1.57706 43 44 45
2.56248 -1.52064 -1.56537 48 46 56
2.55108 -1.54466 -1.56483 54 55 74
2.56308 -1.53501 -1.55390 53 54 65
2.55168 -1.55904 -1.55336 54 58 74
2.33301 -1.74473 -1.16249 56 57 71
2.32242 -1.74031 -1.18486 63 62 77
2.32233 -1.75387 -1.17342 62 62 79
2.32223 -1.76743 -1.16198 60 62 78
2.30884 -1.75611 -1.13029 50 53 65
2.29106 -1.76792 -1.10371 39 39 44
2.22224 -2.14423 -0.72421 24 19 18
2.22233 -2.13104 -0.73534 23 10 24
2.23375 -2.15972 -0.72205 29 30 30
2.24111 -2.17446 -0.71663 21 28 24
2.25671 -2.19093 -0.71749 33 30 22
2.24614 -2.21321 -0.71698 38 33 44
2.27771 -2.20864 -0.72237 48 53 47
2.29657 -2.22605 -0.72551 60 64 49
2.35620 -2.26604 -0.74800 44 41 34
2.34535 -2.28890 -0.74748 12 10 17
2.38435 -2.28598 -0.75772 21 17 21
2.37342 -2.30900 -0.75720 12 13 17
2.36424 -2.58321 -0.49012 18 20 70
2.37512 -2.56029 -0.49064 10 15 42
2.36433 -2.56952 -0.50167 9 14 56
2.35721 -2.59481 -0.47382 29 32 97
2.34717 -2.60544 -0.45550 30 39 106
2.33962 -2.61676 -0.43893 23 37 110
2.34111 -2.63087 -0.42853 14 31 118
2.32873 -2.64060 -0.40877 16 38 138
2.30397 -2.64629 -0.38077 47 60 160
2.29717 -2.65761 -0.36492 74 78 168
2.29584 -2.67067 -0.35274 58 65 166
2.29662 -2.68441 -0.34197 49 65 170
2.29890 -2.69866 -0.33218 57 73 177
2.30451 -2.71406 -0.32456 89 93 184
2.31856 -2.73236 -0.32243 110 114 186
2.33085 -2.75016 -0.31908 127 149 214
2.33760 -2.76611 -0.31205 152 156 213
2.33751 -2.77972 -0.30058 142 133 210
2.33119 -2.79112 -0.28511 90 87 148
2.33322 -2.80546 -0.27501 79 87 144
2.33631 -2.82021 -0.26558 79 91 177
2.33989 -2.83515 -0.25643 71 84 177
2.34719 -2.85148 -0.24961 65 70 193
2.36217 -2.87073 -0.24757 54 67 195
2.37474 -2.88917 -0.24393 70 80 191
2.37464 -2.90290 -0.23234 85 82 187
2.40990 -2.93015 -0.24264 95 83 181
2.42072 -2.93467 -0.21979 82 85 200
2.39889 -2.95334 -0.24211 169 138 133
2.44647 -2.97216 -0.24180 135 106 159
2.45739 -2.97673 -0.21874 109 99 183
2.44638 -2.98615 -0.23000 142 120 151
2.50191 -3.02216 -0.25198 107 103 162
2.65573 -3.23062 -0.22189 23 36 117
2.66742 -3.20599 -0.22245 25 38 123
2.65584 -3.21591 -0.23430 22 36 117
2.66732 -3.22071 -0.21003 27 39 124
2.66722 -3.23543 -0.19762 25 35 118
2.64134 -3.23914 -0.20126 21 31 110
2.65279 -3.24392 -0.17708 26 35 116
2.63606 -3.25153 -0.18592 20 31 104
2.63427 -3.26544 -0.17261 25 36 98
2.62997 -3.27822 -0.15789 34 40 91
2.63139 -3.29352 -0.14640 39 48 81
2.63610 -3.32502 -0.12446 59 66 62
2.65386 -3.34786 -0.12202 96 110 110
2.65437 -3.36286 -0.10995 132 144 150
2.63859 -3.37027 -0.08893 154 165 159
2.65003 -3.37506 -0.06476 160 163 152
2.63849 -3.38493 -0.07657 158 165 153
2.62694 -3.39481 -0.08837 158 164 161
2.52566 -3.51818 0.14082 168 173 168
2.51452 -3.51352 0.11728 163 164 151
2.51432 -3.54207 0.14136 167 174 181
0.99034 -3.08831 1.22193 115 161 210
0.98335 -3.08539 1.20716 111 126 164
0.98328 -3.09435 1.21471 75 105 172
1.09408 -3.28718 1.29100 116 136 181
1.08680 -3.28414 1.27563 89 100 145
1.08674 -3.29346 1.28349 80 88 154
1.09257 -3.30484 1.30719 56 60 124
1.06215 -3.29252 1.32543 160 178 204
1.06430 -3.30332 1.33244 234 243 247
1.05698 -3.31875 1.33279 254 254 254
0.96146 -3.60402 1.68060 113 98 116
0.96851 -3.58918 1.68026 184 165 157
0.96152 -3.59515 1.67312 168 149 152
0.96839 -3.60692 1.69522 135 125 121
0.95735 -3.60938 1.68894 119 114 118
0.96426 -3.61227 1.70354 139 128 121
0.95729 -3.61824 1.69641 134 125 116
2.52591 -1.45820 -1.61338 25 27 28
2.53725 -1.43433 -1.61392 23 20 16
2.52601 -1.44394 -1.62541 24 24 24
2.53534 -1.47262 -1.61022 33 33 31
2.52398 -1.49655 -1.60968 44 44 49
2.54271 -1.48707 -1.60510 39 39 34
2.53134 -1.51105 -1.60456 49 48 51
2.54831 -1.50153 -1.59830 44 44 42
2.55199 -1.51598 -1.58969 48 46 52
2.54059 -1.54000 -1.58915 54 56 71
2.55330 -1.53038 -1.57888 52 50 65
2.54189 -1.55441 -1.57833 55 56 78
2.27815 -1.77674 -1.11250 55 59 60
2.26768 -1.77236 -1.13461 63 63 80
2.26759 -1.78578 -1.12330 61 62 76
2.21309 -2.14015 -0.74686 36 28 36
2.22357 -2.11807 -0.74736 20 19 25
2.21318 -2.12696 -0.75799 19 19 22
2.20279 -2.13585 -0.76862 15 18 27
2.24978 -2.16061 -0.76444 60 68 44
2.24855 -2.17371 -0.75232 57 62 49
2.25008 -2.18736 -0.74234 41 52 35
2.25640 -2.20202 -0.73605 39 39 27
2.28437 -2.23476 -0.73510 39 41 39
2.31172 -2.25420 -0.74471 36 37 39
2.30096 -2.27686 -0.74419 10 11 29
2.33278 -2.27243 -0.74937 20 16 34
2.32197 -2.29522 -0.74885 9 13 20
2.35830 -2.58016 -0.51600 9 13 77
2.36919 -2.55721 -0.51652 10 17 64
2.35840 -2.56645 -0.52756 12 17 72
2.34760 -2.57569 -0.53861 17 20 76
2.35738 -2.59362 -0.50386 23 22 98
2.35227 -2.60579 -0.48884 44 42 131
2.34305 -2.61667 -0.47103 59 60 144
2.32800 -2.62565 -0.44928 57 64 148
2.31816 -2.63618 -0.43116 38 51 149
2.30513 -2.64562 -0.41093 24 47 146
2.29582 -2.65617 -0.39330 47 71 159
2.28510 -2.67876 -0.39279 110 132 176
2.27710 -2.66359 -0.36939 105 119 177
2.28184 -2.67861 -0.36130 111 130 193
2.28694 -2.69379 -0.35342 105 122 192
2.29327 -2.70942 -0.34634 110 113 191
2.30303 -2.72626 -0.34147 137 124 199
2.32485 -2.74731 -0.34450 185 189 222
2.32387 -2.76060 -0.33245 188 200 239
2.32655 -2.77516 -0.32279 158 163 213
2.32085 -2.78678 -0.30768 72 50 152
2.32119 -2.80052 -0.29651 64 63 141
2.32780 -2.81653 -0.28936 78 77 175
2.33272 -2.83197 -0.28110 81 93 201
2.32190 -2.85478 -0.28058 100 66 171
2.32772 -2.84379 -0.26648 66 65 189
2.34044 -2.86216 -0.26314 65 67 185
2.36479 -2.88498 -0.26707 94 94 177
2.35388 -2.90797 -0.26655 164 143 128
2.37602 -2.90300 -0.26261 135 105 158
2.36508 -2.92606 -0.26209 166 150 112
2.38567 -2.92050 -0.25709 151 109 149
2.40099 -2.94026 -0.25505 157 120 147
2.43789 -2.98254 -0.25456 151 134 118
2.47315 -3.01053 -0.26449 121 122 112
2.53128 -3.04791 -0.28819 78 89 122
2.65409 -3.23007 -0.25191 17 31 105
2.66581 -3.20538 -0.25247 20 33 114
2.65420 -3.21532 -0.26435 17 31 107
2.64337 -3.24020 -0.23329 16 29 98
2.62848 -3.24844 -0.21231 15 24 87
2.62487 -3.26156 -0.19792 14 21 76
2.62613 -3.27681 -0.18635 19 25 66
2.62498 -3.29100 -0.17339 31 33 55
2.62559 -3.30597 -0.16144 41 45 54
2.61395 -3.33049 -0.16089 51 50 53
2.62687 -3.32125 -0.14986 52 52 57
2.62918 -3.33701 -0.13886 56 61 68
2.63836 -3.35597 -0.13168 89 102 101
2.63952 -3.37125 -0.11998 126 137 144
2.62200 -3.37779 -0.09795 157 166 160
2.61037 -3.40229 -0.09739 159 164 163
1.07629 -3.29541 1.29500 41 37 135
1.06904 -3.29238 1.27969 42 52 134
1.09294 -3.31662 1.29700 110 122 166
1.07156 -3.31067 1.31225 208 227 231
1.06419 -3.32618 1.31260 253 254 254
1.07342 -3.32133 1.31940 249 254 253
1.06606 -3.33686 1.31976 254 254 254
0.96572 -3.60183 1.65599 220 207 205
0.97279 -3.58692 1.65565 253 253 249
0.96578 -3.59292 1.64847 252 251 248
0.95876 -3.59892 1.64130 248 246 242
0.99704 -3.64693 1.66411 87 75 81
0.95891 -3.63172 1.68744 126 118 108
0.96585 -3.63462 1.70209 136 126 115
0.95885 -3.64061 1.69493 134 123 111
2.49577 -1.45331 -1.61898 29 26 35
2.50705 -1.42955 -1.61951 23 20 28
2.49587 -1.43911 -1.63095 24 17 28
2.48449 -1.47707 -1.61844 40 38 46
2.50272 -1.46762 -1.61363 34 34 42
2.49143 -1.49142 -1.61309 42 42 49
2.51499 -1.48208 -1.61322 39 40 48
2.50366 -1.50595 -1.61267 46 47 54
2.53928 -1.52561 -1.59995 52 52 60
2.52808 -1.52093 -1.62361 52 52 58
2.52798 -1.53528 -1.61151 52 55 66
2.52788 -1.54963 -1.59940 54 58 75
2.21377 -2.15122 -0.76621 34 32 48
2.20344 -2.14691 -0.78803 16 19 38
2.24298 -2.17033 -0.77807 67 85 65
2.23239 -2.19265 -0.77757 63 77 78
2.24563 -2.18423 -0.76897 69 78 72
2.23502 -2.20656 -0.76846 66 73 78
2.24605 -2.19768 -0.75811 60 69 62
2.24995 -2.21187 -0.74996 54 64 49
2.26062 -2.22754 -0.74702 43 36 46
2.27644 -2.24440 -0.74799 28 19 37
2.26575 -2.26692 -0.74747 13 9 24
2.29191 -2.26130 -0.74859 18 14 32
2.28118 -2.28391 -0.74808 9 10 20
2.35700 -2.59226 -0.53370 11 16 92
2.34628 -2.58778 -0.55636 22 25 75
2.34618 -2.60152 -0.54477 13 19 92
2.35855 -2.60650 -0.52325 25 32 110
2.35089 -2.61792 -0.50641 62 65 143
2.32347 -2.62311 -0.47592 102 103 172
2.28132 -2.62347 -0.43545 128 134 192
2.29122 -2.64014 -0.43094 119 127 191
2.27183 -2.64743 -0.40635 80 92 155
2.27806 -2.66294 -0.39932 79 100 151
2.28142 -2.69106 -0.37899 77 95 183
2.28442 -2.70558 -0.36970 69 92 192
2.29340 -2.72216 -0.36438 103 100 192
2.29945 -2.73780 -0.35707 160 144 210
2.31271 -2.75597 -0.35450 206 220 244
2.31405 -2.77007 -0.34398 180 194 221
2.32279 -2.78679 -0.33832 90 98 157
2.26460 -2.77966 -0.28883 33 30 121
2.32494 -2.81489 -0.31686 55 64 164
2.32768 -2.82956 -0.30719 86 87 193
2.33011 -2.84413 -0.29731 107 105 199
2.31926 -2.86699 -0.29679 153 109 127
2.34765 -2.87809 -0.28562 136 114 171
2.37780 -2.90325 -0.29330 157 139 147
2.40985 -2.97126 -0.26694 134 144 94
2.46232 -3.00600 -0.28788 89 105 75
2.51521 -3.04128 -0.30877 53 62 83
2.54233 -3.06655 -0.31348 31 38 93
2.53090 -3.09065 -0.31294 15 20 82
2.56474 -3.09009 -0.31514 21 27 100
2.55324 -3.11432 -0.31459 18 23 75
2.61563 -3.22835 -0.24796 11 21 81
2.60700 -3.23927 -0.23059 9 17 66
2.59538 -3.26375 -0.23004 7 9 22
2.59721 -3.24962 -0.21260 9 14 53
2.58562 -3.27404 -0.21205 11 9 23
2.59009 -3.26109 -0.19622 10 12 44
2.57852 -3.28547 -0.19566 17 17 23
2.59877 -3.27960 -0.18901 15 18 39
2.60667 -3.29781 -0.18130 28 29 34
2.59505 -3.32229 -0.18074 39 44 44
2.61038 -3.31417 -0.17114 41 44 42
2.59875 -3.33867 -0.17059 46 46 49
2.61955 -3.34778 -0.15176 52 54 66
2.63140 -3.36802 -0.14612 85 95 85
2.62644 -3.38045 -0.13098 126 141 140
2.60405 -3.38461 -0.10616 162 169 162
2.59243 -3.40908 -0.10560 160 170 164
0.91025 -2.92526 1.12385 128 161 202
0.90345 -2.92242 1.10947 113 108 134
0.91712 -2.91939 1.13088 181 215 247
0.90338 -2.93114 1.11683 113 128 157
0.91706 -2.92811 1.13824 197 229 252
0.89168 -2.93134 1.14664 161 190 218
0.89844 -2.93416 1.16092 205 241 252
0.87564 -2.93010 1.16089 179 211 235
0.88236 -2.93290 1.17507 205 240 251
0.88215 -2.94279 1.16531 193 226 251
0.88888 -2.94561 1.17953 205 237 250
0.88359 -2.95236 1.17194 202 234 252
0.89032 -2.95517 1.18617 204 236 248
0.93282 -3.06281 1.21743 173 199 210
1.04822 -3.28683 1.29490 67 68 140
1.04103 -3.28383 1.27971 34 45 136
1.06846 -3.31995 1.30332 239 246 248
1.06108 -3.33549 1.30367 254 254 254
0.97661 -3.65040 1.66737 90 91 98
0.96028 -3.64507 1.67847 112 109 100
0.95206 -3.64678 1.68773 129 120 101
0.95900 -3.64968 1.70238 136 124 110
0.95200 -3.65567 1.69523 133 122 106
0.94500 -3.66165 1.68807 128 121 102
2.45477 -1.44833 -1.61393 29 22 30
2.46596 -1.42475 -1.61446 19 14 27
2.45486 -1.43424 -1.62581 22 16 24
2.44357 -1.47192 -1.61339 40 41 47
2.47389 -1.46271 -1.62026 35 31 43
2.46264 -1.48641 -1.61972 42 43 45
2.25506 -1.92879 -1.02011 27 24 28
2.26552 -1.93316 -0.99801 11 8 22
2.27350 -1.94480 -1.02443 17 13 29
2.28402 -1.94920 -1.00222 11 11 17
2.28154 -1.95945 -1.01990 12 10 20
2.29208 -1.96385 -0.99764 11 13 14
2.28602 -1.97362 -1.01234 15 11 11
2.29657 -1.97803 -0.99005 13 15 13
2.28592 -1.98714 -1.00094 15 15 13
2.19728 -2.15893 -0.77206 25 20 52
2.18697 -2.15462 -0.79385 20 19 39
2.22935 -2.17868 -0.78634 48 62 65
2.24569 -2.22221 -0.76561 63 74 68
2.23524 -2.21784 -0.78768 69 76 83
2.23515 -2.23122 -0.77639 69 76 77
2.24987 -2.23652 -0.75766 54 60 53
2.26345 -2.25294 -0.75696 33 18 40
2.35192 -2.61706 -0.53728 16 25 100
2.34118 -2.61257 -0.55997 21 20 80
2.34050 -2.62729 -0.51775 54 59 126
2.31230 -2.63216 -0.48659 102 111 178
2.27155 -2.63282 -0.44689 138 159 218
2.26734 -2.64498 -0.43268 145 156 215
2.25922 -2.65583 -0.41580 107 103 175
2.26545 -2.67136 -0.40880 110 118 162
2.26762 -2.68557 -0.39899 104 111 168
2.31288 -2.71429 -0.41842 46 35 153
2.30179 -2.72418 -0.39949 41 52 177
2.28284 -2.73130 -0.37534 99 103 197
2.30285 -2.75180 -0.37741 174 192 225
2.30344 -2.76563 -0.36640 172 190 226
2.29704 -2.77700 -0.35074 129 136 181
2.31811 -2.79813 -0.35330 91 88 120
2.32415 -2.81400 -0.34583 78 93 174
2.32107 -2.82658 -0.33234 91 90 192
2.31636 -2.83854 -0.31781 122 109 191
2.33001 -2.85729 -0.31524 140 111 159
2.34306 -2.88968 -0.30066 172 137 119
2.36692 -2.91256 -0.30444 151 146 99
2.36776 -2.92675 -0.29338 124 141 96
2.36805 -2.94072 -0.28197 113 141 81
2.49759 -3.03404 -0.32831 35 50 66
2.50439 -3.05109 -0.32057 21 24 77
2.51724 -3.07066 -0.31654 17 18 83
2.58924 -3.30497 -0.18965 28 33 32
2.61161 -3.35935 -0.16564 52 54 48
2.62277 -3.37932 -0.15965 88 95 86
2.61011 -3.38811 -0.14013 125 144 141
2.58960 -3.39307 -0.11629 156 166 156
2.57799 -3.41752 -0.11573 162 175 167
0.90897 -2.94334 1.12168 116 139 169
0.90214 -2.94049 1.10726 123 112 117
0.90208 -2.94924 1.11464 121 124 143
0.90202 -2.95798 1.12201 116 113 138
0.90679 -2.95077 1.12999 122 143 172
0.89984 -2.96539 1.13032 110 90 130
0.89513 -2.95228 1.14244 128 148 190
0.86127 -2.95699 1.17891 167 199 230
0.88228 -2.97901 1.17715 183 216 243
0.88903 -2.98183 1.19142 203 235 250
0.88222 -2.98766 1.18445 194 228 246
0.87238 -3.02463 1.22483 203 237 247
0.86565 -3.02182 1.21062 199 235 252
0.86553 -3.03905 1.22516 201 238 251
0.86365 -3.03613 1.24284 195 227 239
0.85689 -3.04192 1.23592 201 234 250
0.85699 -3.04030 1.25272 188 213 226
0.85318 -3.04634 1.26144 172 196 207
0.85985 -3.04913 1.27554 118 129 168
0.84510 -3.04947 1.27181 155 178 208
0.85175 -3.05225 1.28587 110 118 155
0.87064 -3.07540 1.26898 147 162 186
0.87736 -3.07821 1.28318 110 115 136
0.87058 -3.08401 1.27624 134 150 168
1.06663 -3.31149 1.27826 128 140 179
1.05937 -3.30845 1.26292 80 82 168
1.05931 -3.31775 1.27077 186 203 226
1.06757 -3.32151 1.28575 222 235 238
1.06017 -3.33708 1.28610 253 254 254
1.06675 -3.33027 1.29386 251 254 253
1.05936 -3.34584 1.29422 254 254 254
1.03725 -3.66977 1.60625 253 253 250
1.04457 -3.65436 1.60590 253 253 253
1.03732 -3.66056 1.59849 253 253 252
1.03006 -3.66676 1.59107 253 254 253
1.04450 -3.66356 1.61367 252 253 252
1.01090 -3.66537 1.62788 156 138 142
0.97492 -3.66119 1.65894 83 84 89
0.96212 -3.65891 1.66933 99 99 93
0.94484 -3.65257 1.68063 120 115 95
2.41378 -1.44343 -1.60840 29 26 32
2.40267 -1.46684 -1.60787 41 42 50
2.43317 -1.45768 -1.61524 36 34 40
2.42201 -1.48121 -1.61471 44 45 53
2.21892 -1.92092 -1.02029 56 63 69
2.20833 -1.94321 -1.01979 59 67 76
2.22829 -1.93556 -1.01711 49 56 61
2.23414 -1.94976 -1.01090 39 42 56
2.24436 -1.96465 -1.00834 34 38 45
2.26911 -1.98179 -1.01796 33 35 36
2.27948 -1.99689 -1.01535 23 31 29
2.29004 -2.00131 -0.99304 13 15 12
2.28413 -2.01117 -1.00791 13 13 10
2.29470 -2.01559 -0.98557 10 14 17
2.28403 -2.02472 -0.99648 9 12 15
2.27337 -2.03385 -1.00739 6 7 13
2.19164 -2.16880 -0.78651 22 17 44
2.18132 -2.16448 -0.80832 18 19 30
2.18123 -2.17771 -0.79717 20 16 30
2.19532 -2.18280 -0.77835 37 37 53
2.22428 -2.20214 -0.79020 58 71 79
2.21367 -2.22447 -0.78969 70 79 84
2.23985 -2.24566 -0.76886 64 74 62
2.22939 -2.24129 -0.79096 71 76 82
2.24670 -2.26062 -0.76298 47 40 48
2.25710 -2.27642 -0.75982 20 12 21
2.25700 -2.28989 -0.74847 12 9 15
2.35096 -2.62941 -0.55535 14 21 88
2.34019 -2.62491 -0.57810 34 29 72
2.34010 -2.63871 -0.56646 25 24 84
2.33801 -2.63916 -0.53465 46 56 112
2.30851 -2.64355 -0.50243 86 100 168
2.25872 -2.64120 -0.45621 118 136 213
2.25530 -2.65359 -0.44253 135 142 214
2.25907 -2.66832 -0.43385 125 128 203
2.26283 -2.68308 -0.42514 150 168 207
2.26479 -2.69726 -0.41517 126 145 192
2.26649 -2.71137 -0.40502 80 85 165
2.27109 -2.72648 -0.39683 76 88 176
2.27780 -2.74236 -0.39004 97 104 196
2.27458 -2.75481 -0.37650 119 138 208
2.28816 -2.77318 -0.37428 83 90 179
2.31203 -2.79532 -0.37887 89 93 163
2.30539 -2.80662 -0.36298 133 138 157
2.31162 -2.82257 -0.35567 122 108 174
2.30077 -2.84544 -0.35515 136 99 66
2.32141 -2.83986 -0.35067 134 94 132
2.31053 -2.86279 -0.35015 124 107 35
2.32671 -2.85557 -0.34267 143 96 112
2.31582 -2.87853 -0.34215 112 109 36
2.33633 -2.87292 -0.33746 144 101 79
2.34571 -2.89026 -0.33203 139 120 62
2.33633 -2.90050 -0.31438 124 130 55
2.35480 -2.92140 -0.31477 96 123 55
2.36276 -2.95223 -0.29668 69 101 59
2.42447 -2.99054 -0.32437 52 77 66
2.46735 -3.02175 -0.33975 29 43 69
2.46706 -3.03589 -0.32764 18 23 72
2.48361 -3.05687 -0.32611 16 20 72
2.49624 -3.07636 -0.32204 14 18 67
2.55866 -3.27689 -0.21468 18 16 20
2.56903 -3.29619 -0.20856 24 22 24
2.57715 -3.31454 -0.20107 31 35 38
2.57828 -3.32972 -0.18947 41 46 43
2.57624 -3.34342 -0.17603 49 55 55
2.61244 -3.37506 -0.18459 82 88 73
2.60860 -3.38803 -0.17003 121 126 116
2.58459 -3.39135 -0.14401 140 155 146
2.57297 -3.41584 -0.14346 163 171 165
2.56466 -3.39646 -0.12045 160 169 155
2.55310 -3.42084 -0.11989 162 172 171
0.87861 -2.96076 1.14700 116 130 165
0.87179 -2.96659 1.14002 123 126 148
0.87173 -2.97526 1.14732 122 137 154
0.84861 -2.96760 1.18175 135 164 202
0.84341 -2.97284 1.19117 145 176 209
0.85007 -2.97562 1.20525 204 238 249
0.83669 -3.03694 1.25131 203 233 247
0.82992 -3.05119 1.25163 198 235 252
0.81925 -3.04218 1.27257 193 228 241
0.81253 -3.05633 1.27289 198 232 248
0.81080 -3.04490 1.28302 187 216 228
0.81985 -3.05959 1.28655 174 202 210
0.82646 -3.06235 1.30050 108 133 176
0.82591 -3.07227 1.29131 149 178 206
0.83253 -3.07504 1.30529 90 112 171
0.82585 -3.08075 1.29846 130 152 196
0.91536 -3.16063 1.27864 93 103 157
0.92235 -3.14591 1.27831 84 96 161
0.91542 -3.15184 1.27122 115 127 167
0.92229 -3.15471 1.28573 80 91 161
0.92223 -3.16350 1.29314 82 91 158
0.90838 -3.17535 1.27898 149 163 185
1.03706 -3.68210 1.59713 253 252 247
1.02985 -3.67909 1.58191 253 253 254
1.03214 -3.68710 1.60608 214 201 199
1.00085 -3.66899 1.62121 124 101 97
0.99362 -3.68423 1.62156 74 63 53
0.98214 -3.67081 1.64084 75 77 71
0.97496 -3.68595 1.64119 80 79 73
0.96949 -3.66870 1.65133 82 80 79
0.95360 -3.66362 1.66246 92 89 88
0.93969 -3.66021 1.67306 109 105 94
0.93367 -3.66376 1.68186 121 116 100
0.94060 -3.66665 1.69648 131 122 103
0.93361 -3.67263 1.68934 127 121 103
0.92662 -3.67861 1.68219 123 119 101
2.24165 -1.96141 -1.03706 59 69 78
2.23116 -1.95702 -1.05921 60 67 78
2.23106 -1.97046 -1.04788 63 70 82
2.23097 -1.98389 -1.03655 57 69 82
2.24763 -1.97575 -1.03090 56 68 74
2.25487 -1.99033 -1.02576 47 68 66
2.24655 -2.00252 -1.00744 26 43 37
2.23586 -2.02504 -1.00693 5 4 11
2.27734 -2.02092 -1.02208 10 9 10
2.26656 -2.04362 -1.02157 4 4 9
2.18658 -2.19208 -0.79037 24 19 45
2.17624 -2.18776 -0.81221 20 17 24
2.21833 -2.21210 -0.80458 53 66 79
2.23350 -2.25563 -0.78296 71 76 72
2.22303 -2.25125 -0.80508 70 80 88
2.22293 -2.26467 -0.79377 71 77 81
2.23546 -2.26951 -0.77326 59 64 59
2.24747 -2.28572 -0.77142 33 21 31
2.24671 -2.29903 -0.75955 18 13 21
2.25722 -2.30342 -0.73735 11 13 18
2.24662 -2.31249 -0.74819 15 16 18
2.23601 -2.32156 -0.75904 21 21 24
2.33258 -2.65014 -0.54957 33 38 100
2.32183 -2.64565 -0.57227 48 35 64
2.32174 -2.65942 -0.56066 46 33 71
2.31994 -2.65988 -0.52909 45 54 136
2.27067 -2.65761 -0.48293 79 98 178
2.24505 -2.66278 -0.45362 122 140 204
2.24898 -2.67758 -0.44507 135 144 221
2.24373 -2.68933 -0.43012 156 169 234
2.25925 -2.70808 -0.42957 126 142 211
2.25967 -2.72178 -0.41852 67 91 172
2.25916 -2.73515 -0.40684 55 81 168
2.26523 -2.75082 -0.39965 58 78 175
2.26546 -2.76447 -0.38845 47 55 165
2.28361 -2.78452 -0.38938 34 25 130
2.28661 -2.79924 -0.37999 77 59 134
2.30253 -2.81868 -0.37925 130 108 136
2.31134 -2.83562 -0.37368 135 86 99
2.30046 -2.85856 -0.37316 116 131 55
2.34944 -2.90511 -0.35271 91 110 40
2.33251 -2.91246 -0.33004 72 100 56
2.37009 -2.94088 -0.34292 48 79 64
2.40136 -2.98115 -0.33974 32 49 63
2.40845 -2.99804 -0.33252 21 29 68
2.43151 -3.02141 -0.33546 14 18 63
2.44418 -3.04072 -0.33166 13 17 56
2.43292 -3.06444 -0.33112 7 9 19
2.45937 -3.06116 -0.32938 10 15 43
2.44807 -3.08497 -0.32884 6 8 19
2.46687 -3.07852 -0.32217 8 12 39
2.45555 -3.10238 -0.32163 8 8 22
2.51525 -3.25765 -0.21950 24 26 23
2.53329 -3.28034 -0.21811 29 27 30
2.54746 -3.30138 -0.21434 33 27 37
2.55633 -3.32007 -0.20735 37 40 47
2.57435 -3.34309 -0.20567 65 71 70
2.60018 -3.36990 -0.20843 95 102 93
2.59529 -3.38236 -0.19324 128 135 114
2.57418 -3.38706 -0.16872 147 153 137
2.56255 -3.41155 -0.16816 150 158 152
2.56385 -3.39678 -0.15051 149 161 152
2.55225 -3.42122 -0.14996 157 166 168
0.83579 -2.96944 1.17751 116 136 169
0.82913 -2.96665 1.16343 124 117 137
0.82907 -2.97519 1.17063 123 121 143
0.82901 -2.98372 1.17783 120 127 154
0.83049 -2.97457 1.18697 116 137 175
0.82373 -2.98882 1.18729 119 136 164
0.82485 -2.97944 1.19655 123 145 181
0.81810 -2.99366 1.19687 114 135 166
0.81570 -2.98196 1.20759 131 156 199
0.82386 -2.99586 1.21125 141 171 214
0.81654 -2.99953 1.22146 157 191 219
0.83836 -3.03977 1.23384 193 225 252
0.78884 -3.04843 1.28939 201 233 244
0.78219 -3.06245 1.28971 195 231 252
0.77688 -3.06527 1.31514 183 207 214
0.77646 -3.07335 1.32231 165 188 199
1.03256 -3.69074 1.58901 248 246 241
1.02470 -3.69315 1.59870 181 165 175
1.00505 -3.68513 1.61116 97 71 83
0.94903 -3.67186 1.65470 87 84 83
0.94205 -3.66894 1.63994 78 77 75
0.94199 -3.67789 1.64749 83 78 81
0.93190 -3.66549 1.66607 100 96 90
0.92667 -3.66972 1.67472 113 110 97
2.25150 -1.40618 -1.54001 23 21 31
2.26222 -1.38359 -1.54052 19 16 21
2.25160 -1.39268 -1.55139 19 17 25
2.26213 -1.39708 -1.52914 19 17 23
2.27370 -1.41977 -1.55045 29 28 36
2.24301 -1.99922 -1.03556 42 58 56
2.25495 -2.01462 -1.03442 17 22 15
2.18294 -2.20245 -0.80651 16 13 44
2.17258 -2.19812 -0.82839 19 18 27
2.17249 -2.21139 -0.81720 17 12 35
2.21329 -2.22228 -0.81974 43 51 73
2.22885 -2.23910 -0.82098 67 85 96
2.21818 -2.26158 -0.82047 66 81 88
2.23394 -2.28063 -0.79123 64 72 68
2.22344 -2.27624 -0.81342 67 78 86
2.23832 -2.29513 -0.78341 48 41 47
2.23537 -2.30792 -0.76981 27 18 36
2.22468 -2.33045 -0.76930 25 26 34
2.31393 -2.67069 -0.54356 28 19 92
2.29477 -2.67817 -0.51847 39 47 126
2.26089 -2.68063 -0.48311 77 94 170
2.24908 -2.69026 -0.46345 92 98 203
2.25691 -2.70646 -0.45759 92 90 208
2.25976 -2.72101 -0.44822 83 80 188
2.24899 -2.74370 -0.44770 68 47 129
2.24951 -2.73105 -0.42974 43 49 154
2.23877 -2.75368 -0.42923 73 52 124
2.25078 -2.74504 -0.41928 36 49 149
2.24003 -2.76768 -0.41877 60 52 120
2.25682 -2.76074 -0.41209 43 64 151
2.24605 -2.78341 -0.41158 86 64 94
2.25946 -2.77526 -0.40254 49 49 128
2.26938 -2.79242 -0.39794 77 44 89
2.26976 -2.80618 -0.38680 102 59 77
2.28837 -2.82664 -0.38797 119 86 53
2.27752 -2.84950 -0.38745 103 148 34
2.30157 -2.84523 -0.38540 126 114 46
2.31600 -2.87817 -0.37203 96 129 26
2.32945 -2.89709 -0.36942 77 103 50
2.34470 -2.91680 -0.36791 51 81 68
2.34194 -2.92963 -0.35448 35 52 88
2.36353 -2.95197 -0.35700 20 35 81
2.37599 -2.97087 -0.35345 12 23 71
2.39372 -2.99195 -0.35323 8 15 58
2.38257 -3.01544 -0.35270 5 7 20
2.40637 -3.02523 -0.33782 7 12 39
2.39518 -3.04879 -0.33729 8 8 15
2.41922 -3.04461 -0.33424 8 11 30
2.40800 -3.06825 -0.33370 8 9 13
2.53299 -3.30978 -0.22424 48 47 47
2.57990 -3.36097 -0.22753 99 108 106
2.57477 -3.37329 -0.21219 132 140 129
2.56336 -3.38257 -0.19320 152 157 136
2.55173 -3.40707 -0.19265 162 170 163
2.54634 -3.38908 -0.17103 158 165 151
2.53476 -3.41348 -0.17048 156 156 153
1.05089 -2.98844 0.96370 145 132 139
1.05829 -2.97285 0.96334 133 118 135
1.05095 -2.97913 0.95584 145 141 150
1.04362 -2.98541 0.94834 157 170 174
1.05822 -2.98217 0.97120 131 94 117
1.05816 -2.99148 0.97906 133 107 115
1.04433 -2.99384 0.97465 146 142 141
1.04427 -3.00313 0.98249 138 122 108
0.79254 -3.02745 1.25026 164 197 226
0.80757 -3.04621 1.25117 176 212 240
0.79848 -3.04844 1.26198 185 221 250
0.78433 -3.04710 1.27477 194 229 249
0.78225 -3.05408 1.28265 196 233 251
0.76212 -3.06509 1.31164 198 230 245
0.75553 -3.07899 1.31195 193 231 251
0.76344 -3.07437 1.31811 197 230 241
0.75684 -3.08827 1.31842 192 226 250
0.76168 -3.08146 1.32577 193 224 236
0.76816 -3.08417 1.33946 136 151 179
0.75508 -3.09535 1.32609 193 226 249
1.02229 -3.68505 1.57455 253 253 252
1.02962 -3.66960 1.57420 253 253 253
1.02235 -3.67582 1.56676 253 254 253
1.01508 -3.68204 1.55933 253 254 253
1.02096 -3.69317 1.58265 233 225 225
0.96743 -3.65529 1.60357 147 129 140
1.00154 -3.69456 1.60289 75 61 69
0.99427 -3.70989 1.60324 74 75 67
0.99921 -3.70170 1.61116 73 70 62
0.99914 -3.71086 1.61888 78 77 70
0.99194 -3.71702 1.61151 75 76 70
0.92445 -3.67107 1.65902 93 88 85
0.91751 -3.66817 1.64437 81 75 79
0.92104 -3.67692 1.66727 106 103 91
0.92273 -3.68740 1.67436 119 113 98
0.92967 -3.69030 1.68901 128 120 106
0.92267 -3.69628 1.68185 126 118 102
0.91568 -3.70227 1.67470 122 116 99
2.20254 -1.40178 -1.52419 27 25 32
2.21315 -1.37942 -1.52470 17 18 19
2.20263 -1.38842 -1.53546 21 20 23
2.24467 -1.42879 -1.54333 39 38 44
2.23394 -1.45140 -1.54282 49 50 58
2.27832 -1.44265 -1.56506 43 44 46
2.26749 -1.46546 -1.56454 50 52 59
2.23496 -1.99521 -1.05991 57 65 84
2.23505 -1.98172 -1.07129 68 70 87
2.22443 -1.99081 -1.08215 69 68 88
2.22434 -2.00429 -1.07077 61 62 85
2.23353 -2.00848 -1.04739 37 41 50
2.25281 -2.02510 -1.05258 15 11 23
2.25745 -2.03944 -1.04519 8 6 16
2.25736 -2.05301 -1.03375 6 5 6
2.17832 -2.22596 -0.81079 27 24 53
2.16795 -2.22162 -0.83271 17 14 26
2.22237 -2.24906 -0.83510 53 76 93
2.23389 -2.29215 -0.81046 66 72 76
2.22336 -2.28775 -0.83271 66 77 82
2.22327 -2.30124 -0.82133 67 72 77
2.23264 -2.30537 -0.79817 57 62 60
2.40667 -2.61497 -0.71156 55 57 56
2.41788 -2.59136 -0.71209 43 46 46
2.40677 -2.60086 -0.72346 47 52 53
2.41778 -2.60546 -0.70020 48 48 48
2.39546 -2.63858 -0.71102 69 71 68
2.39966 -2.62695 -0.69459 59 61 61
2.41065 -2.63155 -0.67137 55 51 57
2.39956 -2.64104 -0.68271 60 61 62
2.38847 -2.65052 -0.69405 67 70 65
2.30620 -2.66718 -0.56837 74 63 40
2.30629 -2.65342 -0.57997 65 56 45
2.29546 -2.66269 -0.59105 56 65 54
2.29039 -2.67578 -0.54553 70 54 53
2.27988 -2.68602 -0.52655 64 41 80
2.26308 -2.69408 -0.50317 70 44 113
2.25228 -2.71685 -0.50265 108 64 68
2.24574 -2.70184 -0.47950 71 50 144
2.23498 -2.72450 -0.47899 103 66 80
2.24018 -2.71351 -0.46423 58 43 148
2.24139 -2.72748 -0.45374 62 46 143
2.25532 -2.80036 -0.40658 120 86 58
2.24453 -2.82308 -0.40606 107 142 36
2.26533 -2.81764 -0.40203 123 109 39
2.27817 -2.83605 -0.39935 117 140 25
2.29672 -2.87045 -0.38895 92 133 53
2.31325 -2.89052 -0.38853 56 94 50
2.33552 -2.91291 -0.39186 36 54 65
2.34522 -2.93058 -0.38669 20 34 75
2.33753 -2.94150 -0.36993 9 17 68
2.35253 -2.96134 -0.36819 8 14 50
2.34146 -2.98465 -0.36766 5 4 14
2.35998 -2.97828 -0.36141 8 9 40
2.34890 -3.00164 -0.36088 4 6 9
2.37191 -2.99707 -0.35750 6 7 28
2.36079 -3.02050 -0.35697 6 7 9
2.47754 -3.27021 -0.23365 45 45 52
2.49516 -3.29278 -0.23222 57 57 66
2.53163 -3.32427 -0.24200 84 92 76
2.55574 -3.35022 -0.24418 115 120 103
2.56243 -3.36808 -0.23586 125 130 119
2.55578 -3.37963 -0.21961 135 141 139
2.53652 -3.38508 -0.19598 154 158 145
2.52494 -3.40949 -0.19543 161 166 167
1.05592 -3.00220 0.95020 158 169 168
1.04861 -2.99915 0.93477 159 171 181
1.04855 -3.00850 0.94267 159 171 174
1.04848 -3.01786 0.95056 158 171 173
1.05119 -3.00872 0.96034 156 168 169
0.78228 -3.03906 1.25205 132 161 199
0.76766 -3.03735 1.26511 143 175 216
0.75978 -3.04859 1.28232 169 203 231
0.75317 -3.06252 1.28264 141 169 212
0.75950 -3.06511 1.29642 189 226 250
0.75648 -3.07132 1.30460 191 230 251
0.70988 -3.22644 1.48050 249 251 254
0.71635 -3.21280 1.48020 254 254 254
0.70352 -3.22378 1.46707 223 190 213
0.71630 -3.22095 1.48706 254 254 254
0.71624 -3.22909 1.49393 254 254 254
0.71030 -3.23496 1.48722 250 252 254
0.71666 -3.23761 1.50065 254 254 254
0.71024 -3.24310 1.49409 252 254 254
1.01117 -3.68789 1.56809 252 250 246
0.99795 -3.68550 1.57919 200 187 195
0.99333 -3.69064 1.58806 111 89 99
0.98606 -3.70596 1.58841 70 65 61
0.98994 -3.69683 1.59660 72 61 56
0.98268 -3.71214 1.59694 74 74 69
0.91853 -3.67804 1.65161 88 83 82
0.91159 -3.67514 1.63695 77 74 76
0.91153 -3.68403 1.64445 82 79 79
0.91889 -3.68732 1.65901 100 95 88
0.92000 -3.69728 1.66625 112 106 94
2.17729 -1.39744 -1.53141 31 27 30
2.18786 -1.37517 -1.53191 20 17 26
2.17738 -1.38413 -1.54263 27 18 24
2.18230 -1.41076 -1.52527 36 36 41
2.20775 -1.42423 -1.53940 43 42 50
2.19709 -1.44668 -1.53889 51 53 66
2.22416 -1.43780 -1.54443 47 47 56
2.21346 -1.46035 -1.54392 52 54 67
2.23864 -2.02010 -1.07182 49 55 72
2.22807 -2.01569 -1.09414 65 68 90
2.22798 -2.02923 -1.08272 63 71 87
2.24793 -2.03519 -1.06847 39 44 61
2.23759 -2.04703 -1.04825 33 33 43
2.25175 -2.06302 -1.04901 19 21 21
2.26235 -2.06745 -1.02661 4 6 6
2.25545 -2.07727 -1.04078 7 6 4
2.26606 -2.08171 -1.01836 5 6 10
2.25535 -2.09087 -1.02931 5 4 6
2.17672 -2.23688 -0.82870 19 13 33
2.16632 -2.23253 -0.85067 16 16 20
2.16623 -2.24586 -0.83944 15 15 25
2.20034 -2.25554 -0.83667 33 41 59
2.21589 -2.27253 -0.83798 60 74 71
2.22437 -2.31502 -0.81090 55 69 67
2.24416 -2.33334 -0.81533 37 34 57
2.23339 -2.35605 -0.81482 28 31 39
2.40088 -2.61195 -0.73870 53 57 56
2.41210 -2.58830 -0.73924 41 49 49
2.40097 -2.59782 -0.75061 48 54 55
2.38985 -2.60734 -0.76199 52 60 58
2.38965 -2.63559 -0.73817 69 70 66
2.40371 -2.62697 -0.72896 64 65 61
2.39248 -2.65063 -0.72843 73 74 70
2.29356 -2.67585 -0.57815 66 82 43
2.26679 -2.68075 -0.54732 93 102 38
2.25739 -2.69129 -0.52913 110 94 44
2.24642 -2.70123 -0.50987 113 74 55
2.23698 -2.73878 -0.46904 102 65 84
2.22622 -2.76146 -0.46853 125 123 26
2.23651 -2.75219 -0.45735 111 74 74
2.22575 -2.77487 -0.45684 118 125 24
2.24032 -2.78073 -0.43728 89 66 67
2.22964 -2.78987 -0.44821 106 119 28
2.24035 -2.79434 -0.42594 104 90 58
2.24811 -2.81078 -0.41992 114 125 50
2.26840 -2.84563 -0.41103 97 144 47
2.27590 -2.86216 -0.40468 63 109 54
2.30543 -2.88715 -0.41326 44 69 51
2.29764 -2.89798 -0.39642 15 35 55
2.28670 -2.92102 -0.39590 7 6 25
2.29369 -2.91025 -0.38221 6 13 53
2.28276 -2.93327 -0.38169 5 5 12
2.30596 -2.92885 -0.37890 5 9 41
2.29500 -2.95194 -0.37838 7 6 10
2.31575 -2.94656 -0.37386 5 7 24
2.30476 -2.96971 -0.37334 8 6 9
2.33356 -2.96753 -0.37409 5 5 15
2.32252 -2.99079 -0.37356 7 7 9
2.30873 -3.10998 -0.23016 28 29 27
2.31951 -3.11449 -0.20739 21 24 30
2.36756 -3.19202 -0.22027 54 55 56
2.41536 -3.22787 -0.23798 61 63 59
2.47606 -3.28445 -0.25123 79 82 74
2.51030 -3.31487 -0.25996 93 99 101
2.51934 -3.33370 -0.25324 125 129 125
2.52233 -3.34973 -0.24281 141 148 131
2.53190 -3.36891 -0.23631 146 150 139
2.52029 -3.39336 -0.23576 166 175 161
2.51139 -3.38829 -0.19964 158 167 158
2.49985 -3.41262 -0.19909 162 162 166
1.01941 -3.00936 0.97246 158 169 168
1.01219 -3.00634 0.95720 160 174 176
1.01212 -3.01559 0.96500 160 173 175
1.01206 -3.02485 0.97281 160 172 172
0.97365 -3.05424 1.05567 129 92 98
0.79535 -3.05837 1.23708 112 135 160
0.78874 -3.05561 1.22312 126 144 160
0.78868 -3.06408 1.23026 125 142 156
0.78862 -3.07254 1.23740 120 141 158
0.76479 -3.05395 1.26388 115 141 173
0.75815 -3.06794 1.26419 112 134 161
0.75057 -3.05232 1.27671 124 149 188
0.74397 -3.06623 1.27702 110 134 166
0.74185 -3.06281 1.29418 153 188 222
0.73533 -3.06838 1.28752 111 140 175
0.73527 -3.07666 1.29450 119 149 188
0.74217 -3.07136 1.30101 163 203 233
0.74513 -3.08180 1.30680 180 214 245
0.74580 -3.09062 1.31350 186 219 251
0.74042 -3.09505 1.32257 190 224 251
0.74688 -3.09774 1.33621 192 226 246
0.74037 -3.10332 1.32955 188 224 251
0.73385 -3.10889 1.32288 167 205 239
0.72136 -3.24620 1.46803 230 218 233
0.71495 -3.24353 1.45449 206 146 176
0.71490 -3.25173 1.46142 217 186 209
0.71484 -3.25994 1.46834 209 171 192
0.70589 -3.24206 1.48000 232 222 233
0.69941 -3.25570 1.48031 220 200 214
0.70284 -3.24780 1.48785 241 239 244
0.70920 -3.25046 1.50128 254 254 254
0.69884 -3.26093 1.50282 251 253 254
0.70519 -3.26358 1.51623 253 254 253
0.69878 -3.26906 1.50968 252 253 254
0.69238 -3.27454 1.50313 241 238 243
0.98667 -3.66965 1.55743 254 254 252
0.99395 -3.65433 1.55708 253 254 254
0.98674 -3.66050 1.54971 253 253 253
0.97952 -3.66667 1.54233 251 251 252
0.99099 -3.68268 1.56401 240 235 232
0.97802 -3.68958 1.58273 78 66 79
0.97077 -3.70486 1.58308 70 69 70
0.91854 -3.69940 1.65031 92 89 84
0.91158 -3.69650 1.63560 77 78 72
0.91937 -3.70914 1.65762 105 101 90
0.92267 -3.72116 1.66438 116 112 94
0.92964 -3.72408 1.67911 127 120 104
0.92261 -3.73009 1.67192 123 118 100
0.91558 -3.73611 1.66472 118 111 99
2.14509 -1.39315 -1.53137 33 25 35
2.15560 -1.37101 -1.53187 25 18 24
2.14518 -1.37992 -1.54253 23 19 26
2.16218 -1.40640 -1.53748 42 37 44
2.15162 -1.42864 -1.53697 54 49 59
2.17584 -1.41975 -1.54004 46 44 51
2.16524 -1.44208 -1.53954 55 51 63
2.19831 -1.43328 -1.55133 50 49 59
2.18765 -1.45574 -1.55082 52 53 67
2.24391 -2.04545 -1.08517 65 74 81
2.23330 -2.04102 -1.10759 66 75 90
2.23320 -2.05461 -1.09612 64 74 86
2.23669 -2.05783 -1.06756 60 72 75
2.24505 -2.07288 -1.06338 37 49 58
2.24374 -2.08626 -1.05088 17 14 17
2.24405 -2.09993 -1.03976 9 5 9
2.25467 -2.10436 -1.01734 6 6 13
2.24396 -2.11352 -1.02829 7 5 11
2.18063 -2.26249 -0.84001 23 18 40
2.17019 -2.25813 -0.86207 13 17 22
2.21568 -2.28401 -0.85726 51 62 52
2.22533 -2.29981 -0.85376 60 77 78
2.22420 -2.31309 -0.84150 57 66 61
2.23885 -2.33020 -0.84193 43 50 58
2.22806 -2.35294 -0.84142 25 26 31
2.25872 -2.34869 -0.84645 32 29 46
2.24787 -2.37155 -0.84593 28 33 32
2.39738 -2.62380 -0.75579 60 64 61
2.38613 -2.64749 -0.75526 73 75 72
2.28832 -2.67317 -0.60483 55 67 67
2.28842 -2.65940 -0.61644 69 74 72
2.27758 -2.66868 -0.62753 75 81 78
2.27739 -2.69621 -0.60431 61 71 76
2.27587 -2.68284 -0.58422 50 73 66
2.25120 -2.68834 -0.55481 77 110 50
2.24632 -2.70035 -0.53985 108 138 30
2.23356 -2.70964 -0.51925 119 128 23
2.22778 -2.72125 -0.50373 117 113 20
2.22873 -2.73517 -0.49305 119 113 33
2.22761 -2.74836 -0.48088 124 117 39
2.23017 -2.80366 -0.43721 95 115 37
2.23599 -2.81942 -0.42988 84 122 57
2.23807 -2.83382 -0.41993 67 106 45
2.25599 -2.85421 -0.42089 49 71 51
2.27023 -2.87333 -0.41922 17 35 57
2.25934 -2.89628 -0.41870 7 6 20
2.25940 -2.88291 -0.40032 5 11 40
2.24854 -2.90579 -0.39980 8 9 11
2.25900 -2.89646 -0.38858 5 6 26
2.24814 -2.91934 -0.38806 12 12 20
2.26975 -3.10688 -0.22341 47 53 41
2.26021 -3.11638 -0.20586 55 62 54
2.28337 -3.14050 -0.20898 73 77 68
2.29454 -3.15936 -0.20444 86 92 80
2.34064 -3.19422 -0.22164 97 104 88
2.37185 -3.22257 -0.22932 109 115 96
2.44602 -3.27104 -0.26337 118 125 98
2.48017 -3.30137 -0.27235 123 127 108
2.47447 -3.31320 -0.25672 132 139 128
2.46299 -3.33737 -0.25618 145 151 149
2.48599 -3.34768 -0.23947 151 159 158
2.47448 -3.37192 -0.23892 154 170 168
2.48992 -3.36410 -0.22969 156 166 162
2.47737 -3.38707 -0.19786 158 164 162
2.46599 -3.39681 -0.20950 150 146 143
0.87205 -3.04311 1.12888 120 59 89
0.87901 -3.02844 1.12855 130 106 108
0.87211 -3.03435 1.12149 132 104 119
0.86521 -3.04025 1.11444 137 112 127
0.87889 -3.04596 1.14332 124 111 123
0.87199 -3.05187 1.13627 125 98 85
0.87229 -3.06087 1.14349 120 56 64
0.87919 -3.05497 1.15055 119 85 104
0.87913 -3.06373 1.15794 123 109 133
0.87223 -3.06964 1.15088 128 124 140
0.70562 -3.06351 1.31333 137 162 208
0.69924 -3.06085 1.29985 111 134 158
0.72235 -3.08390 1.31355 146 179 220
0.73873 -3.24584 1.43252 201 130 175
0.73878 -3.23755 1.42553 200 126 181
0.73225 -3.24313 1.41885 190 167 188
0.74526 -3.24025 1.43920 226 195 219
0.74520 -3.24854 1.44620 221 174 191
0.69738 -3.26225 1.48783 231 213 237
0.69102 -3.25960 1.47440 207 183 196
0.69097 -3.26774 1.48127 206 135 198
0.69091 -3.27589 1.48814 203 135 192
0.69636 -3.26962 1.49501 232 212 233
0.96996 -3.66742 1.55257 252 251 248
0.96284 -3.66444 1.53753 250 251 251
0.93902 -3.64910 1.56838 211 200 206
0.94605 -3.66444 1.57414 115 100 112
0.93887 -3.67956 1.57448 68 55 66
0.95269 -3.67949 1.58004 64 58 63
0.94549 -3.69465 1.58038 71 70 72
0.92351 -3.71645 1.64030 87 85 79
0.91652 -3.71353 1.62553 75 76 69
0.91646 -3.72249 1.63308 82 81 75
0.92282 -3.72483 1.64800 98 94 87
0.92653 -3.73729 1.65469 109 104 93
0.91941 -3.75230 1.65503 112 106 97
2.14256 -1.38881 -1.56110 25 26 32
2.15309 -1.36662 -1.56160 19 20 22
2.14265 -1.37555 -1.57228 20 20 21
2.13221 -1.38448 -1.58296 19 21 21
2.14732 -1.40206 -1.55484 41 39 44
2.13677 -1.42428 -1.55433 49 50 56
2.16037 -1.41538 -1.55693 52 48 53
2.14979 -1.43768 -1.55642 52 52 62
2.22753 -2.06724 -1.07982 60 72 82
2.21694 -2.06281 -1.10220 69 79 91
2.21684 -2.07638 -1.09076 65 77 87
2.23245 -2.08170 -1.07270 49 58 72
2.23427 -2.09564 -1.06289 37 40 48
2.23314 -2.10905 -1.05053 28 27 32
2.24198 -2.12433 -1.04671 20 19 19
2.25262 -2.12878 -1.02424 5 5 16
2.24170 -2.13792 -1.03506 10 6 15
2.25234 -2.14237 -1.01260 6 6 15
2.24161 -2.15155 -1.02357 6 5 14
2.18021 -2.27384 -0.85908 18 15 27
2.16974 -2.26947 -0.88119 12 18 20
2.16965 -2.28288 -0.86988 14 17 17
2.19161 -2.28995 -0.85715 31 38 34
2.22253 -2.31080 -0.87105 39 63 65
2.24116 -2.32889 -0.87480 31 38 39
2.24449 -2.34336 -0.86607 24 18 40
2.34798 -2.59340 -0.76183 53 61 49
2.35911 -2.56994 -0.76236 50 55 56
2.34807 -2.57938 -0.77365 55 59 57
2.35901 -2.58396 -0.75054 49 56 54
2.36423 -2.61242 -0.76239 59 67 61
2.35305 -2.63598 -0.76186 77 80 80
2.38163 -2.63191 -0.76372 68 73 69
2.37040 -2.65558 -0.76319 81 82 80
2.27074 -2.68021 -0.61095 74 79 74
2.26001 -2.67573 -0.63361 81 85 85
2.25991 -2.68947 -0.62202 85 90 85
2.23795 -2.69667 -0.56396 58 84 66
2.22877 -2.70720 -0.54586 78 123 49
2.22949 -2.72107 -0.53498 93 140 31
