ply
format ascii 1.0
element face 0
property list uchar int vertex_indices
element vertex 1304
property float x
property float y
property float z
property uchar diffuse_red
property uchar diffuse_green
property uchar diffuse_blue
end_header
1.92051 -2.58091 -0.69240 76 87 62
1.91696 -2.60213 -0.69068 106 118 77
1.81009 -2.54269 -0.56180 116 118 120
1.82231 -2.54331 -0.54512 118 124 119
1.80915 -2.54975 -0.54883 114 122 115
1.82134 -2.55038 -0.53218 123 127 117
1.81355 -2.56022 -0.53968 112 118 112
1.80575 -2.57005 -0.54718 109 116 116
2.02484 -2.73633 -0.62429 125 132 140
2.02123 -2.75790 -0.62255 141 150 154
1.98648 -2.73503 -0.55969 130 131 122
1.97372 -2.73438 -0.57710 154 160 150
2.00477 -2.75506 -0.55934 108 102 82
2.02450 -2.78405 -0.54711 111 146 132
2.02499 -2.80018 -0.52208 149 148 134
2.01680 -2.81051 -0.52996 154 159 144
2.02468 -2.80783 -0.50925 137 141 122
2.02111 -2.82912 -0.50752 136 141 124
2.06256 -2.84930 -0.50854 138 142 125
2.05430 -2.85971 -0.51648 141 153 132
-0.00289 -0.64732 -0.47244 252 253 251
-0.00105 -0.63634 -0.47333 254 254 254
-0.00527 -0.64166 -0.47739 254 254 254
0.00133 -0.64200 -0.46839 254 254 254
0.00628 -0.65871 -0.47017 211 200 178
0.00869 -0.66439 -0.46526 165 159 130
0.02640 -0.67048 -0.48652 125 107 73
0.02453 -0.68163 -0.48562 115 109 96
0.03179 -0.67632 -0.48655 104 92 90
0.02991 -0.68751 -0.48564 116 107 97
0.03621 -0.68216 -0.48490 111 102 96
0.03433 -0.69336 -0.48399 114 105 92
0.05447 -0.70572 -0.47897 110 105 92
0.05203 -0.69991 -0.48406 113 105 94
0.05881 -0.70025 -0.47480 115 106 104
0.06093 -0.71177 -0.48054 106 100 74
0.06697 -0.71784 -0.48138 88 85 76
0.06507 -0.72919 -0.48046 56 47 60
0.07358 -0.72397 -0.48309 76 63 64
0.07168 -0.73536 -0.48217 56 52 54
0.07743 -0.72994 -0.48023 59 53 57
0.07552 -0.74134 -0.47930 56 51 54
1.60300 -1.84025 -1.36794 35 38 43
1.59022 -1.83960 -1.38539 22 22 24
1.60286 -1.84915 -1.35335 51 53 51
1.58887 -1.85195 -1.32427 44 44 44
1.56829 -1.85173 -1.28851 33 33 42
1.56479 -1.87264 -1.28682 15 21 26
1.54310 -1.85796 -1.23427 27 29 56
1.52087 -1.85656 -1.19749 40 50 76
1.52370 -1.86637 -1.18664 60 68 86
1.52916 -1.87737 -1.17849 62 77 94
1.52574 -1.89781 -1.17683 43 56 71
1.52897 -1.88578 -1.16459 54 70 71
1.53823 -1.90700 -1.14664 54 50 73
1.54762 -1.91985 -1.14240 56 67 80
1.54420 -1.94029 -1.14075 73 82 101
1.81141 -2.43257 -0.77878 87 89 96
1.81491 -2.41168 -0.78047 78 76 72
1.81943 -2.42245 -0.77106 80 79 76
1.80338 -2.44270 -0.78650 82 88 96
1.82396 -2.43321 -0.76165 86 85 83
1.81594 -2.44334 -0.76937 92 94 98
1.88616 -2.49382 -0.81124 79 88 78
1.92411 -2.53333 -0.81415 69 61 56
1.93527 -2.54841 -0.80942 83 85 85
1.93165 -2.57000 -0.80768 100 99 93
1.93450 -2.55619 -0.79554 96 104 84
1.93089 -2.57775 -0.79379 95 92 87
1.93703 -2.57418 -0.77097 93 97 78
1.93080 -2.57848 -0.75311 60 65 54
1.92426 -2.58253 -0.73510 53 60 60
1.92068 -2.60388 -0.73337 122 143 126
1.85323 -2.56960 -0.63126 78 94 74
1.84526 -2.57965 -0.63893 107 112 102
1.81013 -2.55758 -0.57498 96 103 86
1.80229 -2.56746 -0.58252 84 85 75
1.97987 -2.74635 -0.56859 156 161 145
1.97172 -2.75664 -0.57644 149 164 157
1.99289 -2.76292 -0.56472 138 133 102
1.99451 -2.77974 -0.54045 98 115 98
1.99844 -2.79023 -0.53043 139 146 136
1.99489 -2.81147 -0.52872 156 165 155
2.00735 -2.81192 -0.51111 142 146 127
2.00380 -2.83315 -0.50939 142 152 137
2.10478 -2.90233 -0.53635 139 142 133
2.09169 -2.90166 -0.55422 141 151 140
-0.01699 -0.64131 -0.47733 252 254 252
-0.01516 -0.63038 -0.47821 254 254 254
-0.01935 -0.63568 -0.48225 254 254 254
-0.01279 -0.63601 -0.47329 254 254 254
-0.01264 -0.64696 -0.47589 245 248 242
-0.00889 -0.65261 -0.47338 227 218 212
0.00066 -0.65839 -0.48095 179 170 157
-0.00119 -0.66941 -0.48006 101 89 80
0.01297 -0.66429 -0.49322 137 107 79
0.01793 -0.67009 -0.49262 108 93 74
0.01607 -0.68123 -0.49171 117 107 102
0.02293 -0.67591 -0.49205 107 100 87
0.02106 -0.68707 -0.49115 116 105 101
0.04563 -0.70526 -0.48474 106 103 87
0.04751 -0.69400 -0.48565 115 106 94
0.04318 -0.69946 -0.48981 111 106 88
0.05059 -0.71122 -0.48389 98 92 73
0.06144 -0.71757 -0.49284 85 76 56
0.05954 -0.72893 -0.49192 56 46 57
0.06475 -0.72348 -0.48913 63 55 60
0.06285 -0.73485 -0.48820 55 49 53
1.59427 -1.85032 -1.37521 30 28 36
1.58150 -1.84967 -1.39265 22 22 23
1.58610 -1.86063 -1.38307 27 25 32
1.59071 -1.87159 -1.37349 28 31 30
1.59298 -1.85869 -1.35937 36 37 37
1.58943 -1.87991 -1.35766 24 30 23
1.57946 -1.86160 -1.33069 29 31 30
1.57593 -1.88268 -1.32898 19 23 18
1.54775 -1.85628 -1.28310 20 23 20
1.54427 -1.87709 -1.28141 21 28 25
1.53237 -1.86669 -1.23898 16 19 32
1.52445 -1.87669 -1.24660 20 25 22
1.51898 -1.86918 -1.21121 26 27 45
1.51615 -1.87641 -1.19450 45 64 69
1.51807 -1.88578 -1.18273 53 62 76
1.51868 -1.90296 -1.15597 54 67 79
1.52838 -1.91594 -1.15214 72 79 104
1.52496 -1.93633 -1.15049 76 86 107
1.53728 -1.92858 -1.14746 74 83 104
1.53386 -1.94900 -1.14581 80 88 104
1.56729 -1.97667 -1.12276 81 89 117
1.55497 -1.97604 -1.13959 82 92 108
1.56848 -1.98565 -1.11033 81 95 119
1.58080 -1.98628 -1.09353 93 104 122
1.58888 -2.00408 -1.11665 80 96 117
1.60127 -2.00471 -1.09975 94 104 122
1.59587 -2.01595 -1.10981 88 101 119
1.60827 -2.01658 -1.09289 96 105 122
1.60034 -2.02658 -1.10052 97 107 125
1.79196 -2.42778 -0.79041 77 85 87
1.79545 -2.40694 -0.79210 74 78 74
1.78744 -2.41704 -0.79980 66 78 67
1.78847 -2.44863 -0.78872 91 96 91
1.82760 -2.46541 -0.79263 83 92 87
1.82407 -2.48644 -0.79093 65 70 72
1.85769 -2.49182 -0.80322 68 73 80
1.88356 -2.51577 -0.81027 60 68 85
1.90158 -2.53501 -0.81105 75 92 82
1.89799 -2.55646 -0.80931 91 102 92
1.92550 -2.55797 -0.81627 91 96 89
1.92188 -2.57955 -0.81452 99 100 90
1.93737 -2.58999 -0.78546 81 87 71
1.93376 -2.61155 -0.78371 48 43 54
1.92881 -2.59279 -0.76574 48 51 40
1.93268 -2.60336 -0.75548 43 51 56
1.79354 -2.56942 -0.56382 75 84 80
1.78134 -2.56880 -0.58047 100 105 81
1.80289 -2.58311 -0.55823 95 108 124
1.81511 -2.58373 -0.54155 112 116 110
1.80729 -2.59359 -0.54907 110 122 113
1.79948 -2.60344 -0.55658 91 107 109
1.98072 -2.77055 -0.56987 146 156 136
1.97255 -2.78085 -0.57773 155 158 141
1.97337 -2.77342 -0.55220 123 115 77
1.97932 -2.79305 -0.53095 134 150 144
1.99462 -2.81907 -0.51593 150 151 144
1.99107 -2.84027 -0.51421 147 152 144
2.10119 -2.91620 -0.54751 144 154 148
2.08808 -2.91553 -0.56541 144 150 139
2.09281 -2.92678 -0.55558 149 168 154
2.10619 -2.92763 -0.53785 142 150 141
2.14006 -2.96723 -0.53376 135 145 131
2.15326 -2.96791 -0.51573 129 145 132
2.13638 -2.98922 -0.53198 158 160 144
-0.02641 -0.64097 -0.48118 249 253 250
-0.02459 -0.63007 -0.48207 254 254 254
-0.02877 -0.63535 -0.48609 253 254 254
-0.02126 -0.64660 -0.48123 232 238 221
-0.00896 -0.65800 -0.48472 159 136 132
0.00510 -0.66392 -0.50024 116 90 100
0.01546 -0.67554 -0.49988 113 103 92
0.01118 -0.68095 -0.50401 116 107 100
0.01359 -0.68670 -0.49898 115 106 101
0.03521 -0.69905 -0.49698 112 103 89
0.03277 -0.69325 -0.50205 114 105 97
0.03883 -0.70491 -0.49392 100 97 78
0.04588 -0.71099 -0.49666 86 83 70
0.04399 -0.72230 -0.49574 57 48 52
0.05678 -0.72306 -0.49654 60 49 57
0.05488 -0.73441 -0.49562 55 48 56
1.50846 -1.87789 -1.21603 20 23 29
1.49617 -1.87726 -1.23282 19 27 20
1.50060 -1.88781 -1.22359 16 23 20
1.50516 -1.88485 -1.19879 29 38 54
1.51091 -1.89599 -1.19097 41 50 66
1.50842 -1.90326 -1.17468 48 61 68
1.50876 -1.91183 -1.16135 59 78 94
1.51428 -1.92284 -1.15332 70 84 112
1.56537 -1.98955 -1.13625 79 92 102
1.56321 -1.99687 -1.12047 58 67 81
1.57616 -2.01167 -1.11956 44 56 71
1.58907 -2.02651 -1.11853 64 88 99
1.60215 -2.04148 -1.11759 86 108 125
1.61459 -2.04212 -1.10061 102 112 130
1.62344 -2.06067 -1.12448 91 110 128
1.63595 -2.06131 -1.10740 106 117 133
1.62795 -2.07140 -1.11509 96 119 132
1.77316 -2.43134 -0.78945 89 95 92
1.80659 -2.46769 -0.79014 72 81 72
1.79855 -2.47784 -0.79788 67 60 73
1.93336 -2.59494 -0.81002 94 91 83
1.93225 -2.60243 -0.79585 65 65 71
1.93340 -2.61947 -0.77019 57 68 57
1.78354 -2.57782 -0.56973 81 91 72
1.77135 -2.57720 -0.58637 96 84 71
1.97113 -2.78770 -0.56404 144 137 107
1.95838 -2.78705 -0.58145 152 159 150
1.98276 -2.80345 -0.55924 91 90 53
1.96944 -2.80985 -0.52499 153 165 162
1.96590 -2.83096 -0.52328 153 162 158
1.98384 -2.82752 -0.52201 154 161 154
1.98030 -2.84871 -0.52030 151 156 151
-0.04020 -0.63503 -0.48621 251 253 251
-0.03838 -0.62417 -0.48709 254 254 254
-0.04255 -0.62943 -0.49110 254 254 254
-0.03603 -0.62977 -0.48220 254 254 254
-0.03557 -0.64062 -0.48542 239 240 232
-0.03116 -0.64624 -0.48421 214 203 195
-0.01869 -0.65198 -0.49737 168 163 142
-0.02053 -0.66297 -0.49648 107 95 88
-0.00954 -0.65776 -0.50446 129 108 73
-0.00418 -0.66352 -0.50472 106 91 84
-0.00604 -0.67460 -0.50383 116 108 101
0.00194 -0.66933 -0.50629 109 100 93
0.00008 -0.68045 -0.50539 114 107 96
0.00779 -0.67517 -0.50733 114 107 95
0.00592 -0.68632 -0.50642 112 107 97
0.02767 -0.69867 -0.50486 107 100 90
0.02523 -0.69287 -0.50992 113 105 95
0.03219 -0.70457 -0.50337 97 88 79
0.04573 -0.71674 -0.50796 62 54 55
0.04383 -0.72808 -0.50705 52 50 49
1.48870 -1.89070 -1.19736 16 20 32
1.47647 -1.89007 -1.21404 17 24 16
1.48088 -1.90056 -1.20488 16 21 15
1.48529 -1.91104 -1.19571 16 19 19
1.48796 -1.89875 -1.18286 23 27 43
1.48456 -1.91906 -1.18122 16 25 26
1.48410 -1.90529 -1.16520 22 32 45
1.48071 -1.92553 -1.16356 21 29 30
1.49183 -1.91732 -1.15951 25 36 56
1.49933 -1.92927 -1.15356 43 51 76
1.51237 -1.94391 -1.15319 63 80 93
1.52485 -1.95833 -1.15218 73 88 99
1.53712 -1.95896 -1.13543 81 90 109
1.55666 -1.99071 -1.15676 77 86 90
1.56480 -2.01991 -1.12376 32 33 38
1.56136 -2.04046 -1.12210 33 40 41
1.57927 -2.03557 -1.12432 43 56 58
1.60458 -2.05680 -1.13536 47 61 75
1.62219 -2.07421 -1.13872 50 55 76
1.66165 -2.33163 -0.78940 65 70 74
1.66504 -2.31140 -0.79104 70 71 76
1.65727 -2.32120 -0.79852 72 75 68
1.66942 -2.32182 -0.78193 76 76 83
1.67380 -2.33225 -0.77282 76 78 78
1.66829 -2.34340 -0.78216 63 70 78
1.68045 -2.34402 -0.76556 73 76 75
1.67267 -2.35383 -0.77304 70 79 77
1.72230 -2.39156 -0.80107 81 91 79
1.71886 -2.41212 -0.79941 94 99 90
1.77472 -2.45520 -0.79182 90 81 102
1.76673 -2.46528 -0.79950 68 62 69
1.83175 -2.50639 -0.81122 66 69 70
1.82821 -2.52753 -0.80951 88 88 80
1.93066 -2.60897 -0.82235 79 80 77
1.93798 -2.62181 -0.81461 36 32 47
1.93187 -2.62609 -0.79657 51 57 65
1.80087 -2.58123 -0.63312 109 97 87
1.80431 -2.56068 -0.63478 115 113 82
1.79642 -2.57064 -0.64238 145 146 125
1.80876 -2.57127 -0.62552 99 83 83
1.81321 -2.58186 -0.61626 98 100 95
1.77986 -2.57518 -0.60504 99 103 94
1.77265 -2.58561 -0.57496 119 113 88
1.76926 -2.60588 -0.57332 115 115 110
1.77406 -2.59408 -0.56367 115 113 95
1.96806 -2.80147 -0.57537 156 162 144
1.95528 -2.80082 -0.59280 148 156 145
1.96543 -2.80744 -0.56086 111 113 85
1.96662 -2.81602 -0.54900 89 96 87
1.96260 -2.82097 -0.53366 137 150 144
1.95907 -2.84209 -0.53195 160 163 158
-0.05203 -0.62912 -0.49457 252 254 252
-0.05021 -0.61830 -0.49544 254 254 254
-0.05437 -0.62354 -0.49945 254 254 254
-0.04787 -0.62387 -0.49057 254 254 254
-0.04852 -0.63470 -0.49182 246 247 242
-0.04349 -0.64029 -0.49182 228 221 215
-0.03700 -0.64591 -0.49442 184 172 163
-0.03883 -0.65682 -0.49353 101 91 85
-0.02378 -0.65166 -0.50912 143 110 104
-0.01948 -0.65737 -0.50760 109 88 94
-0.02132 -0.66839 -0.50671 117 105 104
-0.00678 -0.66894 -0.51177 117 107 96
-0.01104 -0.67432 -0.51588 116 105 104
-0.00864 -0.68003 -0.51088 113 107 105
0.01590 -0.69241 -0.51464 107 106 96
0.02143 -0.69835 -0.51498 98 97 83
0.02751 -0.70434 -0.51623 85 80 74
0.02562 -0.71562 -0.51531 57 52 58
0.03659 -0.71624 -0.51326 54 48 38
0.03469 -0.72756 -0.51235 58 49 52
1.48371 -1.93529 -1.15303 31 35 38
1.47156 -1.93467 -1.16962 26 34 27
1.47594 -1.94510 -1.16050 30 35 32
1.48033 -1.95552 -1.15139 29 37 40
1.49066 -1.94697 -1.14652 37 48 53
1.48726 -1.96722 -1.14488 33 37 40
1.51027 -1.96491 -1.15287 38 48 57
1.50686 -1.98527 -1.15122 34 36 38
1.52022 -1.97815 -1.14930 39 47 54
1.51681 -1.99856 -1.14765 34 38 41
1.54589 -2.00763 -1.14776 30 35 39
1.54246 -2.02816 -1.14610 36 38 41
1.59311 -2.06508 -1.13962 32 40 45
1.58064 -2.06444 -1.15664 35 42 38
1.58514 -2.07513 -1.14729 36 44 43
1.58963 -2.08583 -1.13794 42 44 44
1.60807 -2.08118 -1.14048 38 38 47
1.60458 -2.10201 -1.13879 45 45 50
1.63739 -2.10481 -1.15519 45 45 55
1.63387 -2.12583 -1.15349 44 46 51
1.67133 -2.13102 -1.17413 48 51 57
1.68409 -2.13167 -1.15671 63 70 69
1.66778 -2.15225 -1.17241 43 45 46
1.64268 -2.33470 -0.78747 56 51 43
1.63930 -2.35484 -0.78584 36 39 50
1.64322 -2.34278 -0.77521 47 45 54
1.71440 -2.40153 -0.80867 77 88 83
1.73057 -2.42718 -0.79608 95 97 82
1.72712 -2.44779 -0.79441 65 62 64
1.74577 -2.44442 -0.79551 79 78 73
1.77313 -2.47718 -0.79165 79 75 75
1.76964 -2.49800 -0.78997 90 95 88
1.93053 -2.62470 -0.83673 30 32 30
1.93718 -2.63714 -0.82844 33 38 39
1.80090 -2.60407 -0.63403 113 132 113
1.77792 -2.60410 -0.59205 114 108 90
1.77451 -2.62445 -0.59040 121 115 93
1.81830 -2.66895 -0.55929 93 104 78
1.82173 -2.64847 -0.56095 112 124 137
1.81386 -2.65840 -0.56852 84 81 48
1.82617 -2.65902 -0.55172 123 129 138
1.83061 -2.66958 -0.54249 138 145 136
1.82274 -2.67950 -0.55006 117 144 131
1.93661 -2.78020 -0.59256 142 155 149
1.94015 -2.75904 -0.59427 137 151 139
1.93202 -2.76930 -0.60209 131 135 140
1.94473 -2.76995 -0.58474 145 150 143
1.95823 -2.81062 -0.58208 152 157 140
1.98630 -2.84566 -0.57579 85 81 70
-0.06009 -0.62880 -0.50055 248 252 248
-0.05828 -0.61799 -0.50142 254 254 254
-0.06243 -0.62323 -0.50542 253 254 254
-0.05622 -0.63437 -0.49850 233 237 221
-0.04766 -0.63996 -0.50507 202 196 173
-0.02280 -0.66273 -0.51332 113 103 100
-0.02704 -0.66807 -0.51740 114 107 101
-0.02464 -0.67376 -0.51243 113 105 98
0.00285 -0.68612 -0.52201 111 105 91
0.00911 -0.69206 -0.52375 104 101 81
0.01581 -0.69806 -0.52621 87 90 80
0.01393 -0.70932 -0.52530 59 52 52
0.02355 -0.70415 -0.53043 73 70 69
0.02166 -0.71546 -0.52952 58 53 53
0.02501 -0.70992 -0.52360 62 55 61
0.02311 -0.72122 -0.52268 54 55 55
1.61274 -2.33102 -0.77617 46 45 49
1.63728 -2.36132 -0.77143 46 49 58
1.63391 -2.38142 -0.76980 49 47 46
1.67005 -2.38912 -0.78599 60 67 81
1.70165 -2.41635 -0.79931 80 96 95
1.71374 -2.43164 -0.79637 79 88 77
1.74029 -2.46384 -0.79219 69 73 81
1.75956 -2.48377 -0.79484 85 96 94
1.93091 -2.64084 -0.85159 52 44 48
1.91786 -2.64060 -0.82795 81 96 97
1.91423 -2.66226 -0.82619 109 114 110
1.79639 -2.60094 -0.66949 163 176 157
1.79293 -2.62160 -0.66782 105 114 119
1.81326 -2.67325 -0.58134 135 138 96
1.80538 -2.68320 -0.58893 143 147 138
1.80983 -2.69378 -0.57968 153 155 141
1.83499 -2.70320 -0.57201 87 90 45
1.84738 -2.70383 -0.55510 127 138 128
1.83154 -2.72381 -0.57034 115 127 100
1.85173 -2.72982 -0.55894 105 105 119
1.84379 -2.73984 -0.56658 94 113 108
1.90312 -2.77292 -0.58257 115 134 131
1.89960 -2.79391 -0.58087 87 90 53
1.93774 -2.80461 -0.59411 120 144 135
1.95069 -2.82136 -0.59036 128 154 132
1.94713 -2.84261 -0.58864 92 108 77
1.98926 -2.85605 -0.60422 123 126 80
1.98333 -2.85969 -0.58728 83 92 70
1.95969 -2.85082 -0.55835 139 164 150
1.95613 -2.87203 -0.55664 150 161 151
-0.07232 -0.62294 -0.50789 251 253 250
-0.07052 -0.61217 -0.50877 254 254 254
-0.07466 -0.61739 -0.51275 254 254 254
-0.06818 -0.61772 -0.50391 254 254 254
-0.07646 -0.62817 -0.51188 226 222 218
-0.06810 -0.62848 -0.50658 239 239 231
-0.06134 -0.63403 -0.50996 212 207 194
-0.06362 -0.63961 -0.49648 168 162 131
-0.06543 -0.65040 -0.49560 104 94 84
-0.04633 -0.64527 -0.51928 128 106 74
-0.04138 -0.65094 -0.51911 106 90 86
-0.04321 -0.66190 -0.51822 117 104 95
-0.00678 -0.68566 -0.52597 105 102 92
-0.00919 -0.67991 -0.53099 110 105 94
0.00297 -0.69174 -0.53403 96 91 76
0.01556 -0.70374 -0.53758 62 61 50
0.01367 -0.71503 -0.53666 56 53 53
1.59759 -2.33614 -0.77721 48 47 63
1.61124 -2.35214 -0.77612 49 54 53
1.60789 -2.37214 -0.77450 75 85 61
1.61820 -2.36407 -0.76932 58 65 50
1.66227 -2.40670 -0.78070 50 52 51
1.68206 -2.42676 -0.78430 51 56 54
1.69643 -2.44350 -0.78330 63 70 69
1.75262 -2.49450 -0.80336 85 98 96
1.80234 -2.53393 -0.83058 82 93 75
1.85186 -2.57346 -0.85723 80 91 66
1.94134 -2.67179 -0.86084 108 111 106
1.93768 -2.69368 -0.85907 112 115 113
1.95762 -2.84224 -0.60875 99 107 72
1.98593 -2.87772 -0.60266 92 112 78
-0.08775 -0.61718 -0.50895 252 254 252
-0.08595 -0.60647 -0.50982 254 254 254
-0.09007 -0.61166 -0.51378 254 254 254
-0.08363 -0.61199 -0.50499 254 254 254
-0.07978 -0.62262 -0.51487 245 245 242
-0.07328 -0.63372 -0.50862 186 171 161
-0.07508 -0.64450 -0.50775 102 86 78
-0.05782 -0.63929 -0.52839 141 108 96
-0.05399 -0.64493 -0.52620 105 89 80
-0.05582 -0.65585 -0.52532 114 105 94
-0.02327 -0.67931 -0.52671 108 103 88
-0.02568 -0.67359 -0.53171 112 106 94
-0.01594 -0.68522 -0.53065 99 96 78
-0.00405 -0.69139 -0.54273 86 83 74
-0.00593 -0.70261 -0.54182 59 53 54
0.00640 -0.69757 -0.55207 70 62 65
0.00450 -0.70887 -0.55115 58 54 49
0.00942 -0.70343 -0.54801 59 53 54
0.00753 -0.71473 -0.54710 56 54 50
1.51913 -2.29478 -0.73646 83 87 77
1.51491 -2.28475 -0.74523 77 84 77
1.50744 -2.29418 -0.75242 78 83 80
1.55709 -2.32558 -0.75652 52 45 65
1.55379 -2.34528 -0.75493 69 81 75
1.57822 -2.34616 -0.76198 57 59 62
1.65021 -2.41385 -0.78462 36 38 44
1.69042 -2.45458 -0.79239 43 36 36
1.70802 -2.47348 -0.79399 56 52 50
1.72931 -2.49480 -0.79851 58 53 55
1.77669 -2.53292 -0.82410 49 43 43
1.80616 -2.55976 -0.83483 38 36 42
1.77702 -2.61862 -0.68208 162 177 156
1.78149 -2.62926 -0.67278 116 116 121
1.78662 -2.64034 -0.66399 119 140 155
1.80167 -2.65813 -0.66265 145 152 144
1.79820 -2.67884 -0.66097 142 138 131
1.93106 -2.83962 -0.60375 139 147 113
1.96201 -2.86925 -0.61259 119 104 106
1.95842 -2.89065 -0.61086 151 163 166
1.95553 -2.87236 -0.59522 131 139 133
1.95195 -2.89369 -0.59350 159 167 157
1.94243 -2.87070 -0.57338 153 172 157
1.93888 -2.89191 -0.57166 153 163 160
-0.09511 -0.61687 -0.51594 248 251 246
-0.09169 -0.62237 -0.51325 233 235 222
-0.08258 -0.62783 -0.52139 202 192 179
-0.06801 -0.63334 -0.53985 160 129 137
-0.06621 -0.63896 -0.53386 116 85 99
-0.05819 -0.65022 -0.53025 113 101 91
-0.06238 -0.65552 -0.53429 115 104 102
-0.06002 -0.66115 -0.52937 112 105 95
-0.03776 -0.67308 -0.53078 112 102 88
-0.04015 -0.66740 -0.53575 115 104 94
-0.03353 -0.66774 -0.52670 114 105 94
-0.03276 -0.67886 -0.53061 107 98 83
-0.02462 -0.68480 -0.53615 91 86 74
-0.01040 -0.69106 -0.55265 78 69 59
-0.01228 -0.70228 -0.55174 60 51 48
-0.00302 -0.69709 -0.55657 65 56 57
-0.00491 -0.70837 -0.55565 57 53 45
1.50851 -2.30226 -0.74094 84 86 80
1.65927 -2.44198 -0.79340 82 94 87
1.67204 -2.45779 -0.79119 74 84 79
1.69944 -2.48301 -0.80103 54 56 47
1.73538 -2.51383 -0.81769 42 38 31
1.77483 -2.54709 -0.83693 41 41 34
1.74882 -2.62252 -0.66146 110 92 96
1.73653 -2.62189 -0.67824 150 147 144
1.74096 -2.63243 -0.66902 106 87 91
1.74540 -2.64298 -0.65980 121 144 132
1.77569 -2.64830 -0.66933 125 137 126
1.77224 -2.66892 -0.66766 120 124 131
1.79071 -2.66612 -0.66803 144 152 147
1.78724 -2.68681 -0.66636 135 141 133
1.87508 -2.80829 -0.59041 123 126 120
1.86251 -2.80765 -0.60758 148 145 135
1.86704 -2.81844 -0.59815 141 147 135
1.87158 -2.82922 -0.58872 140 145 144
-0.10469 -0.61660 -0.51860 238 240 232
-0.09634 -0.62202 -0.52550 210 209 190
-0.07945 -0.62741 -0.54881 170 157 129
-0.08127 -0.63829 -0.54793 105 94 79
-0.07810 -0.63302 -0.54198 125 97 83
-0.07445 -0.63862 -0.53955 101 85 84
-0.07627 -0.64950 -0.53867 114 103 94
-0.07076 -0.64423 -0.53719 109 98 91
-0.07259 -0.65512 -0.53631 114 102 97
-0.06692 -0.64986 -0.53510 116 104 96
-0.06875 -0.66077 -0.53421 113 104 94
-0.04772 -0.67264 -0.53362 109 102 87
-0.04588 -0.66164 -0.53451 114 104 98
-0.05011 -0.66697 -0.53857 112 105 93
-0.04109 -0.67846 -0.53655 95 91 77
-0.03111 -0.68446 -0.54560 82 77 70
-0.03297 -0.69558 -0.54470 58 52 56
-0.02208 -0.69049 -0.55277 64 60 66
-0.02395 -0.70167 -0.55187 58 52 50
-0.01731 -0.69637 -0.55204 62 52 52
-0.01919 -0.70757 -0.55113 57 52 46
1.49578 -2.30101 -0.75595 87 89 87
1.49849 -2.31008 -0.74589 91 95 83
1.63601 -2.43432 -0.80072 84 101 86
1.62385 -2.43370 -0.81733 75 84 79
1.62823 -2.44414 -0.80821 72 83 79
1.66937 -2.47099 -0.80305 79 76 82
1.69944 -2.49806 -0.81519 64 61 73
1.70858 -2.51171 -0.80978 66 73 76
-0.11734 -0.60532 -0.53377 252 254 252
-0.11555 -0.59467 -0.53463 254 254 254
-0.11965 -0.59983 -0.53857 254 254 254
-0.11324 -0.60016 -0.52983 254 254 254
-0.09585 -0.62158 -0.54791 185 173 162
-0.09765 -0.63238 -0.54704 102 87 81
-0.09161 -0.62713 -0.54674 136 109 95
-0.08748 -0.63270 -0.54535 104 91 75
-0.08929 -0.64354 -0.54447 113 104 88
-0.06173 -0.66651 -0.53811 110 104 86
-0.05668 -0.67223 -0.53820 103 100 81
-0.05053 -0.67803 -0.54034 88 87 76
-0.05238 -0.68904 -0.53945 60 54 59
-0.03900 -0.68407 -0.55245 68 64 67
-0.04086 -0.69517 -0.55155 60 54 54
-0.03385 -0.68992 -0.55255 59 53 58
-0.03571 -0.70105 -0.55165 58 51 51
1.57403 -2.33343 -0.89017 65 67 54
1.57740 -2.31325 -0.89180 63 69 61
1.56965 -2.32303 -0.89926 67 74 55
1.58615 -2.33405 -0.87362 76 76 77
1.57065 -2.35360 -0.88854 87 89 86
1.55599 -2.32999 -0.86108 74 78 75
1.55264 -2.35000 -0.85946 85 90 85
1.53989 -2.32762 -0.83391 83 90 79
1.53656 -2.34748 -0.83230 92 95 92
1.48928 -2.30363 -0.77645 97 97 89
1.48602 -2.32309 -0.77487 94 101 99
1.63781 -2.45792 -0.80347 64 73 73
1.62562 -2.45729 -0.82011 59 62 72
1.65033 -2.47364 -0.80118 72 77 75
1.65910 -2.48696 -0.79566 86 94 88
1.65569 -2.50734 -0.79402 97 101 106
1.66946 -2.50134 -0.79143 95 106 107
1.66604 -2.52176 -0.78978 106 112 105
1.68391 -2.51844 -0.79053 106 118 112
1.68047 -2.53893 -0.78887 112 117 101
1.74048 -2.63234 -0.70776 174 188 157
1.73887 -2.64631 -0.68106 106 106 107
1.76035 -2.66863 -0.68496 135 153 141
1.75690 -2.68925 -0.68329 142 151 145
-0.12648 -0.60508 -0.53701 250 251 248
-0.12470 -0.59445 -0.53787 254 254 254
-0.12878 -0.59960 -0.54180 253 254 253
-0.12307 -0.61053 -0.53442 235 237 229
-0.11023 -0.61580 -0.55058 204 192 184
-0.10589 -0.62130 -0.54974 156 122 134
-0.07117 -0.66610 -0.54161 105 101 84
-0.07354 -0.66047 -0.54653 109 102 96
-0.06466 -0.67185 -0.54458 96 92 69
-0.05495 -0.67776 -0.55353 80 73 57
-0.05680 -0.68880 -0.55263 57 51 48
-0.05038 -0.68354 -0.55268 61 58 55
-0.05223 -0.69460 -0.55178 57 51 50
1.56628 -2.34320 -0.89762 85 85 80
1.55416 -2.34258 -0.91417 80 85 83
1.55853 -2.35298 -0.90508 86 87 92
1.56290 -2.36338 -0.89599 87 89 92
1.62503 -2.46451 -0.80673 58 70 76
1.61287 -2.46389 -0.82334 58 60 65
1.63839 -2.48080 -0.80520 80 92 81
1.63499 -2.50112 -0.80356 95 100 97
1.64168 -2.49054 -0.79511 93 98 96
1.69393 -2.55549 -0.78708 112 113 94
1.70532 -2.57073 -0.78350 110 110 94
1.71770 -2.57136 -0.76660 119 126 119
1.73550 -2.65185 -0.70489 83 78 122
1.72314 -2.65122 -0.72176 141 134 135
1.72760 -2.66182 -0.71249 75 67 79
1.74183 -2.66375 -0.69709 99 108 133
1.73839 -2.68433 -0.69542 134 142 145
1.76466 -2.68712 -0.70206 142 149 152
1.76119 -2.70783 -0.70039 135 143 138
2.16132 -3.62785 0.11817 123 128 128
2.15683 -3.61717 0.10883 125 119 118
2.16927 -3.61780 0.12582 140 142 121
2.17376 -3.62848 0.13516 135 138 136
2.16581 -3.63852 0.12750 132 135 131
2.15785 -3.64856 0.11984 150 151 129
-0.13874 -0.59941 -0.54323 252 253 251
-0.13697 -0.58881 -0.54409 254 254 254
-0.14104 -0.59395 -0.54800 254 254 254
-0.13467 -0.59427 -0.53932 254 254 254
-0.13396 -0.60479 -0.54350 241 242 235
-0.12610 -0.61011 -0.54995 215 211 200
-0.11822 -0.61550 -0.55632 174 152 148
-0.12002 -0.62623 -0.55545 108 93 90
-0.11368 -0.62099 -0.55592 123 95 99
-0.11548 -0.63175 -0.55505 115 102 89
-0.10892 -0.62651 -0.55592 101 86 87
-0.11072 -0.63729 -0.55504 114 103 91
-0.10444 -0.63205 -0.55532 108 97 91
-0.10624 -0.64285 -0.55444 111 101 90
-0.08375 -0.66006 -0.54843 106 100 83
-0.08610 -0.65445 -0.55333 110 102 84
-0.07983 -0.66571 -0.54653 99 95 81
-0.07013 -0.67155 -0.55573 89 83 76
-0.07196 -0.68253 -0.55484 63 55 60
-0.06501 -0.67730 -0.55602 72 62 68
-0.06685 -0.68831 -0.55513 59 53 51
1.63992 -2.51194 -0.79485 95 98 102
1.64953 -2.52588 -0.79006 110 113 106
1.62918 -2.51981 -0.76025 129 136 124
1.60520 -2.51116 -0.72764 154 162 140
1.62621 -2.53270 -0.73240 168 175 141
1.63940 -2.54904 -0.73059 166 173 132
1.73966 -2.67773 -0.70920 118 135 137
1.73621 -2.69835 -0.70753 137 149 148
2.14406 -3.62953 0.11461 149 152 132
2.13165 -3.62890 0.09767 142 154 133
2.13613 -3.63954 0.10698 161 169 136
-0.14999 -0.59373 -0.55134 253 254 252
-0.14822 -0.58317 -0.55220 254 254 254
-0.15228 -0.58829 -0.55610 254 254 254
-0.14593 -0.58861 -0.54744 254 254 254
-0.14649 -0.59913 -0.54908 248 248 245
-0.14251 -0.60453 -0.54777 230 233 223
-0.12319 -0.61514 -0.56812 138 102 101
-0.12042 -0.62067 -0.56418 105 84 90
-0.12222 -0.63142 -0.56331 114 103 94
-0.09102 -0.65971 -0.55592 103 99 76
-0.08920 -0.64883 -0.55680 110 102 88
-0.09338 -0.65410 -0.56083 109 100 82
-0.08229 -0.66548 -0.56345 90 88 70
-0.07657 -0.67122 -0.56502 79 71 60
-0.07841 -0.68219 -0.56413 59 55 53
-0.07081 -0.67699 -0.56661 68 59 60
-0.07265 -0.68800 -0.56572 57 52 54
1.59424 -2.47406 -0.80857 79 94 95
1.58458 -2.47514 -0.78748 100 102 98
1.59883 -2.49207 -0.78689 102 98 101
1.58051 -2.49464 -0.74598 145 166 161
1.57864 -2.50073 -0.73181 179 202 195
1.58261 -2.51074 -0.72258 209 223 208
1.57929 -2.53061 -0.72097 215 226 229
1.69532 -2.64728 -0.71345 101 97 107
1.69874 -2.62686 -0.71510 174 190 176
1.69090 -2.63676 -0.72265 166 173 164
1.71029 -2.66520 -0.71262 82 89 90
1.74041 -2.69382 -0.72366 126 141 139
1.73695 -2.71450 -0.72199 138 146 145
-0.15970 -0.59355 -0.55299 251 251 250
-0.15794 -0.58302 -0.55384 254 254 254
-0.16198 -0.58813 -0.55773 253 254 253
-0.15654 -0.60445 -0.54061 208 200 182
-0.13652 -0.60939 -0.57240 162 128 135
-0.13081 -0.61483 -0.57454 114 79 100
-0.13261 -0.62557 -0.57367 114 102 88
-0.10273 -0.65373 -0.56414 103 100 75
-0.10508 -0.64814 -0.56903 107 101 82
-0.09856 -0.64847 -0.56013 110 101 89
-0.10455 -0.66458 -0.56326 74 65 64
-0.09383 -0.65945 -0.57222 97 93 62
-0.08652 -0.66520 -0.57705 82 76 61
-0.08835 -0.67617 -0.57616 61 51 62
-0.07877 -0.67661 -0.57302 61 53 58
-0.08061 -0.68761 -0.57213 54 49 44
1.55438 -2.36441 -0.95683 73 79 86
1.56659 -2.36504 -0.94016 76 82 82
1.55879 -2.37489 -0.94767 80 88 82
1.55098 -2.38474 -0.95518 86 97 84
1.57279 -2.46725 -0.81695 59 68 63
1.56692 -2.47078 -0.79904 76 90 99
1.58384 -2.48951 -0.80088 116 126 142
1.57547 -2.49131 -0.78092 150 167 163
1.57208 -2.49641 -0.76532 166 177 150
1.56985 -2.50225 -0.75078 157 139 143
1.57077 -2.51020 -0.73896 159 149 190
1.58049 -2.52413 -0.73455 196 213 234
1.59401 -2.54802 -0.72067 221 227 225
1.58635 -2.55768 -0.72804 224 234 234
1.59067 -2.56796 -0.71906 228 235 231
1.60310 -2.56158 -0.71562 227 232 224
1.62443 -2.58366 -0.72058 218 221 208
1.63650 -2.58428 -0.70409 161 165 144
1.62878 -2.59402 -0.71152 198 202 195
1.67262 -2.63935 -0.72178 124 114 137
1.67602 -2.61900 -0.72342 179 199 188
1.66821 -2.62886 -0.73094 174 174 183
1.66039 -2.63872 -0.73847 163 159 172
1.68367 -2.65451 -0.71794 72 65 97
1.68976 -2.66620 -0.71009 92 112 113
1.72346 -2.69746 -0.72415 129 144 140
1.72001 -2.71807 -0.72248 140 146 147
-0.17085 -0.58793 -0.56099 252 254 252
-0.16909 -0.57742 -0.56184 254 254 254
-0.17313 -0.58251 -0.56572 254 254 254
-0.16682 -0.58284 -0.55710 254 254 254
-0.16779 -0.59331 -0.55792 244 246 239
-0.16765 -0.59881 -0.54868 221 218 204
-0.15794 -0.60397 -0.55950 177 151 153
-0.15971 -0.61454 -0.55865 105 91 88
-0.14574 -0.60914 -0.57536 121 96 100
-0.14753 -0.61981 -0.57450 114 104 88
-0.14181 -0.61460 -0.57391 101 89 88
-0.14360 -0.62529 -0.57305 115 104 92
-0.13453 -0.62003 -0.57933 110 97 93
-0.13633 -0.63077 -0.57846 113 102 95
-0.11355 -0.64778 -0.57401 106 103 75
-0.11173 -0.63695 -0.57489 113 103 89
-0.11589 -0.64220 -0.57889 111 103 83
-0.10939 -0.64253 -0.57001 111 101 85
-0.10677 -0.65343 -0.57803 97 97 67
-0.10086 -0.65911 -0.58024 87 84 64
-0.08655 -0.67064 -0.58939 63 54 64
-0.09078 -0.67598 -0.59346 56 53 56
-0.08839 -0.68165 -0.58850 57 53 55
1.53065 -2.36414 -0.94947 86 93 92
1.52727 -2.38434 -0.94784 87 97 83
1.55044 -2.45977 -0.82434 67 71 69
1.55379 -2.43977 -0.82596 75 81 76
1.54611 -2.44946 -0.83335 68 71 73
1.56053 -2.47393 -0.82037 86 93 96
1.57828 -2.49326 -0.82304 137 151 147
1.56438 -2.49132 -0.79812 179 189 173
1.56462 -2.49886 -0.78558 160 154 125
1.54364 -2.49195 -0.75487 131 81 69
1.54105 -2.49745 -0.74008 127 35 62
1.54748 -2.50910 -0.73301 130 44 96
1.52740 -2.50252 -0.70354 160 129 177
1.58035 -2.54624 -0.73562 204 216 237
1.61012 -2.58880 -0.72256 224 228 223
1.59807 -2.58818 -0.73901 230 238 237
1.62528 -2.60671 -0.72241 205 208 206
1.66946 -2.65250 -0.73309 97 82 110
1.67211 -2.66175 -0.72247 83 78 82
1.71137 -2.70447 -0.72843 138 147 133
1.70792 -2.72505 -0.72677 149 148 136
-0.17941 -0.58772 -0.56481 250 250 248
-0.17765 -0.57723 -0.56565 254 254 254
-0.18168 -0.58231 -0.56953 253 254 253
-0.17691 -0.59311 -0.56056 233 240 229
-0.15933 -0.60348 -0.57864 143 102 102
-0.12172 -0.64744 -0.57950 106 98 73
-0.11991 -0.63662 -0.58037 111 102 90
-0.12407 -0.64186 -0.58437 109 101 88
-0.11367 -0.65309 -0.58620 93 92 58
-0.10471 -0.65882 -0.59464 77 77 59
-0.10654 -0.66976 -0.59376 61 57 51
-0.09923 -0.66454 -0.59597 65 60 63
-0.10107 -0.67551 -0.59508 55 52 46
1.53937 -2.46718 -0.82872 99 116 105
1.58031 -2.50217 -0.85200 149 167 156
1.55063 -2.48953 -0.81301 196 210 202
1.55957 -2.50297 -0.80802 210 218 203
1.55950 -2.51028 -0.79517 165 141 122
1.53061 -2.49782 -0.75750 143 54 47
1.53589 -2.50868 -0.74945 182 42 67
1.53258 -2.52844 -0.74785 193 21 53
1.52825 -2.51064 -0.73038 205 51 106
1.54172 -2.52716 -0.72933 187 73 118
1.52220 -2.52077 -0.70034 185 156 177
1.60516 -2.58584 -0.75765 220 233 239
1.62254 -2.61268 -0.74670 224 228 223
1.63543 -2.62910 -0.74463 205 204 197
1.63069 -2.63307 -0.72800 145 136 145
1.65466 -2.65742 -0.73492 70 60 84
1.65208 -2.66290 -0.72008 96 109 95
1.64868 -2.68319 -0.71843 137 140 134
1.67006 -2.68309 -0.72192 136 144 138
-0.19227 -0.58223 -0.56879 252 252 251
-0.19052 -0.57180 -0.56964 254 254 254
-0.19453 -0.57685 -0.57350 254 254 254
-0.18826 -0.57717 -0.56494 254 254 254
-0.18819 -0.58752 -0.56803 239 244 232
-0.18677 -0.59295 -0.56149 213 204 182
-0.17017 -0.59776 -0.58751 164 132 143
-0.16838 -0.60324 -0.58167 114 82 98
-0.17015 -0.61383 -0.58081 113 104 86
-0.13260 -0.64152 -0.58903 102 100 85
-0.13494 -0.63596 -0.59389 108 101 87
-0.12845 -0.63629 -0.58504 109 102 95
-0.12735 -0.64711 -0.59016 97 93 78
-0.11998 -0.65276 -0.59558 84 78 73
-0.12180 -0.66363 -0.59470 59 58 59
-0.11263 -0.65846 -0.60087 68 64 65
-0.11446 -0.66939 -0.59999 56 55 53
-0.10487 -0.66422 -0.60690 63 60 57
-0.10671 -0.67520 -0.60601 54 53 49
1.25887 -1.86083 -1.34603 19 22 30
1.26219 -1.84100 -1.34763 14 19 16
1.25458 -1.85061 -1.35496 13 17 15
1.24696 -1.86022 -1.36229 16 21 21
1.25126 -1.87044 -1.35336 14 16 19
1.27079 -1.86144 -1.32977 32 36 37
1.26322 -1.87107 -1.33716 28 31 37
1.27514 -1.87168 -1.32089 30 36 36
1.26752 -1.88129 -1.32822 28 34 33
1.56773 -2.50126 -0.86823 130 153 157
1.52573 -2.48015 -0.81797 179 199 198
1.55141 -2.50499 -0.82786 210 223 222
1.54805 -2.52505 -0.82624 222 231 232
1.54097 -2.50520 -0.80585 222 228 224
1.50162 -2.48543 -0.75875 205 194 173
1.51932 -2.50483 -0.76158 165 100 74
1.52588 -2.51658 -0.75467 167 31 39
1.53739 -2.53899 -0.73940 179 36 57
1.51571 -2.53097 -0.70844 174 123 143
1.60350 -2.59987 -0.77022 209 214 237
1.61079 -2.61233 -0.76359 222 228 230
1.61727 -2.62423 -0.75624 214 219 215
1.63959 -2.64742 -0.76205 187 184 183
1.63594 -2.65215 -0.74622 120 101 123
1.63651 -2.65986 -0.73394 91 91 98
1.64613 -2.67406 -0.72908 126 145 123
1.64273 -2.69436 -0.72744 151 150 137
-0.20075 -0.58204 -0.57251 245 247 243
-0.19901 -0.57162 -0.57335 254 254 254
-0.20301 -0.57667 -0.57720 253 254 252
-0.20475 -0.58708 -0.57636 200 174 171
-0.20249 -0.59245 -0.57167 139 108 120
-0.19310 -0.58713 -0.57959 225 230 214
-0.18665 -0.59233 -0.58398 182 157 142
-0.18841 -0.60285 -0.58312 106 91 88
-0.17733 -0.59747 -0.59448 125 95 90
-0.17910 -0.60806 -0.59363 114 100 88
-0.17101 -0.60279 -0.59840 102 82 89
-0.17279 -0.61342 -0.59754 113 101 86
-0.14098 -0.64118 -0.59392 99 96 72
-0.13918 -0.63041 -0.59479 111 101 79
-0.14331 -0.63563 -0.59878 106 100 80
-0.13146 -0.64680 -0.60402 88 81 69
-0.13327 -0.65765 -0.60314 60 54 58
-0.12158 -0.65249 -0.61471 73 63 63
-0.12341 -0.66342 -0.61383 57 56 55
-0.11816 -0.65814 -0.61196 63 58 59
-0.11999 -0.66908 -0.61107 54 54 53
1.26370 -1.88481 -1.35421 19 22 22
1.25174 -1.88419 -1.37052 15 18 14
1.25605 -1.89445 -1.36156 15 18 13
1.26037 -1.90470 -1.35259 14 23 21
1.26010 -1.89101 -1.33579 21 30 28
1.27202 -1.89162 -1.31953 34 39 39
1.26818 -1.90318 -1.33135 26 36 34
1.28011 -1.90379 -1.31506 37 43 43
1.27248 -1.91341 -1.32240 32 39 40
1.41399 -2.36877 -0.81965 72 82 80
1.41723 -2.34942 -0.82122 75 76 71
1.40980 -2.35880 -0.82837 72 65 82
1.42142 -2.35939 -0.81250 65 69 61
1.42212 -2.38853 -0.80198 96 99 94
1.53687 -2.50267 -0.84209 174 197 215
1.52102 -2.49910 -0.81514 212 225 229
1.51769 -2.51899 -0.81353 222 230 236
1.51820 -2.51167 -0.78718 222 226 217
1.51059 -2.52126 -0.79449 225 231 233
1.49704 -2.50415 -0.75603 198 182 151
1.51445 -2.52346 -0.75862 162 104 71
1.51693 -2.53236 -0.74819 153 79 77
1.52073 -2.54218 -0.73892 176 139 141
1.57969 -2.59099 -0.77678 202 201 197
1.59140 -2.60656 -0.77398 210 220 232
1.60506 -2.62357 -0.77277 206 217 218
1.62428 -2.64459 -0.77614 191 197 184
1.62242 -2.65057 -0.76174 143 138 126
1.61902 -2.67084 -0.76010 84 90 93
1.61761 -2.65439 -0.74495 85 78 80
1.62320 -2.66568 -0.73685 90 92 92
1.61000 -2.66336 -0.71328 136 148 131
1.60664 -2.68345 -0.71165 157 161 152
-0.21370 -0.57663 -0.57587 252 252 250
-0.21196 -0.56626 -0.57671 254 254 254
-0.21594 -0.57129 -0.58054 253 254 253
-0.20971 -0.57161 -0.57203 254 254 254
-0.20919 -0.58184 -0.57621 237 244 232
-0.18365 -0.59714 -0.60327 102 84 97
-0.18542 -0.60773 -0.60241 111 102 91
-0.14664 -0.64086 -0.60448 95 91 64
-0.13793 -0.64647 -0.61301 77 73 64
-0.13975 -0.65731 -0.61213 58 55 56
-0.12900 -0.65215 -0.62189 63 58 66
-0.13083 -0.66306 -0.62101 56 53 53
1.25668 -1.91079 -1.33407 20 29 24
1.24477 -1.91018 -1.35033 17 22 14
1.24906 -1.92040 -1.34140 19 22 16
1.26305 -1.92209 -1.32760 29 34 37
1.27497 -1.92270 -1.31132 36 40 36
1.26735 -1.93232 -1.31865 41 40 40
1.25973 -1.94194 -1.32599 38 39 40
1.31825 -2.07020 -1.18315 35 39 42
1.32156 -2.05042 -1.18475 39 42 44
1.31396 -2.06001 -1.19206 36 42 52
1.30637 -2.06959 -1.19937 35 41 46
1.31065 -2.07978 -1.19046 39 43 43
1.33013 -2.07080 -1.16694 19 23 26
1.31686 -2.07712 -1.16800 26 31 31
1.32872 -2.07773 -1.15182 22 30 31
1.32114 -2.08729 -1.15911 23 30 24
1.31356 -2.09685 -1.16640 31 34 18
1.36142 -2.32663 -0.82216 100 95 76
1.36462 -2.30753 -0.82370 80 86 80
1.35728 -2.31678 -0.83076 88 91 81
1.36876 -2.31737 -0.81510 86 85 78
1.37290 -2.32721 -0.80649 84 85 78
1.37457 -2.34248 -0.82203 82 81 79
1.38349 -2.35554 -0.81785 70 68 91
1.38141 -2.36832 -0.79092 122 138 112
1.41103 -2.39543 -0.80577 76 82 77
1.46472 -2.45350 -0.81697 20 31 50
1.45719 -2.46301 -0.82422 20 28 39
1.54606 -2.52405 -0.86465 139 167 196
1.50465 -2.50268 -0.81470 205 224 235
1.50133 -2.52250 -0.81309 223 234 240
1.49148 -2.51505 -0.76502 224 228 216
1.47969 -2.51445 -0.78112 225 232 236
1.48394 -2.52456 -0.77228 223 230 230
1.48820 -2.53468 -0.76343 218 224 221
1.49651 -2.52571 -0.75685 213 209 180
1.52340 -2.55184 -0.76768 205 199 179
1.54540 -2.57461 -0.77406 209 214 210
1.56430 -2.59526 -0.77761 207 219 219
1.58949 -2.62050 -0.78642 192 201 206
1.60601 -2.63962 -0.78765 169 172 176
1.60604 -2.64692 -0.77482 142 145 147
1.60861 -2.65604 -0.76417 110 116 116
1.60634 -2.66886 -0.73675 101 108 109
1.60828 -2.67748 -0.72566 140 152 147
1.60491 -2.69761 -0.72403 152 163 154
-0.22450 -0.57113 -0.58378 253 253 252
-0.22277 -0.56079 -0.58461 254 254 254
-0.22674 -0.56580 -0.58844 254 254 254
-0.22052 -0.56612 -0.57995 254 254 254
-0.22110 -0.57639 -0.58172 242 248 238
-0.21592 -0.58155 -0.58362 218 207 197
-0.20473 -0.58643 -0.59890 169 130 152
-0.19652 -0.59156 -0.60736 113 79 94
-0.19177 -0.59689 -0.60806 97 84 77
-0.19354 -0.60746 -0.60720 111 103 88
-0.15974 -0.63498 -0.60899 102 94 79
-0.15795 -0.62424 -0.60986 110 99 86
-0.16207 -0.62944 -0.61383 108 97 90
-0.15229 -0.64053 -0.61509 89 79 72
-0.15410 -0.65132 -0.61421 61 54 62
-0.14335 -0.64614 -0.62425 73 63 67
-0.14516 -0.65700 -0.62337 59 56 50
-0.13690 -0.65179 -0.62801 61 57 60
-0.13872 -0.66270 -0.62713 57 55 47
1.33117 -2.30649 -0.83236 94 99 80
1.33435 -2.28750 -0.83390 88 95 88
1.32706 -2.29670 -0.84092 87 92 89
1.33847 -2.29728 -0.82534 89 94 74
1.33945 -2.31905 -0.82778 97 100 93
1.34120 -2.32727 -0.81696 107 115 107
1.35680 -2.34478 -0.81927 60 65 92
1.35037 -2.35449 -0.78829 132 173 162
1.38345 -2.38398 -0.80673 117 125 106
1.44245 -2.43132 -0.84891 52 45 46
1.44810 -2.44239 -0.84137 20 22 41
1.43856 -2.45724 -0.79461 18 30 62
1.42687 -2.45665 -0.81056 18 23 38
1.49131 -2.50829 -0.81688 190 214 228
1.50695 -2.55513 -0.76726 209 218 213
1.53335 -2.58112 -0.77760 194 202 203
1.54780 -2.59865 -0.77741 172 173 185
1.57264 -2.62373 -0.78606 149 148 165
1.59184 -2.65208 -0.77684 116 128 135
1.58846 -2.67227 -0.77521 79 79 92
1.59372 -2.66066 -0.76562 98 101 113
1.61159 -2.68093 -0.76789 84 84 98
1.59618 -2.67685 -0.74217 110 120 117
1.59280 -2.69699 -0.74054 149 159 149
1.58571 -2.67632 -0.72076 141 151 147
1.58236 -2.69635 -0.71914 147 155 148
-0.22470 -0.57590 -0.59617 228 232 211
-0.21718 -0.58094 -0.60341 186 159 148
-0.21893 -0.59138 -0.60257 106 91 90
-0.20952 -0.58603 -0.61089 125 99 100
-0.21128 -0.59653 -0.61004 114 102 90
-0.20449 -0.59131 -0.61235 98 85 94
-0.20625 -0.60184 -0.61150 112 104 91
-0.20088 -0.59668 -0.61056 106 96 88
-0.20265 -0.60722 -0.60970 109 104 94
-0.19658 -0.60204 -0.61031 111 105 85
-0.19835 -0.61260 -0.60945 109 101 90
-0.17018 -0.62913 -0.61904 104 98 76
-0.16838 -0.61841 -0.61990 109 99 84
-0.17250 -0.62360 -0.62387 107 99 87
-0.16606 -0.62393 -0.61507 107 98 87
-0.16626 -0.63465 -0.61766 92 89 74
-0.15934 -0.64019 -0.62271 73 72 75
-0.16115 -0.65098 -0.62184 62 53 56
-0.15136 -0.64580 -0.62996 64 58 72
-0.15318 -0.65664 -0.62908 59 52 51
1.07949 -1.73746 -1.34216 13 14 7
1.08267 -1.71849 -1.34370 13 13 11
1.06809 -1.73688 -1.35773 25 26 21
1.08678 -1.72827 -1.33515 8 8 7
1.09089 -1.73805 -1.32660 8 7 5
1.08360 -1.74724 -1.33361 10 8 5
1.21779 -1.93306 -1.29222 27 34 30
1.20604 -1.93246 -1.30827 25 24 17
1.22955 -1.93366 -1.27617 41 42 41
1.22203 -1.94314 -1.28341 35 42 38
1.27075 -2.08563 -1.13466 35 39 28
1.25906 -2.08504 -1.15061 43 45 46
1.28244 -2.08623 -1.11870 24 28 19
1.27496 -2.09566 -1.12589 24 28 26
1.31759 -2.30445 -0.84583 77 86 90
1.32076 -2.28548 -0.84736 87 90 92
1.31348 -2.29468 -0.85438 83 83 69
1.33233 -2.32135 -0.84756 103 113 120
1.34149 -2.33455 -0.84381 121 131 122
1.36361 -2.36361 -0.83979 45 43 60
1.35596 -2.37249 -0.80744 98 129 144
1.35766 -2.38065 -0.79656 105 106 99
1.46671 -2.46271 -0.88579 57 45 36
1.44774 -2.45686 -0.85527 33 33 40
1.44411 -2.46151 -0.83912 25 30 37
1.43437 -2.46897 -0.80480 12 17 47
1.44339 -2.48238 -0.80038 96 116 143
1.46549 -2.50503 -0.80774 188 212 224
1.46992 -2.51527 -0.79904 217 230 235
1.47096 -2.52312 -0.78731 214 222 227
1.47317 -2.53177 -0.77665 207 217 217
1.47995 -2.54369 -0.77006 193 202 195
1.47666 -2.56332 -0.76847 129 139 149
1.49696 -2.56296 -0.77244 171 176 175
1.52596 -2.59095 -0.78519 146 150 166
1.59175 -2.68189 -0.76519 93 105 117
1.58971 -2.68755 -0.75069 134 152 144
1.58634 -2.70770 -0.74906 138 154 145
-0.24535 -0.56564 -0.59105 252 252 250
-0.24363 -0.55537 -0.59189 254 254 254
-0.24758 -0.56035 -0.59568 253 254 253
-0.24140 -0.56066 -0.58726 254 254 254
-0.24103 -0.57079 -0.59125 238 245 234
-0.22885 -0.57544 -0.60949 203 182 175
-0.23059 -0.58585 -0.60865 102 88 100
-0.21891 -0.58588 -0.61248 107 84 97
-0.22293 -0.59095 -0.61634 110 100 99
-0.22066 -0.59634 -0.61163 113 103 93
-0.17764 -0.62881 -0.62557 98 94 72
-0.17219 -0.63432 -0.62760 86 76 69
-0.17399 -0.64506 -0.62673 62 53 64
-0.16553 -0.63986 -0.63219 74 59 66
-0.16734 -0.65065 -0.63132 60 54 57
1.06976 -1.74546 -1.34600 20 22 13
1.05837 -1.74488 -1.36155 28 27 28
1.06248 -1.75465 -1.35301 24 26 22
1.07254 -1.75457 -1.33574 14 14 6
1.08392 -1.75516 -1.32020 8 8 7
1.07664 -1.76434 -1.32720 11 10 6
1.06937 -1.77352 -1.33421 14 14 10
1.17717 -1.93215 -1.24586 31 39 36
1.18874 -1.93274 -1.23006 35 42 41
1.18134 -1.94208 -1.23718 36 43 42
1.17394 -1.95141 -1.24430 37 43 42
1.24419 -2.09114 -1.10724 34 34 35
1.25576 -2.09173 -1.09144 20 23 28
1.23253 -2.09154 -1.08110 31 29 29
1.24403 -2.09213 -1.06540 23 24 27
1.23668 -2.10141 -1.07247 24 26 19
1.23521 -2.11517 -1.04461 36 37 27
1.23108 -2.10534 -1.05319 24 28 22
1.24253 -2.10593 -1.03756 36 41 38
1.22789 -2.12441 -1.05165 31 28 16
1.24666 -2.11575 -1.02897 41 46 44
1.24181 -2.12651 -1.03869 45 46 32
1.25327 -2.12709 -1.02303 46 50 51
1.26036 -2.14524 -1.04561 47 52 43
1.27190 -2.14582 -1.02986 53 54 54
1.26452 -2.15513 -1.03696 51 55 49
1.10618 -2.10433 -0.78260 44 48 52
1.10915 -2.08659 -0.78404 58 62 56
1.10234 -2.09519 -0.79060 32 36 43
1.09552 -2.10379 -0.79715 10 11 25
1.11300 -2.09573 -0.77604 66 71 64
1.11684 -2.10488 -0.76805 67 71 58
1.10322 -2.10910 -0.76760 56 61 58
1.11385 -2.10964 -0.75309 69 73 61
1.11652 -2.12433 -0.76932 65 69 64
1.12719 -2.12488 -0.75475 76 77 73
1.14204 -2.14756 -0.78339 74 84 69
1.15282 -2.14811 -0.76868 79 84 81
1.23643 -2.22969 -0.84212 75 83 76
1.24356 -2.22070 -0.83526 79 83 76
1.24424 -2.24176 -0.83754 65 59 60
1.26008 -2.25918 -0.84088 56 65 67
1.30737 -2.30467 -0.86256 84 97 85
1.31650 -2.31782 -0.85890 73 94 102
1.32806 -2.33264 -0.85756 110 114 125
1.33437 -2.34395 -0.85107 124 120 113
1.34406 -2.35756 -0.84781 77 76 64
1.34085 -2.37670 -0.84626 34 33 36
1.37708 -2.38715 -0.86684 38 34 34
1.36824 -2.38818 -0.84570 16 29 35
1.35875 -2.38870 -0.82408 56 67 95
1.33823 -2.38152 -0.79220 104 109 115
1.34193 -2.39100 -0.78326 99 99 93
1.41818 -2.45105 -0.84201 84 73 60
1.43992 -2.47336 -0.84948 56 48 30
1.42241 -2.47525 -0.80789 49 53 83
1.44848 -2.50074 -0.81909 131 155 180
1.44318 -2.50406 -0.80158 196 219 227
1.44725 -2.51401 -0.79263 205 220 221
1.44868 -2.52207 -0.78131 193 201 204
1.44541 -2.54159 -0.77974 134 139 155
1.47175 -2.54566 -0.78936 174 176 181
1.46845 -2.56532 -0.78777 123 136 144
1.49385 -2.56866 -0.79639 150 153 159
1.49054 -2.58845 -0.79479 110 123 126
1.64943 -2.71814 -0.86796 73 69 89
1.58983 -2.68881 -0.79049 88 99 94
1.58406 -2.69172 -0.77270 108 129 134
1.58068 -2.71191 -0.77107 139 165 147
1.59354 -2.70593 -0.76793 137 156 150
1.59016 -2.72616 -0.76630 134 147 141
-0.25756 -0.56035 -0.59513 252 253 251
-0.25585 -0.55012 -0.59596 254 254 254
-0.25978 -0.55508 -0.59974 254 254 254
-0.25363 -0.55539 -0.59135 254 254 254
-0.25438 -0.56555 -0.59278 244 248 237
-0.24823 -0.57054 -0.59733 221 216 192
-0.25646 -0.57653 -0.56843 175 142 148
-0.25816 -0.58670 -0.56760 110 98 97
-0.23244 -0.58046 -0.61428 120 89 111
-0.23418 -0.59087 -0.61343 116 105 99
-0.19814 -0.61763 -0.62290 107 98 81
-0.20044 -0.61217 -0.62768 112 101 85
-0.19338 -0.62306 -0.62362 100 96 70
-0.18672 -0.62850 -0.62848 90 82 69
-0.18851 -0.63919 -0.62762 62 56 68
-0.18053 -0.63399 -0.63223 73 64 70
-0.18233 -0.64472 -0.63137 60 54 63
-0.17772 -0.63952 -0.62849 64 54 68
-0.17951 -0.65025 -0.62762 58 52 56
1.05230 -1.65521 -1.50964 16 18 21
1.04811 -1.64526 -1.51833 10 11 14
1.04070 -1.65461 -1.52546 7 8 10
1.05971 -1.64586 -1.50250 20 23 21
1.06389 -1.65580 -1.49381 24 27 33
1.05648 -1.66515 -1.50094 24 25 36
1.06324 -1.76275 -1.34012 19 21 14
1.05187 -1.76217 -1.35564 27 28 33
1.05597 -1.77192 -1.34712 22 26 28
1.22849 -2.09546 -1.10511 45 44 41
1.21695 -2.09487 -1.12085 50 52 51
1.22111 -2.10476 -1.11220 50 52 48
1.22527 -2.11466 -1.10355 46 51 42
1.22119 -2.09839 -1.08374 44 44 35
1.22063 -2.10537 -1.06994 35 40 25
1.22410 -2.11479 -1.06062 29 33 21
1.23498 -2.13607 -1.04629 32 29 20
1.22765 -2.14532 -1.05334 20 14 15
1.24719 -2.15093 -1.04643 34 35 35
1.25927 -2.16576 -1.04634 43 47 47
1.27081 -2.16635 -1.03058 52 55 50
1.26343 -2.17566 -1.03768 55 60 57
1.10277 -2.12179 -0.78071 28 32 45
1.09931 -2.12617 -0.76519 36 41 50
1.12158 -2.14736 -0.77611 52 59 53
1.17579 -2.18965 -0.81938 67 73 71
1.19528 -2.20931 -0.82694 75 88 86
1.22566 -2.23628 -0.84531 64 74 73
1.21951 -2.23906 -0.82676 48 42 47
1.23424 -2.25575 -0.82915 40 45 42
1.28262 -2.30208 -0.85232 52 66 77
1.27946 -2.32093 -0.85079 48 54 65
1.30978 -2.32743 -0.86651 75 87 98
1.33050 -2.34853 -0.87417 109 110 120
1.32729 -2.36768 -0.87262 51 51 73
1.32834 -2.35409 -0.85940 98 93 98
1.37222 -2.40538 -0.86372 22 27 30
1.36479 -2.41476 -0.87087 19 26 22
1.34993 -2.39697 -0.82976 43 55 64
1.33378 -2.39268 -0.80189 91 105 131
1.33421 -2.39989 -0.78986 150 166 166
1.35813 -2.42359 -0.79991 159 163 140
1.42626 -2.48565 -0.83826 124 123 106
1.42299 -2.50521 -0.83667 190 206 199
1.43067 -2.49585 -0.82960 147 162 160
1.42647 -2.49991 -0.81304 184 206 211
1.43134 -2.51042 -0.80484 194 206 209
1.42807 -2.52992 -0.80326 135 140 159
1.44745 -2.52901 -0.80685 177 178 187
1.44417 -2.54861 -0.80527 123 132 152
1.66764 -2.74758 -0.89845 84 95 100
1.66413 -2.76854 -0.89675 138 147 151
1.59273 -2.70659 -0.80719 136 142 123
1.58932 -2.72694 -0.80554 135 143 138
1.58954 -2.71140 -0.79151 134 151 144
1.58614 -2.73169 -0.78987 135 144 142
-0.26461 -0.56011 -0.60138 248 250 246
-0.26290 -0.54989 -0.60221 254 254 254
-0.26683 -0.55484 -0.60598 253 254 253
-0.27075 -0.55980 -0.60976 240 244 237
-0.26102 -0.56527 -0.60003 231 237 218
-0.24434 -0.57500 -0.61954 133 103 100
-0.24010 -0.58023 -0.61952 104 88 95
-0.24184 -0.59062 -0.61867 115 105 94
-0.20010 -0.62274 -0.63160 94 92 63
-0.19567 -0.62820 -0.63156 79 76 64
-0.19746 -0.63885 -0.63070 61 56 55
-0.19197 -0.63369 -0.62988 68 61 69
-0.19376 -0.64435 -0.62902 59 57 57
1.04391 -1.66411 -1.51541 12 13 18
1.03232 -1.66352 -1.53123 6 8 6
1.03650 -1.67346 -1.52254 8 10 11
1.04831 -1.67415 -1.50703 21 24 31
1.05990 -1.67474 -1.49121 26 30 34
1.05249 -1.68409 -1.49834 25 28 28
1.04508 -1.69344 -1.50546 21 24 21
1.20675 -2.11058 -1.06971 42 49 38
1.19532 -2.10999 -1.08531 42 54 48
1.19944 -2.11979 -1.07674 41 54 49
1.21021 -2.11997 -1.06042 40 44 33
1.22003 -2.13331 -1.05811 32 28 20
1.23154 -2.15500 -1.04448 17 13 25
1.22835 -2.17409 -1.04293 17 15 19
1.23892 -2.16688 -1.03939 24 24 36
1.24931 -2.18070 -1.03752 43 46 51
1.26082 -2.18128 -1.02180 58 61 55
1.24610 -2.19985 -1.03597 49 51 35
1.25913 -2.19418 -1.03497 56 59 54
1.24490 -2.19231 -1.00669 37 37 31
1.25635 -2.19289 -0.99105 20 17 28
1.24903 -2.20213 -0.99810 16 13 19
1.24171 -2.21137 -1.00514 20 15 20
1.12065 -2.14655 -0.81296 11 13 24
1.10988 -2.14600 -0.82767 15 16 16
1.11376 -2.15524 -0.81959 14 14 14
1.11765 -2.16449 -0.81151 12 12 11
1.13360 -2.16846 -0.80214 22 21 27
1.14884 -2.18524 -0.80567 32 36 44
1.18615 -2.21681 -0.83159 41 51 55
1.20769 -2.23800 -0.84116 41 46 52
1.20460 -2.25646 -0.83967 16 13 26
1.20770 -2.24483 -0.82881 29 26 40
1.21573 -2.25705 -0.82457 25 33 36
1.23312 -2.27563 -0.82963 33 42 47
1.23001 -2.29419 -0.82813 33 49 53
1.24504 -2.29057 -0.82913 33 46 54
1.24192 -2.30919 -0.82762 33 46 46
1.38368 -2.43501 -0.87624 20 37 43
1.34404 -2.41423 -0.82566 84 101 126
1.39031 -2.45380 -0.85700 172 193 195
1.39346 -2.46307 -0.84725 203 215 202
1.39914 -2.47412 -0.83987 199 206 189
1.40287 -2.48380 -0.83066 192 206 189
1.41757 -2.50835 -0.81893 178 184 194
1.44161 -2.53270 -0.82838 153 155 171
1.43833 -2.55233 -0.82679 114 126 129
-0.26189 -0.56454 -0.62106 208 196 193
-0.26807 -0.56422 -0.62951 181 155 150
-0.25238 -0.57481 -0.62375 113 82 98
-0.25411 -0.58516 -0.62291 112 107 92
-0.20909 -0.62246 -0.63438 89 82 67
-0.21087 -0.63306 -0.63352 66 61 59
-0.20354 -0.62789 -0.63697 76 67 57
-0.20532 -0.63853 -0.63611 63 58 55
-0.20047 -0.63337 -0.63390 67 58 51
-0.20226 -0.64401 -0.63304 61 55 53
1.19667 -2.12529 -1.06051 49 55 45
1.18527 -2.12470 -1.07606 47 60 59
1.18938 -2.13448 -1.06751 56 64 55
1.20564 -2.13811 -1.05734 47 44 31
1.21700 -2.15247 -1.05674 33 27 22
1.22384 -2.16402 -1.05113 20 17 19
1.23369 -2.18469 -1.03564 31 33 28
1.23049 -2.20379 -1.03409 50 59 31
