ply
format ascii 1.0
element face 0
property list uchar int vertex_indices
element vertex 1318
property float x
property float y
property float z
property uchar diffuse_red
property uchar diffuse_green
property uchar diffuse_blue
end_header
0.62273 0.58986 -1.52391 227 210 187
0.63433 0.57117 -1.50491 219 217 228
0.65716 0.54836 -1.48863 234 232 239
0.65769 0.53041 -1.48694 251 251 251
0.66651 0.54233 -1.48699 238 234 237
0.67152 0.53232 -1.47585 233 227 231
0.68092 0.52628 -1.47423 225 223 231
0.70157 0.50134 -1.45299 217 218 242
0.70907 0.49357 -1.44722 206 204 232
0.70960 0.47558 -1.44552 241 240 241
0.71634 0.48559 -1.44095 172 166 208
0.70141 0.45884 -1.38856 155 123 186
0.73346 0.47177 -1.43373 202 154 195
0.74187 0.46469 -1.42975 238 219 198
0.74750 0.45532 -1.42005 246 239 223
0.74803 0.43730 -1.41835 254 254 253
0.75912 0.45083 -1.42255 250 248 245
0.75966 0.43276 -1.42085 254 254 254
0.76312 0.44014 -1.40957 253 252 251
0.76365 0.42210 -1.40787 254 254 254
0.71447 0.22348 -1.04292 46 33 81
0.70208 0.22203 -1.05385 120 109 123
0.70852 0.21450 -1.04761 52 39 93
0.76744 0.07419 -0.85938 73 105 152
0.76791 0.05817 -0.85787 16 45 96
0.80209 0.07206 -0.88385 53 68 132
0.80257 0.05583 -0.88232 27 48 92
0.83098 0.06619 -0.89804 23 45 106
0.83146 0.04980 -0.89650 29 53 99
0.84435 0.06251 -0.90317 23 44 102
0.84484 0.04606 -0.90162 31 54 104
0.98885 -0.13143 -0.72521 94 117 150
0.97660 -0.13287 -0.73601 90 117 148
0.99834 -0.13764 -0.72340 93 119 143
1.01968 -0.14927 -0.72285 58 92 138
1.04291 -0.17026 -0.70966 65 87 121
1.05802 -0.18445 -0.70026 77 97 115
1.06557 -0.19157 -0.69553 75 87 105
1.07065 -0.20925 -0.67283 52 64 76
1.07113 -0.22566 -0.67129 46 56 68
1.07615 -0.21704 -0.66545 40 49 70
1.09200 -0.22139 -0.67153 85 93 115
1.10307 -0.22740 -0.67128 176 193 193
1.11877 -0.23196 -0.67693 230 234 231
1.11872 -0.24160 -0.66230 232 209 222
1.12318 -0.24976 -0.65351 220 185 200
1.12997 -0.25720 -0.64769 219 184 201
1.14199 -0.26306 -0.64844 227 212 222
1.14635 -0.27124 -0.63953 235 227 227
1.14684 -0.28781 -0.63797 254 254 254
1.13445 -0.28417 -0.61047 249 241 243
1.13493 -0.30058 -0.60892 254 254 254
1.13842 -0.29235 -0.60126 254 250 245
1.14696 -0.29922 -0.59769 254 250 245
1.15749 -0.30555 -0.59653 252 248 240
1.17512 -0.30998 -0.60392 241 236 214
1.18431 -0.31678 -0.60098 217 215 185
1.18483 -0.32590 -0.58758 208 210 208
1.18755 -0.33440 -0.57690 230 247 241
1.18412 -0.34444 -0.55898 238 251 254
1.19643 -0.34300 -0.54811 254 254 254
1.16771 -0.36662 -0.51231 239 251 254
1.17985 -0.36520 -0.50160 254 254 254
1.17402 -0.37399 -0.50619 251 254 254
1.36483 -0.60312 -0.31200 252 251 240
1.35272 -0.60454 -0.32268 252 252 252
1.35901 -0.61190 -0.31658 252 252 250
1.35943 -0.61184 -0.29449 245 235 209
1.34945 -0.62099 -0.27268 231 216 184
1.35172 -0.63660 -0.25088 235 228 203
1.36979 -0.64262 -0.25622 244 247 248
1.38176 -0.64121 -0.24566 253 253 253
1.37601 -0.64989 -0.25019 251 254 254
1.37027 -0.65856 -0.25472 239 246 248
1.39827 -0.68696 -0.21188 253 251 228
1.38635 -0.68836 -0.22240 253 253 253
1.39254 -0.69560 -0.21639 253 253 250
1.43010 -0.69221 -0.22937 243 224 148
1.42677 -0.70025 -0.21455 181 145 49
1.42724 -0.71625 -0.21304 160 136 49
1.44654 -0.71435 -0.20902 92 86 73
1.44653 -0.72207 -0.19733 103 97 90
1.45854 -0.72066 -0.18673 127 120 97
1.44975 -0.72955 -0.18858 121 113 99
1.46175 -0.72815 -0.17800 131 123 105
1.45599 -0.73684 -0.18254 131 121 109
1.22251 -0.79097 0.08591 138 129 101
1.21189 -0.79221 0.07653 127 118 102
0.60849 0.57251 -1.51120 249 242 233
0.59508 0.57094 -1.52303 254 254 252
0.60205 0.56279 -1.51628 254 253 252
0.60901 0.55465 -1.50952 254 253 252
0.61368 0.56265 -1.50041 244 238 234
0.61421 0.54481 -1.49873 254 254 253
0.62057 0.55445 -1.49350 247 245 244
0.62109 0.53661 -1.49182 254 253 253
0.62897 0.54768 -1.48999 249 247 247
0.62950 0.52982 -1.48831 254 254 253
0.63768 0.54117 -1.48713 249 247 247
0.63821 0.52329 -1.48545 254 254 254
0.64690 0.53509 -1.48535 250 249 249
0.64743 0.51719 -1.48367 254 254 254
0.66187 0.51967 -1.47399 250 249 249
0.65541 0.50992 -1.47907 254 254 254
0.66240 0.50175 -1.47230 254 254 253
0.67146 0.51383 -1.47286 249 249 247
0.67199 0.49588 -1.47117 254 254 253
0.68069 0.50763 -1.47089 248 248 246
0.68122 0.48966 -1.46920 254 254 253
0.68857 0.50020 -1.46596 248 248 249
0.68910 0.48221 -1.46426 254 254 253
0.69429 0.49087 -1.45640 248 248 250
0.69482 0.47291 -1.45471 254 254 253
0.70034 0.48185 -1.44756 246 246 247
0.70087 0.46389 -1.44587 254 254 253
0.70919 0.46113 -1.42321 240 235 239
0.70274 0.45140 -1.42830 254 254 253
0.70972 0.44323 -1.42153 254 254 254
0.71441 0.45150 -1.41279 249 243 248
0.71494 0.43362 -1.41110 254 254 254
0.72047 0.44259 -1.40413 253 251 248
0.72099 0.42472 -1.40245 254 254 254
0.72788 0.43480 -1.39828 254 253 251
0.72841 0.41693 -1.39659 254 254 254
0.73388 0.28128 -1.16966 240 251 252
0.72108 0.27978 -1.18095 197 191 241
0.72981 0.26590 -1.14298 216 224 228
0.73031 0.24896 -1.14138 203 200 182
0.72636 0.09953 -0.88718 77 120 184
0.75428 0.08308 -0.88473 51 64 136
0.75475 0.06701 -0.88322 29 42 92
0.98672 -0.14876 -0.72002 87 114 142
0.98721 -0.16505 -0.71849 80 97 131
0.99573 -0.15517 -0.71756 72 100 140
1.01493 -0.16764 -0.71411 68 88 124
1.01541 -0.18401 -0.71256 72 77 94
1.02287 -0.17453 -0.71005 66 83 110
1.03086 -0.18142 -0.70602 65 77 100
1.03954 -0.18809 -0.70290 87 110 110
1.04299 -0.19661 -0.69272 108 135 126
1.05381 -0.20255 -0.69243 96 103 105
1.05372 -0.21227 -0.67759 72 72 79
1.05421 -0.22864 -0.67605 54 64 72
1.06638 -0.23680 -0.65052 48 68 84
1.05413 -0.23823 -0.66132 52 60 65
1.07493 -0.24354 -0.64718 103 128 139
1.09988 -0.24509 -0.66498 178 174 184
1.10750 -0.25224 -0.66026 216 184 202
1.11287 -0.26010 -0.65266 228 200 214
1.10992 -0.27046 -0.63451 240 229 230
1.11041 -0.28688 -0.63296 254 254 254
1.10866 -0.28024 -0.61862 251 253 247
1.10914 -0.29659 -0.61708 254 254 254
1.11451 -0.28785 -0.61177 254 254 249
1.13728 -0.30920 -0.59772 251 254 252
1.14442 -0.31646 -0.59243 239 247 240
1.16588 -0.31986 -0.60462 210 215 207
1.15683 -0.33151 -0.57959 156 155 172
1.14179 -0.34458 -0.54755 124 122 163
1.15919 -0.34913 -0.55470 146 156 181
1.15413 -0.35944 -0.53492 158 158 200
1.14607 -0.37040 -0.51174 156 156 206
1.14327 -0.37995 -0.49495 171 176 219
1.14518 -0.38830 -0.48380 233 242 247
1.15718 -0.38689 -0.47322 254 254 254
1.15141 -0.39559 -0.47776 254 254 254
1.35263 -0.62069 -0.29807 252 248 236
1.34059 -0.62210 -0.30869 252 252 252
1.34685 -0.62941 -0.30262 253 252 247
1.35114 -0.62885 -0.28445 245 232 216
1.35161 -0.64483 -0.28294 250 244 230
1.34479 -0.63747 -0.26621 243 242 231
1.34120 -0.64571 -0.25077 240 239 201
1.32470 -0.65516 -0.22306 228 208 184
1.38237 -0.70406 -0.19530 254 251 226
1.37053 -0.70545 -0.20574 252 252 253
1.37668 -0.71264 -0.19978 253 253 251
1.41190 -0.70960 -0.21075 240 221 144
1.43549 -0.72341 -0.20881 104 88 34
1.43580 -0.73108 -0.19740 96 86 65
1.44062 -0.73844 -0.19010 110 102 92
1.44454 -0.74584 -0.18201 125 117 105
1.45650 -0.74444 -0.17145 131 121 112
1.45076 -0.75311 -0.17598 130 121 107
1.24051 -0.80456 0.07219 108 90 60
1.26226 -0.81061 0.06380 51 42 25
1.26269 -0.82499 0.06515 42 39 38
0.75265 0.34155 -1.30117 244 252 254
0.75212 0.35915 -1.30283 254 254 254
0.74578 0.34958 -1.30783 251 254 254
0.75899 0.35113 -1.29617 254 254 254
0.76586 0.34310 -1.28951 253 252 250
0.74741 0.32458 -1.27096 238 247 250
0.76053 0.32612 -1.25938 240 243 243
0.74479 0.30972 -1.24610 206 209 241
0.70191 0.20507 -1.05107 58 43 104
0.69548 0.21259 -1.05731 117 106 134
0.70410 0.19467 -1.03696 59 86 134
0.70459 0.17822 -1.03541 66 96 145
0.69964 0.13378 -0.94024 70 100 168
0.69916 0.14987 -0.94175 60 93 156
0.69337 0.14112 -0.94632 67 96 156
0.73822 0.09035 -0.90537 21 39 104
0.73869 0.07426 -0.90385 30 44 85
0.74622 0.08403 -0.90225 18 32 97
0.74669 0.06792 -0.90073 30 45 86
0.75562 0.07850 -0.90149 23 34 92
0.75610 0.06237 -0.89997 30 45 89
0.96979 -0.16188 -0.70910 69 91 133
0.97027 -0.17807 -0.70757 102 116 133
0.98930 -0.17407 -0.70641 79 92 118
0.98979 -0.19033 -0.70488 78 85 106
0.99827 -0.18052 -0.70389 74 79 102
0.99875 -0.19679 -0.70236 79 88 106
1.01438 -0.19414 -0.69624 69 77 87
1.03143 -0.19779 -0.70459 89 115 111
1.03708 -0.20553 -0.69738 102 128 125
1.04657 -0.21194 -0.69533 85 95 99
1.05184 -0.24848 -0.64378 40 55 65
1.03964 -0.24991 -0.65454 52 56 63
1.04598 -0.25732 -0.64840 46 52 65
1.05713 -0.25622 -0.63627 64 76 98
1.06686 -0.26256 -0.63454 148 147 157
1.08616 -0.26598 -0.64509 225 223 216
1.08471 -0.27583 -0.62885 251 251 245
1.08519 -0.29214 -0.62732 254 254 254
1.08704 -0.28447 -0.61755 254 254 251
1.08753 -0.30075 -0.61601 254 254 254
1.11125 -0.30527 -0.60555 249 253 252
1.11906 -0.31230 -0.60117 236 240 241
1.12253 -0.32055 -0.59140 210 201 222
1.11680 -0.33127 -0.57033 164 160 192
1.10943 -0.34232 -0.54742 105 106 135
1.11373 -0.35018 -0.53892 58 53 102
1.11941 -0.36658 -0.51849 51 55 100
1.12639 -0.37371 -0.51330 57 58 112
1.12169 -0.38370 -0.49418 59 56 122
1.13187 -0.39002 -0.49284 73 81 150
1.11032 -0.40386 -0.45407 200 213 228
1.13305 -0.40720 -0.46754 251 254 254
1.14497 -0.40580 -0.45702 254 254 254
1.13924 -0.41445 -0.46153 254 254 254
1.13352 -0.42309 -0.46604 253 254 254
1.34128 -0.63798 -0.28498 250 246 233
1.32930 -0.63938 -0.29555 252 252 252
1.34175 -0.65393 -0.28348 249 242 233
1.32998 -0.65487 -0.24992 250 250 234
1.32428 -0.66345 -0.25440 251 250 234
1.31960 -0.66363 -0.22804 244 233 191
1.32006 -0.67930 -0.22656 246 236 198
1.39967 -0.72634 -0.19763 234 217 153
1.40713 -0.73349 -0.19280 163 141 81
1.42041 -0.74031 -0.19322 111 97 67
1.42088 -0.75622 -0.19172 107 77 68
1.43097 -0.74733 -0.19113 105 95 90
1.43278 -0.75482 -0.18116 115 109 104
1.43877 -0.76208 -0.17496 124 120 106
1.45070 -0.76068 -0.16443 130 120 104
1.44497 -0.76933 -0.16894 129 120 103
1.55206 -0.98321 0.07047 45 40 34
1.55160 -0.96781 0.06902 34 32 23
1.54605 -0.97619 0.06465 42 37 38
1.55761 -0.97484 0.07485 32 29 21
1.58477 -0.99154 0.05647 49 45 31
0.72473 0.35532 -1.32422 249 253 254
0.72421 0.37291 -1.32588 254 254 254
0.71787 0.36334 -1.33088 253 254 254
0.73108 0.36489 -1.31922 254 254 254
0.73794 0.35687 -1.31257 254 254 254
0.73453 0.34953 -1.32343 247 247 253
0.73506 0.33190 -1.32177 230 200 213
0.73485 0.33656 -1.30376 239 230 249
0.73537 0.31900 -1.30211 233 212 198
0.68342 0.26020 -1.14389 175 156 211
0.66619 0.23545 -1.09161 160 138 163
0.68119 0.20982 -1.06462 201 193 185
0.67525 0.20085 -1.06930 186 178 160
0.68492 0.20045 -1.05331 122 104 137
0.68541 0.18400 -1.05176 84 97 135
0.69297 0.18222 -1.03196 69 92 141
0.69882 0.16270 -1.00680 62 100 155
0.70471 0.17158 -1.00216 58 92 146
0.71108 0.16413 -0.99598 64 94 149
0.69184 0.14656 -0.97622 69 99 157
0.68936 0.13352 -0.95414 66 97 146
0.69285 0.12441 -0.94301 63 88 137
0.69848 0.11668 -0.93579 49 66 131
0.69895 0.10061 -0.93428 22 40 83
0.94413 -0.16853 -0.70063 72 84 116
0.95699 -0.17334 -0.70386 82 97 121
0.97907 -0.18454 -0.70492 92 103 117
1.00263 -0.20509 -0.69281 70 80 94
1.00490 -0.21393 -0.68110 66 71 87
1.00944 -0.22195 -0.67254 55 62 79
1.01412 -0.22990 -0.66419 43 53 68
1.01460 -0.24609 -0.66267 38 38 53
1.03943 -0.26879 -0.62536 53 63 92
1.02732 -0.27021 -0.63605 53 57 68
1.04742 -0.27562 -0.62146 129 143 162
1.06345 -0.28002 -0.62796 225 236 234
1.06888 -0.28769 -0.62066 253 254 254
1.06936 -0.30392 -0.61913 254 254 254
1.09267 -0.30852 -0.60833 252 253 251
1.08046 -0.30995 -0.61910 254 254 252
1.09297 -0.31764 -0.59457 224 227 233
1.06970 -0.33323 -0.55135 156 151 188
1.05973 -0.34493 -0.52514 100 82 144
1.07192 -0.35054 -0.52659 62 52 115
1.07239 -0.36643 -0.52509 30 29 49
1.09095 -0.36332 -0.52269 21 23 52
1.10250 -0.36923 -0.52316 25 28 56
1.10298 -0.38522 -0.52165 38 43 53
1.10662 -0.37705 -0.51454 24 33 58
1.10709 -0.39302 -0.51304 38 42 54
1.11254 -0.38441 -0.50813 28 38 65
1.11301 -0.40038 -0.50662 35 35 51
1.11799 -0.39188 -0.50116 30 34 69
1.11990 -0.40018 -0.48999 33 45 96
1.11400 -0.41025 -0.46963 158 173 188
1.11782 -0.41801 -0.46086 238 248 249
1.31823 -0.67177 -0.23662 252 251 234
1.30644 -0.67315 -0.24702 252 250 238
1.31257 -0.68031 -0.24108 252 250 239
1.31869 -0.68747 -0.23514 252 251 235
1.37652 -0.73601 -0.18610 254 249 223
1.36472 -0.73739 -0.19651 252 252 252
1.38228 -0.74320 -0.17981 214 193 142
1.40519 -0.74947 -0.18912 147 107 73
1.42752 -0.77097 -0.17454 110 106 104
1.52287 -0.98374 0.07358 57 58 65
1.52242 -0.96845 0.07214 39 39 38
1.51691 -0.97677 0.06780 50 52 61
1.51140 -0.98509 0.06346 64 68 78
1.58777 -1.00046 0.04562 72 73 55
1.58823 -1.01608 0.04709 100 98 80
0.69498 0.35423 -1.32275 253 253 253
0.69447 0.37172 -1.32439 254 254 254
0.68816 0.36220 -1.32936 254 254 254
0.70129 0.36374 -1.31778 254 254 254
0.69550 0.33674 -1.32110 237 192 185
0.70672 0.35005 -1.32611 246 243 248
0.70723 0.33251 -1.32445 234 177 189
0.66944 0.24533 -1.13315 224 192 146
0.64821 0.21784 -1.07293 178 149 100
0.68743 0.16183 -1.01922 61 91 120
0.67517 0.16040 -1.03004 39 46 86
0.68154 0.15295 -1.02386 32 32 75
0.69362 0.14269 -0.99482 32 46 99
0.69410 0.12642 -0.99329 22 39 64
0.69751 0.13369 -0.98417 23 40 86
0.69799 0.11745 -0.98264 24 41 70
0.69840 0.12284 -0.96815 29 39 80
0.69887 0.10665 -0.96662 23 42 72
0.94345 -0.18504 -0.69747 81 90 108
0.94392 -0.20111 -0.69596 73 73 93
0.95338 -0.19100 -0.69657 88 100 116
0.96322 -0.19703 -0.69549 78 90 100
0.97352 -0.20294 -0.69497 67 78 94
0.97962 -0.21038 -0.68858 64 72 90
0.98412 -0.21839 -0.67997 57 64 79
0.99013 -0.22585 -0.67347 58 58 72
0.99619 -0.23329 -0.66705 56 53 66
1.00180 -0.24088 -0.66000 44 44 59
1.01279 -0.25612 -0.64566 49 49 57
1.00698 -0.26489 -0.65024 52 55 53
1.01908 -0.26347 -0.63956 59 61 68
1.02107 -0.28148 -0.61341 35 47 72
1.00903 -0.28289 -0.62403 54 58 70
1.00897 -0.29441 -0.58331 85 103 135
1.03145 -0.29674 -0.59852 189 203 220
1.05563 -0.29872 -0.61568 245 251 253
1.05611 -0.31488 -0.61416 253 254 254
1.07473 -0.32078 -0.59757 244 239 235
1.03692 -0.34042 -0.53562 176 159 180
1.04090 -0.34822 -0.52689 67 45 109
1.04136 -0.36400 -0.52540 29 22 37
1.04918 -0.35485 -0.52358 27 15 71
1.05874 -0.36115 -0.52183 26 22 59
1.08281 -0.37260 -0.52428 33 36 43
1.08910 -0.37984 -0.51835 36 40 50
1.10791 -0.41030 -0.48704 32 41 65
1.09599 -0.41169 -0.49755 33 31 42
1.07472 -0.42653 -0.43420 116 133 145
1.09877 -0.42960 -0.44957 209 214 229
1.11274 -0.43504 -0.45286 248 252 254
1.12458 -0.43365 -0.44242 254 254 254
1.11889 -0.44223 -0.44689 254 254 254
1.11321 -0.45080 -0.45137 254 254 254
1.34565 -0.74599 -0.16728 253 253 245
1.33398 -0.74736 -0.17758 252 252 252
1.34004 -0.75444 -0.17170 253 252 251
1.34611 -0.76153 -0.16582 253 245 232
1.37837 -0.75914 -0.17433 199 157 118
1.40314 -0.76543 -0.18534 146 110 65
1.40409 -0.77286 -0.17464 102 77 55
1.40879 -0.78012 -0.16736 84 73 74
1.40925 -0.79589 -0.16587 85 68 56
1.41678 -0.78724 -0.16303 99 101 96
1.41724 -0.80303 -0.16155 93 86 80
1.53144 -0.99277 0.05857 73 79 84
1.51990 -0.99412 0.04838 84 90 98
1.52589 -1.00113 0.05420 98 103 110
1.54126 -0.99998 0.06150 86 93 90
1.54171 -1.01538 0.06295 123 131 129
2.34050 -1.43223 0.06082 56 59 100
0.67305 0.34576 -1.31611 253 252 251
0.67254 0.36315 -1.31775 254 254 254
0.66627 0.35369 -1.32269 254 254 254
0.67208 0.33179 -1.29359 250 234 227
0.67259 0.31449 -1.29196 249 223 134
0.65613 0.19470 -1.06721 181 190 127
0.65662 0.17829 -1.06567 159 154 116
0.92503 -0.18887 -0.69898 79 85 88
0.91878 -0.18157 -0.70503 74 87 92
0.91301 -0.19028 -0.70958 52 60 80
0.93004 -0.19663 -0.69116 75 72 89
0.94798 -0.20924 -0.68676 63 68 81
0.95636 -0.21579 -0.68367 55 67 69
0.95684 -0.23186 -0.68216 56 52 53
0.96173 -0.22344 -0.67634 50 54 66
0.96220 -0.23949 -0.67483 49 47 53
0.96736 -0.23098 -0.66940 42 46 56
0.97642 -0.23734 -0.66718 42 44 57
0.98135 -0.24512 -0.65926 55 54 64
0.98183 -0.26118 -0.65775 79 89 91
0.98537 -0.25319 -0.65013 62 61 69
0.99109 -0.26069 -0.64333 53 52 64
1.00533 -0.29326 -0.60479 42 49 67
0.99336 -0.29466 -0.61535 49 53 69
1.00449 -0.30268 -0.58945 54 68 101
1.01252 -0.30937 -0.58585 138 157 185
1.03887 -0.31072 -0.60605 227 238 245
1.05152 -0.32534 -0.59403 254 254 247
1.04494 -0.33626 -0.57151 230 217 206
1.02075 -0.35189 -0.52678 134 100 114
1.03361 -0.35724 -0.52935 37 12 46
1.05193 -0.37005 -0.52494 44 37 36
1.06144 -0.37641 -0.52311 61 58 50
1.05960 -0.38565 -0.50721 73 73 65
1.08242 -0.39750 -0.50811 51 46 42
1.08861 -0.40474 -0.50211 40 39 49
1.09926 -0.41960 -0.48803 37 40 51
1.08736 -0.42100 -0.49853 33 33 31
1.09065 -0.43016 -0.46435 92 104 116
1.08050 -0.44092 -0.43906 171 169 193
1.09819 -0.44553 -0.44686 238 249 253
1.09865 -0.46123 -0.44538 254 253 254
1.35551 -0.76847 -0.16301 230 201 174
1.36627 -0.77537 -0.16139 212 184 137
1.36913 -0.78261 -0.15257 171 147 96
1.40056 -0.78879 -0.16954 110 83 55
0.64971 0.33607 -1.30609 253 250 224
0.64920 0.35334 -1.30772 254 254 254
0.64298 0.34395 -1.31262 254 254 250
0.63675 0.33455 -1.31753 254 254 241
0.63454 0.31101 -1.25398 251 236 177
0.65371 0.31296 -1.27343 251 229 159
0.65422 0.29580 -1.27182 238 241 136
0.63096 0.18423 -1.05298 154 174 102
0.63144 0.16796 -1.05145 133 144 102
0.63998 0.17867 -1.05201 156 175 112
0.64046 0.16237 -1.05048 135 137 115
0.75077 0.03191 -0.91767 38 51 95
0.76293 0.03334 -0.90694 29 50 89
0.75709 0.02453 -0.91154 34 52 90
0.85932 -0.13347 -0.75234 63 65 99
0.85885 -0.11749 -0.75385 52 77 118
0.84733 -0.13487 -0.76292 58 64 77
0.86508 -0.12478 -0.74780 57 77 125
0.87131 -0.13206 -0.74176 61 79 118
0.86615 -0.14050 -0.74720 69 80 105
0.87815 -0.13910 -0.73662 63 79 113
0.87181 -0.14803 -0.74029 70 82 101
0.87228 -0.16400 -0.73879 55 60 74
0.87518 -0.15648 -0.72998 55 65 90
0.88715 -0.15508 -0.71941 70 85 110
0.88140 -0.16375 -0.72394 72 81 92
0.87565 -0.17243 -0.72847 41 41 60
0.91209 -0.20027 -0.69318 64 74 94
0.90012 -0.20168 -0.70374 54 60 71
0.92454 -0.20523 -0.69609 101 102 127
0.93082 -0.21252 -0.69009 100 102 124
0.93311 -0.22123 -0.67845 67 66 74
0.93359 -0.23720 -0.67694 55 61 52
0.94283 -0.22728 -0.67732 53 51 47
0.94330 -0.24327 -0.67581 71 73 65
0.96194 -0.24903 -0.65972 43 46 55
0.95618 -0.25773 -0.66427 44 46 59
0.96464 -0.25750 -0.64880 64 71 77
0.97053 -0.27420 -0.62777 65 72 79
0.97603 -0.28168 -0.62079 44 49 56
0.98224 -0.28893 -0.61478 41 46 58
0.97650 -0.29758 -0.61930 44 47 58
0.98768 -0.30556 -0.59347 51 53 69
0.99199 -0.31334 -0.58501 39 48 80
0.99493 -0.32152 -0.57476 87 107 145
0.99354 -0.33091 -0.55891 190 206 223
1.03100 -0.32917 -0.59368 245 251 252
1.03724 -0.33646 -0.58763 254 253 245
1.02320 -0.34935 -0.55550 222 206 188
1.01393 -0.36075 -0.52977 123 89 83
1.02762 -0.36590 -0.53345 32 12 19
1.03537 -0.37267 -0.52951 25 28 28
1.04824 -0.37814 -0.53197 55 62 48
1.04654 -0.38735 -0.51613 122 129 108
1.04340 -0.39684 -0.49863 161 165 134
1.05884 -0.40173 -0.50420 124 120 82
1.06945 -0.40786 -0.50372 62 57 41
1.07688 -0.41478 -0.49927 40 37 37
1.08719 -0.42966 -0.48486 45 42 46
1.08372 -0.43899 -0.46732 87 89 99
1.07725 -0.44890 -0.44632 140 136 158
1.08978 -0.45465 -0.44805 227 242 248
1.09024 -0.47033 -0.44658 254 253 254
1.26644 -0.73729 -0.15792 239 244 247
1.27787 -0.73595 -0.14783 252 252 252
1.27238 -0.74423 -0.15216 250 252 253
1.35562 -0.78405 -0.16121 239 217 169
1.36626 -0.79099 -0.15949 224 203 153
1.37262 -0.79809 -0.15384 185 161 112
1.39193 -0.80481 -0.15986 128 101 51
1.36685 -0.81279 -0.12596 92 75 51
1.37847 -0.81142 -0.11571 105 101 95
1.37289 -0.81984 -0.12011 89 79 75
1.36731 -0.82826 -0.12450 107 84 48
1.25167 -0.84289 0.01958 133 133 118
1.25124 -0.82836 0.01822 132 131 117
1.24600 -0.83626 0.01409 117 114 103
1.24077 -0.84416 0.00997 105 97 86
1.25691 -0.83498 0.02371 140 138 120
1.52395 -1.03614 0.08835 138 134 116
1.53540 -1.03480 0.09845 117 103 87
1.52990 -1.04309 0.09412 128 112 96
2.21569 -1.38354 0.03890 38 39 49
0.63316 0.31851 -1.28924 252 252 200
0.62697 0.30918 -1.29411 233 241 130
0.63574 0.21909 -1.13542 207 224 113
0.62927 0.22666 -1.14170 210 228 114
0.62328 0.21763 -1.14641 202 231 190
0.63102 0.20352 -1.10689 202 219 122
0.62330 0.17413 -1.05408 147 152 92
0.62378 0.15788 -1.05255 128 134 80
0.67772 0.08320 -0.95844 32 37 74
0.67724 0.09929 -0.95996 22 41 73
0.67144 0.09054 -0.96453 27 40 74
0.68352 0.09195 -0.95387 23 42 74
0.68979 0.08462 -0.94779 23 41 78
0.68066 0.07383 -0.94629 33 37 69
0.69271 0.07525 -0.93565 26 41 80
0.68564 0.06574 -0.93789 33 40 81
0.69768 0.06715 -0.92726 25 41 81
0.69384 0.05958 -0.93532 33 44 85
0.70589 0.06099 -0.92468 30 42 80
0.70010 0.05226 -0.92924 36 44 81
0.71042 0.04729 -0.93037 40 45 88
0.71623 0.05605 -0.92580 32 41 86
0.72251 0.04870 -0.91971 34 44 85
0.71872 0.04110 -0.92783 49 51 95
0.72728 0.03503 -0.92572 57 59 98
0.73666 0.02939 -0.92499 65 76 102
0.74291 0.02198 -0.91877 67 83 104
0.75272 0.01652 -0.91869 51 63 90
0.76489 0.01795 -0.90795 32 53 89
0.75905 0.00913 -0.91255 36 52 93
0.75320 0.00031 -0.91716 41 54 101
0.82841 -0.09285 -0.81251 70 82 119
0.83469 -0.10019 -0.80642 75 94 114
0.83640 -0.10956 -0.79320 76 85 98
0.84219 -0.10083 -0.78864 64 77 113
0.84845 -0.10815 -0.78257 65 77 106
0.84078 -0.11771 -0.78419 77 72 89
0.85281 -0.11630 -0.77358 60 75 103
0.84703 -0.12502 -0.77813 71 70 85
0.89932 -0.21156 -0.68753 60 62 82
0.88740 -0.21296 -0.69805 54 54 58
0.91022 -0.21708 -0.68831 90 89 114
0.91765 -0.22390 -0.68403 90 89 108
0.92220 -0.23176 -0.67563 63 60 66
0.92267 -0.24768 -0.67413 44 45 54
0.94388 -0.25250 -0.66184 60 58 65
0.94856 -0.26960 -0.63903 51 54 71
0.94902 -0.27871 -0.62513 73 79 79
0.95340 -0.28650 -0.61670 69 71 75
0.95540 -0.29503 -0.60505 48 49 60
0.95587 -0.31080 -0.60356 51 43 51
0.96667 -0.30973 -0.59172 56 61 72
0.97214 -0.31713 -0.58484 65 75 74
0.97664 -0.32481 -0.57669 52 64 74
0.98185 -0.33226 -0.56949 55 71 111
0.98351 -0.34072 -0.55765 135 155 187
1.01391 -0.34105 -0.58344 225 237 243
1.01928 -0.34854 -0.57633 253 253 246
1.01749 -0.35796 -0.56000 227 212 191
1.00512 -0.37013 -0.53019 132 97 83
1.02177 -0.37452 -0.53771 35 14 19
1.02947 -0.38131 -0.53372 21 32 38
1.04077 -0.38720 -0.53424 57 81 85
1.02906 -0.39886 -0.50581 156 180 179
1.03684 -0.40560 -0.50197 216 232 204
1.04386 -0.41254 -0.49715 172 171 139
1.05948 -0.41746 -0.50293 68 67 63
1.05994 -0.43324 -0.50144 35 32 32
1.06605 -0.42456 -0.49748 36 34 29
1.07174 -0.43186 -0.49095 36 37 29
1.07654 -0.43935 -0.48334 51 48 49
1.07456 -0.44831 -0.46757 85 84 90
1.07573 -0.45652 -0.45570 123 117 132
1.07913 -0.46422 -0.44654 224 235 237
1.25410 -0.74598 -0.15569 223 220 221
1.23904 -0.75407 -0.12996 243 246 248
1.25032 -0.75275 -0.12000 252 252 252
1.24490 -0.76092 -0.12427 252 252 252
1.33104 -0.79319 -0.14816 239 230 200
1.31945 -0.79455 -0.15838 253 252 251
1.34925 -0.79984 -0.15349 224 200 182
1.36276 -0.80670 -0.15442 216 194 173
1.37117 -0.81374 -0.15064 191 174 124
1.27868 -0.85047 -0.01294 112 108 96
1.26761 -0.85177 -0.02270 97 86 75
1.27794 -0.85724 -0.00168 98 89 81
1.27969 -0.86396 0.00735 85 82 69
1.27859 -0.87065 0.01881 75 77 66
1.28514 -0.87732 0.02362 59 47 62
1.29612 -0.87603 0.03331 42 39 42
1.29289 -0.88401 0.02740 50 44 53
1.30389 -0.88272 0.03710 41 40 43
1.29861 -0.89069 0.03294 48 47 50
1.29333 -0.89865 0.02878 54 57 54
1.50945 -1.04378 0.09079 151 151 138
2.23846 -1.40527 0.02734 40 45 54
2.25200 -1.40369 0.03928 48 48 59
2.30401 -1.45196 0.04389 78 85 92
2.30470 -1.45908 0.05447 83 82 92
0.61497 0.31277 -1.28928 245 251 192
0.56823 0.14253 -0.97969 212 227 208
0.56870 0.12675 -0.97820 154 183 191
0.61856 0.16607 -1.06090 156 183 159
0.66886 0.08378 -0.97506 30 43 82
0.66838 0.09990 -0.97658 27 38 69
0.66257 0.09113 -0.98116 28 39 69
0.67097 0.07387 -0.96127 50 61 89
0.67633 0.06598 -0.95351 70 80 103
0.67680 0.04991 -0.95200 82 95 119
0.68270 0.05872 -0.94762 80 93 113
0.69672 0.04493 -0.93814 55 53 89
0.69720 0.02884 -0.93662 52 60 89
0.70354 0.03791 -0.93303 52 60 92
0.71172 0.03165 -0.93030 68 77 96
0.71983 0.02533 -0.92744 77 84 101
0.72793 0.01899 -0.92452 90 102 106
0.73789 0.01363 -0.92477 98 112 123
0.74633 0.00741 -0.92235 59 81 97
0.77710 -0.02997 -0.89028 37 63 104
0.77662 -0.01378 -0.89181 37 56 100
0.77078 -0.02259 -0.89641 42 60 101
0.78294 -0.02116 -0.88568 40 57 104
0.78926 -0.02855 -0.87956 42 59 108
0.78342 -0.03736 -0.88416 38 62 109
0.79288 -0.05369 -0.86667 49 50 103
0.79240 -0.03752 -0.86819 42 62 110
0.78657 -0.04632 -0.87278 39 57 110
0.79871 -0.04490 -0.86208 41 68 109
0.80501 -0.05227 -0.85596 36 68 113
0.80422 -0.08965 -0.81984 108 114 146
0.80469 -0.10569 -0.81833 76 91 124
0.81188 -0.09632 -0.81603 125 115 135
0.82381 -0.10106 -0.81899 111 99 101
0.82111 -0.11242 -0.79869 69 68 89
0.82159 -0.12844 -0.79718 38 43 62
0.82350 -0.13144 -0.77077 58 62 80
0.82397 -0.14736 -0.76927 45 39 51
0.83113 -0.13809 -0.76695 73 82 82
0.83106 -0.15786 -0.73569 43 47 57
0.83998 -0.16394 -0.73391 43 43 74
0.84045 -0.17978 -0.73242 83 83 111
0.88682 -0.22270 -0.68217 49 52 70
0.87494 -0.22409 -0.69265 57 62 70
0.88111 -0.23130 -0.68666 50 55 67
0.89414 -0.22949 -0.67786 62 72 82
0.89461 -0.24532 -0.67636 72 77 69
0.90044 -0.23667 -0.67204 75 77 79
0.90973 -0.24279 -0.67051 53 52 48
0.91020 -0.25865 -0.66902 55 50 62
0.92421 -0.25653 -0.66150 60 63 71
0.92468 -0.27241 -0.66000 66 74 86
0.92894 -0.26427 -0.65344 61 63 76
0.93020 -0.27314 -0.64054 50 48 57
0.93067 -0.28896 -0.63905 45 44 53
0.93210 -0.28175 -0.62862 47 46 56
0.93277 -0.29071 -0.61505 66 73 70
0.93323 -0.30645 -0.61357 70 84 82
0.93191 -0.30010 -0.59948 71 77 81
0.93420 -0.30844 -0.58833 56 54 62
0.95097 -0.32133 -0.58267 59 65 76
0.95859 -0.32804 -0.57874 67 92 81
0.96916 -0.33390 -0.57876 63 79 73
0.96596 -0.34375 -0.56040 38 47 81
0.96996 -0.35148 -0.55170 81 98 141
0.98798 -0.35531 -0.56144 188 202 220
1.00646 -0.35912 -0.57160 245 251 244
1.00122 -0.36940 -0.55079 239 224 200
0.99924 -0.37872 -0.53435 154 115 96
1.01163 -0.38425 -0.53647 45 17 20
1.01209 -0.39998 -0.53499 29 27 31
1.01939 -0.39101 -0.53260 23 30 36
1.03024 -0.39701 -0.53262 42 67 79
1.02602 -0.40675 -0.51356 115 148 163
1.03119 -0.41413 -0.50642 176 201 218
1.03820 -0.42108 -0.50161 147 148 165
1.04115 -0.42897 -0.49173 56 53 68
1.04162 -0.44464 -0.49026 37 32 34
1.05725 -0.44240 -0.48463 42 39 40
1.06072 -0.45013 -0.47546 57 52 56
1.06248 -0.45821 -0.46425 79 79 91
1.06533 -0.46603 -0.45441 125 113 131
1.07134 -0.47317 -0.44840 224 233 229
1.07743 -0.48029 -0.44250 253 253 254
1.08916 -0.47892 -0.43215 253 253 253
1.08352 -0.48741 -0.43659 252 253 253
1.07789 -0.49591 -0.44103 252 252 252
1.21798 -0.75593 -0.13051 210 199 191
1.21621 -0.76315 -0.11757 227 232 230
1.21514 -0.77028 -0.10537 246 251 250
1.22629 -0.76898 -0.09553 252 252 252
1.22093 -0.77706 -0.09975 252 252 252
1.30628 -0.80220 -0.13478 248 246 238
1.29479 -0.80354 -0.14491 252 252 252
1.30076 -0.81052 -0.13913 253 252 251
1.33803 -0.80844 -0.15272 230 220 211
1.35166 -0.81531 -0.15382 215 197 180
1.36243 -0.82229 -0.15223 216 194 157
1.36704 -0.82941 -0.14502 197 166 121
1.27698 -0.87194 0.00093 95 93 81
1.27937 -0.87863 0.00939 84 85 73
1.27958 -0.88528 0.01970 71 65 69
1.28678 -0.89197 0.02396 60 60 59
1.28721 -0.90661 0.02534 52 58 51
1.48235 -1.04397 0.09265 166 174 177
1.48137 -1.05033 0.10355 167 170 166
1.49931 -1.05814 0.10017 160 150 138
1.53017 -1.06707 0.08725 152 132 117
1.53063 -1.08235 0.08869 168 146 129
1.53120 -1.07362 0.09669 156 136 121
1.54265 -1.07228 0.10679 149 134 120
1.53715 -1.08057 0.10246 160 144 127
1.53165 -1.08887 0.09813 171 154 141
2.27318 -1.44343 0.03085 51 58 77
2.28628 -1.45282 0.03420 66 75 89
0.56381 0.30637 -1.25889 247 254 251
0.56331 0.32317 -1.26047 254 254 254
0.55726 0.31403 -1.26525 252 254 254
0.56987 0.31551 -1.25412 253 252 254
0.54243 0.15433 -0.99872 224 249 242
0.53628 0.16152 -1.00468 210 235 230
0.53060 0.15295 -1.00915 198 236 247
0.53675 0.14576 -1.00319 218 249 250
0.54289 0.13857 -0.99723 217 245 248
0.55163 0.14933 -0.99893 220 248 245
0.55231 0.13825 -0.98196 229 250 248
0.56166 0.13333 -0.98241 219 232 236
0.61729 0.14861 -1.05592 159 190 131
0.62948 0.15004 -1.04516 117 117 82
0.62363 0.14120 -1.04977 130 146 109
0.61777 0.13237 -1.05439 121 130 104
0.63904 0.12820 -1.04279 158 137 101
0.63856 0.14447 -1.04432 147 139 125
0.63269 0.13562 -1.04895 142 112 89
0.62683 0.12677 -1.05357 143 125 122
0.64491 0.13705 -1.03817 125 106 76
0.65125 0.12963 -1.03202 43 24 31
0.66175 0.08548 -0.99511 26 42 72
0.66316 0.07508 -0.97985 34 53 87
0.66567 0.06542 -0.96675 67 85 91
0.68301 0.04255 -0.94581 76 88 102
0.69084 0.03613 -0.94256 54 61 97
0.70513 0.02245 -0.93350 63 80 85
0.71336 0.01619 -0.93086 65 80 92
0.72071 0.00942 -0.92662 59 74 97
0.72859 0.00294 -0.92330 56 70 100
0.73818 -0.00265 -0.92293 51 62 92
0.74345 -0.01059 -0.91500 41 56 89
0.75559 -0.00917 -0.90430 39 54 102
0.75153 -0.01703 -0.91193 35 53 92
0.76368 -0.01561 -0.90121 42 58 98
0.75942 -0.02359 -0.90851 36 51 86
0.77078 -0.03903 -0.89407 50 36 80
0.77479 -0.04756 -0.88408 60 44 93
0.77502 -0.05794 -0.86782 49 54 110
0.77215 -0.06975 -0.84655 97 109 140
0.81906 -0.05749 -0.90752 161 161 172
0.82547 -0.06498 -0.90132 165 158 149
0.79504 -0.08972 -0.83512 142 128 115
0.80767 -0.11447 -0.80702 60 79 98
0.80814 -0.13048 -0.80551 43 46 50
0.81785 -0.15982 -0.74408 54 44 53
0.82188 -0.16791 -0.73481 50 54 60
0.82823 -0.17503 -0.72913 69 64 62
0.82869 -0.19082 -0.72765 57 50 64
0.88018 -0.24107 -0.67034 54 53 65
0.86836 -0.24246 -0.68077 56 58 72
0.88065 -0.25683 -0.66885 70 79 81
0.89404 -0.25490 -0.66066 66 67 56
0.90960 -0.26818 -0.65337 64 62 70
0.91506 -0.28484 -0.63177 56 57 68
0.91609 -0.30277 -0.60424 50 57 64
0.92017 -0.31953 -0.58124 70 72 60
0.91456 -0.32800 -0.58567 72 84 80
0.93447 -0.33310 -0.57238 57 52 63
0.94107 -0.34005 -0.56719 50 52 63
0.94153 -0.35564 -0.56572 39 38 51
0.94516 -0.34773 -0.55862 46 45 62
0.94563 -0.36331 -0.55716 39 40 52
0.94672 -0.35612 -0.54671 34 37 63
0.95871 -0.36155 -0.54869 45 56 97
0.96512 -0.36857 -0.54323 133 150 179
0.98942 -0.37078 -0.56123 224 236 238
0.99556 -0.37796 -0.55528 249 237 218
0.98754 -0.38882 -0.53095 181 139 121
1.00693 -0.39256 -0.54219 71 34 35
1.01864 -0.40705 -0.52956 30 46 54
1.03509 -0.41174 -0.53668 52 77 95
1.02955 -0.42172 -0.51595 79 101 145
1.03808 -0.42833 -0.51300 66 71 115
1.03855 -0.44407 -0.51152 33 30 37
1.03305 -0.43805 -0.49312 37 34 52
1.04428 -0.45253 -0.48009 47 42 50
1.04526 -0.46076 -0.46790 61 56 61
1.05301 -0.46753 -0.46402 71 70 90
1.06076 -0.47431 -0.46013 131 117 138
1.06334 -0.48214 -0.44998 227 236 224
1.06380 -0.49774 -0.44851 253 253 253
1.06942 -0.48925 -0.44408 253 253 254
1.06989 -0.50485 -0.44261 252 252 252
1.18780 -0.76535 -0.11079 223 210 184
1.19081 -0.77222 -0.10255 213 207 196
1.19428 -0.77906 -0.09477 232 239 237
1.21174 -0.78530 -0.10032 247 251 252
1.22287 -0.78400 -0.09050 252 252 252
1.21753 -0.79207 -0.09471 252 252 252
1.32280 -0.82426 -0.13684 235 227 205
1.32325 -0.83962 -0.13539 251 245 227
1.34544 -0.83096 -0.14625 234 216 182
1.35688 -0.83794 -0.14530 232 205 167
1.35640 -0.84510 -0.13352 185 153 105
1.36801 -0.84374 -0.12327 105 86 64
1.36243 -0.85216 -0.12766 124 93 45
1.28510 -0.88668 -0.00441 84 85 78
1.28852 -0.89338 0.00319 73 74 64
1.28896 -0.90811 0.00458 55 53 38
1.29028 -0.90005 0.01221 59 65 54
1.29072 -0.91475 0.01359 54 55 56
1.45237 -1.04391 0.09698 177 186 194
1.45193 -1.02894 0.09557 155 164 174
1.44653 -1.03709 0.09132 170 179 187
1.44114 -1.04523 0.08707 192 198 204
1.45702 -1.05065 0.10355 184 193 198
1.47291 -1.05827 0.10158 189 195 194
1.46815 -1.06425 0.11528 182 178 166
1.50261 -1.07350 0.09946 169 154 131
1.50306 -1.08864 0.10088 178 159 139
2.26965 -1.45387 0.02391 41 53 70
2.28661 -1.46401 0.02498 60 83 92
2.30356 -1.47419 0.02613 83 96 109
0.49847 0.28674 -1.19385 240 253 254
0.49799 0.30307 -1.19538 254 254 254
0.49210 0.29419 -1.20002 247 254 254
0.50436 0.29563 -1.18921 254 254 254
0.49258 0.27786 -1.19848 175 200 245
0.51073 0.28818 -1.18303 254 254 254
0.51809 0.29037 -1.21720 231 250 254
0.53354 0.29030 -1.23093 220 238 250
0.53403 0.27371 -1.22937 134 185 235
0.54426 0.12801 -0.98161 216 247 250
0.53247 0.12663 -0.99201 202 239 248
0.53860 0.11947 -0.98607 203 241 249
0.55320 0.12281 -0.98131 196 229 236
0.55366 0.10707 -0.97983 166 191 207
0.60274 0.14555 -1.06195 140 174 187
0.60403 0.13472 -1.04584 153 173 132
0.62906 0.11665 -1.03941 179 166 124
0.61688 0.11522 -1.05016 170 156 160
0.63144 0.10668 -1.02564 117 94 53
0.65497 0.07609 -0.99790 36 47 71
0.65545 0.05992 -0.99638 52 53 72
0.65638 0.06571 -0.98261 44 53 85
0.66005 0.05678 -0.97165 63 79 94
0.66426 0.04821 -0.96175 77 100 115
0.67053 0.04089 -0.95568 84 101 110
0.67721 0.03380 -0.95035 80 93 101
0.68473 0.02720 -0.94655 63 61 93
0.69182 0.02033 -0.94195 50 54 79
0.69850 0.01322 -0.93659 51 52 72
0.71491 0.00066 -0.93124 35 55 78
0.72082 -0.00691 -0.92446 34 50 89
0.72913 -0.01318 -0.92189 41 40 80
0.73770 -0.03002 -0.90271 50 24 55
0.74677 -0.03592 -0.90141 60 40 67
0.74891 -0.04540 -0.88821 75 75 115
0.74246 -0.05914 -0.86051 143 123 135
0.75364 -0.06397 -0.86281 168 164 149
0.75962 -0.07140 -0.85631 139 117 138
0.76638 -0.07846 -0.85110 138 107 150
0.77548 -0.08440 -0.84977 103 83 144
0.77373 -0.09550 -0.83051 59 72 111
0.76071 -0.11173 -0.79294 23 38 83
0.77072 -0.12718 -0.77727 42 57 73
0.77118 -0.14294 -0.77578 43 47 52
0.77740 -0.13413 -0.77216 45 51 64
0.77787 -0.14989 -0.77068 38 45 50
0.79916 -0.15428 -0.75950 41 50 66
0.78730 -0.15567 -0.76996 41 46 52
0.80242 -0.16271 -0.74896 70 71 86
0.80289 -0.17848 -0.74748 66 74 76
0.80736 -0.17041 -0.74110 96 91 57
0.81728 -0.18575 -0.72551 49 51 40
0.81774 -0.20149 -0.72402 52 58 62
0.84626 -0.23174 -0.67810 74 87 92
0.84580 -0.21607 -0.67957 61 82 101
0.83450 -0.23311 -0.68847 46 42 55
0.85191 -0.22321 -0.67365 67 88 98
0.84062 -0.24026 -0.68255 52 40 61
0.85333 -0.23853 -0.67358 57 59 73
0.88130 -0.26591 -0.65495 66 75 67
0.86951 -0.26729 -0.66535 52 61 82
0.87564 -0.27446 -0.65941 55 62 79
0.88605 -0.27354 -0.64703 53 52 63
0.88652 -0.28924 -0.64555 45 40 46
0.89312 -0.28038 -0.64245 47 39 60
0.89681 -0.28834 -0.63305 57 56 73
0.89728 -0.30403 -0.63157 64 75 80
0.89790 -0.29713 -0.62000 59 62 69
0.89728 -0.30640 -0.60466 47 50 46
0.89774 -0.32198 -0.60319 48 44 55
0.89889 -0.31491 -0.59252 44 47 50
0.90082 -0.32327 -0.58091 64 72 74
0.91276 -0.33746 -0.56897 60 62 67
0.90717 -0.34589 -0.57338 55 51 66
0.91793 -0.34479 -0.56190 46 43 54
0.91838 -0.36028 -0.56044 41 38 39
0.92496 -0.35157 -0.55739 38 37 48
0.94402 -0.37252 -0.54102 27 33 56
0.94696 -0.38043 -0.53103 77 88 126
0.97068 -0.38281 -0.54848 182 194 216
0.98702 -0.38727 -0.55600 243 245 232
0.97376 -0.39940 -0.52478 212 186 156
1.00911 -0.41654 -0.52909 32 37 49
1.00958 -0.43224 -0.52761 36 40 48
1.01577 -0.42357 -0.52383 26 37 55
1.01623 -0.43927 -0.52235 38 41 39
1.01949 -0.43984 -0.50120 26 33 50
1.02589 -0.45537 -0.48216 41 38 37
1.02027 -0.46385 -0.48658 45 47 48
1.02635 -0.47095 -0.48069 50 50 52
1.02994 -0.46291 -0.47376 50 47 54
1.03527 -0.47017 -0.46695 57 54 58
1.04071 -0.47739 -0.46030 62 56 80
1.04492 -0.48486 -0.45214 152 140 148
1.05540 -0.49108 -0.45161 236 244 230
1.05586 -0.50666 -0.45014 253 253 253
1.16878 -0.78100 -0.09060 221 209 189
1.17441 -0.78768 -0.08498 220 214 213
1.17864 -0.79442 -0.07803 236 239 242
1.20027 -0.80055 -0.08761 248 251 252
1.21134 -0.79925 -0.07784 252 252 252
1.20602 -0.80727 -0.08203 252 252 252
1.20070 -0.81530 -0.08622 250 251 253
1.28571 -0.83317 -0.11207 252 250 241
1.27434 -0.83451 -0.12210 252 252 252
1.28025 -0.84141 -0.11637 253 252 252
1.28616 -0.84832 -0.11064 253 252 250
1.32526 -0.84668 -0.12594 249 239 212
1.34475 -0.85357 -0.13240 232 217 167
1.35584 -0.86058 -0.13114 191 166 102
1.30499 -0.87460 -0.06324 145 131 97
1.31083 -0.88145 -0.05753 136 134 114
1.28340 -0.88805 -0.02244 94 97 82
1.28384 -0.90286 -0.02105 73 49 54
1.43358 -1.05101 0.10306 198 205 212
1.42241 -1.05232 0.09321 210 214 220
1.45467 -1.05903 0.09697 203 210 218
1.46776 -1.06647 0.09711 207 213 214
1.47843 -1.07373 0.09915 203 203 193
1.47705 -1.07996 0.11031 188 177 155
1.47750 -1.09497 0.11172 189 176 155
2.29057 -1.46894 0.00243 21 21 45
2.25978 -1.47005 0.03177 31 47 60
2.29902 -1.48453 0.01973 61 92 114
0.43170 0.27649 -1.14114 238 253 254
0.43123 0.29239 -1.14264 254 254 254
0.42550 0.28374 -1.14715 250 254 254
0.43743 0.28514 -1.13662 254 254 254
0.44363 0.27789 -1.13061 254 254 254
0.44025 0.27128 -1.14053 224 247 254
0.45220 0.27268 -1.12998 252 254 254
0.44646 0.26402 -1.13451 215 234 252
0.44940 0.25397 -1.12105 199 216 249
0.54546 0.11282 -0.98162 213 239 245
0.53366 0.11143 -0.99202 220 250 251
0.54592 0.09710 -0.98014 170 197 220
0.59605 0.12447 -1.04613 130 146 136
0.60148 0.11654 -1.03832 109 122 112
0.60196 0.10041 -1.03680 178 169 160
0.61856 0.10477 -1.03491 228 224 181
0.61272 0.09597 -1.03951 231 232 210
0.61929 0.09379 -1.01795 206 185 138
0.62998 0.08925 -1.02037 107 95 67
0.63761 0.08272 -1.01679 50 51 43
0.65462 0.04825 -0.97691 54 55 75
0.66020 0.04050 -0.96953 64 67 102
0.66404 0.03174 -0.95896 67 85 98
0.67058 0.02458 -0.95340 71 87 95
0.67760 0.01769 -0.94869 56 68 90
0.68450 0.01072 -0.94376 37 53 86
0.69174 0.00393 -0.93943 39 45 73
0.70063 -0.00196 -0.93803 46 31 66
0.71067 -0.00725 -0.93864 47 23 48
0.70795 -0.01948 -0.91656 57 26 48
0.71834 -0.02461 -0.91774 66 58 86
0.71901 -0.04546 -0.88489 184 173 154
0.73061 -0.05000 -0.88812 203 209 178
0.74018 -0.05563 -0.88776 190 201 193
0.74161 -0.06538 -0.87342 170 142 170
0.75091 -0.07118 -0.87254 117 99 130
0.73581 -0.08889 -0.83044 49 64 105
0.73663 -0.09869 -0.81547 23 35 101
0.73710 -0.11447 -0.81399 48 44 62
0.74067 -0.10689 -0.80598 41 47 83
0.74388 -0.11545 -0.79514 55 60 62
0.74820 -0.12347 -0.78620 42 44 45
0.75257 -0.13144 -0.77737 44 39 47
0.75937 -0.13829 -0.77253 51 41 50
0.78526 -0.16636 -0.75095 45 51 58
0.77346 -0.16775 -0.76136 36 40 38
0.77959 -0.17492 -0.75542 48 47 50
0.79088 -0.17375 -0.74419 60 61 71
0.79458 -0.19158 -0.71894 56 57 71
0.83726 -0.25084 -0.66254 51 50 78
0.83165 -0.25931 -0.66697 78 83 93
0.83773 -0.26642 -0.66108 72 76 83
0.84804 -0.25626 -0.66360 56 64 77
0.85413 -0.26339 -0.65769 58 64 76
0.84850 -0.27189 -0.66213 65 70 74
0.87311 -0.28453 -0.64096 52 53 62
0.86138 -0.28590 -0.65131 60 70 89
0.88103 -0.30018 -0.62303 59 61 60
0.88619 -0.33447 -0.57270 46 44 68
0.88063 -0.34286 -0.57708 47 45 65
0.89128 -0.34178 -0.56558 54 53 73
0.89173 -0.35719 -0.56412 58 63 64
0.90497 -0.35536 -0.55620 45 41 51
0.92488 -0.36722 -0.55520 45 41 49
0.92983 -0.38329 -0.53391 48 48 55
0.93973 -0.38930 -0.53323 49 51 89
0.95993 -0.39265 -0.54615 123 132 174
0.96822 -0.39919 -0.54316 220 231 230
0.97213 -0.40686 -0.53441 235 225 189
0.98253 -0.41290 -0.53413 156 120 86
0.99842 -0.41765 -0.54090 62 30 31
1.02191 -0.48023 -0.46179 53 47 46
1.02602 -0.48769 -0.45354 79 67 75
1.02466 -0.49622 -0.43864 194 185 184
1.04174 -0.50111 -0.44626 248 253 248
1.04220 -0.51663 -0.44480 253 253 252
1.15665 -0.79611 -0.07709 225 215 206
1.15798 -0.80290 -0.06742 226 221 216
1.32031 -0.85502 -0.13083 253 253 245
1.30879 -0.85637 -0.14099 252 252 253
1.31477 -0.86337 -0.13518 252 252 253
1.32076 -0.87037 -0.12938 252 252 252
1.32317 -0.86203 -0.12217 253 252 234
1.32786 -0.86902 -0.11521 246 240 209
1.32631 -0.87599 -0.10263 218 205 162
1.30507 -0.88281 -0.07245 176 156 97
1.29074 -0.88951 -0.04872 139 115 75
1.43005 -1.05926 0.09742 212 218 225
1.41887 -1.06057 0.08755 223 228 234
1.43049 -1.07415 0.09882 229 235 239
1.44671 -1.06696 0.09469 216 222 229
1.44715 -1.08193 0.09609 231 237 239
1.45541 -1.07404 0.09815 220 225 227
1.46696 -1.08138 0.09947 217 219 215
1.47545 -1.08847 0.10316 204 199 186
0.36586 0.27711 -1.10554 244 253 254
0.36540 0.29264 -1.10700 254 254 254
0.35980 0.28419 -1.11141 253 254 254
0.37146 0.28556 -1.10112 254 254 254
0.37752 0.27847 -1.09525 254 254 254
0.37192 0.27002 -1.09966 226 251 254
0.38961 0.27349 -1.12147 225 249 254
0.39527 0.28202 -1.11701 254 254 254
0.40138 0.27487 -1.11108 254 254 254
0.39008 0.25781 -1.11999 194 227 250
0.40271 0.27261 -1.13204 242 251 253
0.40900 0.26554 -1.12639 231 233 249
0.40021 0.24524 -1.08560 180 196 241
0.40467 0.23673 -1.07596 136 181 236
0.41572 0.23391 -1.08154 119 177 235
0.41618 0.21829 -1.08007 114 170 228
0.42538 0.22981 -1.08378 116 172 235
0.42585 0.21415 -1.08230 116 168 230
0.43703 0.22731 -1.09041 115 166 235
0.43749 0.21158 -1.08893 130 180 240
0.48361 0.14449 -0.99950 182 215 236
0.47754 0.15159 -1.00538 179 209 233
0.49529 0.14586 -0.98919 203 233 249
0.48487 0.13383 -0.98344 206 234 249
0.49651 0.13519 -0.97317 192 230 250
0.49092 0.12676 -0.97758 204 234 250
0.48533 0.11832 -0.98198 196 231 250
0.50872 0.11670 -0.97767 192 233 250
0.50826 0.13227 -0.97913 177 224 248
0.50265 0.12380 -0.98356 176 216 246
0.49704 0.11533 -0.98798 181 220 245
0.50919 0.10113 -0.97620 220 250 251
0.52023 0.11344 -0.98295 212 246 251
0.52069 0.09780 -0.98147 224 252 253
0.58115 0.10957 -1.03251 130 140 151
0.58162 0.09353 -1.03100 139 142 136
0.58205 0.09869 -1.01579 128 135 127
0.58253 0.08271 -1.01428 171 164 155
0.59831 0.07526 -0.99289 215 203 172
0.61659 0.07565 -1.01026 144 99 72
0.62701 0.07093 -1.01219 58 32 33
0.63235 0.06298 -1.00427 45 52 63
0.63282 0.04686 -1.00275 46 34 52
0.63613 0.05410 -0.99340 55 58 75
0.63991 0.04524 -0.98258 55 62 77
0.64477 0.03708 -0.97386 51 59 77
0.65868 0.02325 -0.96431 44 52 77
0.66393 0.01535 -0.95636 55 36 69
0.66981 0.00781 -0.94959 52 24 45
0.67028 -0.00824 -0.94808 204 177 152
0.67831 0.00175 -0.94760 55 21 54
0.68620 -0.00467 -0.94447 61 44 68
0.68398 -0.02736 -0.90584 169 132 89
0.70154 -0.02855 -0.92002 214 190 142
0.72016 -0.04001 -0.91858 192 199 158
0.71385 -0.05385 -0.89048 170 146 184
0.70784 -0.07771 -0.84648 43 35 98
0.70830 -0.09351 -0.84499 40 45 68
0.70937 -0.08721 -0.83257 25 32 92
0.70984 -0.10296 -0.83108 46 46 70
0.71481 -0.09474 -0.82539 63 74 86
0.71527 -0.11049 -0.82391 40 41 68
0.71566 -0.10448 -0.81047 65 62 85
0.71613 -0.12017 -0.80900 45 45 68
0.72022 -0.11238 -0.80191 53 45 77
0.73090 -0.12740 -0.78745 51 42 56
0.73697 -0.13457 -0.78145 59 54 65
0.73426 -0.14569 -0.76103 74 97 106
0.73530 -0.15504 -0.74689 87 102 91
0.75326 -0.15689 -0.76037 47 59 45
0.75937 -0.16403 -0.75445 28 43 50
0.77466 -0.18668 -0.73192 51 46 59
0.76294 -0.18806 -0.74226 55 52 52
0.76903 -0.19518 -0.73635 48 47 48
0.77946 -0.19434 -0.72397 65 83 92
0.78344 -0.20230 -0.71477 61 83 96
0.78390 -0.21789 -0.71330 33 28 55
0.80099 -0.23331 -0.68083 42 40 62
0.80053 -0.21779 -0.68229 63 77 66
0.79494 -0.22623 -0.68670 46 41 67
0.80659 -0.22487 -0.67642 53 64 50
0.81264 -0.23194 -0.67055 45 49 43
0.80372 -0.24164 -0.66989 47 48 67
0.81040 -0.24847 -0.66499 58 64 71
0.81797 -0.25498 -0.66144 75 80 82
0.81843 -0.27049 -0.65998 63 69 89
0.85736 -0.29639 -0.63071 58 60 73
0.84569 -0.29776 -0.64100 60 72 83
0.86264 -0.30374 -0.62370 45 45 53
0.86309 -0.31927 -0.62224 52 50 57
0.86631 -0.31158 -0.61441 46 47 59
0.88016 -0.35181 -0.56220 57 59 69
0.89262 -0.36569 -0.55122 52 47 59
0.90076 -0.37210 -0.54835 58 45 57
0.90526 -0.37953 -0.54048 75 70 76
0.91424 -0.39436 -0.52479 94 102 92
0.92308 -0.40061 -0.52281 52 54 80
0.92501 -0.40867 -0.51158 80 80 125
0.95131 -0.41053 -0.53266 185 193 207
0.96571 -0.42412 -0.52393 205 172 145
0.98849 -0.42722 -0.53982 106 63 57
0.99130 -0.43514 -0.52961 48 32 37
0.99741 -0.44227 -0.52370 44 44 49
0.99177 -0.45078 -0.52814 50 36 35
1.00572 -0.48254 -0.46635 47 42 46
0.99969 -0.47549 -0.47220 44 46 49
1.01023 -0.48990 -0.45861 71 51 58
1.01430 -0.49733 -0.45035 147 129 119
1.02250 -0.50395 -0.44720 233 232 227
1.02296 -0.51940 -0.44574 253 253 253
1.03134 -0.51046 -0.44479 253 253 253
1.03180 -0.52594 -0.44333 252 252 252
1.13369 -0.80462 -0.06406 242 234 221
1.14591 -0.81100 -0.06495 231 223 209
1.17179 -0.82387 -0.06791 243 244 245
1.18274 -0.82259 -0.05825 252 252 252
1.17748 -0.83052 -0.06239 250 251 252
1.32234 -0.87735 -0.11956 253 252 248
1.31085 -0.87870 -0.12970 252 252 252
1.31682 -0.88568 -0.12391 252 252 252
1.31515 -0.89115 -0.09072 227 212 166
1.30718 -0.89790 -0.07253 186 143 71
1.41255 -1.06632 0.10263 226 231 236
1.40143 -1.06763 0.09282 228 235 243
1.45665 -1.08909 0.09895 229 234 235
1.45384 -1.09510 0.11121 219 220 213
1.45055 -1.10100 0.12376 203 194 175
1.46171 -1.09969 0.13361 187 172 151
1.45635 -1.10779 0.12938 195 178 155
0.35161 0.27332 -1.10949 246 248 252
0.35115 0.28881 -1.11095 254 254 254
0.34556 0.28038 -1.11535 254 254 254
0.33998 0.27195 -1.11975 254 254 254
0.36249 0.27072 -1.11536 198 208 245
0.35809 0.25404 -1.08423 129 171 238
0.36424 0.24713 -1.07871 130 190 242
0.36469 0.23170 -1.07726 134 183 237
0.39003 0.24521 -1.09950 197 220 247
0.39049 0.22961 -1.09803 145 185 243
0.38736 0.23045 -1.07308 151 182 238
0.39519 0.22492 -1.07137 133 175 233
0.40417 0.22035 -1.07228 121 173 229
0.46396 0.14877 -1.01159 182 192 221
0.46511 0.13798 -0.99513 195 203 227
0.47138 0.13109 -0.98978 185 207 230
0.47692 0.12366 -0.98285 190 226 248
0.49982 0.10589 -0.97524 204 243 249
0.48816 0.10452 -0.98553 195 231 247
0.50028 0.09035 -0.97378 207 249 252
0.55393 0.09784 -1.01233 173 210 230
0.54774 0.10508 -1.01833 217 248 252
0.56966 0.09701 -1.02557 142 152 172
0.59594 0.08008 -1.02245 198 185 183
0.60128 0.07216 -1.01456 171 153 135
0.59857 0.05917 -0.99098 152 126 93
0.61833 0.06036 -1.01121 97 81 70
0.62545 0.05354 -1.00674 45 37 54
0.63573 0.03748 -0.99023 57 32 42
0.63621 0.02140 -0.98871 170 143 111
0.63819 0.02788 -0.97693 61 32 41
0.64667 0.02187 -0.97505 63 42 46
0.64715 0.00581 -0.97353 203 184 141
0.65261 0.01436 -0.96836 60 40 66
0.65252 0.00339 -0.95048 94 76 96
0.65299 -0.01260 -0.94898 200 192 185
0.64090 -0.01402 -0.91148 160 126 123
0.68170 -0.03416 -0.91660 196 196 178
0.68751 -0.04167 -0.90982 172 142 191
0.69050 -0.05065 -0.89802 112 100 118
0.69097 -0.06658 -0.89652 42 41 65
0.67940 -0.06689 -0.86139 48 36 91
0.68605 -0.07382 -0.85632 34 49 120
0.68652 -0.08958 -0.85483 51 56 82
0.68988 -0.08218 -0.84631 50 78 105
0.69035 -0.09792 -0.84482 48 50 68
0.71521 -0.13061 -0.79121 49 54 68
0.70958 -0.13912 -0.79565 48 49 53
0.71215 -0.14196 -0.76998 77 94 98
0.71940 -0.14850 -0.76607 93 105 106
0.72201 -0.15714 -0.75449 72 72 90
0.73229 -0.16235 -0.75557 53 43 60
0.73907 -0.16913 -0.75085 46 42 53
0.74703 -0.17542 -0.74802 43 49 57
0.75311 -0.18252 -0.74213 44 48 48
0.74749 -0.19100 -0.74656 46 51 58
0.76469 -0.20654 -0.71391 40 34 41
0.75304 -0.20790 -0.72419 50 54 55
0.76799 -0.21472 -0.70369 42 30 56
0.77624 -0.23034 -0.68600 42 38 71
0.77066 -0.23875 -0.69039 60 67 80
0.77669 -0.24579 -0.68455 59 68 81
0.78177 -0.23758 -0.67939 55 59 82
0.78702 -0.24492 -0.67234 66 81 94
0.79356 -0.26102 -0.65229 67 75 72
0.80083 -0.26758 -0.64838 65 72 82
0.80129 -0.28299 -0.64693 62 61 83
0.83959 -0.30884 -0.61736 69 76 81
0.84461 -0.31620 -0.61008 63 60 65
0.85440 -0.33097 -0.59521 48 49 59
0.86068 -0.34675 -0.57542 45 45 61
0.86694 -0.35367 -0.57000 48 39 56
0.88738 -0.36523 -0.57018 69 63 65
0.89935 -0.37059 -0.57258 90 89 101
0.89966 -0.38791 -0.54477 119 133 136
0.90718 -0.39452 -0.54103 116 129 130
0.90469 -0.40377 -0.52371 92 85 90
0.90575 -0.41202 -0.51131 47 30 43
0.91243 -0.41880 -0.50650 58 47 70
0.94498 -0.42770 -0.52222 236 247 238
0.95845 -0.43297 -0.52616 232 217 190
0.97615 -0.43731 -0.53552 152 119 101
0.98466 -0.44388 -0.53275 65 37 41
0.98672 -0.48544 -0.46725 49 37 49
0.98626 -0.47003 -0.46870 40 48 54
0.98071 -0.47841 -0.47308 39 36 40
0.99354 -0.49229 -0.46245 78 57 71
0.99639 -0.49995 -0.45267 147 118 129
1.01241 -0.50502 -0.45930 222 211 206
1.01287 -0.52048 -0.45784 253 253 253
1.01329 -0.51305 -0.44708 250 253 249
1.01374 -0.52847 -0.44563 252 252 252
1.12415 -0.81260 -0.06393 250 244 236
1.11335 -0.81386 -0.07347 252 251 251
1.11896 -0.82043 -0.06802 250 248 245
1.12458 -0.82700 -0.06258 250 247 241
1.13440 -0.81904 -0.06297 244 240 230
1.14419 -0.82553 -0.06152 237 232 222
1.15346 -0.83205 -0.05953 237 233 224
1.16098 -0.83863 -0.05583 245 244 241
1.17187 -0.83736 -0.04623 252 252 252
1.16664 -0.84524 -0.05035 250 251 251
1.29829 -0.91953 -0.05184 202 178 112
1.32110 -0.94019 -0.03946 153 127 75
1.33237 -0.93887 -0.02952 96 95 91
1.32696 -0.94704 -0.03379 127 110 93
1.32154 -0.95521 -0.03805 191 166 130
