ply
format ascii 1.0
element face 0
property list uchar int vertex_indices
element vertex 1345
property float x
property float y
property float z
property uchar diffuse_red
property uchar diffuse_green
property uchar diffuse_blue
end_header
2.83316 -2.56074 -0.02999 170 176 243
2.82520 -2.57264 -0.01722 202 186 238
2.84150 -2.59380 -0.01490 182 165 197
2.83405 -2.60591 -0.00233 173 164 157
2.83121 -2.61979 0.00825 162 163 131
2.83876 -2.63776 0.01444 133 134 103
2.83675 -2.65200 0.02470 130 122 84
2.82581 -2.66268 0.03871 125 115 59
2.82911 -2.67906 0.04675 78 69 73
2.81537 -2.70006 0.04513 72 66 128
2.71292 -2.72040 0.15039 41 66 168
2.72634 -2.69988 0.15198 40 61 170
2.71590 -2.70689 0.13995 43 62 172
2.70547 -2.71389 0.12791 45 62 173
2.69754 -2.72859 0.16581 34 49 130
2.78770 -2.88855 0.20555 46 39 24
2.78006 -2.88188 0.18251 21 21 40
2.79575 -2.90753 0.21203 66 54 36
2.80776 -2.92842 0.21707 81 69 39
2.81245 -2.94600 0.22493 93 81 41
2.81778 -2.96394 0.23258 103 88 56
2.80389 -2.98518 0.23095 105 90 61
2.82096 -2.98091 0.24108 111 94 64
2.82869 -2.98766 0.26438 122 104 74
2.81787 -2.99492 0.25191 117 100 66
2.80705 -3.00218 0.23943 112 96 64
2.42086 -3.13258 0.60382 126 106 60
2.40805 -3.15218 0.60231 136 115 59
1.28332 -2.81189 1.16467 168 152 150
1.27821 -2.80743 1.14924 166 145 131
1.27903 -2.81961 1.17238 186 184 184
1.26983 -2.83368 1.17130 189 199 202
1.24946 -2.88418 1.23258 175 187 191
1.24438 -2.87974 1.21724 181 187 198
1.24234 -2.88896 1.22437 167 179 184
1.25104 -2.89603 1.23893 162 172 177
1.24010 -2.90945 1.25465 169 175 181
1.22883 -2.91183 1.26368 173 184 186
1.21972 -2.92576 1.26261 188 199 205
1.22448 -2.91927 1.27125 183 193 194
1.21538 -2.93319 1.27018 190 201 205
1.08627 -3.02187 1.42797 184 190 189
1.08141 -3.01762 1.41330 183 194 193
1.07946 -3.02644 1.42012 184 195 192
1.09163 -3.03676 1.43370 160 166 166
1.08611 -3.04262 1.44107 146 152 160
1.09098 -3.04688 1.45577 140 154 155
1.08416 -3.05146 1.44790 139 150 153
1.07734 -3.05604 1.44003 149 154 160
1.12187 -3.31002 1.58444 120 109 98
1.11684 -3.30563 1.56927 123 112 104
1.11483 -3.31474 1.57632 124 113 99
1.11281 -3.32386 1.58337 126 113 95
1.08904 -3.30124 1.60093 118 100 87
1.08208 -3.30591 1.59290 125 113 96
1.08009 -3.31493 1.59987 123 113 99
1.08952 -3.31259 1.60770 119 107 99
1.08056 -3.32629 1.60664 123 117 100
1.01105 -3.36655 1.69399 154 138 119
1.00619 -3.36230 1.67931 159 141 131
1.00424 -3.37112 1.68614 159 142 131
1.00229 -3.37994 1.69296 156 141 128
1.00798 -3.37425 1.70087 149 132 117
1.00604 -3.38307 1.70769 146 129 120
1.32927 -0.93061 -0.05737 218 195 146
1.32476 -0.92668 -0.07098 248 241 215
1.32295 -0.93485 -0.06466 250 244 216
1.32115 -0.94303 -0.05833 251 245 219
1.30355 -0.93909 -0.03473 219 193 151
1.29550 -0.95139 -0.03568 252 247 232
1.27981 -0.94740 -0.01353 225 204 183
1.27182 -0.95960 -0.01447 253 251 248
1.23089 -1.05115 0.08427 254 254 252
1.23880 -1.03906 0.08521 254 254 254
1.23265 -1.04318 0.07812 254 254 254
1.22961 -1.05912 0.09012 244 243 237
1.22140 -1.06685 0.10049 201 189 185
1.21871 -1.07476 0.10724 127 104 110
1.23903 -1.08364 0.09908 89 71 69
1.23108 -1.09580 0.09814 95 87 73
1.24615 -1.09205 0.09952 92 82 72
1.23817 -1.10425 0.09858 96 87 74
1.25843 -1.11712 0.10690 95 87 72
1.26762 -1.12584 0.10615 81 80 54
1.27704 -1.13465 0.10529 46 53 45
1.29098 -1.14381 0.10161 28 19 34
1.28283 -1.15627 0.10065 11 11 20
1.29708 -1.15254 0.10295 14 10 24
1.28891 -1.16504 0.10198 11 10 20
1.99492 -1.58730 -0.09633 21 22 20
1.98906 -1.58218 -0.11400 33 34 29
1.98672 -1.59280 -0.10578 24 27 19
2.02405 -1.60373 -0.10571 59 61 53
2.03310 -1.61660 -0.10379 90 80 79
2.03903 -1.62178 -0.08589 100 84 71
2.03073 -1.62735 -0.09547 99 81 77
2.02242 -1.63293 -0.10504 97 80 79
2.83571 -2.14785 -0.31347 53 45 44
2.82825 -2.14133 -0.33598 62 50 49
2.82227 -2.16839 -0.31506 32 25 26
2.84524 -2.16490 -0.30926 35 32 30
2.84911 -2.18042 -0.30218 30 28 32
2.88254 -2.20450 -0.30969 55 56 67
2.92578 -2.23169 -0.32188 82 87 94
2.93638 -2.24957 -0.31786 85 95 101
2.94089 -2.26573 -0.31082 79 88 102
2.93444 -2.27863 -0.29840 75 81 96
2.94813 -2.29766 -0.29576 74 80 88
2.95783 -2.31557 -0.29111 65 67 74
2.95322 -2.32910 -0.27955 43 34 46
2.95173 -2.34361 -0.26949 36 14 23
2.94864 -2.35761 -0.25866 46 16 21
2.93782 -2.36487 -0.27113 51 21 14
2.94334 -2.40094 -0.22802 77 25 21
2.94644 -2.38692 -0.23887 68 30 17
2.93561 -2.39419 -0.25135 66 30 18
2.93751 -2.41405 -0.21590 91 39 47
2.91809 -2.42257 -0.19748 101 54 83
2.91225 -2.43559 -0.18541 96 49 102
2.89840 -2.45676 -0.18704 36 51 155
2.90115 -2.44678 -0.17093 63 50 137
2.88868 -2.45744 -0.15585 64 76 173
2.87488 -2.47853 -0.15748 45 63 173
2.87621 -2.46804 -0.14082 63 74 181
2.86245 -2.48909 -0.14245 46 60 171
2.86671 -2.49456 -0.11786 61 77 178
2.85564 -2.52045 -0.09421 74 78 178
2.84796 -2.53258 -0.08145 47 44 164
2.83424 -2.55357 -0.08307 31 48 160
2.84721 -2.54726 -0.07178 26 46 180
2.84631 -2.56189 -0.06204 74 92 217
2.83545 -2.57277 -0.04792 152 168 231
2.79675 -2.57296 -0.02168 211 201 227
2.83023 -2.60072 -0.02693 197 179 185
2.81757 -2.61079 -0.01210 154 142 129
2.83589 -2.63296 -0.01062 103 96 96
2.84042 -2.64981 -0.00315 64 62 89
2.82080 -2.65707 0.01462 93 94 87
2.81500 -2.66978 0.02647 148 146 77
2.81057 -2.68303 0.03774 126 113 72
2.69842 -2.72566 0.14002 41 62 166
2.69098 -2.71916 0.11756 43 61 174
2.68329 -2.73390 0.15538 32 46 128
2.68895 -2.75112 0.16231 24 26 92
2.67556 -2.77160 0.16073 19 21 79
2.77757 -2.89599 0.19300 40 36 29
2.76993 -2.88932 0.16996 17 19 48
2.78678 -2.91553 0.19900 61 51 37
2.79635 -2.93534 0.20491 78 64 43
2.80490 -2.95477 0.21127 90 76 44
2.81103 -2.97311 0.21860 98 84 57
2.79712 -2.99437 0.21696 101 87 57
2.44999 -3.14687 0.57069 102 85 53
2.45287 -3.13384 0.56062 113 93 48
2.44281 -3.14060 0.54901 115 98 54
2.43993 -3.15362 0.55909 104 90 56
2.43706 -3.16665 0.56917 114 95 61
2.43648 -3.15384 0.58417 126 106 60
1.30037 -2.83342 1.15053 168 151 151
1.29521 -2.82891 1.13496 164 144 128
1.28072 -2.83056 1.16200 187 187 186
1.27149 -2.84467 1.16091 191 200 204
1.23410 -2.89365 1.23285 163 175 180
1.22903 -2.88922 1.21755 177 189 197
1.21799 -2.89249 1.24300 172 183 192
1.20891 -2.90638 1.24193 188 202 207
1.21343 -2.89976 1.25062 179 191 199
1.20436 -2.91364 1.24955 192 204 207
1.20759 -2.90607 1.25849 184 197 205
1.19853 -2.91992 1.25742 192 203 208
1.08279 -3.03966 1.42613 169 179 177
1.07792 -3.03541 1.41142 183 193 193
1.08092 -3.04857 1.43296 153 161 162
1.07214 -3.06199 1.43192 150 160 162
1.20959 -1.04683 0.08222 253 254 252
1.21745 -1.03482 0.08314 254 254 254
1.21134 -1.03892 0.07610 254 254 254
1.21755 -1.05505 0.08193 242 240 235
1.20493 -1.06261 0.09522 198 181 183
1.20950 -1.07075 0.09720 123 100 112
1.20163 -1.08279 0.09627 96 81 80
1.22102 -1.07922 0.09465 94 71 78
1.21310 -1.09132 0.09372 98 86 80
1.22697 -1.08753 0.09578 94 81 72
1.21903 -1.09966 0.09484 96 87 79
1.24386 -1.11268 0.09998 95 88 66
1.25367 -1.12139 0.09873 81 80 54
1.27004 -1.13057 0.09332 47 56 37
1.28021 -1.13947 0.09196 24 25 35
1.27208 -1.15189 0.09100 14 10 15
1.28640 -1.14818 0.09318 16 11 25
1.27824 -1.16064 0.09222 10 11 14
1.99807 -1.60598 -0.10529 38 34 38
2.03284 -1.62370 -0.11788 81 74 77
2.82131 -2.15375 -0.32352 49 40 42
2.81386 -2.14724 -0.34601 62 49 49
2.80789 -2.17427 -0.32511 33 19 33
2.83181 -2.18551 -0.31087 35 38 35
2.89334 -2.21782 -0.33256 57 70 75
2.90305 -2.23534 -0.32824 67 80 90
2.90142 -2.24957 -0.31826 58 72 85
2.91465 -2.26829 -0.31558 48 57 77
2.91159 -2.28216 -0.30486 40 47 74
2.92798 -2.30202 -0.30362 45 53 79
2.91414 -2.32317 -0.30525 26 24 75
2.91912 -2.31415 -0.29003 51 49 70
2.90530 -2.33528 -0.29166 30 23 68
2.92356 -2.33043 -0.28290 47 30 48
2.92696 -2.34643 -0.27524 46 19 26
2.92345 -2.40520 -0.23622 80 44 31
2.90531 -2.41414 -0.21831 104 81 78
2.91455 -2.43225 -0.21330 90 78 130
2.90066 -2.45348 -0.21494 30 49 155
2.90541 -2.44416 -0.19966 53 51 142
2.89155 -2.46536 -0.20130 36 55 164
2.88431 -2.46687 -0.17117 37 59 168
2.87357 -2.47408 -0.18356 36 58 170
2.87050 -2.48799 -0.17279 45 60 170
2.85417 -2.50107 -0.12935 46 62 176
2.84654 -2.49440 -0.15238 44 59 174
2.84348 -2.50825 -0.14168 42 55 174
2.84565 -2.51293 -0.11616 74 104 189
2.84459 -2.52749 -0.10636 69 81 180
2.83962 -2.54061 -0.09481 52 57 164
2.83509 -2.56886 -0.07412 24 35 154
2.82441 -2.57603 -0.08644 34 35 101
2.83280 -2.58298 -0.06376 110 118 158
2.82312 -2.59426 -0.05014 162 156 172
2.82592 -2.61035 -0.04202 142 125 132
2.83041 -2.62713 -0.03461 86 78 89
2.81665 -2.64817 -0.03623 36 27 84
2.81487 -2.63606 -0.01848 50 41 80
2.81420 -2.65082 -0.00882 26 28 102
2.80924 -2.66388 0.00269 57 68 104
2.80299 -2.67640 0.01474 136 145 97
2.79862 -2.68966 0.02599 155 144 95
2.79992 -2.70526 0.03483 85 71 124
2.79687 -2.71907 0.04551 45 53 154
2.78620 -2.72623 0.03321 47 50 145
2.69398 -2.73523 0.12554 41 59 165
2.68653 -2.72872 0.10305 43 60 172
2.66671 -2.73819 0.14593 32 43 126
2.68663 -2.76166 0.14701 24 25 91
2.67321 -2.78218 0.14543 18 21 75
2.77553 -2.90718 0.17729 35 31 36
2.76788 -2.90050 0.15419 17 18 53
2.76482 -2.91438 0.16493 30 26 38
2.78249 -2.92574 0.18413 55 46 37
2.78868 -2.94402 0.19131 73 59 39
2.80147 -2.96550 0.19601 85 71 45
2.80838 -2.98428 0.20302 94 80 54
1.29782 -2.84151 1.14104 167 152 150
1.29265 -2.83700 1.12544 163 144 127
1.28358 -2.84239 1.15126 189 192 188
1.27432 -2.85656 1.15017 191 199 203
1.27105 -2.86586 1.17442 186 197 203
1.28029 -2.85173 1.17551 188 196 200
1.27310 -2.85656 1.16722 188 197 201
1.27823 -2.86104 1.18271 190 199 202
1.27618 -2.87035 1.18991 191 199 204
1.26466 -2.87208 1.18264 186 198 207
1.26979 -2.87656 1.19810 190 198 202
1.25842 -2.87837 1.19080 188 200 204
1.26354 -2.88283 1.20624 187 196 202
1.25637 -2.88764 1.19797 186 199 204
1.19663 -2.88667 1.23799 183 198 201
1.07013 -3.03935 1.41918 183 190 185
1.06526 -3.03510 1.40450 183 192 193
1.07369 -3.05282 1.42515 160 165 168
1.06492 -3.06623 1.42411 144 156 160
1.23269 -3.26537 1.44955 97 89 80
1.23791 -3.26992 1.46529 92 85 81
1.23060 -3.27482 1.45686 87 85 77
1.22330 -3.27973 1.44844 87 85 72
1.18116 -1.04236 0.08514 253 254 251
1.18895 -1.03046 0.08605 254 254 254
1.18289 -1.03452 0.07907 254 254 254
1.18763 -1.05045 0.08574 240 240 229
1.18216 -1.05818 0.09430 190 177 160
1.19397 -1.06653 0.09140 122 97 89
1.20570 -1.07495 0.08861 93 72 80
1.19782 -1.08700 0.08768 98 86 81
1.22787 -1.10820 0.09410 93 88 73
1.23705 -1.11683 0.09318 78 80 52
1.25346 -1.12594 0.08761 44 53 45
1.27294 -1.13535 0.08012 21 22 33
1.26482 -1.14777 0.07916 11 10 13
1.27894 -1.14403 0.08141 15 11 23
1.27079 -1.15649 0.08045 14 10 9
1.94112 -1.54776 -0.12107 17 17 29
1.95152 -1.53185 -0.11985 11 12 23
1.94343 -1.53728 -0.12918 9 11 23
1.93534 -1.54271 -0.13850 8 11 13
1.94689 -1.55280 -0.10365 31 31 30
1.93881 -1.55823 -0.11297 29 29 31
1.99601 -1.60156 -0.12520 32 27 18
1.99836 -1.59088 -0.13346 35 33 36
1.99012 -1.59641 -0.14297 36 33 37
1.98776 -1.60709 -0.13471 34 30 26
1.99506 -1.61250 -0.11775 28 15 20
2.03543 -1.63139 -0.13365 71 67 56
2.03857 -1.64329 -0.12841 95 82 72
2.04455 -1.64850 -0.11038 99 82 77
2.03618 -1.65412 -0.12003 99 83 81
2.02782 -1.65973 -0.12967 96 85 77
2.81401 -2.19042 -0.31925 31 33 41
2.80654 -2.18390 -0.34179 27 17 30
2.80355 -2.19744 -0.33131 18 12 41
2.83279 -2.21034 -0.31973 37 47 63
2.83162 -2.22449 -0.31012 35 43 64
2.81810 -2.24517 -0.31171 7 9 54
2.83477 -2.23996 -0.30265 22 29 59
2.82123 -2.26066 -0.30425 8 11 56
2.84325 -2.25708 -0.29781 11 15 56
2.82967 -2.27784 -0.29941 9 13 60
2.85540 -2.27541 -0.29473 8 12 61
2.84177 -2.29624 -0.29633 11 16 72
2.87737 -2.29688 -0.29642 15 19 75
2.86367 -2.31785 -0.29803 14 20 82
2.90246 -2.34927 -0.28101 26 23 51
2.89479 -2.34257 -0.30417 17 25 88
2.89172 -2.35648 -0.29340 19 28 80
2.90672 -2.36556 -0.27379 21 25 28
2.91441 -2.37227 -0.25059 60 28 13
2.90364 -2.37950 -0.26301 23 30 18
2.90393 -2.39456 -0.25384 27 31 28
2.89506 -2.40657 -0.24029 40 48 63
2.89082 -2.42011 -0.22896 61 79 115
2.87699 -2.44126 -0.23059 31 48 149
2.89916 -2.43793 -0.22358 47 63 146
2.88529 -2.45914 -0.22521 32 51 156
2.83079 -2.51857 -0.12656 47 62 178
2.82317 -2.51191 -0.14955 45 58 174
2.82013 -2.52573 -0.13886 46 62 176
2.82799 -2.53247 -0.11599 50 68 174
2.82229 -2.54529 -0.10410 52 68 167
2.80858 -2.56625 -0.10572 71 68 119
2.82753 -2.56222 -0.09717 50 58 148
2.82366 -2.59074 -0.07677 94 88 90
2.81298 -2.59792 -0.08909 101 84 81
2.81929 -2.60407 -0.06548 114 104 110
2.79914 -2.61123 -0.04722 73 67 92
2.78546 -2.63215 -0.04883 32 22 76
2.80736 -2.62945 -0.04152 33 31 76
2.79901 -2.65618 -0.01916 42 35 110
2.79009 -2.66760 -0.00594 56 60 112
2.79319 -2.68390 0.00208 120 123 101
2.78905 -2.69726 0.01323 158 146 112
2.79367 -2.71426 0.02064 88 72 117
2.77994 -2.73526 0.01902 65 51 129
2.68883 -2.74453 0.11131 42 58 162
2.68136 -2.73801 0.08879 44 61 172
2.67835 -2.75479 0.12487 33 42 123
2.69757 -2.77809 0.12621 23 25 88
2.68408 -2.79872 0.12462 17 24 72
2.77096 -2.93259 0.17205 48 39 26
2.76329 -2.92589 0.14890 28 23 45
2.76022 -2.93980 0.15966 44 32 29
2.77909 -2.95180 0.17844 65 53 28
2.79485 -2.97475 0.18192 79 65 39
2.80811 -2.99664 0.18645 89 75 43
2.81470 -3.01541 0.19362 96 83 54
2.82247 -3.02220 0.21707 109 91 67
2.81159 -3.02950 0.20452 105 88 67
2.79848 -3.24333 0.34656 108 88 54
2.81257 -3.22177 0.34822 126 105 61
2.78751 -3.25069 0.33391 106 84 38
2.80451 -3.26253 0.35437 84 65 49
2.54826 -3.18283 0.48035 90 77 59
2.54087 -3.17637 0.45805 42 32 26
2.53791 -3.18977 0.46841 37 30 33
2.53495 -3.20318 0.47878 40 35 37
2.51054 -3.17661 0.50232 95 82 59
2.49725 -3.18401 0.51602 103 91 58
2.47957 -3.18881 0.53113 112 99 65
2.47666 -3.20201 0.54134 116 99 67
2.46647 -3.20885 0.52958 111 105 85
1.31553 -2.86379 1.12643 166 153 152
1.31031 -2.85923 1.11069 165 145 130
1.28736 -2.85493 1.14023 191 195 194
1.27901 -2.87068 1.15575 183 191 194
1.27464 -2.87839 1.16354 154 155 182
1.26801 -2.88446 1.17185 152 152 184
1.25280 -2.88429 1.18217 162 170 193
1.24074 -2.88630 1.19169 167 179 201
1.24584 -2.89076 1.20708 182 191 205
1.22412 -2.88491 1.20220 173 187 208
1.19405 -2.88410 1.22230 181 200 206
1.18369 -2.88700 1.23121 184 202 209
1.17738 -2.89286 1.23918 187 203 209
1.17581 -2.90225 1.24609 191 205 208
1.17381 -2.91131 1.25310 193 208 211
1.05559 -3.03741 1.41257 184 194 190
1.05074 -3.03317 1.39794 179 193 198
1.05858 -3.05038 1.41859 163 170 171
1.04984 -3.06375 1.41755 148 157 167
1.21405 -3.24909 1.43571 123 114 102
1.20886 -3.24456 1.42006 146 150 148
1.20678 -3.25397 1.42733 112 105 97
1.21669 -3.26264 1.44234 92 83 67
1.20733 -3.27696 1.44123 88 84 76
1.16443 -1.03827 0.08046 252 254 251
1.17217 -1.02642 0.08138 254 254 254
1.16615 -1.03047 0.07443 254 254 254
1.16581 -1.04615 0.08441 236 236 231
1.16850 -1.05411 0.08749 180 172 173
1.18186 -1.06246 0.08345 105 96 96
1.18939 -1.07068 0.08336 89 73 64
1.18155 -1.08267 0.08244 97 87 81
1.19428 -1.07885 0.08506 96 82 79
1.18641 -1.09087 0.08413 97 88 76
1.21473 -1.10390 0.08650 93 89 70
1.21649 -1.09590 0.08032 98 88 77
1.22238 -1.11240 0.08649 77 79 59
1.24570 -1.12185 0.07626 41 46 48
1.26147 -1.13100 0.07106 20 20 38
1.25337 -1.14338 0.07010 11 10 17
1.27386 -1.14005 0.06812 12 12 24
1.26572 -1.15250 0.06716 11 11 11
1.95000 -1.55615 -0.14028 14 15 14
1.94419 -1.55108 -0.15780 10 9 14
1.94187 -1.56161 -0.14965 13 10 18
1.96070 -1.56899 -0.13969 27 25 29
1.96652 -1.57408 -0.12210 34 34 35
1.95836 -1.57956 -0.13151 36 30 35
1.95020 -1.58504 -0.14092 30 31 38
1.99445 -1.61949 -0.13163 21 19 27
1.98855 -1.61434 -0.14944 31 32 31
1.98618 -1.62504 -0.14116 21 27 25
2.01855 -1.63534 -0.13842 56 52 46
2.80936 -2.17030 -0.35217 46 33 37
2.81235 -2.15676 -0.36265 62 50 43
2.79591 -2.19086 -0.35376 27 17 32
2.81554 -2.21540 -0.32843 11 11 57
2.80804 -2.20886 -0.35104 14 8 41
2.80504 -2.22245 -0.34053 8 8 55
2.80204 -2.23604 -0.33002 5 9 57
2.81475 -2.22965 -0.31903 6 9 55
2.80125 -2.25030 -0.32062 5 9 57
2.87636 -2.36639 -0.27665 19 33 57
2.86871 -2.35971 -0.29974 16 25 87
2.86565 -2.37358 -0.28901 22 32 77
2.87454 -2.38068 -0.26652 22 41 41
2.87208 -2.39476 -0.25607 26 43 52
2.86820 -2.40837 -0.24495 28 43 95
2.86457 -2.42205 -0.23394 30 49 138
2.85079 -2.44312 -0.23556 31 50 149
2.81511 -2.53881 -0.12728 44 60 163
2.81254 -2.55279 -0.11682 50 56 142
2.81646 -2.58424 -0.09999 81 67 75
2.80577 -2.59142 -0.11231 106 87 67
2.80860 -2.61124 -0.07779 77 68 82
2.79486 -2.63225 -0.07941 57 35 75
2.79700 -2.62171 -0.06328 46 35 85
2.79070 -2.64924 -0.04183 63 47 64
2.77701 -2.65875 -0.02648 92 67 90
2.77502 -2.67295 -0.01629 106 89 91
2.76134 -2.69386 -0.01790 152 127 78
2.78100 -2.69043 -0.00956 129 113 84
2.77910 -2.70471 0.00063 151 128 103
2.77753 -2.71914 0.01067 100 75 102
2.76382 -2.74011 0.00905 93 63 97
2.68228 -2.75325 0.09762 44 60 162
2.67481 -2.74673 0.07508 45 62 176
2.67849 -2.76645 0.10843 35 44 120
2.69809 -2.79002 0.10954 23 28 84
2.68456 -2.81070 0.10795 16 23 73
2.77115 -2.96038 0.16490 56 44 27
2.76345 -2.95366 0.14168 49 39 30
2.76037 -2.96762 0.15248 51 35 27
2.78548 -2.98271 0.16888 72 57 33
2.80332 -3.00687 0.17156 84 70 39
2.81255 -3.02698 0.17768 91 79 49
2.81970 -3.04616 0.18465 99 85 62
2.82751 -3.05298 0.20822 111 95 66
2.81658 -3.06032 0.19561 108 92 64
2.80564 -3.06766 0.18300 104 89 58
2.52338 -3.21166 0.49203 59 62 56
2.51601 -3.20521 0.46978 17 13 16
2.48393 -3.20402 0.51453 100 104 88
1.32018 -2.87708 1.11496 166 154 154
1.31494 -2.87250 1.09915 165 145 132
1.28979 -2.86661 1.12945 191 196 198
1.28588 -2.87471 1.13718 191 199 198
1.27983 -2.88128 1.14543 176 174 170
1.27702 -2.90100 1.15962 99 54 115
1.26770 -2.91525 1.15852 90 28 67
1.24826 -2.89101 1.17327 110 76 132
1.23770 -2.89409 1.18248 116 95 150
1.22421 -2.89495 1.19233 125 112 162
1.19975 -2.88762 1.20466 134 130 168
1.17383 -2.87902 1.21722 141 147 177
1.17291 -2.88889 1.22398 154 161 193
1.15339 -2.89530 1.24144 170 183 203
1.14586 -2.90010 1.24962 180 197 213
1.15081 -2.90443 1.26458 195 207 210
1.13760 -2.90431 1.25793 186 200 214
1.14254 -2.90863 1.27286 197 205 208
1.13301 -2.91127 1.26543 192 202 213
1.13795 -2.91559 1.28033 196 205 209
1.11771 -2.90996 1.27517 193 206 212
1.12263 -2.91425 1.29000 196 207 211
1.11062 -2.91489 1.28314 195 208 218
1.11552 -2.91918 1.29793 194 206 209
1.10866 -2.92378 1.29001 195 207 213
1.03660 -3.03163 1.40674 181 194 198
1.03178 -3.02742 1.39219 179 192 198
1.04355 -3.04794 1.41207 165 175 179
1.03484 -3.06127 1.41104 148 157 165
1.14854 -1.03423 0.07537 251 254 251
1.15625 -1.02244 0.07628 254 254 254
1.15026 -1.02646 0.06936 254 254 254
1.14889 -1.04205 0.07998 231 232 225
1.14502 -1.04975 0.08744 173 163 159
1.13732 -1.06154 0.08653 83 69 74
1.16964 -1.05840 0.07568 102 91 95
1.17686 -1.06658 0.07572 85 73 83
1.16904 -1.07853 0.07480 95 88 84
1.18193 -1.07472 0.07724 93 83 77
1.17409 -1.08670 0.07632 95 88 82
1.19974 -1.09953 0.08023 94 88 66
1.20794 -1.10801 0.07978 76 77 54
1.23324 -1.11750 0.06806 42 45 48
1.22522 -1.12977 0.06712 16 11 25
1.25512 -1.12696 0.05871 22 17 39
1.24702 -1.13934 0.05776 14 11 18
1.26414 -1.13578 0.05790 14 11 26
1.25601 -1.14820 0.05694 12 10 15
1.95731 -1.57533 -0.15189 20 18 28
1.95147 -1.57023 -0.16950 10 9 14
2.00323 -1.63956 -0.14402 31 23 34
1.99729 -1.63437 -0.16193 28 33 32
2.04623 -1.65938 -0.16164 75 76 65
2.81719 -2.16813 -0.38266 61 52 44
2.83068 -2.14749 -0.38107 70 56 47
2.82019 -2.15453 -0.39317 71 59 52
2.80969 -2.16158 -0.40527 71 58 55
2.81607 -2.18226 -0.37312 46 35 36
2.84740 -2.38241 -0.27084 24 42 72
2.83367 -2.40341 -0.27246 22 39 113
2.84385 -2.39607 -0.25990 23 44 86
2.83013 -2.41707 -0.26152 18 38 126
2.84939 -2.41281 -0.25338 23 41 116
2.83563 -2.43385 -0.25500 19 42 138
2.84113 -2.42488 -0.24015 26 44 141
2.82739 -2.44589 -0.24177 26 47 145
2.79912 -2.52905 -0.14635 58 68 168
2.80216 -2.51527 -0.15701 53 65 169
2.79152 -2.52241 -0.16928 71 69 156
2.80056 -2.54451 -0.13777 59 63 141
2.78686 -2.56545 -0.13938 81 53 73
2.81219 -2.56385 -0.13387 63 48 96
2.80704 -2.57689 -0.12220 93 79 86
2.80531 -2.60627 -0.10279 82 70 89
2.80266 -2.62028 -0.09226 54 45 80
2.78891 -2.64131 -0.09388 55 33 51
2.78165 -2.64202 -0.06416 53 37 65
2.77146 -2.65294 -0.05030 95 77 51
2.76974 -2.66726 -0.04023 133 110 85
2.77036 -2.68254 -0.03119 146 127 89
2.75666 -2.70349 -0.03281 137 125 110
2.75219 -2.70508 -0.00458 155 127 83
2.74157 -2.71221 -0.01683 154 134 93
2.74902 -2.71878 0.00612 127 93 77
2.68295 -2.76517 0.08084 44 60 163
2.67546 -2.75863 0.05824 45 64 175
2.68560 -2.78126 0.08898 33 44 118
2.69771 -2.80162 0.09317 22 28 82
2.68415 -2.82235 0.09157 17 20 73
2.77929 -2.99222 0.15456 64 50 29
2.77156 -2.98546 0.13122 45 30 16
2.80206 -3.01886 0.15524 78 63 40
2.81295 -3.03986 0.16068 87 76 43
2.82086 -3.05949 0.16734 95 83 52
2.80676 -3.08105 0.16568 100 87 47
2.53343 -3.23030 0.47321 39 47 47
2.52602 -3.22383 0.45084 21 17 12
2.50532 -3.22919 0.49208 94 107 100
2.50478 -3.24395 0.50160 107 106 95
2.51215 -3.25039 0.52384 111 103 83
2.47787 -3.24326 0.51990 103 101 94
2.48519 -3.24966 0.54200 116 104 84
2.47494 -3.25654 0.53017 106 101 92
1.32330 -2.88938 1.10380 169 159 156
1.31804 -2.88478 1.08792 162 146 130
1.29285 -2.87881 1.11843 191 200 200
1.28348 -2.89314 1.11732 192 201 205
1.29028 -2.88790 1.12586 191 199 197
1.27985 -2.89135 1.13525 174 169 155
1.24632 -2.88885 1.15702 91 30 59
1.19081 -2.86974 1.18380 83 24 61
1.18175 -2.88359 1.18273 124 72 64
1.15028 -2.85043 1.20003 81 20 71
1.14136 -2.86408 1.19898 119 53 63
1.15115 -2.86154 1.20631 84 29 75
1.14583 -2.88901 1.22704 108 68 128
1.13689 -2.90267 1.22599 91 26 60
1.15723 -2.90816 1.23098 120 91 139
1.15363 -2.91599 1.23834 131 116 159
1.13169 -2.90973 1.24973 139 129 180
1.13248 -2.92084 1.25606 151 152 191
1.12100 -2.92246 1.26505 159 164 185
1.10335 -2.92961 1.28177 175 188 209
1.10825 -2.93390 1.29657 195 208 210
1.09793 -2.93579 1.28937 180 195 210
1.10283 -2.94007 1.30415 194 207 210
1.09090 -2.94067 1.29728 183 200 212
1.09579 -2.94494 1.31203 192 205 216
1.08779 -2.95904 1.31084 189 203 213
1.09268 -2.96331 1.32560 191 200 205
1.08456 -2.97734 1.32442 189 197 205
1.08945 -2.98161 1.33919 187 197 200
1.08260 -2.98621 1.33129 186 196 199
1.07575 -2.99081 1.32339 167 182 196
1.02087 -3.02852 1.40046 176 189 193
1.01606 -3.02432 1.38596 181 191 202
1.01414 -3.03304 1.39270 173 185 194
1.01222 -3.04175 1.39944 161 169 173
1.02758 -3.04462 1.40578 157 166 172
1.01890 -3.05790 1.40475 155 164 166
1.17871 -3.29649 1.45676 91 89 94
1.18802 -3.28226 1.45786 91 88 81
1.17354 -3.29198 1.44117 87 106 121
1.18595 -3.29164 1.46511 95 89 85
1.18388 -3.30101 1.47236 98 92 88
1.17664 -3.30587 1.46401 94 90 95
1.12654 -1.03008 0.07462 251 254 251
1.13420 -1.01837 0.07552 254 254 254
1.12825 -1.02237 0.06865 254 254 254
1.12418 -1.03777 0.08103 227 231 227
1.13752 -1.04592 0.07672 163 155 165
1.12982 -1.05769 0.07581 84 71 76
1.15974 -1.05444 0.06642 96 84 97
1.16810 -1.07055 0.07053 94 82 83
1.16203 -1.07463 0.06352 99 87 80
1.16029 -1.08249 0.06961 95 88 81
1.18512 -1.09520 0.07385 92 88 63
1.19425 -1.10369 0.07270 73 73 47
1.22086 -1.11319 0.05992 39 41 47
1.21286 -1.12541 0.05898 14 11 26
1.23806 -1.12232 0.05351 21 16 38
1.23001 -1.13464 0.05256 15 12 17
2.23211 -1.36205 -0.49505 15 8 17
2.24333 -1.34489 -0.49373 10 9 8
2.23460 -1.35075 -0.50379 12 9 8
2.24083 -1.35619 -0.48499 9 9 8
2.23834 -1.36749 -0.47625 8 9 8
2.23349 -1.37377 -0.48876 16 7 15
2.23973 -1.37922 -0.46994 9 10 7
2.23555 -1.38560 -0.48288 17 9 16
2.24179 -1.39105 -0.46404 10 10 6
2.23305 -1.39692 -0.47413 15 10 9
1.94985 -1.58094 -0.16173 16 14 23
1.94402 -1.57585 -0.17935 10 9 9
1.95161 -1.59229 -0.15595 25 26 36
1.95745 -1.59739 -0.13831 34 32 39
1.94927 -1.60289 -0.14775 35 32 43
1.94109 -1.60838 -0.15719 30 34 48
2.00850 -1.64783 -0.16146 22 22 41
2.00254 -1.64263 -0.17945 29 34 26
2.00016 -1.65344 -0.17109 30 24 18
2.05108 -1.66772 -0.17901 62 58 65
2.05873 -1.68074 -0.17632 91 80 73
2.06479 -1.68603 -0.15804 99 84 79
2.05631 -1.69172 -0.16782 99 82 76
2.04783 -1.69741 -0.17760 96 84 82
2.82996 -2.18183 -0.40695 62 52 43
2.82242 -2.17525 -0.42969 71 56 52
2.83312 -2.19729 -0.39960 48 39 30
2.83469 -2.21232 -0.39140 28 18 28
2.83167 -2.22602 -0.38081 14 7 39
2.82109 -2.23313 -0.39301 13 7 31
2.82332 -2.37030 -0.28569 28 33 89
2.82636 -2.35653 -0.29634 17 22 84
2.80964 -2.39121 -0.28730 30 37 117
2.82220 -2.38472 -0.27598 30 40 100
2.80852 -2.40564 -0.27760 22 34 125
2.78583 -2.53520 -0.15737 89 86 151
2.77519 -2.54234 -0.16964 123 113 119
2.78746 -2.55073 -0.14891 93 81 117
2.79835 -2.58483 -0.13544 96 74 80
2.79840 -2.59988 -0.12617 74 59 69
2.78464 -2.62091 -0.12779 24 9 59
2.79527 -2.61370 -0.11542 46 38 76
2.79278 -2.62778 -0.10497 46 32 65
2.76759 -2.64781 -0.07492 52 36 72
2.75862 -2.65919 -0.06159 106 92 92
2.76290 -2.67596 -0.05421 124 111 117
2.75226 -2.68661 -0.04016 124 115 128
2.72739 -2.72124 -0.00130 157 126 68
2.70181 -2.72531 0.01915 120 87 61
2.70934 -2.73188 0.04185 60 53 138
2.69880 -2.73895 0.02970 81 59 109
2.68373 -2.77720 0.06394 43 59 160
2.67621 -2.77064 0.04127 50 62 169
2.68980 -2.79487 0.07061 32 40 116
2.69318 -2.81140 0.07847 22 25 81
2.67960 -2.83216 0.07687 16 20 68
2.78317 -3.00666 0.13619 54 43 23
2.77541 -2.99987 0.11276 34 25 15
2.80713 -3.03401 0.13632 71 56 37
2.82365 -3.05790 0.13952 83 71 40
2.83113 -3.07743 0.14636 92 81 43
2.81695 -3.09909 0.14469 96 84 42
2.82420 -3.29773 0.28752 116 99 42
2.83850 -3.27586 0.28920 125 103 52
2.82738 -3.28333 0.27638 123 104 50
2.81626 -3.29079 0.26356 124 105 55
2.86782 -3.33810 0.28192 92 73 31
2.86461 -3.35266 0.29318 61 43 20
2.85337 -3.36021 0.28021 66 49 24
2.53015 -3.24137 0.45880 58 65 54
2.52273 -3.23489 0.43639 21 22 18
2.56834 -3.27880 0.45518 125 140 125
2.56312 -3.29111 0.46646 136 134 118
2.50088 -3.26977 0.49689 129 125 115
2.46371 -3.26285 0.51867 124 120 112
2.47103 -3.26925 0.54076 106 100 94
1.31446 -2.89327 1.09569 170 163 158
1.30920 -2.88868 1.07983 162 149 125
1.29789 -2.89249 1.10682 191 203 203
1.28847 -2.90689 1.10571 189 204 208
1.28946 -2.90840 1.12257 183 189 188
1.29394 -2.92263 1.12824 156 147 133
1.23003 -2.88703 1.15101 142 118 105
1.22082 -2.90111 1.14993 196 211 198
1.23855 -2.90405 1.15557 134 105 103
1.22931 -2.91819 1.15448 194 205 181
1.20973 -2.89361 1.16932 128 91 65
1.14513 -2.87738 1.20456 113 46 58
1.13476 -2.88007 1.21350 105 36 70
1.12354 -2.88204 1.22258 101 30 66
1.12838 -2.90667 1.23443 91 33 51
1.12248 -2.91262 1.24225 88 29 77
1.11754 -2.91929 1.24984 91 41 93
1.11689 -2.92928 1.25647 98 44 100
1.10738 -2.93233 1.26503 108 61 117
1.09851 -2.94589 1.26398 100 30 68
1.09721 -2.94526 1.28016 128 106 155
1.11563 -2.97040 1.28279 138 130 170
1.10909 -2.97573 1.29068 146 145 192
1.10027 -2.97919 1.29900 155 160 187
1.07889 -2.98290 1.31629 165 176 200
1.07007 -2.99637 1.31525 110 74 132
1.02458 -3.00048 1.36524 180 194 201
1.03324 -2.98724 1.36627 183 194 199
1.02650 -2.99176 1.35850 179 194 202
1.03131 -2.99596 1.37301 180 194 201
1.02939 -3.00468 1.37976 181 193 198
1.02265 -3.00921 1.37199 183 192 197
1.16938 -3.29945 1.44871 89 108 123
1.16422 -3.29494 1.43312 82 105 130
1.16215 -3.30431 1.44037 84 106 133
1.16008 -3.31367 1.44761 87 108 130
1.16596 -3.30758 1.45614 90 105 117
1.17112 -3.31209 1.47171 96 91 93
1.15666 -3.32179 1.45504 89 110 125
1.16072 -3.31404 1.46380 89 103 112
1.16588 -3.31854 1.47936 97 93 89
1.16028 -3.32488 1.47082 91 101 103
1.16544 -3.32938 1.48639 96 93 86
1.15822 -3.33423 1.47806 86 86 82
1.17140 -3.36911 1.49039 85 82 80
1.18075 -3.35481 1.49150 96 95 83
1.17348 -3.35970 1.48311 83 79 80
1.17867 -3.36423 1.49878 96 95 83
1.17660 -3.37365 1.50607 97 96 85
1.11542 -1.02622 0.06655 250 254 250
1.12306 -1.01454 0.06745 254 254 254
1.11712 -1.01853 0.06060 254 254 254
1.11650 -1.03398 0.07058 223 226 223
1.11543 -1.04169 0.07610 161 151 156
1.10778 -1.05338 0.07520 85 71 74
1.15009 -1.05051 0.05706 96 85 92
1.15737 -1.06653 0.06181 95 82 74
1.15131 -1.07059 0.05483 96 87 79
1.14958 -1.07844 0.06089 95 87 80
1.17273 -1.09101 0.06608 90 88 73
1.17968 -1.09935 0.06632 73 74 54
1.21087 -1.10902 0.05026 37 41 45
1.20289 -1.12122 0.04931 13 12 24
1.22702 -1.11805 0.04442 16 19 37
1.21899 -1.13033 0.04348 13 11 20
2.22792 -1.35682 -0.51515 25 22 13
2.23914 -1.33966 -0.51383 9 8 6
2.23041 -1.34552 -0.52390 13 11 9
2.24009 -1.36973 -0.51578 39 41 26
2.23523 -1.38082 -0.50551 38 42 28
2.23318 -1.40385 -0.48983 30 30 22
2.23944 -1.40932 -0.47094 16 10 12
2.23099 -1.41524 -0.48125 30 27 22
2.23725 -1.42071 -0.46236 12 9 14
2.21972 -1.43248 -0.48258 50 45 61
2.20415 -1.42354 -0.45717 28 16 33
2.21037 -1.42897 -0.43840 10 9 15
2.20470 -1.43521 -0.45035 22 13 27
2.21093 -1.44064 -0.43157 10 9 16
2.19350 -1.45234 -0.45167 40 45 44
2.20058 -1.44628 -0.44060 18 11 23
2.20680 -1.45171 -0.42183 11 9 12
2.19286 -1.45685 -0.42862 18 12 16
2.19908 -1.46228 -0.40988 10 9 9
2.19038 -1.46812 -0.41991 17 12 12
1.94200 -1.58649 -0.17135 12 11 12
1.93616 -1.58139 -0.18897 10 9 9
1.93382 -1.59198 -0.18078 9 10 11
1.94400 -1.59789 -0.16572 22 23 34
2.01677 -1.66812 -0.17375 44 32 40
2.01077 -1.66289 -0.19184 31 29 37
2.06249 -1.68897 -0.19318 85 78 75
2.85199 -2.19832 -0.43633 63 51 41
2.84439 -2.19169 -0.45925 69 56 58
2.85081 -2.21264 -0.42665 50 41 25
2.85805 -2.22946 -0.42139 29 19 18
2.84434 -2.25043 -0.42300 15 9 32
2.79114 -2.35554 -0.29626 18 23 82
2.79416 -2.34185 -0.30685 10 13 71
2.78359 -2.34895 -0.31904 11 14 71
2.77754 -2.37633 -0.29786 22 32 100
2.79064 -2.37008 -0.28693 29 36 98
2.77703 -2.39088 -0.28853 23 31 115
2.77592 -2.52771 -0.17919 93 83 118
2.78959 -2.50681 -0.17758 53 58 162
2.77896 -2.51394 -0.18983 56 60 147
2.77331 -2.55655 -0.15953 104 86 92
2.78600 -2.57636 -0.15626 75 54 71
2.78669 -2.59163 -0.14732 62 45 77
2.79246 -2.60892 -0.14072 31 19 72
2.78682 -2.63684 -0.11949 36 28 73
2.78274 -2.65031 -0.10829 46 32 73
2.75524 -2.65427 -0.08642 79 56 127
2.74741 -2.66609 -0.07359 147 130 158
2.74493 -2.68009 -0.06319 104 99 156
2.72894 -2.68847 -0.04672 68 71 158
2.72911 -2.70354 -0.03753 69 85 150
2.71827 -2.71397 -0.02343 117 115 128
2.73295 -2.73525 -0.02066 161 142 84
2.70017 -2.73621 0.00308 143 115 59
2.69087 -2.74715 0.01641 104 75 89
2.68786 -2.76080 0.02697 66 58 141
2.67731 -2.76787 0.01481 84 59 114
2.67611 -2.78555 0.05055 43 56 157
2.66859 -2.77899 0.02787 61 58 154
2.68123 -2.80284 0.05761 32 37 111
2.68433 -2.81926 0.06556 23 24 79
2.67074 -2.84003 0.06396 14 18 65
2.79334 -3.02426 0.11516 46 36 19
2.78554 -3.01745 0.09161 29 21 24
2.81674 -3.05151 0.11545 64 50 32
2.83313 -3.07547 0.11867 79 65 37
2.84187 -3.09573 0.12501 89 78 39
2.82763 -3.11752 0.12333 92 80 45
2.83243 -3.31591 0.26765 120 102 48
2.82445 -3.30895 0.24358 125 106 63
2.55270 -3.26751 0.43536 80 93 80
2.54521 -3.26097 0.41277 23 26 28
2.54260 -3.29225 0.45778 184 184 168
2.50009 -3.28238 0.48171 175 175 163
2.45985 -3.27356 0.50468 168 167 159
2.44665 -3.29375 0.50312 200 201 197
1.31582 -2.90443 1.08488 169 164 154
1.31054 -2.89983 1.06896 164 148 126
1.29486 -2.90049 1.09724 186 198 200
1.28519 -2.91551 1.11335 192 206 214
1.27532 -2.91932 1.12268 197 214 207
1.26594 -2.93367 1.12157 190 220 234
1.18780 -2.90877 1.17798 186 183 168
1.19093 -2.93256 1.19047 165 142 131
1.14080 -2.91566 1.21544 142 105 84
1.12111 -2.91106 1.22651 132 84 52
1.11438 -2.91636 1.23453 128 64 53
1.11063 -2.92394 1.24186 125 48 66
1.10174 -2.93753 1.24082 187 161 130
1.11054 -2.93436 1.24837 122 38 68
1.10164 -2.94796 1.24732 169 140 119
1.10415 -2.93984 1.25627 109 34 66
1.11279 -2.97832 1.27393 92 31 68
1.10624 -2.98365 1.28184 90 37 82
1.10598 -2.99402 1.28843 92 42 80
1.12489 -3.01998 1.29111 94 48 87
1.11589 -3.03374 1.29005 88 11 45
1.04632 -3.01855 1.34572 149 161 185
1.05508 -3.00515 1.34675 178 193 200
1.04827 -3.00973 1.33889 136 141 176
1.01207 -3.01048 1.36493 162 179 196
1.01688 -3.01467 1.37942 182 190 199
1.00071 -3.02146 1.37974 170 190 206
0.99209 -3.03465 1.37872 130 132 171
1.16423 -3.34006 1.46098 93 110 115
1.15904 -3.33554 1.44535 86 109 133
1.15697 -3.34493 1.45261 87 109 130
1.16647 -3.35348 1.46768 79 90 98
1.16558 -3.36400 1.47480 74 78 85
1.16863 -3.37822 1.48144 78 75 70
1.09545 -1.02220 0.06476 249 254 249
1.10304 -1.01060 0.06565 254 254 254
1.09714 -1.01456 0.05885 254 254 254
1.10679 -1.03014 0.06158 219 221 217
1.11185 -1.03800 0.06282 152 139 146
1.10420 -1.04969 0.06192 85 74 63
1.14240 -1.04665 0.04641 95 81 87
1.14928 -1.06262 0.05136 94 82 78
1.14323 -1.06668 0.04438 96 85 82
1.14150 -1.07451 0.05044 95 86 81
1.16290 -1.08696 0.05666 89 86 81
1.16692 -1.09513 0.05884 70 70 68
1.20477 -1.10506 0.03802 40 38 42
1.19679 -1.11725 0.03708 19 12 18
1.21331 -1.11365 0.03723 21 19 32
1.20531 -1.12589 0.03629 14 11 21
2.21542 -1.35072 -0.52991 18 11 22
2.22663 -1.33359 -0.52859 9 10 6
2.21791 -1.33944 -0.53864 9 9 10
2.20920 -1.34529 -0.54869 9 9 13
2.21978 -1.36275 -0.52560 36 40 41
2.22563 -1.37498 -0.52222 62 66 61
2.21437 -1.39218 -0.52355 56 59 61
2.22282 -1.38628 -0.51326 58 58 51
2.22194 -1.40944 -0.49836 41 45 41
2.21068 -1.42666 -0.49969 43 42 47
2.21860 -1.42068 -0.48906 45 46 46
2.20734 -1.43789 -0.49039 40 40 58
2.17003 -1.46075 -0.42978 39 35 26
2.16137 -1.46657 -0.43977 46 42 41
2.15889 -1.47779 -0.43110 41 38 42
2.15847 -1.47070 -0.41542 35 27 21
2.16464 -1.47609 -0.39680 13 7 19
2.15803 -1.48218 -0.40803 27 21 27
2.16420 -1.48757 -0.38940 13 8 19
2.14725 -1.49216 -0.39421 26 21 29
2.15341 -1.49754 -0.37562 14 7 14
2.14207 -1.50292 -0.38389 26 18 25
2.14822 -1.50830 -0.36531 12 7 7
2.13881 -1.51396 -0.37477 18 12 10
2.14497 -1.51934 -0.35620 10 11 10
2.13635 -1.52512 -0.36613 9 10 5
1.93963 -1.60411 -0.17743 17 17 26
1.93378 -1.59900 -0.19509 7 9 10
1.94961 -1.61710 -0.17653 25 30 40
1.95548 -1.62223 -0.15880 33 34 38
1.94726 -1.62775 -0.16829 34 33 36
1.93903 -1.63327 -0.17778 29 34 36
2.01209 -1.67452 -0.18561 26 17 32
2.00609 -1.66928 -0.20372 33 32 33
2.00369 -1.68016 -0.19530 20 20 19
2.05707 -1.69533 -0.20480 73 67 39
2.06183 -1.70789 -0.20044 96 81 69
2.06793 -1.71322 -0.18204 97 82 74
2.05939 -1.71895 -0.19189 101 83 67
2.05085 -1.72468 -0.20174 100 83 70
2.86829 -2.21331 -0.46293 61 50 49
2.86065 -2.20663 -0.48600 67 54 67
2.85759 -2.22049 -0.47528 60 49 57
2.87434 -2.22985 -0.45704 50 43 32
2.88042 -2.24647 -0.45113 33 24 25
2.86660 -2.26760 -0.45276 17 13 34
2.76773 -2.52085 -0.20180 58 67 116
2.78139 -2.49996 -0.20019 46 58 160
2.77077 -2.50709 -0.21244 46 59 149
2.76014 -2.51423 -0.22470 51 57 126
2.77188 -2.53731 -0.19461 118 116 80
2.77895 -2.55493 -0.18878 137 132 91
2.77626 -2.56889 -0.17826 83 62 72
2.77155 -2.58207 -0.16679 47 34 79
2.77155 -2.59707 -0.15754 30 22 71
2.78183 -2.61614 -0.15310 25 6 65
2.77954 -2.63031 -0.14274 38 30 81
2.76143 -2.63815 -0.12502 84 85 142
2.75200 -2.64939 -0.11138 129 109 152
2.73830 -2.67034 -0.11299 247 157 131
2.73291 -2.65664 -0.09332 176 130 166
2.72954 -2.67025 -0.08254 221 172 166
2.72807 -2.68464 -0.07262 133 121 185
2.70377 -2.68948 -0.05234 50 55 170
2.69018 -2.71025 -0.05394 29 55 175
2.69777 -2.70190 -0.04041 20 52 169
2.70054 -2.71803 -0.03244 69 84 148
2.71113 -2.73758 -0.02793 142 139 97
2.68495 -2.74127 -0.00702 156 132 71
2.67092 -2.75011 0.00841 121 87 75
2.65727 -2.78889 0.04203 45 52 151
2.64977 -2.78234 0.01940 80 62 124
2.65777 -2.80408 0.05104 31 35 107
2.66811 -2.82378 0.05582 21 23 76
2.65455 -2.84452 0.05422 12 15 65
2.80076 -3.04064 0.09507 41 30 14
2.78979 -3.04801 0.08241 36 24 11
2.82150 -3.06672 0.09638 57 45 26
2.84005 -3.09187 0.09868 74 60 34
2.85189 -3.11381 0.10378 85 73 37
2.83757 -3.13570 0.10209 89 77 47
2.82930 -3.32790 0.25181 123 105 59
2.82131 -3.32092 0.22770 125 106 68
2.84784 -3.35460 0.25507 102 84 41
2.83337 -3.37672 0.25337 74 55 28
2.58778 -3.30120 0.40726 91 109 106
2.58020 -3.29458 0.38440 23 26 36
2.57956 -3.31188 0.41970 190 217 219
2.56593 -3.33271 0.41809 212 218 217
2.56496 -3.31874 0.43432 210 214 206
2.55138 -3.33951 0.43272 211 216 218
2.54584 -3.32282 0.45044 206 210 204
2.53231 -3.34350 0.44884 211 214 218
2.53321 -3.33066 0.46426 203 205 201
2.51972 -3.35130 0.46267 212 213 218
1.30720 -2.90851 1.07669 167 153 142
1.30192 -2.90390 1.06079 165 147 128
1.29552 -2.91118 1.08665 178 182 187
1.28269 -2.91292 1.09686 182 204 211
1.27587 -2.91897 1.10544 186 214 225
1.26647 -2.93335 1.10433 176 228 247
1.26648 -2.92309 1.11466 188 223 229
1.22110 -2.92225 1.14645 201 221 230
1.20352 -2.91992 1.15752 207 225 228
1.19298 -2.92277 1.16678 216 228 229
1.18390 -2.92665 1.17563 221 228 222
1.17477 -2.94061 1.17456 215 232 235
1.17265 -2.92882 1.18498 222 232 217
1.16355 -2.94273 1.18391 220 236 238
1.16220 -2.93152 1.19408 222 232 211
1.15313 -2.94539 1.19302 225 239 242
1.15630 -2.93767 1.20207 221 229 199
1.14587 -2.94026 1.21109 214 217 187
1.12969 -2.93832 1.22141 206 201 170
1.16238 -2.97451 1.22045 199 182 146
1.08116 -2.94220 1.25835 152 108 115
1.08331 -2.95438 1.26432 138 90 91
1.09364 -2.97318 1.26855 129 72 59
1.10066 -2.98940 1.27356 123 55 55
1.09929 -2.99888 1.28038 115 38 38
1.09608 -3.00687 1.28758 97 21 32
1.08717 -3.02050 1.28653 136 91 75
1.06041 -3.00915 1.31438 73 10 43
1.05552 -3.00488 1.29961 120 70 63
1.06726 -3.00455 1.32228 118 98 143
1.05356 -3.01375 1.30648 107 56 38
1.06530 -3.01342 1.32915 126 121 166
1.06633 -3.02459 1.31969 69 10 60
1.06205 -3.03156 1.32702 70 12 65
1.05375 -3.04564 1.34161 81 41 87
1.04494 -3.05912 1.34057 71 6 42
1.04845 -3.05167 1.34910 93 58 112
1.05402 -3.06698 1.35457 102 77 139
1.17757 -3.56087 1.57105 85 67 71
1.17228 -3.55624 1.55506 162 167 153
1.17016 -3.56585 1.56249 159 154 134
1.18287 -3.56549 1.58703 108 102 113
1.16804 -3.57545 1.56992 143 129 110
1.07798 -1.01827 0.06139 248 253 249
1.08553 -1.00673 0.06228 254 254 254
1.07966 -1.01067 0.05551 254 254 254
1.07379 -1.01461 0.04874 247 252 248
1.09217 -1.02622 0.05610 216 217 215
1.09866 -1.03407 0.05628 152 139 143
1.09104 -1.04572 0.05538 86 76 65
1.12451 -1.04251 0.04294 95 81 75
1.14014 -1.05868 0.04167 94 82 80
1.13411 -1.06273 0.03471 95 85 84
1.13238 -1.07055 0.04076 96 85 80
1.15096 -1.08283 0.04877 88 85 73
1.15705 -1.09106 0.04947 70 72 63
1.18175 -1.10027 0.03742 39 37 53
1.17384 -1.11237 0.03648 20 11 27
1.19914 -1.10925 0.03047 25 15 31
1.19117 -1.12145 0.02953 16 12 16
2.20556 -1.35645 -0.53921 12 8 26
2.19934 -1.35102 -0.55798 9 8 14
2.19685 -1.36230 -0.54925 10 8 18
2.20654 -1.36811 -0.53274 25 21 46
2.20983 -1.38006 -0.52775 48 61 60
2.20636 -1.40286 -0.51124 40 48 62
2.13383 -1.48572 -0.40824 41 39 42
2.12768 -1.48035 -0.42679 39 39 42
2.12522 -1.49150 -0.41817 41 41 46
2.12276 -1.50265 -0.40955 44 44 49
2.12806 -1.49638 -0.39755 42 42 45
2.11700 -1.51329 -0.39885 58 52 53
2.12237 -1.50702 -0.38692 47 50 37
2.12189 -1.51846 -0.37954 35 29 21
2.12124 -1.52988 -0.37205 16 11 13
2.12738 -1.53524 -0.35352 8 11 6
2.11878 -1.54102 -0.36344 8 10 9
2.11018 -1.54679 -0.37336 10 8 10
1.93709 -1.61069 -0.19028 11 13 18
1.93123 -1.60557 -0.20797 8 9 12
1.92889 -1.61620 -0.19974 11 11 13
1.94364 -1.62306 -0.18736 20 27 31
2.02757 -1.69661 -0.20231 58 43 36
2.02153 -1.69133 -0.22056 29 25 19
2.06299 -1.71571 -0.21596 88 76 69
2.05198 -1.73254 -0.21726 97 83 77
2.88894 -2.24457 -0.48295 51 44 39
2.88124 -2.23784 -0.50620 61 47 57
2.88976 -2.25972 -0.47422 36 29 29
2.87588 -2.28095 -0.47586 18 14 32
2.75707 -2.52797 -0.21403 84 84 96
2.77081 -2.54808 -0.21152 142 152 94
2.76217 -2.55976 -0.19814 132 135 79
2.76689 -2.57655 -0.19119 59 48 64
2.75317 -2.59754 -0.19281 12 4 39
2.75878 -2.58841 -0.17808 24 12 68
2.76322 -2.60515 -0.17097 19 8 56
2.77097 -2.62327 -0.16538 67 39 65
2.74646 -2.62855 -0.14455 129 112 135
2.72992 -2.63690 -0.12755 195 157 173
2.71626 -2.65778 -0.12916 243 148 96
2.72279 -2.64898 -0.11501 237 165 139
2.70915 -2.66984 -0.11661 228 150 133
2.71639 -2.67632 -0.09360 246 162 127
2.71127 -2.68918 -0.08202 169 147 189
2.69071 -2.69552 -0.06338 60 59 175
2.67714 -2.71628 -0.06498 38 61 180
2.67211 -2.71747 -0.03654 37 66 157
2.67069 -2.73178 -0.02671 117 129 108
2.66494 -2.74422 -0.01493 155 137 76
2.66461 -2.75902 -0.00559 132 100 67
2.64296 -2.76438 0.01323 109 73 85
2.64197 -2.79378 0.03202 49 50 136
2.63026 -2.80340 0.04635 31 33 100
2.65194 -2.82828 0.04610 20 20 72
2.63840 -2.84899 0.04450 10 11 60
2.82413 -3.08095 0.07805 51 39 20
2.81622 -3.07405 0.05419 32 21 12
2.85165 -3.11075 0.07665 68 54 31
2.86770 -3.13495 0.08003 81 69 37
2.83398 -3.34431 0.23300 123 105 60
2.82596 -3.33731 0.20879 125 106 71
2.58391 -3.31228 0.39264 92 111 118
2.57632 -3.30565 0.36974 23 24 35
2.58146 -3.32639 0.40307 191 221 225
2.56779 -3.34728 0.40146 213 217 222
1.30098 -2.91430 1.06786 165 148 141
1.29571 -2.90970 1.05195 166 149 130
1.30090 -2.92534 1.07471 171 174 190
1.27443 -2.91716 1.08866 177 212 236
1.26502 -2.93157 1.08755 179 229 253
1.26870 -2.92398 1.09696 175 224 246
1.25930 -2.93836 1.09586 182 234 253
1.23008 -2.92829 1.12731 179 212 238
1.21504 -2.92793 1.13787 186 212 232
1.19715 -2.92530 1.14909 196 214 232
1.18586 -2.92755 1.15857 210 219 233
1.17694 -2.93152 1.16741 215 227 229
1.14211 -2.94751 1.20222 228 240 240
1.13709 -2.94313 1.18708 220 228 241
1.13508 -2.95223 1.19412 225 226 234
1.13307 -2.96133 1.20116 231 228 232
1.12565 -2.94530 1.21267 233 242 236
1.11951 -2.95108 1.22063 235 239 227
1.11054 -2.96480 1.21957 238 238 236
1.11495 -2.95809 1.22821 237 240 220
1.10599 -2.97179 1.22715 237 241 240
1.11351 -2.96755 1.23506 235 240 217
1.10454 -2.98126 1.23401 235 242 242
1.11324 -2.97796 1.24166 232 236 214
1.10428 -2.99167 1.24060 232 243 241
1.11738 -2.99192 1.24728 224 225 203
1.13977 -3.02069 1.24892 212 209 182
1.15623 -3.04485 1.25197 197 189 160
1.10305 -3.01228 1.27008 182 163 114
1.05945 -3.02920 1.31176 100 32 23
1.05581 -3.03670 1.31898 94 15 20
1.04183 -3.04593 1.33469 80 9 34
1.01733 -3.04596 1.35227 66 5 41
1.00599 -3.04662 1.36081 61 6 57
0.99731 -3.05990 1.35978 86 15 13
1.08151 -0.95385 0.00586 235 236 239
1.08904 -0.94234 0.00675 248 251 252
1.08318 -0.94627 -0.00000 227 221 223
1.07733 -0.95020 -0.00675 222 205 194
1.08736 -0.94992 0.01262 251 253 254
1.08569 -0.95750 0.01848 253 254 254
1.08796 -0.96140 0.00583 246 251 252
1.09216 -0.96506 0.01849 254 254 254
1.08499 -0.96901 0.01265 252 253 254
1.08919 -0.97267 0.02531 254 254 254
1.08331 -0.97661 0.01853 254 254 254
1.07744 -0.98055 0.01176 237 245 251
1.08314 -1.02243 0.04680 212 215 212
1.08495 -1.03015 0.05022 142 132 140
1.07736 -1.04176 0.04933 86 77 73
1.11013 -1.03851 0.03716 93 81 85
1.10246 -1.05024 0.03626 93 83 74
1.13892 -1.07872 0.04105 93 83 71
1.14800 -1.08705 0.03960 70 68 60
1.16369 -1.09577 0.03362 37 39 51
1.15581 -1.10781 0.03269 17 11 31
2.20026 -1.37424 -0.54439 14 10 24
2.19403 -1.36879 -0.56319 10 9 11
2.19153 -1.38009 -0.55445 9 8 13
2.20658 -1.38655 -0.54140 32 30 41
2.18537 -1.39566 -0.52048 54 67 65
2.17418 -1.41277 -0.52180 63 70 81
2.18831 -1.40759 -0.51527 57 61 67
2.18925 -1.41930 -0.50876 55 56 57
2.18504 -1.43038 -0.49892 49 46 51
2.18254 -1.44167 -0.49019 42 42 52
2.17383 -1.44752 -0.50024 49 50 56
2.10118 -1.52232 -0.38188 48 50 54
2.09506 -1.51698 -0.40034 52 48 58
2.10708 -1.53476 -0.37850 26 13 31
1.94177 -1.62984 -0.20068 18 21 24
1.93588 -1.62469 -0.21845 9 11 9
1.94315 -1.64127 -0.19467 26 31 36
1.94905 -1.64641 -0.17688 31 35 38
1.94079 -1.65196 -0.18640 31 34 49
1.93254 -1.65750 -0.19592 32 32 40
2.01657 -1.70175 -0.21058 37 18 27
2.01053 -1.69647 -0.22881 30 28 27
2.06108 -1.72290 -0.22975 80 73 61
2.89225 -2.25604 -0.50298 53 42 42
2.88452 -2.24929 -0.52631 61 49 48
2.88142 -2.26330 -0.51547 53 43 42
2.89113 -2.27065 -0.49320 39 31 32
2.74692 -2.52039 -0.23567 73 74 99
2.76057 -2.49951 -0.23406 37 51 148
2.74995 -2.50664 -0.24630 39 48 127
2.75685 -2.53903 -0.23140 131 124 87
2.75739 -2.55419 -0.22248 137 145 98
2.75373 -2.56776 -0.21150 83 89 58
2.75649 -2.58382 -0.20364 22 23 37
2.74567 -2.60961 -0.17999 33 28 63
2.73574 -2.62067 -0.16602 158 139 110
2.72026 -2.62944 -0.14945 231 162 135
2.71909 -2.64395 -0.13970 247 143 123
2.70252 -2.68208 -0.10431 204 148 158
2.69829 -2.69530 -0.09314 125 119 181
2.67757 -2.70151 -0.07436 50 61 177
2.66401 -2.72225 -0.07596 42 62 180
2.66999 -2.72816 -0.05251 23 62 169
2.66041 -2.73896 -0.03896 103 123 133
2.64687 -2.75966 -0.04056 150 147 108
2.66502 -2.75594 -0.03187 153 145 95
2.65229 -2.76529 -0.01693 145 120 69
2.62918 -2.76994 0.00263 131 95 69
2.62247 -2.78182 0.01477 98 72 99
2.62538 -2.79805 0.02263 54 48 118
2.61116 -2.80648 0.03808 30 29 92
2.62896 -2.82960 0.03942 19 18 65
2.61545 -2.85025 0.03783 9 11 55
2.81456 -3.08914 0.06466 44 34 17
2.80664 -3.08223 0.04079 27 21 16
2.84534 -3.12069 0.06179 60 50 24
2.87409 -3.15146 0.05991 76 65 36
2.88573 -3.17367 0.06513 85 75 44
2.89379 -3.18071 0.08946 97 82 56
2.88250 -3.18829 0.07644 94 80 53
2.87121 -3.19586 0.06342 91 77 47
2.84798 -3.36609 0.21055 123 104 56
2.83991 -3.35905 0.18620 125 106 67
2.83668 -3.37368 0.19752 123 104 53
2.56048 -3.31184 0.38498 91 109 123
2.55292 -3.30524 0.36216 22 23 38
2.58369 -3.34118 0.38622 191 220 224
2.56998 -3.36214 0.38461 214 217 224
2.53275 -3.35722 0.43288 209 211 207
2.53577 -3.34356 0.42231 210 216 218
2.52974 -3.37088 0.44344 212 209 195
1.29232 -2.91834 1.05970 167 154 147
1.28705 -2.91373 1.04379 167 150 131
1.28539 -2.92439 1.06842 175 187 200
1.26846 -2.92307 1.07984 180 223 249
1.25903 -2.93748 1.07873 173 223 253
1.19321 -2.92172 1.13339 205 244 248
1.18401 -2.93578 1.13231 224 252 251
1.18294 -2.92475 1.14267 213 240 248
1.17377 -2.93876 1.14159 239 254 252
1.17298 -2.92794 1.15183 218 238 248
1.16384 -2.94191 1.15075 249 254 254
1.16768 -2.93464 1.15976 219 236 247
1.15856 -2.93837 1.16864 214 231 245
1.15654 -2.94753 1.17573 215 229 237
1.11253 -2.95577 1.21259 237 231 231
1.12280 -3.01738 1.24299 232 239 236
1.11778 -3.01299 1.22784 225 226 231
1.11577 -3.02210 1.23488 227 226 228
1.13078 -3.03464 1.24783 230 235 227
1.14308 -3.05554 1.25177 221 226 204
1.14405 -3.07810 1.26492 200 204 182
1.14096 -3.08643 1.27227 197 197 173
1.13182 -3.10041 1.27119 185 205 205
1.13657 -3.09366 1.27988 184 186 153
1.12743 -3.10763 1.27881 186 202 199
1.13665 -3.10465 1.28657 173 169 135
1.14001 -3.11842 1.29260 161 149 123
1.12105 -3.11324 1.30312 146 125 84
1.04421 -3.05841 1.32498 129 104 46
1.03879 -3.07491 1.33902 97 55 52
1.19032 -3.43437 1.45023 99 125 156
1.18079 -3.44894 1.44911 118 149 183
1.08555 -0.95772 -0.00813 214 205 202
1.08135 -0.95406 -0.02080 236 223 208
1.07967 -0.96167 -0.01491 213 204 180
1.08385 -0.96534 -0.00222 215 215 216
1.07830 -0.97295 0.00648 226 230 236
1.07062 -1.01860 0.04005 207 209 206
1.07817 -1.00705 0.04094 254 254 254
1.07230 -1.01099 0.03416 247 250 246
1.06293 -1.02608 0.05022 141 130 136
1.05540 -1.03760 0.04933 85 75 65
1.09800 -1.03459 0.02991 92 79 83
1.09035 -1.04628 0.02901 95 83 71
1.12827 -1.07468 0.03244 88 82 67
1.13000 -1.06686 0.02639 92 83 80
1.13246 -1.08276 0.03434 69 67 56
1.14501 -1.09128 0.03043 35 34 53
1.13718 -1.10325 0.02950 15 12 30
1.15742 -1.09987 0.02666 19 16 42
1.14954 -1.11191 0.02573 16 12 26
2.18878 -1.39136 -0.54554 20 14 25
2.18255 -1.38592 -0.56434 10 9 13
2.15707 -1.39915 -0.51769 43 58 48
2.16347 -1.42300 -0.50773 62 62 66
2.15479 -1.42882 -0.51774 58 71 67
2.08765 -1.52728 -0.38863 50 55 58
2.08154 -1.52195 -0.40707 54 51 56
2.07910 -1.53303 -0.39850 53 56 56
2.09536 -1.54002 -0.38644 35 28 30
2.09635 -1.55170 -0.38000 13 5 16
2.10249 -1.55706 -0.36150 7 11 8
2.09390 -1.56282 -0.37140 7 8 8
2.08531 -1.56859 -0.38131 9 9 11
1.93547 -1.63576 -0.21137 12 14 15
1.92957 -1.63061 -0.22915 9 11 6
1.92721 -1.64130 -0.22089 10 12 8
1.93311 -1.64644 -0.20311 21 27 26
1.92250 -1.66267 -0.20436 26 32 32
2.01181 -1.70823 -0.22254 28 18 21
2.00576 -1.70295 -0.24079 28 29 31
2.05224 -1.72860 -0.23949 71 62 57
2.06023 -1.74204 -0.23707 90 81 70
2.06637 -1.74740 -0.21853 96 82 81
2.05777 -1.75318 -0.22845 89 77 76
2.04916 -1.75895 -0.23837 85 75 71
2.88415 -2.27910 -0.50777 38 33 36
2.87641 -2.27234 -0.53113 50 46 39
2.87021 -2.30041 -0.50942 15 14 23
2.88508 -2.29438 -0.49908 16 16 33
2.89282 -2.30115 -0.47570 6 5 37
2.88197 -2.30843 -0.48822 6 7 37
2.87112 -2.31571 -0.50073 8 8 36
2.71504 -2.41632 -0.30058 21 28 118
2.72855 -2.39565 -0.29898 20 30 110
2.71804 -2.40271 -0.31111 17 26 108
2.72555 -2.40926 -0.28846 26 35 120
