ply
format ascii 1.0
element face 0
property list uchar int vertex_indices
element vertex 1361
property float x
property float y
property float z
property uchar diffuse_red
property uchar diffuse_green
property uchar diffuse_blue
end_header
2.44791 -1.63794 0.23850 172 164 135
2.46643 -1.64979 0.23801 124 114 106
2.45940 -1.67119 0.23836 75 66 65
2.47792 -1.66191 0.24198 87 74 72
2.47086 -1.68336 0.24233 72 63 55
2.48776 -1.67412 0.24702 74 68 64
2.49578 -1.68641 0.25323 82 72 73
3.10426 -1.97558 0.14711 85 63 55
3.09144 -1.97183 0.12488 91 80 69
3.11312 -1.99013 0.15484 76 54 45
3.11855 -2.00452 0.16449 71 55 52
3.11043 -2.02921 0.16490 61 17 30
3.12795 -2.01918 0.17199 62 38 44
3.11982 -2.04390 0.17240 58 32 50
3.14355 -2.03426 0.17616 55 23 32
3.36221 -2.19560 0.18954 29 18 29
3.37071 -2.16973 0.18912 26 12 12
3.35973 -2.18070 0.17766 22 9 20
3.34712 -2.20879 0.21044 106 88 84
3.34118 -2.22279 0.22657 180 167 127
3.35327 -2.23862 0.23351 192 178 133
2.94818 -2.38204 0.60556 113 106 96
2.93824 -2.39195 0.59520 145 145 127
2.94048 -2.40543 0.60595 52 41 36
3.00331 -2.48303 0.66305 73 73 61
2.99329 -2.49304 0.65260 69 71 70
2.99555 -2.50664 0.66344 47 48 69
2.98452 -2.49304 0.68332 39 45 63
2.96050 -2.50200 0.70579 111 134 163
2.98841 -2.52001 0.70518 182 210 220
3.00224 -2.53563 0.71088 198 211 213
2.99450 -2.55918 0.71127 186 197 203
3.02093 -2.55221 0.71453 188 199 203
3.05094 -2.58427 0.72527 174 182 190
3.04312 -2.60805 0.72566 169 173 181
1.35981 -0.86933 0.18535 22 23 43
1.35147 -0.86688 0.17090 22 23 36
1.35301 -0.87611 0.17826 20 23 35
1.36969 -0.87589 0.18525 45 56 62
1.38018 -0.88233 0.18467 86 103 74
1.38557 -0.89042 0.18866 87 94 45
1.38854 -0.89928 0.19482 62 62 24
1.38323 -0.91543 0.19509 16 18 29
1.39695 -0.90650 0.19620 28 32 29
1.39163 -0.92268 0.19647 18 19 29
1.40749 -0.91312 0.19575 21 21 31
1.40215 -0.92936 0.19602 19 21 30
1.53007 -0.95796 0.16164 28 13 39
1.53562 -0.94108 0.16137 20 16 29
1.52845 -0.94823 0.15389 25 13 23
1.53723 -0.95080 0.16912 18 15 34
1.54942 -0.96291 0.15435 35 22 45
1.54383 -0.97989 0.15464 54 58 62
1.57177 -0.96719 0.14463 46 44 59
1.56615 -0.98429 0.14491 52 57 66
1.58172 -0.97487 0.14549 59 59 69
1.60284 -1.00045 0.15565 52 53 65
1.59552 -1.00775 0.14801 44 37 55
1.60580 -1.01006 0.16249 52 49 61
1.60939 -1.01953 0.16881 65 53 74
1.64154 -1.02212 0.15163 99 100 110
1.66056 -1.02805 0.14542 113 113 123
1.66969 -1.03072 0.16124 113 114 128
1.66224 -1.03815 0.15347 119 113 131
1.68100 -1.04432 0.14763 124 119 132
1.69105 -1.05259 0.14896 129 128 132
1.68974 -1.06345 0.15951 131 131 141
1.69965 -1.07182 0.16102 140 132 142
1.71602 -1.07885 0.15740 151 132 139
1.71016 -1.09665 0.15769 178 163 172
1.72379 -1.08781 0.16073 158 144 137
1.69654 -1.10418 0.19197 165 153 139
1.66876 -1.12045 0.22344 174 158 149
1.64068 -1.13658 0.25497 182 165 152
1.62868 -1.14930 0.27367 191 168 159
1.61603 -1.16205 0.29280 197 175 167
1.61038 -1.17922 0.29309 209 199 181
1.61079 -1.17327 0.30606 202 186 176
1.62066 -1.18158 0.30754 209 195 181
1.64232 -1.19802 0.30916 200 201 191
1.64842 -1.20719 0.31369 170 171 172
1.64189 -1.21860 0.32790 125 101 143
1.63621 -1.23586 0.32819 92 82 78
1.65044 -1.22736 0.33058 86 69 89
1.64475 -1.24466 0.33087 95 86 71
1.65803 -1.23632 0.33403 87 73 81
1.65233 -1.25366 0.33431 96 86 76
1.66571 -1.24531 0.33745 95 83 77
1.65999 -1.26268 0.33774 95 88 83
1.72144 -1.27788 0.33288 88 86 81
1.71975 -1.26771 0.32477 95 88 83
1.72894 -1.27040 0.34069 95 89 84
1.75476 -1.28334 0.31757 67 69 80
1.79777 -1.28761 0.29530 118 121 151
1.80539 -1.29718 0.29928 180 194 216
1.80421 -1.30802 0.30973 195 206 232
1.79826 -1.32610 0.31002 154 168 215
1.79283 -1.32021 0.32759 182 193 228
1.78690 -1.33822 0.32788 151 164 210
2.20918 -1.34757 0.09952 92 108 137
2.21971 -1.35834 0.10280 75 81 126
2.23594 -1.38053 0.11289 82 98 130
2.25802 -1.39032 0.10828 68 72 119
2.25792 -1.40234 0.11914 54 61 128
2.26160 -1.41401 0.12739 92 111 165
2.27158 -1.42513 0.13132 127 140 187
2.25824 -1.43830 0.15124 171 180 210
2.27009 -1.44929 0.15392 205 214 238
2.27599 -1.46082 0.16070 210 210 240
2.28413 -1.47221 0.16599 177 192 221
2.28386 -1.48424 0.17697 146 162 205
2.33443 -1.49276 0.15392 122 126 193
2.30905 -1.50658 0.18174 82 84 143
2.31413 -1.51832 0.18920 54 55 93
2.32498 -1.52974 0.19288 28 32 54
2.31815 -1.55052 0.19322 9 10 27
2.34665 -1.54061 0.18949 12 16 36
2.33978 -1.56150 0.18984 12 7 15
2.36387 -1.55185 0.18914 10 12 28
2.39736 -1.58693 0.20033 51 26 34
2.43244 -1.59779 0.18880 109 88 76
2.41210 -1.61089 0.21290 168 159 113
2.42597 -1.62271 0.21510 184 177 123
2.43506 -1.63474 0.22039 147 140 120
2.42806 -1.65604 0.22074 74 66 77
2.44551 -1.64679 0.22488 96 87 97
2.43849 -1.66813 0.22523 82 71 75
2.45342 -1.65895 0.23100 77 66 79
2.44639 -1.68032 0.23135 81 69 63
2.48276 -1.69558 0.24610 73 60 63
2.48812 -1.70794 0.25394 85 73 75
2.49932 -1.71122 0.27336 94 83 78
2.49018 -1.72034 0.26383 92 83 74
2.48104 -1.72946 0.25430 91 82 73
3.09948 -1.98633 0.13303 88 74 64
3.08664 -1.98257 0.11077 90 80 69
3.10613 -2.00078 0.14198 73 57 63
3.09801 -2.02548 0.14239 59 31 40
3.11487 -2.01539 0.14980 65 31 43
3.10674 -2.04012 0.15020 61 26 24
3.14754 -2.05990 0.16995 58 36 27
3.16002 -2.07496 0.17590 53 24 33
3.15182 -2.09988 0.17632 65 44 46
3.22939 -2.12312 0.17706 65 34 40
3.23770 -2.09785 0.17664 61 28 28
3.22697 -2.10856 0.16545 69 45 35
3.21624 -2.11926 0.15426 65 39 45
3.25292 -2.13946 0.17746 60 22 31
3.26569 -2.15499 0.18367 49 13 21
3.28561 -2.20019 0.21218 119 84 88
3.30044 -2.21613 0.21750 186 166 132
3.29203 -2.24171 0.21792 207 184 144
3.31748 -2.23238 0.22175 203 180 145
3.33347 -2.24860 0.22662 204 177 140
3.33755 -2.26360 0.23762 164 146 146
3.25256 -2.28286 0.30649 186 191 195
3.23966 -2.29559 0.32575 167 181 165
3.25276 -2.29943 0.34846 139 150 147
3.13557 -2.29712 0.39028 130 138 118
3.14836 -2.30087 0.41247 160 182 199
3.15362 -2.31324 0.39381 132 146 150
3.16646 -2.31701 0.41607 164 178 191
3.18113 -2.33068 0.39278 150 178 198
3.19404 -2.33446 0.41516 161 174 190
3.16498 -2.34254 0.41324 162 183 195
3.17783 -2.34631 0.43553 162 176 190
3.16734 -2.35678 0.42459 170 185 194
2.94868 -2.51156 0.69630 80 93 106
2.99978 -2.54699 0.69712 186 197 206
2.99202 -2.57058 0.69751 188 199 207
3.00437 -2.57419 0.71876 180 189 201
2.99436 -2.58419 0.70831 184 193 205
1.36037 -0.88349 0.18038 28 33 35
1.35202 -0.88105 0.16590 19 24 30
1.35356 -0.89029 0.17327 21 23 31
1.35509 -0.89954 0.18065 19 23 36
1.36365 -0.89219 0.18620 37 53 37
1.35837 -0.90825 0.18646 15 21 37
1.37128 -0.89956 0.18815 28 40 38
1.36599 -0.91566 0.18841 17 22 34
1.38417 -0.90536 0.18546 20 20 33
1.37885 -0.92152 0.18573 17 23 36
1.49403 -0.95278 0.16077 26 15 35
1.49953 -0.93605 0.16050 18 18 30
1.49243 -0.94314 0.15309 20 18 35
1.50113 -0.94569 0.16818 20 17 21
1.51024 -0.95841 0.15590 35 21 39
1.53068 -0.96300 0.14751 47 37 46
1.52511 -0.97993 0.14779 50 52 69
1.55531 -0.96660 0.13565 56 54 50
1.58142 -0.99065 0.14127 49 52 52
1.57577 -1.00783 0.14156 34 33 30
1.58654 -0.99967 0.14625 43 46 49
1.59399 -1.01847 0.15859 43 33 67
1.59616 -1.02828 0.16607 68 49 85
1.61169 -1.03488 0.16249 95 83 99
1.64520 -1.03735 0.14418 115 108 110
1.65389 -1.04580 0.14645 126 119 138
1.67053 -1.06301 0.15173 142 136 139
1.66451 -1.07487 0.16608 150 140 149
1.64663 -1.08927 0.18999 160 152 162
1.63641 -1.10189 0.20760 169 158 164
1.63070 -1.11928 0.20788 190 179 176
1.62589 -1.12481 0.23466 182 167 167
1.61074 -1.13822 0.25601 189 170 169
1.60871 -1.14888 0.26683 195 176 161
1.59722 -1.16138 0.28511 199 183 176
1.59251 -1.17248 0.29798 208 189 183
1.61049 -1.18940 0.30218 206 203 192
1.61769 -1.19827 0.30574 178 180 171
1.61846 -1.20833 0.31432 132 108 136
1.61281 -1.22552 0.31460 90 77 83
1.62954 -1.21656 0.31493 85 77 102
1.62387 -1.23381 0.31521 98 84 83
1.63682 -1.22552 0.31852 85 73 96
1.63114 -1.24279 0.31880 94 88 79
1.67516 -1.27057 0.33553 89 89 85
1.68257 -1.26318 0.34326 93 87 83
1.70106 -1.27691 0.32536 81 84 72
1.76377 -1.27788 0.28780 65 64 50
1.75787 -1.29581 0.28810 20 29 45
1.80037 -1.28309 0.27006 27 35 66
1.76831 -1.29839 0.30346 55 75 116
1.81245 -1.30279 0.28037 130 153 198
1.81693 -1.31289 0.28671 154 168 215
2.10259 -1.34374 0.13939 105 130 155
2.10909 -1.32398 0.13906 137 148 182
2.10070 -1.33235 0.13030 125 139 171
2.11099 -1.33537 0.14814 132 146 178
2.17961 -1.34663 0.09478 64 78 115
2.20257 -1.35596 0.08910 40 46 81
2.19590 -1.37627 0.08943 42 43 70
2.20999 -1.36708 0.09455 37 41 80
2.20330 -1.38742 0.09489 46 46 76
2.22269 -1.37769 0.09632 41 49 87
2.21598 -1.39810 0.09665 50 47 79
2.23169 -1.38875 0.10074 45 50 93
2.24502 -1.39943 0.10218 56 54 96
2.25415 -1.41058 0.10661 70 78 109
2.26919 -1.42125 0.10698 84 104 137
2.27287 -1.43298 0.11528 98 117 149
2.27947 -1.44449 0.12158 126 152 185
2.27018 -1.45730 0.13879 131 142 208
2.26341 -1.47789 0.13913 75 87 138
2.29755 -1.46722 0.13094 124 109 190
2.30137 -1.47903 0.13923 92 86 148
2.29697 -1.49144 0.15307 67 75 123
2.29229 -1.50382 0.16708 57 70 104
2.29902 -1.51543 0.17339 43 50 77
2.31873 -1.52630 0.17108 24 24 42
2.31189 -1.54710 0.17143 8 8 18
2.32581 -1.53799 0.17726 11 12 28
2.36038 -1.57266 0.18725 26 16 14
2.35847 -1.58493 0.19945 65 46 42
2.35158 -1.60590 0.19980 165 153 126
2.39145 -1.60802 0.20000 177 156 137
2.40311 -1.61987 0.20351 163 149 126
2.41163 -1.63188 0.20909 120 106 99
2.40465 -1.65310 0.20944 79 69 75
2.42808 -1.64371 0.20965 84 70 84
2.42107 -1.66501 0.21000 86 76 74
2.46660 -1.69237 0.22980 67 55 50
2.45954 -1.71385 0.23016 58 44 59
2.46779 -1.70476 0.24021 63 48 56
2.47501 -1.71709 0.24687 77 66 69
2.46794 -1.73859 0.24723 91 82 72
3.09554 -1.99715 0.11842 89 73 62
3.08268 -1.99338 0.09613 91 81 67
3.10726 -2.01193 0.12453 61 35 65
3.13041 -2.05582 0.14982 57 25 46
3.14299 -2.07087 0.15564 60 34 45
3.16004 -2.08631 0.15908 65 47 60
3.15183 -2.11130 0.15949 62 34 49
3.21865 -2.13382 0.16588 63 31 43
3.20550 -2.12997 0.14308 62 41 43
3.20792 -2.14453 0.15469 63 50 36
3.23765 -2.14982 0.16863 52 14 26
3.25750 -2.16601 0.17101 36 5 10
3.26452 -2.18110 0.18029 48 28 28
3.26792 -2.19588 0.19148 121 99 93
3.25395 -2.20893 0.21178 180 164 132
3.27497 -2.22547 0.21377 197 182 144
3.26659 -2.25096 0.21420 207 189 150
3.30978 -2.25811 0.22179 210 187 148
3.31656 -2.27338 0.23137 156 146 176
3.32391 -2.28874 0.24068 161 166 216
3.17712 -2.28591 0.32809 204 213 233
3.18682 -2.30114 0.33584 207 211 208
3.17762 -2.31407 0.35310 173 176 156
3.10699 -2.31909 0.40090 117 123 116
3.10662 -2.33283 0.41349 87 102 133
3.15219 -2.35270 0.40343 114 148 184
3.14367 -2.36544 0.42010 153 193 212
3.15649 -2.36920 0.44233 169 183 196
3.11269 -2.41619 0.48473 185 198 199
2.94806 -2.41806 0.58730 73 64 59
2.96028 -2.42165 0.60850 45 46 62
2.94034 -2.44155 0.58769 94 71 59
2.97528 -2.43555 0.58634 58 37 29
2.98758 -2.43915 0.60766 56 52 55
2.97932 -2.44945 0.59637 65 49 41
2.99162 -2.45305 0.61770 57 54 56
3.01713 -2.46891 0.59069 64 51 46
3.02918 -2.51100 0.62116 71 70 59
3.01233 -2.52137 0.64081 68 65 64
2.99643 -2.53180 0.65993 68 81 86
3.01083 -2.54765 0.66536 139 169 169
2.98269 -2.55567 0.68982 181 188 201
2.96879 -2.59237 0.73134 193 206 214
2.96108 -2.61582 0.73172 194 202 210
2.93935 -2.59962 0.75590 196 209 216
2.95146 -2.60317 0.77690 168 168 172
2.92093 -2.60889 0.77552 200 210 208
2.93298 -2.61242 0.79642 161 149 161
2.91331 -2.63205 0.77590 221 233 220
1.54780 -2.39465 1.42437 47 37 37
1.55596 -2.39704 1.43853 43 41 29
1.54930 -2.40369 1.43158 41 41 42
1.54264 -2.41034 1.42463 37 26 36
1.48364 -0.95070 0.14714 30 23 33
1.48914 -0.93398 0.14686 17 21 33
1.48204 -0.94106 0.13946 22 22 24
1.49903 -0.95652 0.14286 41 34 49
1.49351 -0.97333 0.14314 52 55 56
1.52311 -0.96008 0.13116 47 48 50
1.51755 -0.97701 0.13144 53 53 58
1.54021 -0.96568 0.12561 53 54 60
1.55907 -0.98121 0.12792 47 48 68
1.55344 -0.99832 0.12821 35 31 56
1.56569 -0.98978 0.13155 44 44 63
1.57304 -0.99821 0.13458 42 36 43
1.58273 -1.01642 0.14498 51 40 61
1.58386 -1.02646 0.15332 69 53 78
1.59510 -1.03407 0.15321 87 74 95
1.60320 -1.04249 0.15578 102 90 110
1.59751 -1.05979 0.15607 129 119 114
1.62374 -1.04804 0.14807 122 110 117
1.63328 -1.05626 0.14956 133 126 135
1.64460 -1.06413 0.14964 145 133 142
1.63983 -1.07567 0.16298 156 146 145
1.63408 -1.09315 0.16326 185 173 168
1.61174 -1.09229 0.19533 168 161 167
1.60115 -1.10492 0.21324 178 170 163
1.58826 -1.11795 0.23295 185 174 172
1.58416 -1.13923 0.25466 194 183 177
1.57835 -1.15060 0.26848 198 181 178
1.57278 -1.16187 0.28207 203 188 184
1.57974 -1.17064 0.28566 209 195 190
1.58085 -1.18056 0.29391 206 204 195
1.58747 -1.18945 0.29781 187 189 166
1.59444 -1.19830 0.30147 147 128 137
1.60489 -1.20655 0.30242 87 70 87
1.59925 -1.22371 0.30271 95 84 77
1.61290 -1.21531 0.30535 79 62 84
1.60724 -1.23250 0.30563 93 83 77
1.65280 -1.25974 0.32065 93 88 74
1.65114 -1.24972 0.31267 93 87 75
1.66032 -1.26882 0.32418 78 82 67
1.70421 -1.27232 0.30016 65 68 48
1.75003 -1.27581 0.27494 47 41 61
1.74414 -1.29372 0.27524 32 31 46
1.76427 -1.28428 0.27376 30 27 49
1.75835 -1.30226 0.27405 32 32 42
1.79926 -1.30054 0.26674 14 31 51
1.79155 -1.30824 0.25869 27 32 41
1.84744 -1.31546 0.25034 112 126 158
1.87084 -1.32323 0.24286 119 138 184
1.86475 -1.34177 0.24317 99 110 144
2.09120 -1.34086 0.12235 84 98 126
2.09770 -1.32110 0.12202 125 137 178
2.08092 -1.33785 0.10452 32 39 61
2.16494 -1.34403 0.07956 42 62 90
2.18221 -1.35395 0.07780 19 23 60
2.19741 -1.36419 0.07762 31 29 59
2.23940 -1.40783 0.09092 61 56 76
2.24687 -1.41916 0.09649 73 71 85
2.25622 -1.43036 0.10079 71 79 102
2.26644 -1.44153 0.10452 61 70 112
2.26737 -1.45351 0.11473 66 74 130
2.28184 -1.46444 0.11561 67 82 138
2.28881 -1.48809 0.13260 86 94 124
2.28639 -1.50034 0.14511 75 81 91
2.30665 -1.52320 0.15316 19 19 33
2.30801 -1.53522 0.16313 12 9 21
2.32593 -1.55847 0.17297 14 8 19
2.34432 -1.56971 0.17171 40 23 24
2.33613 -1.58224 0.18807 89 73 51
2.37320 -1.59283 0.17466 144 130 98
2.39112 -1.61667 0.18502 139 120 123
2.38416 -1.63785 0.18537 74 63 73
2.39035 -1.62896 0.19656 92 73 89
2.38339 -1.65013 0.19691 81 72 74
2.39889 -1.64098 0.20209 73 61 74
2.39192 -1.66218 0.20244 85 77 71
2.44449 -1.68927 0.21734 81 71 58
2.44244 -1.67693 0.20750 86 76 68
2.43745 -1.71068 0.21770 50 40 54
2.45477 -1.70151 0.22200 63 53 54
2.46273 -1.72622 0.23932 77 66 65
2.45567 -1.74770 0.23967 93 80 73
3.10665 -2.00887 0.09525 88 76 58
3.09373 -2.00509 0.07285 91 80 72
3.11512 -2.02355 0.10322 70 48 55
3.11671 -2.03782 0.11508 62 28 45
3.12329 -2.05243 0.12416 51 15 25
3.11511 -2.07731 0.12457 53 25 28
3.12950 -2.06704 0.13346 54 18 24
3.12131 -2.09193 0.13387 58 40 39
3.14612 -2.08244 0.13704 61 43 45
3.13791 -2.10741 0.13745 54 27 31
3.16182 -2.09785 0.14121 68 49 54
3.15358 -2.12291 0.14162 56 40 47
3.22129 -2.16007 0.16040 50 19 39
3.23223 -2.17545 0.16748 61 37 30
3.25275 -2.19181 0.16951 127 110 94
3.21272 -2.20228 0.20371 174 162 125
3.23308 -2.21866 0.20585 186 173 137
3.22475 -2.24399 0.20627 206 188 151
3.24784 -2.23456 0.21103 199 182 150
3.25795 -2.26442 0.23165 203 189 162
3.26829 -2.27998 0.23926 173 179 200
3.21622 -2.28824 0.27893 190 198 226
3.16463 -2.29623 0.31804 227 231 241
3.14365 -2.30767 0.34133 235 240 242
3.15347 -2.32288 0.34894 221 222 213
3.14436 -2.33567 0.36610 158 155 148
3.08186 -2.34128 0.40983 71 69 81
3.09791 -2.35720 0.41422 37 46 79
3.08925 -2.36975 0.43089 59 84 139
3.12912 -2.38915 0.42368 106 137 197
3.11573 -2.40104 0.44266 143 178 224
3.10251 -2.41285 0.46147 160 197 215
3.11192 -2.42799 0.46929 177 205 207
3.10387 -2.45246 0.46969 178 198 203
3.10905 -2.44128 0.48303 179 188 179
3.03510 -2.44333 0.53063 129 120 100
3.00549 -2.46540 0.56883 87 92 77
3.02647 -2.48225 0.57102 78 78 58
3.04849 -2.49940 0.57283 72 67 39
3.03457 -2.51045 0.59138 70 74 51
3.02933 -2.53629 0.61790 140 152 124
3.02147 -2.56019 0.61829 142 157 162
3.02199 -2.54831 0.63326 135 138 130
3.01414 -2.57216 0.63365 151 166 178
3.00533 -2.55854 0.65278 151 163 170
2.99752 -2.58229 0.65317 189 202 208
2.97629 -2.56633 0.67777 192 205 204
2.96628 -2.57757 0.69408 198 203 203
2.95723 -2.58892 0.70990 190 186 190
2.91305 -2.61910 0.76441 194 206 212
2.90543 -2.64227 0.76479 202 194 189
1.43549 -0.93933 0.14876 25 24 35
1.44092 -0.92283 0.14849 16 21 36
1.43391 -0.92982 0.14118 18 23 37
1.44250 -0.93234 0.15608 18 22 27
1.44408 -0.94185 0.16366 19 23 20
1.45074 -0.94495 0.14430 32 27 36
1.46395 -0.95124 0.14171 38 35 43
1.45847 -0.96789 0.14198 56 62 68
1.47944 -0.95698 0.13720 47 50 48
1.47393 -0.97371 0.13748 54 55 59
1.49869 -0.96178 0.12949 53 56 54
1.54000 -0.98128 0.12125 42 45 59
1.53276 -0.98851 0.11369 31 30 43
1.55004 -0.98892 0.12186 37 40 57
1.56531 -1.00560 0.12735 48 31 53
1.57063 -1.01458 0.13211 60 45 50
1.57215 -1.02452 0.14012 74 64 68
1.57916 -1.03312 0.14349 91 81 91
1.58819 -1.04129 0.14521 110 99 98
1.59612 -1.04976 0.14789 119 112 103
1.61155 -1.06693 0.15373 139 134 131
1.60862 -1.07798 0.16551 164 151 151
1.58681 -1.09318 0.19284 177 165 157
1.57717 -1.11580 0.21925 191 180 171
1.57312 -1.12687 0.23176 194 181 172
1.55708 -1.14040 0.25398 200 186 194
1.55442 -1.15107 0.26526 205 192 192
1.55484 -1.16110 0.27403 211 193 194
1.55987 -1.17021 0.27910 212 204 199
1.57176 -1.17801 0.27870 198 198 187
1.57133 -1.18822 0.28817 158 149 147
1.58182 -1.19639 0.28898 100 78 110
1.59792 -1.21377 0.29457 91 76 72
1.59228 -1.23093 0.29486 96 84 81
1.63841 -1.25796 0.30909 83 86 63
1.63675 -1.24796 0.30112 96 86 75
1.65266 -1.26595 0.30739 73 70 55
1.69813 -1.26914 0.28185 34 33 55
1.69232 -1.28682 0.28214 16 19 38
1.71106 -1.27761 0.28140 18 19 50
1.72790 -1.28557 0.27805 26 27 51
1.72204 -1.30340 0.27834 29 31 42
1.80547 -1.31705 0.25793 48 46 59
1.79598 -1.31427 0.24148 31 32 40
1.79947 -1.33528 0.25824 28 26 45
1.80588 -1.32773 0.26730 66 69 96
1.79989 -1.34595 0.26761 47 45 50
1.87664 -1.32932 0.22452 79 87 116
1.87051 -1.34794 0.22482 47 47 55
2.11531 -1.34548 0.08990 9 13 44
2.10684 -1.35393 0.08107 15 9 17
2.10875 -1.36542 0.09023 18 12 29
2.15736 -1.35246 0.06992 11 8 39
2.17364 -1.36253 0.06881 23 18 46
2.20313 -1.38326 0.06906 44 49 68
2.20508 -1.39501 0.07844 49 55 76
2.22248 -1.40530 0.07683 55 58 79
2.23679 -1.41597 0.07751 68 71 82
2.24660 -1.42712 0.08142 79 82 98
2.25073 -1.43881 0.08937 80 83 109
2.25909 -1.45016 0.09438 92 94 121
2.26880 -1.46146 0.09849 124 123 152
2.27670 -1.47294 0.10390 130 135 150
2.27976 -1.48481 0.11269 108 120 132
2.27956 -1.49691 0.12372 76 85 101
2.26675 -1.50982 0.14336 35 40 52
2.25996 -1.53046 0.14370 12 4 25
2.28718 -1.52057 0.14028 13 13 33
2.30097 -1.54393 0.15272 13 5 12
2.30809 -1.55565 0.15883 25 13 24
2.32165 -1.56709 0.16066 55 37 39
2.31478 -1.58798 0.16100 144 133 103
2.32049 -1.57927 0.17237 107 91 70
2.35000 -1.60234 0.17471 151 140 116
2.36046 -1.61415 0.17882 116 99 96
2.35353 -1.63522 0.17917 77 65 74
2.37052 -1.62603 0.18324 83 66 81
2.36357 -1.64714 0.18358 77 70 73
2.41240 -1.67403 0.20033 84 78 64
2.43337 -1.69837 0.20915 66 60 47
2.44469 -1.72299 0.22426 58 47 60
2.45106 -1.73533 0.23141 84 72 66
2.44400 -1.75680 0.23176 94 79 77
3.11082 -2.02028 0.07586 87 78 59
3.09786 -2.01649 0.05338 89 79 71
3.10024 -2.03084 0.06483 86 78 63
3.11733 -2.03490 0.08496 78 58 51
3.11962 -2.04926 0.09647 65 29 48
3.12557 -2.06387 0.10592 57 40 33
3.11737 -2.08882 0.10634 47 18 21
3.20939 -2.15632 0.13685 58 34 35
3.20697 -2.14172 0.12521 60 48 45
3.21139 -2.17088 0.14872 67 48 37
3.23443 -2.18744 0.14925 127 112 81
3.18512 -2.19701 0.18869 168 151 122
3.19203 -2.21196 0.19785 179 163 130
3.20652 -2.22774 0.20301 194 177 142
3.19821 -2.25299 0.20343 211 189 150
3.23573 -2.25954 0.21342 195 182 165
3.23324 -2.27361 0.22765 206 206 195
3.18083 -2.28179 0.26778 200 209 224
3.19372 -2.29749 0.27387 197 201 224
3.15657 -2.30708 0.30574 208 216 235
3.13243 -2.31807 0.33073 226 238 248
3.14548 -2.33371 0.33667 240 247 244
3.14050 -2.34703 0.35179 231 234 216
3.13085 -2.35967 0.36921 179 175 143
3.06346 -2.36421 0.41542 94 83 61
3.09362 -2.38218 0.41276 36 32 41
3.09096 -2.39556 0.42648 26 40 78
3.09004 -2.40916 0.43931 35 56 107
3.08417 -2.42199 0.45455 57 81 125
3.10830 -2.43941 0.45516 124 145 179
3.06441 -2.45984 0.50102 165 163 142
2.96419 -2.45704 0.56112 106 86 63
3.02106 -2.47978 0.54607 101 95 84
3.07025 -2.50155 0.53495 113 112 91
3.06765 -2.51466 0.54839 123 111 93
3.06503 -2.52774 0.56182 136 132 111
3.00245 -2.53007 0.60303 154 170 163
2.93934 -2.58424 0.69130 210 225 225
2.93566 -2.59657 0.70471 213 225 223
2.92797 -2.61995 0.70510 216 221 230
2.93263 -2.60899 0.71779 208 212 222
2.92495 -2.63235 0.71818 223 229 227
2.92137 -2.61971 0.73449 202 206 213
2.88970 -2.62614 0.76008 193 194 183
2.88210 -2.64924 0.76046 199 206 210
2.77708 -2.69021 0.88821 131 95 32
2.76542 -2.68679 0.86799 233 212 161
2.76757 -2.69971 0.87829 230 206 138
2.76972 -2.71262 0.88858 216 187 110
1.42656 -0.93691 0.13417 32 23 40
1.43199 -0.92041 0.13390 17 24 42
1.42498 -0.92740 0.12659 27 23 37
1.43890 -0.94334 0.13218 41 34 56
1.43345 -0.95991 0.13245 56 65 75
1.45421 -0.94900 0.12763 49 52 60
1.44873 -0.96565 0.12790 55 60 73
1.46382 -0.95636 0.12820 54 64 63
1.45833 -0.97305 0.12848 48 56 73
1.50032 -0.97669 0.12351 44 49 58
1.49154 -0.97412 0.10827 43 49 64
1.51890 -0.98192 0.11650 38 41 52
1.54435 -0.99576 0.11292 40 31 40
1.55345 -1.00372 0.11436 55 41 65
1.55617 -1.01334 0.12132 72 53 75
1.56082 -1.02248 0.12664 86 70 83
1.55886 -1.03327 0.13760 105 89 92
1.56074 -1.04310 0.14529 120 105 95
1.56953 -1.05129 0.14713 125 113 106
1.57421 -1.06050 0.15249 130 116 118
1.57724 -1.07010 0.15924 151 131 132
1.56905 -1.08226 0.17538 164 152 140
1.55659 -1.09530 0.19501 175 165 164
1.55361 -1.10616 0.20669 184 173 173
1.54639 -1.11791 0.22185 191 184 175
1.54229 -1.12893 0.23438 197 189 183
1.53671 -1.14591 0.23466 215 206 204
1.53721 -1.14012 0.24767 204 191 191
1.53609 -1.15044 0.25770 211 197 198
1.53714 -1.16031 0.26593 213 207 201
1.54428 -1.16896 0.26924 207 208 196
1.55566 -1.17682 0.26915 170 168 159
1.56451 -1.19537 0.28030 82 64 71
1.55891 -1.21241 0.28058 97 82 80
1.57250 -1.20401 0.28305 87 72 85
1.56688 -1.22109 0.28333 96 83 84
1.61447 -1.24754 0.29583 95 85 70
1.61282 -1.23759 0.28790 94 83 77
1.62181 -1.24022 0.30349 97 84 78
1.62392 -1.25621 0.29770 81 79 68
1.67372 -1.25844 0.26828 43 52 46
1.66793 -1.27604 0.26857 18 14 26
1.66816 -1.26972 0.28197 21 17 40
1.66239 -1.28727 0.28226 19 14 24
1.68510 -1.27748 0.27827 13 11 40
1.67930 -1.29513 0.27857 19 17 21
1.72731 -1.29209 0.26482 25 28 36
1.72144 -1.30996 0.26511 27 28 45
2.17020 -1.37056 0.05609 24 19 40
2.15964 -1.36747 0.03778 26 20 24
2.16158 -1.37916 0.04710 25 19 30
2.18036 -1.38140 0.05945 31 32 48
2.19729 -1.39162 0.05798 39 45 61
2.20875 -1.40247 0.06054 44 56 81
2.22052 -1.41335 0.06293 53 62 83
2.23005 -1.42450 0.06698 69 75 92
2.24596 -1.43515 0.06654 83 87 112
2.24951 -1.44692 0.07492 98 100 121
2.26496 -1.45775 0.07494 130 136 154
2.26771 -1.46964 0.08393 155 165 186
2.26907 -1.48164 0.09390 136 144 164
2.26328 -1.50619 0.11971 31 35 49
2.26818 -1.51792 0.12720 12 9 25
2.28393 -1.54111 0.13819 26 14 27
2.28935 -1.55290 0.14539 52 29 39
2.29614 -1.56463 0.15170 90 72 76
2.30596 -1.57626 0.15599 127 111 95
2.32439 -1.59972 0.16553 131 112 110
2.31751 -1.62066 0.16587 91 77 75
2.35387 -1.62300 0.16792 82 69 75
2.34694 -1.64408 0.16827 68 60 74
2.38127 -1.65894 0.18305 77 74 69
2.39451 -1.67093 0.18552 73 70 62
2.38752 -1.69219 0.18587 42 38 52
2.40164 -1.68309 0.19199 64 61 51
2.41569 -1.69520 0.19405 52 49 35
2.43391 -1.71971 0.20467 52 46 58
2.43490 -1.73208 0.21520 75 66 60
2.42785 -1.75352 0.21555 93 80 76
2.43883 -1.74443 0.22386 91 78 72
2.43178 -1.76588 0.22422 92 79 78
3.11628 -2.04610 0.06848 79 68 58
3.12347 -2.06083 0.07723 66 49 57
3.13008 -2.07554 0.08633 58 48 33
3.18110 -2.13678 0.10938 53 42 44
3.17867 -2.12222 0.09778 57 50 50
3.20347 -2.15310 0.10999 52 32 36
3.21144 -2.16823 0.11861 45 22 31
3.20635 -2.18216 0.13438 108 103 72
3.17245 -2.19321 0.16576 166 158 122
3.17004 -2.20722 0.17992 177 164 135
3.17867 -2.22235 0.18812 192 177 143
3.18897 -2.23770 0.19548 206 188 150
3.20560 -2.26810 0.21241 178 169 164
3.20069 -2.28181 0.22788 184 208 217
3.18795 -2.29454 0.24739 192 223 238
3.20689 -2.31106 0.25035 171 183 212
3.17752 -2.32160 0.27840 175 192 219
3.13456 -2.33019 0.31326 203 223 240
3.13182 -2.34381 0.32728 220 230 243
3.12723 -2.35716 0.34222 226 233 240
3.12445 -2.37071 0.35620 222 226 216
3.10898 -2.38243 0.37654 174 171 157
3.05189 -2.38802 0.41761 92 85 80
3.08059 -2.40591 0.41565 50 54 50
3.07748 -2.41918 0.42958 39 48 65
3.08699 -2.43435 0.43727 32 42 91
3.11017 -2.45171 0.43830 91 112 156
3.09006 -2.46227 0.46053 173 198 206
3.08800 -2.47564 0.47389 185 192 176
3.02295 -2.50544 0.54182 97 93 99
3.06184 -2.52570 0.53556 94 100 110
2.97545 -2.52383 0.58840 129 146 145
2.93550 -2.58229 0.66636 181 193 215
2.92779 -2.60575 0.66674 197 212 217
2.92270 -2.59285 0.68396 202 214 224
2.91992 -2.60532 0.69697 208 216 226
2.69238 -2.70677 0.93212 187 151 73
2.68094 -2.70342 0.91229 229 216 174
2.68305 -2.71609 0.92239 231 212 152
2.68515 -2.72875 0.93248 225 199 127
2.50424 -3.07245 1.38080 11 6 2
2.51100 -3.05187 1.38046 6 5 3
2.49353 -3.06931 1.36223 41 46 40
2.51297 -3.06373 1.38991 5 6 2
2.51495 -3.07558 1.39937 4 6 2
2.50320 -3.08326 1.39122 8 5 4
2.51390 -3.08640 1.40977 4 5 3
2.50517 -3.09511 1.40066 6 5 4
1.40183 -0.91926 0.11589 27 28 35
1.40723 -0.90283 0.11562 23 26 29
1.40026 -0.90979 0.10834 26 29 32
1.40881 -0.91230 0.12316 21 27 27
1.41038 -0.92176 0.13071 23 26 38
1.41058 -0.92660 0.11694 33 27 48
1.41961 -0.93392 0.11780 43 34 54
1.41418 -0.95043 0.11807 63 66 76
1.43276 -0.94010 0.11500 51 49 56
1.42731 -0.95668 0.11527 56 64 72
1.44322 -0.94713 0.11469 54 64 67
1.43775 -0.96376 0.11496 52 61 72
1.50127 -0.98168 0.10890 34 39 59
1.51572 -0.98806 0.10545 42 44 54
1.53115 -0.99427 0.10123 53 55 53
1.54001 -1.00226 0.10280 63 56 52
1.54213 -1.01201 0.11026 79 60 71
1.54781 -1.02088 0.11464 96 83 80
1.54159 -1.03270 0.12929 114 103 87
1.54162 -1.04295 0.13853 123 113 105
1.53545 -1.05467 0.15304 130 118 113
1.54012 -1.06378 0.15830 138 126 124
1.53844 -1.07439 0.16895 151 137 130
1.53282 -1.08587 0.18291 172 148 135
1.52883 -1.09694 0.19544 181 159 156
1.53080 -1.10664 0.20296 187 171 168
1.52408 -1.11825 0.21772 193 180 180
1.51852 -1.13518 0.21800 210 201 194
1.52273 -1.12864 0.22797 200 189 185
1.52161 -1.13896 0.23801 211 195 192
1.51846 -1.15974 0.25878 208 205 205
1.52338 -1.16879 0.26383 180 177 180
1.52254 -1.17901 0.27359 128 95 130
1.54667 -1.19447 0.27218 80 71 77
1.54108 -1.21146 0.27246 92 83 74
1.55574 -1.20287 0.27398 93 82 72
1.55014 -1.21990 0.27426 97 84 75
1.58860 -1.23758 0.28439 93 87 75
1.59936 -1.24594 0.28509 78 83 65
1.64127 -1.24920 0.26132 62 55 36
1.63552 -1.26667 0.26161 14 11 21
1.64148 -1.25950 0.27049 23 23 37
1.63574 -1.27697 0.27078 12 14 16
1.64773 -1.26884 0.27494 15 14 35
1.64198 -1.28633 0.27523 16 13 17
2.18213 -1.38896 0.04287 23 23 37
2.17151 -1.38586 0.02446 21 18 18
2.17347 -1.39761 0.03383 14 16 24
2.19651 -1.39950 0.04322 24 29 47
2.20982 -1.41022 0.04442 25 30 63
2.21736 -1.42154 0.04984 35 39 74
2.22829 -1.43261 0.05286 56 61 88
2.23356 -1.44421 0.05998 73 82 110
2.25080 -1.45486 0.05862 102 114 127
2.25701 -1.46647 0.06515 140 155 173
2.25828 -1.47847 0.07519 134 147 174
2.25139 -1.49106 0.09094 93 87 123
2.24458 -1.51175 0.09129 13 3 16
2.24738 -1.50338 0.10463 38 32 54
2.25714 -1.51478 0.10871 13 7 20
2.26381 -1.52643 0.11497 20 10 15
2.25233 -1.55115 0.14463 95 72 78
2.26075 -1.56272 0.14970 137 114 100
2.26310 -1.57461 0.15895 154 140 111
2.28485 -1.58565 0.15506 144 132 104
2.27802 -1.60643 0.15540 90 77 66
2.29773 -1.59718 0.15726 111 93 79
2.29088 -1.61803 0.15760 93 81 72
2.31445 -1.60863 0.15696 92 75 76
2.30757 -1.62957 0.15730 94 83 73
2.36956 -1.65572 0.16437 67 61 65
2.35852 -1.65249 0.14524 67 55 70
2.36055 -1.66471 0.15498 64 53 62
2.37562 -1.66785 0.17146 61 57 58
2.39235 -1.67981 0.17160 48 45 53
2.39792 -1.70435 0.19022 48 40 45
2.41380 -1.71652 0.19109 59 54 53
2.40676 -1.73791 0.19145 94 83 69
2.42259 -1.72881 0.19660 78 73 65
2.41554 -1.75025 0.19695 94 81 74
2.42286 -1.74117 0.20758 91 80 68
2.41582 -1.76259 0.20793 92 79 77
3.10322 -2.04228 0.04596 81 73 65
3.10083 -2.02789 0.03449 88 78 70
3.11156 -2.05709 0.05402 73 68 54
3.12284 -2.07214 0.06043 60 40 54
3.13092 -2.08701 0.06872 55 35 46
3.14462 -2.10236 0.07385 54 35 45
3.14703 -2.11686 0.08541 65 48 46
3.16529 -2.13270 0.08808 53 38 52
3.19415 -2.14957 0.08492 42 20 33
3.18580 -2.17497 0.08534 31 5 6
3.21217 -2.16563 0.08794 39 11 15
3.21782 -2.18061 0.09788 27 10 16
3.19694 -2.19304 0.12240 86 87 57
3.14690 -2.20238 0.16274 140 140 103
3.14975 -2.21688 0.17402 159 156 122
3.16644 -2.23285 0.17781 187 183 155
3.17354 -2.24787 0.18685 211 197 169
3.17543 -2.26232 0.19870 220 197 149
3.14833 -2.27340 0.22598 157 131 112
3.14628 -2.28729 0.23983 111 104 138
3.15245 -2.30216 0.24933 109 119 174
3.14422 -2.32717 0.24974 49 33 66
3.14672 -2.31555 0.26508 95 108 154
3.14544 -2.32947 0.27846 114 142 178
3.14368 -2.34330 0.29208 159 196 220
3.12361 -2.35463 0.31511 181 213 229
3.11764 -2.36777 0.33078 187 215 230
3.11233 -2.38095 0.34607 188 207 216
3.09843 -2.39285 0.36568 173 176 169
3.06749 -2.40213 0.39378 123 109 86
3.07711 -2.41731 0.40136 66 45 27
3.07591 -2.43087 0.41438 46 28 34
3.09196 -2.44712 0.41882 55 28 50
3.09537 -2.46143 0.42958 104 93 133
3.06517 -2.47027 0.45681 186 208 236
3.07152 -2.48498 0.46605 199 197 210
2.99973 -2.48651 0.51318 156 144 133
3.00135 -2.50021 0.52452 127 105 73
3.02774 -2.53172 0.53617 28 28 48
3.06896 -2.55266 0.52882 85 105 102
2.98447 -2.56398 0.59288 132 146 151
2.94961 -2.57063 0.62111 127 151 152
2.90968 -2.58912 0.66326 180 197 214
2.89975 -2.59902 0.65290 141 159 187
2.91113 -2.61544 0.68611 196 206 220
2.90121 -2.62534 0.67577 195 202 213
2.90484 -2.62715 0.70070 209 219 230
2.90707 -2.64058 0.71141 212 223 227
2.89717 -2.65046 0.70108 214 218 219
2.47202 -3.07307 1.37934 34 39 32
2.46137 -3.06995 1.36088 52 61 66
2.46333 -3.08173 1.37028 50 59 58
2.46529 -3.09352 1.37968 50 55 49
2.49192 -3.09109 1.38293 27 27 22
2.48516 -3.11163 1.38327 50 47 45
1.40020 -0.91467 0.09473 33 28 51
1.40562 -0.89820 0.09445 23 28 34
1.39863 -0.90518 0.08716 28 28 36
1.40849 -0.92216 0.09617 42 35 61
1.40306 -0.93867 0.09644 67 69 81
1.41621 -0.92987 0.09817 52 50 68
1.41077 -0.94642 0.09845 64 66 79
1.42357 -0.93773 0.10054 60 65 74
1.41812 -0.95431 0.10082 61 62 78
1.47066 -0.98496 0.11295 51 51 71
1.46905 -0.97528 0.10523 45 51 64
1.47974 -0.99266 0.11406 63 65 82
1.48732 -1.00081 0.11656 86 87 91
1.50339 -1.00680 0.11164 99 102 90
1.51355 -1.01441 0.11198 101 94 87
1.52182 -1.02255 0.11402 111 93 95
1.52700 -1.03150 0.11878 122 108 101
1.52927 -1.04118 0.12608 128 117 95
1.52122 -1.05336 0.14226 135 124 102
1.51930 -1.06400 0.15313 147 133 117
1.50640 -1.07719 0.17336 160 142 135
1.49979 -1.08883 0.18814 172 154 150
1.49993 -1.09889 0.19714 181 163 156
1.50381 -1.10810 0.20297 186 173 164
1.50360 -1.11822 0.21226 199 179 175
1.50511 -1.12796 0.22010 207 188 183
1.50053 -1.14903 0.24210 207 209 196
1.50673 -1.15778 0.24602 189 188 175
1.50487 -1.16818 0.25663 141 109 152
1.49934 -1.18501 0.25691 91 78 76
1.51519 -1.17615 0.25719 89 79 93
1.50964 -1.19302 0.25747 93 83 73
1.53006 -1.19337 0.26320 90 80 58
1.52449 -1.21031 0.26347 92 84 90
1.56697 -1.22702 0.26987 96 86 75
1.57633 -1.23554 0.27155 81 85 66
1.60053 -1.24158 0.26144 70 66 27
1.59485 -1.25888 0.26172 16 14 13
1.61257 -1.24981 0.26114 28 33 29
1.60686 -1.26717 0.26143 17 17 24
1.61904 -1.25903 0.26531 12 15 27
1.61332 -1.27641 0.26559 15 16 16
2.18780 -1.40817 0.03417 14 16 31
2.17715 -1.40505 0.01570 13 14 21
2.17911 -1.41685 0.02510 15 16 28
2.18107 -1.42864 0.03450 16 19 26
2.20193 -1.41884 0.03472 12 17 39
2.19518 -1.43938 0.03506 15 20 23
2.21254 -1.42991 0.03790 17 19 44
2.22386 -1.44097 0.04062 29 27 44
2.22529 -1.45291 0.05049 43 46 56
2.22696 -1.46482 0.06020 67 83 108
2.24316 -1.47564 0.05955 90 109 137
2.22842 -1.48878 0.08092 68 75 110
2.23981 -1.50002 0.08375 24 18 52
2.24614 -1.52369 0.10109 35 17 20
2.23813 -1.53620 0.11756 74 56 41
2.23445 -1.54840 0.13095 130 109 94
2.23531 -1.56033 0.14119 168 150 130
2.24379 -1.57188 0.14617 163 153 118
2.26283 -1.58299 0.14396 130 108 95
2.25602 -1.60371 0.14431 91 78 75
2.26849 -1.59477 0.15098 100 82 76
2.26167 -1.61552 0.15133 94 83 70
2.36806 -1.67682 0.16110 58 46 55
2.37840 -1.68892 0.16539 54 45 50
2.37552 -1.70124 0.17839 62 54 60
2.36853 -1.72250 0.17874 92 81 71
2.39624 -1.72564 0.18712 89 80 62
2.38922 -1.74698 0.18747 93 82 72
3.08950 -2.02418 0.01096 87 77 63
3.09772 -1.99919 0.01054 92 79 71
3.08711 -2.00978 -0.00053 91 79 70
3.07650 -2.02037 -0.01160 89 76 64
3.10011 -2.01359 0.02203 89 78 68
3.09331 -2.03867 0.02161 80 66 55
3.10387 -2.05364 0.02835 67 33 49
3.11373 -2.06860 0.03554 57 28 40
3.12049 -2.08338 0.04455 48 12 39
3.13024 -2.09843 0.05188 49 19 46
3.13841 -2.11339 0.06015 53 47 43
3.15761 -2.12931 0.06219 53 31 35
3.14930 -2.15459 0.06261 32 4 15
3.17303 -2.14501 0.06647 40 11 32
3.16470 -2.17036 0.06689 31 4 6
3.19598 -2.16148 0.06660 33 6 16
3.18760 -2.18694 0.06702 28 5 8
3.21188 -2.19189 0.08387 22 6 14
3.20623 -2.20579 0.10007 66 63 49
3.17930 -2.21745 0.12794 102 96 63
3.17733 -2.23157 0.14198 103 97 78
3.13055 -2.24076 0.18039 129 120 110
3.15430 -2.25758 0.18032 172 161 157
3.16172 -2.27264 0.18917 203 189 167
3.14838 -2.28527 0.20918 187 163 128
3.12809 -2.29696 0.23280 117 90 73
3.10759 -2.30847 0.25641 70 46 65
3.11764 -2.33778 0.27644 35 37 73
3.10874 -2.35058 0.29375 55 63 100
3.13969 -2.36880 0.29031 84 87 133
3.05427 -2.37083 0.34710 103 109 164
3.06990 -2.38683 0.35152 122 141 189
3.08499 -2.40285 0.35629 142 165 194
3.08735 -2.41703 0.36760 148 159 166
3.07593 -2.42910 0.38586 110 112 105
3.05316 -2.43931 0.40975 85 82 86
3.09266 -2.45929 0.40240 132 131 155
3.09502 -2.47346 0.41370 127 134 172
3.06606 -2.48246 0.44047 169 190 205
3.06120 -2.49532 0.45523 189 194 208
3.05830 -2.50847 0.46899 184 176 171
3.02890 -2.51696 0.49559 158 151 118
2.99875 -2.52513 0.52237 68 72 82
2.97812 -2.53481 0.54440 42 49 21
3.02777 -2.55728 0.53278 73 78 65
3.04452 -2.57389 0.53702 89 90 81
3.03838 -2.58624 0.55214 88 86 69
3.02818 -2.59775 0.56911 52 86 51
3.01606 -2.60881 0.58691 71 91 90
2.90615 -2.61333 0.66173 188 202 215
2.89621 -2.62325 0.65137 179 195 208
2.89846 -2.63673 0.66212 192 199 208
2.82128 -2.69790 0.79283 181 174 178
2.82879 -2.67506 0.79245 212 207 205
2.81909 -2.68474 0.78233 206 209 219
2.83097 -2.68822 0.80294 205 197 197
2.83316 -2.70138 0.81344 208 200 191
2.81623 -2.70940 0.80647 169 157 154
2.82809 -2.71288 0.82705 219 211 191
2.80873 -2.73220 0.80685 165 154 143
1.49772 -2.51841 1.48226 71 49 2
1.50580 -2.52078 1.49626 14 12 8
1.48794 -2.52429 1.49388 45 17 3
1.49598 -2.52665 1.50782 12 14 16
1.46276 -2.53429 1.51912 22 5 5
1.47072 -2.53662 1.53293 13 16 15
1.46423 -2.54311 1.52615 16 11 9
2.28409 -3.10369 1.50549 21 13 4
2.29047 -3.08428 1.50517 21 14 8
2.27399 -3.10073 1.48797 49 46 36
2.29233 -3.09546 1.51409 18 13 10
2.27585 -3.11192 1.49689 41 39 33
2.29419 -3.10665 1.52301 19 15 6
1.38082 -0.90550 0.08086 33 27 48
1.38621 -0.88909 0.08059 26 28 38
1.37924 -0.89604 0.07332 31 29 43
1.38779 -0.89854 0.08813 26 29 32
1.38717 -0.91351 0.08398 40 32 59
1.39430 -0.92132 0.08642 52 50 68
1.38889 -0.93780 0.08670 66 71 77
1.40261 -0.92883 0.08782 62 64 74
1.39718 -0.94534 0.08810 58 67 80
1.44040 -0.97817 0.10794 58 57 80
1.43880 -0.96856 0.10028 53 54 73
1.44748 -0.97110 0.11533 49 55 66
1.44598 -0.98671 0.11204 62 66 83
1.45477 -0.99442 0.11331 74 77 92
1.46767 -1.00109 0.11097 96 98 108
1.47216 -1.01004 0.11616 125 127 134
1.48307 -1.01735 0.11569 138 145 141
1.49537 -1.02439 0.11407 135 132 123
1.50962 -1.03101 0.11080 129 113 103
1.50916 -1.04133 0.12045 133 119 110
1.50614 -1.05227 0.13231 140 127 116
1.49407 -1.06532 0.15197 153 142 124
1.48407 -1.07779 0.16976 164 153 134
1.47847 -1.08916 0.18369 180 159 148
1.47732 -1.09947 0.19377 189 165 153
1.47950 -1.10901 0.20099 191 172 165
1.47398 -1.12579 0.20127 203 192 188
1.48162 -1.11857 0.20827 196 180 174
1.48162 -1.12859 0.21734 206 189 182
1.48349 -1.13820 0.22482 210 200 191
1.48917 -1.14701 0.22911 192 190 188
1.49466 -1.15589 0.23358 151 134 143
1.48913 -1.17272 0.23386 86 71 83
1.49687 -1.16546 0.24081 88 71 104
1.49134 -1.18229 0.24109 93 85 77
1.55073 -1.22572 0.26037 88 88 57
1.54909 -1.21588 0.25253 92 84 72
1.56088 -1.23407 0.26134 79 77 43
1.58337 -1.24035 0.25241 33 39 32
1.57770 -1.25760 0.25269 15 14 23
1.59115 -1.24926 0.25542 13 13 27
1.58546 -1.26654 0.25570 18 15 18
2.05923 -1.37003 0.06061 28 33 42
2.06575 -1.35020 0.06029 30 20 26
2.05733 -1.35860 0.05150 38 42 39
2.06765 -1.36163 0.06940 22 24 27
2.06955 -1.37305 0.07851 23 28 22
2.05271 -1.38986 0.06094 13 14 17
2.21273 -1.44991 0.03319 15 17 21
2.20200 -1.44677 0.01458 12 17 14
2.20397 -1.45865 0.02406 12 16 17
2.20595 -1.47054 0.03354 10 13 17
2.21884 -1.46147 0.03969 9 13 24
2.21205 -1.48212 0.04003 9 11 13
2.22239 -1.47325 0.04804 5 10 33
2.22411 -1.48517 0.05772 3 9 36
2.22431 -1.49719 0.06847 5 5 31
2.22788 -1.50899 0.07683 15 12 32
2.23015 -1.52087 0.08612 46 31 35
2.21806 -1.53361 0.10551 105 87 73
2.21529 -1.54574 0.11828 156 142 103
2.21994 -1.55744 0.12586 167 160 118
2.23003 -1.56888 0.12966 144 120 110
2.22325 -1.58949 0.13000 93 76 73
2.23544 -1.58060 0.13676 106 87 86
2.22865 -1.60123 0.13710 95 83 78
2.24520 -1.59215 0.14087 89 74 79
2.23840 -1.61282 0.14121 94 85 77
2.34799 -1.66151 0.13687 82 67 72
2.33696 -1.65828 0.11775 92 81 74
2.33899 -1.67049 0.12749 91 80 74
2.34102 -1.68270 0.13722 93 81 76
2.35948 -1.68581 0.15141 81 71 61
2.35249 -1.70704 0.15176 90 80 72
2.36723 -1.69797 0.15738 86 76 57
2.36024 -1.71923 0.15773 91 80 76
2.36991 -1.71022 0.16673 91 80 66
2.36291 -1.73149 0.16708 92 80 78
3.08036 -2.03487 -0.00098 83 73 53
3.06735 -2.03105 -0.02354 84 68 63
3.08402 -2.04936 0.00976 74 57 43
3.09269 -2.06421 0.01757 57 11 38
3.08446 -2.08925 0.01799 45 4 9
3.09993 -2.07900 0.02626 46 5 17
3.09169 -2.10407 0.02667 39 5 7
3.10637 -2.09376 0.03544 42 5 18
3.09812 -2.11885 0.03585 36 6 8
3.11960 -2.10909 0.04071 40 11 24
3.11133 -2.13424 0.04113 35 7 10
3.13583 -2.12473 0.04434 42 23 24
3.12753 -2.14996 0.04476 30 4 8
3.15801 -2.14099 0.04464 36 9 19
3.14968 -2.16633 0.04506 30 5 8
3.19794 -2.20240 0.07430 25 9 17
3.18466 -2.19851 0.05128 32 8 8
3.20537 -2.21761 0.08324 62 51 32
3.18744 -2.23017 0.10626 88 79 34
3.17701 -2.24342 0.12503 94 81 56
3.15565 -2.25536 0.14972 100 89 78
3.11880 -2.26537 0.18273 124 112 98
3.12548 -2.28029 0.19189 144 129 114
3.12489 -2.29434 0.20500 161 143 129
3.11915 -2.30774 0.22086 165 144 102
3.11752 -2.32161 0.23448 167 142 85
3.11766 -2.33569 0.24713 140 118 78
3.10896 -2.34856 0.26444 77 61 40
3.08782 -2.35967 0.28823 70 55 27
3.09285 -2.37429 0.29820 84 73 41
3.09403 -2.38838 0.31019 72 62 56
3.06208 -2.39761 0.33931 60 47 68
3.02791 -2.40630 0.36938 57 45 80
3.04591 -2.42272 0.37255 63 54 87
3.04595 -2.43645 0.38495 60 53 73
3.04696 -2.45031 0.39684 57 57 73
3.03894 -2.47473 0.39724 63 51 51
3.03995 -2.46286 0.41276 106 111 152
3.08773 -2.48441 0.40122 144 142 205
3.05564 -2.49280 0.42967 171 195 230
3.05968 -2.52084 0.45243 198 221 227
3.05410 -2.53351 0.46753 192 210 196
2.99551 -2.53655 0.50836 132 134 144
3.01618 -2.55378 0.51052 122 129 89
2.99344 -2.56302 0.53366 102 91 49
3.00567 -2.57874 0.53994 167 179 130
3.00881 -2.59276 0.55060 170 136 119
3.00894 -2.60620 0.56269 110 83 80
3.00245 -2.61831 0.57787 86 95 98
2.84672 -2.70287 0.75561 202 199 199
2.83038 -2.71189 0.77440 181 169 161
2.82284 -2.73483 0.77478 168 151 135
2.82023 -2.72224 0.79036 168 154 140
2.81271 -2.74512 0.79074 166 155 136
1.45165 -2.48898 1.46845 221 204 158
1.45669 -2.47365 1.46819 212 182 111
1.45018 -2.48015 1.46141 219 204 172
1.45816 -2.48248 1.47523 192 165 95
1.44661 -2.50430 1.46870 212 199 170
1.42667 -2.50748 1.50143 198 170 99
1.41878 -2.50517 1.48775 216 201 161
1.42024 -2.51391 1.49472 217 200 160
1.42169 -2.52265 1.50168 219 195 150
1.42848 -2.51632 1.50826 174 141 77
1.42349 -2.53148 1.50851 213 186 113
1.41718 -2.52152 1.52031 143 106 25
1.44060 -2.53638 1.51855 99 61 2
1.46058 -2.55039 1.51825 57 25 3
1.46855 -2.55273 1.53207 12 12 16
1.46204 -2.55922 1.52529 38 12 7
2.30024 -3.13160 1.49886 38 34 27
2.29007 -3.12862 1.48123 60 63 64
2.29194 -3.13988 1.49021 53 56 51
2.29381 -3.15113 1.49918 56 53 47
1.36774 -0.90440 0.07030 43 34 45
1.37313 -0.88801 0.07003 28 29 42
1.36617 -0.89495 0.06277 34 30 41
1.37314 -0.91267 0.07425 51 49 63
1.36775 -0.92908 0.07452 66 77 83
1.37720 -0.92138 0.07948 61 67 80
1.38534 -0.92889 0.08094 69 73 83
1.41769 -0.96949 0.09653 51 58 83
1.41610 -0.95992 0.08889 51 56 81
1.42474 -0.96245 0.10388 52 57 72
1.42515 -0.97744 0.09884 63 67 88
1.43015 -0.98611 0.10341 73 77 92
1.44036 -0.99339 0.10332 83 90 98
1.44773 -1.00149 0.10582 110 115 119
1.45401 -1.00992 0.10934 137 144 143
1.45859 -1.01883 0.11441 152 162 165
1.45975 -1.02862 0.12252 159 168 170
1.47265 -1.03546 0.12026 156 154 156
1.49420 -1.04025 0.11047 142 129 129
1.48433 -1.05283 0.12835 147 135 138
1.47541 -1.06511 0.14533 160 146 148
1.46768 -1.07703 0.16120 171 159 149
1.46350 -1.08806 0.17394 180 165 150
1.46124 -1.09860 0.18498 190 172 155
1.45573 -1.11534 0.18526 204 192 165
1.46317 -1.10817 0.19239 197 178 158
1.46594 -1.11755 0.19907 202 184 173
1.47311 -1.13600 0.21109 194 190 179
1.48173 -1.15420 0.22193 108 87 129
1.47620 -1.17100 0.22221 94 78 75
1.48421 -1.16370 0.22892 87 66 86
1.47868 -1.18050 0.22919 94 83 81
1.52270 -1.21650 0.25152 87 86 75
1.52108 -1.20672 0.24372 95 86 74
1.53404 -1.22453 0.25136 77 81 63
1.55633 -1.23068 0.24232 53 43 40
1.55069 -1.24784 0.24260 14 15 19
1.57232 -1.24829 0.24779 13 10 24
1.56665 -1.26552 0.24807 14 14 16
2.04577 -1.36736 0.04510 20 15 35
2.05228 -1.34755 0.04477 47 48 55
2.03546 -1.36434 0.02722 24 23 43
2.03735 -1.37575 0.03632 21 18 35
2.03925 -1.38717 0.04543 19 16 28
2.06492 -1.37691 0.04119 12 15 29
2.05838 -1.39682 0.04151 18 15 23
2.21336 -1.49406 0.04999 11 10 14
2.21554 -1.50594 0.05933 35 19 23
2.20568 -1.51860 0.07727 73 66 59
2.19186 -1.53142 0.09796 125 119 92
2.19104 -1.54339 0.10934 157 150 117
2.21222 -1.56610 0.11604 115 98 82
2.20546 -1.58667 0.11638 96 81 78
2.21591 -1.57787 0.12428 95 72 67
2.20915 -1.59845 0.12462 97 84 82
3.07037 -2.04550 -0.01243 80 66 54
3.05736 -2.04169 -0.03499 79 63 65
3.05975 -2.05610 -0.02350 78 62 59
3.07263 -2.05990 -0.00086 74 55 41
3.07763 -2.07450 0.00909 58 15 32
3.19873 -2.21439 0.05645 32 13 19
3.18542 -2.21050 0.03337 30 11 8
3.20404 -2.22943 0.06659 56 37 33
3.19360 -2.24278 0.08554 78 68 35
3.17835 -2.25551 0.10709 90 75 55
3.14876 -2.26649 0.13645 97 80 67
3.12665 -2.27814 0.16151 112 95 67
3.10442 -2.28963 0.18651 122 103 80
3.08659 -2.30150 0.20897 129 112 97
3.08716 -2.31559 0.22137 137 121 97
3.09969 -2.33123 0.22732 150 136 100
3.11198 -2.36096 0.24620 121 93 72
3.09927 -2.37322 0.26566 140 127 83
3.04272 -2.37912 0.30810 178 172 106
3.03627 -2.39197 0.32398 183 161 97
3.02822 -2.41645 0.32438 201 184 136
3.03764 -2.40593 0.33574 170 141 80
3.04927 -2.42144 0.34217 152 123 49
3.02079 -2.43079 0.36932 135 107 27
3.04140 -2.44772 0.37115 112 85 26
3.04159 -2.46146 0.38348 78 62 26
3.07342 -2.49419 0.39227 60 37 80
3.04973 -2.50391 0.41662 59 52 105
3.02199 -2.51277 0.44284 64 72 138
2.99504 -2.52157 0.46850 101 105 169
3.01432 -2.53853 0.47123 130 122 185
3.01601 -2.55237 0.48266 125 131 175
2.99276 -2.56156 0.50624 129 160 180
2.98390 -2.57331 0.52271 151 182 153
3.01245 -2.59221 0.52110 181 216 217
3.01477 -2.60612 0.53220 182 200 202
2.91472 -2.59970 0.59201 145 154 141
2.97634 -2.62528 0.57477 94 104 107
2.96858 -2.63700 0.59048 104 104 112
2.90781 -2.67683 0.66645 198 205 204
2.90556 -2.66330 0.65567 192 196 196
2.89559 -2.67325 0.64527 193 198 200
2.92003 -2.68041 0.68764 206 211 214
2.90015 -2.68817 0.68177 199 203 205
2.89244 -2.71160 0.68215 191 194 198
2.87743 -2.72192 0.72726 197 198 190
2.86532 -2.71837 0.70626 193 198 199
2.86755 -2.73178 0.71695 191 192 191
2.86978 -2.74518 0.72764 180 168 161
2.82226 -2.72199 0.76352 180 166 156
2.81472 -2.74494 0.76389 170 153 141
1.44006 -2.48569 1.45613 184 175 160
1.43860 -2.47687 1.44910 170 159 148
1.43210 -2.48336 1.44232 160 146 129
1.43357 -2.49218 1.44935 160 148 136
1.43503 -2.50099 1.45639 165 154 145
1.41815 -2.53830 1.51819 202 173 96
1.41028 -2.53599 1.50454 213 204 161
1.41523 -2.55405 1.53438 154 119 55
1.42309 -2.55635 1.54800 26 6 7
1.35856 -2.54576 1.56404 115 72 11
1.36625 -2.54801 1.57738 17 6 11
1.35998 -2.55427 1.57084 70 47 4
1.40947 -2.58536 1.56654 31 11 5
1.41442 -2.57033 1.56630 10 12 13
1.40803 -2.57670 1.55964 44 22 6
1.41586 -2.57899 1.57320 9 14 11
1.41730 -2.58765 1.58011 9 15 9
1.41331 -2.59475 1.57254 20 7 4
1.42114 -2.59705 1.58612 10 16 8
1.41475 -2.60342 1.57945 13 10 6
1.35255 -0.89405 0.05280 41 34 52
1.35793 -0.87770 0.05253 33 31 48
1.35098 -0.88463 0.04529 36 33 50
1.34404 -0.89156 0.03804 49 43 62
1.35949 -0.88712 0.06005 30 32 47
1.35373 -0.90360 0.06068 48 45 57
1.34836 -0.91995 0.06095 73 82 88
1.35386 -0.91346 0.06955 62 65 75
1.36301 -0.92058 0.06995 69 77 85
1.37616 -0.93651 0.07569 62 73 82
1.37075 -0.95296 0.07597 51 54 76
1.38353 -0.94430 0.07788 57 64 76
1.38510 -0.95380 0.08546 51 59 80
1.40321 -0.96859 0.08689 56 63 88
1.40866 -0.95202 0.08661 51 61 80
1.40163 -0.95904 0.07927 46 56 85
1.40706 -0.97752 0.09244 67 75 90
1.41139 -0.98633 0.09756 80 86 98
1.41581 -0.99513 0.10262 97 104 114
1.42437 -1.00285 0.10396 123 128 138
1.43773 -1.00935 0.10101 145 150 161
1.43923 -1.01902 0.10879 157 166 179
1.44402 -1.02785 0.11363 166 175 183
1.44524 -1.03760 0.12167 178 183 183
1.45142 -1.04611 0.12530 180 179 173
1.47111 -1.05134 0.11700 166 156 136
1.47182 -1.06129 0.12556 166 149 140
1.45747 -1.07482 0.14735 178 161 151
1.45319 -1.08587 0.16021 187 171 148
1.44768 -1.10262 0.16048 204 189 169
1.45234 -1.09609 0.17005 194 176 156
1.45023 -1.10658 0.18096 202 184 159
1.45361 -1.12580 0.19616 197 190 178
1.45756 -1.13492 0.20182 171 160 171
1.46465 -1.15339 0.21388 85 66 83
1.45914 -1.17014 0.21416 94 79 81
1.47108 -1.16204 0.21748 87 67 85
1.46556 -1.17882 0.21776 95 83 78
1.49976 -1.20649 0.23881 89 88 73
1.49814 -1.19675 0.23105 94 82 76
1.50693 -1.19932 0.24630 92 85 74
1.50853 -1.21490 0.24064 81 85 71
1.52983 -1.22108 0.23214 64 61 32
1.52422 -1.23814 0.23242 15 11 30
1.53439 -1.23039 0.23757 29 23 44
1.52877 -1.24747 0.23785 15 15 28
2.19218 -1.49167 0.03896 22 14 13
2.19021 -1.47980 0.02950 10 7 11
2.19970 -1.50315 0.04439 53 37 32
2.18248 -1.51628 0.06772 110 88 74
2.17118 -1.52892 0.08667 154 143 105
2.18023 -1.54027 0.09098 155 148 106
2.18631 -1.55184 0.09745 131 112 97
2.17957 -1.57234 0.09779 94 79 83
2.20077 -1.56300 0.09800 101 85 89
2.19401 -1.58357 0.09834 95 83 84
3.07559 -2.07148 -0.02003 75 57 43
3.06254 -2.06766 -0.04266 77 63 65
3.07749 -2.08590 -0.00821 62 33 28
3.07158 -2.09969 0.00822 46 5 12
3.07398 -2.11411 0.01972 38 4 6
3.06335 -2.12472 0.00863 36 4 7
3.20110 -2.22662 0.03761 32 11 17
3.18776 -2.22271 0.01446 26 7 7
3.21055 -2.24215 0.04545 49 24 35
3.19383 -2.25482 0.06802 72 63 34
3.18407 -2.26817 0.08660 85 71 51
3.17568 -2.29368 0.08702 90 73 58
3.10391 -2.30145 0.16990 117 98 66
3.09569 -2.32648 0.17031 119 100 67
3.08234 -2.31283 0.19451 122 102 75
3.07415 -2.33772 0.19492 124 103 68
3.05783 -2.32368 0.22059 126 104 75
3.04969 -2.34842 0.22100 125 105 69
3.06665 -2.33879 0.22846 128 108 78
3.05851 -2.36357 0.22887 127 108 71
3.08165 -2.35479 0.23304 131 110 83
3.06200 -2.37994 0.26888 112 112 102
3.03160 -2.38941 0.29761 154 153 137
3.01654 -2.40095 0.31806 187 176 146
2.98238 -2.42308 0.36077 202 181 118
2.98561 -2.43718 0.37142 199 175 100
2.97764 -2.46139 0.37182 206 195 143
2.99254 -2.45188 0.38017 193 164 92
2.99704 -2.46620 0.39019 181 151 83
2.98106 -2.47712 0.41067 170 141 76
2.99165 -2.49245 0.41757 155 124 69
3.00508 -2.52189 0.43540 115 97 77
3.03209 -2.54031 0.43422 71 62 91
2.97345 -2.54320 0.47568 72 55 92
2.97699 -2.55728 0.48612 65 52 82
