ply
format ascii 1.0
element face 0
property list uchar int vertex_indices
element vertex 1347
property float x
property float y
property float z
property uchar diffuse_red
property uchar diffuse_green
property uchar diffuse_blue
end_header
1.09902 -1.02587 0.02977 146 132 154
1.10570 -1.03333 0.03427 99 77 118
1.11415 -1.04053 0.03715 68 54 89
1.11172 -1.05647 0.03891 95 89 73
1.12354 -1.04763 0.03919 76 67 74
1.12110 -1.06361 0.04095 94 88 72
1.13499 -1.05448 0.03939 91 84 61
1.13255 -1.07050 0.04116 95 88 76
1.18191 -1.09083 0.05073 88 85 67
1.19222 -1.09811 0.05232 81 81 65
1.20782 -1.10479 0.04925 70 72 59
1.22568 -1.11128 0.04429 58 57 59
1.22317 -1.12771 0.04610 45 43 37
1.23684 -1.11864 0.04536 48 45 51
1.23433 -1.13512 0.04718 38 37 29
1.24745 -1.12612 0.04698 40 38 42
1.24493 -1.14264 0.04880 38 38 35
2.01894 -1.50835 -0.03895 14 18 23
2.00660 -1.50836 -0.05546 16 19 17
2.02489 -1.51852 -0.03050 56 57 60
2.02532 -1.52849 -0.01821 87 82 72
2.02223 -1.54873 -0.01598 92 84 72
3.05026 -2.10699 -0.04307 68 57 36
3.03502 -2.10700 -0.06345 74 62 50
3.03649 -2.11626 -0.02121 51 11 30
3.03270 -2.14115 -0.01846 55 13 4
3.22179 -2.25353 0.01556 20 6 11
3.22570 -2.22787 0.01273 28 7 5
3.21593 -2.24071 0.00369 23 6 6
3.20616 -2.25354 -0.00535 22 7 15
3.22617 -2.26606 0.02817 46 33 17
3.20691 -2.27400 0.05239 71 60 29
3.09121 -2.33001 0.20841 124 102 71
3.07620 -2.33003 0.18835 119 100 56
3.08183 -2.34233 0.19974 123 102 60
3.08745 -2.35463 0.21113 124 104 64
3.10047 -2.34309 0.21810 125 108 82
3.10891 -2.35602 0.22820 133 119 93
3.11764 -2.36902 0.23818 145 128 95
3.11388 -2.39369 0.24091 109 94 75
3.11224 -2.37889 0.25464 125 105 75
3.11300 -2.39010 0.26823 114 102 61
3.05053 -2.38690 0.31024 166 155 77
3.04891 -2.39735 0.32464 170 145 72
3.07737 -2.41476 0.32564 135 108 61
3.07841 -2.42584 0.33886 111 85 56
3.08165 -2.43741 0.35110 94 79 60
3.08059 -2.44795 0.36518 86 86 99
3.08045 -2.45868 0.37883 95 89 119
3.08148 -2.46966 0.39195 94 90 117
3.07712 -2.47929 0.40732 128 144 165
3.07988 -2.49065 0.41963 152 175 185
3.07388 -2.49979 0.43559 163 181 177
3.07649 -2.51106 0.44790 193 209 217
3.08240 -2.52316 0.45884 204 211 209
3.08239 -2.53374 0.47220 184 189 187
3.05081 -2.53602 0.49835 166 165 134
3.09250 -2.55748 0.49473 144 123 65
3.07178 -2.57291 0.52950 38 45 40
3.09169 -2.58874 0.53481 88 91 71
3.04061 -2.59548 0.58097 91 98 105
3.02666 -2.60186 0.59931 81 92 128
3.02821 -2.61250 0.61161 114 132 164
2.98750 -2.61115 0.63991 142 159 176
2.97924 -2.61885 0.65572 161 177 185
2.91455 -2.61023 0.69252 196 207 213
2.91109 -2.63294 0.69503 200 203 213
2.91355 -2.61978 0.70532 204 204 218
2.91009 -2.64246 0.70782 208 213 213
2.90853 -2.62813 0.71956 214 220 221
2.86956 -2.64570 0.77048 214 219 206
2.85595 -2.64572 0.75229 201 207 214
2.86579 -2.65418 0.78397 204 203 187
2.85074 -2.65918 0.80138 179 184 190
2.83125 -2.67219 0.83216 180 178 174
2.79570 -2.67055 0.85630 203 218 191
2.77974 -2.67487 0.87352 233 242 181
2.76990 -2.68103 0.88856 245 249 146
2.75561 -2.68571 0.90499 248 252 109
1.05240 -0.98957 -0.00164 249 242 236
1.05487 -0.99764 0.00675 180 163 194
1.05913 -1.00540 0.01339 170 200 198
1.06475 -1.01293 0.01875 172 176 198
1.07837 -1.01915 0.01649 137 116 162
1.08435 -1.02668 0.02157 73 58 97
1.09214 -1.03394 0.02496 60 50 71
1.08972 -1.04982 0.02671 94 86 73
1.10064 -1.04113 0.02773 82 69 77
1.09821 -1.05704 0.02949 94 87 79
1.11196 -1.04792 0.02790 94 84 78
1.10953 -1.06388 0.02966 93 88 71
1.15694 -1.08425 0.04040 88 84 68
1.16800 -1.09137 0.04117 80 78 66
1.18541 -1.09773 0.03626 70 70 54
1.18292 -1.11401 0.03806 51 41 51
1.20264 -1.10422 0.03164 59 56 57
1.20014 -1.12059 0.03345 50 44 48
1.21720 -1.11111 0.02952 46 48 54
1.21469 -1.12755 0.03134 48 46 38
1.22511 -1.11885 0.03343 44 46 46
1.22260 -1.13532 0.03525 47 44 33
2.02011 -1.51879 -0.05232 10 14 23
2.00773 -1.51880 -0.06887 18 18 18
2.02748 -1.52904 -0.04482 50 51 51
2.01989 -1.53870 -0.02693 84 79 66
2.01680 -1.55896 -0.02469 93 84 70
3.03831 -2.11909 -0.05058 65 58 38
3.02308 -2.11911 -0.07094 73 61 46
3.02871 -2.12900 -0.03088 50 13 32
3.02491 -2.15390 -0.02813 44 8 6
3.22980 -2.26978 -0.00240 24 8 14
3.21411 -2.26979 -0.02339 23 7 14
3.22434 -2.28044 0.01518 45 36 19
3.20404 -2.28811 0.04002 68 58 32
3.20015 -2.31365 0.04284 77 62 45
3.18017 -2.29493 0.06644 80 67 44
3.18597 -2.30761 0.07818 88 72 53
3.17631 -2.32031 0.06924 86 68 51
3.09743 -2.36789 0.22049 123 104 69
3.08242 -2.36791 0.20041 124 104 58
3.08805 -2.38022 0.21181 124 105 61
3.09368 -2.39253 0.22321 126 105 64
3.09939 -2.37939 0.23359 126 106 72
3.09819 -2.40115 0.26206 97 96 83
3.08884 -2.41344 0.25341 85 75 76
3.03747 -2.39813 0.30346 147 147 113
3.01320 -2.40326 0.32805 182 171 136
3.00962 -2.41313 0.34321 196 175 124
3.01401 -2.42484 0.35477 191 164 92
3.03327 -2.44013 0.35979 167 137 58
3.06722 -2.45906 0.35846 132 109 57
3.07384 -2.47141 0.36919 113 88 54
3.07594 -2.48266 0.38186 104 82 59
3.06784 -2.49132 0.39887 96 89 115
3.05807 -2.49950 0.41651 98 107 152
3.05521 -2.50937 0.43114 130 145 162
3.07441 -2.52489 0.43649 175 195 213
3.07683 -2.53611 0.44890 199 217 233
3.08232 -2.54811 0.46002 202 217 225
3.08807 -2.56019 0.47102 207 215 192
3.05663 -2.56232 0.49714 172 153 123
3.08697 -2.58095 0.49813 93 68 62
3.09330 -2.59316 0.50888 65 66 51
3.05988 -2.59445 0.53541 112 111 83
3.05658 -2.60390 0.54984 129 115 96
3.04289 -2.61040 0.56828 86 81 73
3.02128 -2.61458 0.58968 49 36 60
3.00193 -2.61928 0.61004 85 106 122
2.99634 -2.62780 0.62500 102 123 150
2.98441 -2.63444 0.64230 136 149 164
2.92194 -2.62627 0.67849 192 204 210
2.91846 -2.64907 0.68101 197 197 201
2.84038 -2.65061 0.77008 224 232 227
2.81888 -2.65359 0.78988 232 236 224
2.82054 -2.66358 0.80129 217 220 217
2.81641 -2.67176 0.81473 199 194 195
2.81756 -2.68154 0.82626 175 176 179
2.80855 -2.68811 0.84130 177 184 195
2.78325 -2.68945 0.86184 208 208 199
2.76941 -2.69431 0.87831 211 216 186
2.76611 -2.71596 0.88070 132 135 151
2.75190 -2.69791 0.89591 211 226 142
2.72549 -2.69852 0.91635 227 237 130
2.73037 -2.70919 0.92624 243 243 127
1.02984 -0.98343 -0.01253 250 251 251
1.03223 -0.96774 -0.01426 254 254 254
1.02625 -0.97559 -0.01979 252 254 253
1.03738 -0.99056 -0.00915 236 244 246
1.04033 -0.99852 -0.00125 206 229 219
1.03148 -1.00853 0.01812 138 135 136
1.02910 -1.02416 0.01984 68 65 57
1.05976 -1.01215 0.00143 79 65 94
1.06591 -1.01963 0.00629 51 47 90
1.07186 -1.02715 0.01137 60 52 85
1.06944 -1.04298 0.01312 90 83 76
1.08262 -1.03393 0.01187 82 70 73
1.08020 -1.04981 0.01362 91 86 73
1.09078 -1.04116 0.01492 92 85 64
1.08835 -1.05707 0.01668 92 85 69
1.13389 -1.07750 0.02861 89 84 68
1.13022 -1.06947 0.02117 91 87 67
1.14524 -1.08451 0.02896 81 77 60
1.15995 -1.09114 0.02631 72 63 55
1.15748 -1.10734 0.02810 54 45 47
1.17654 -1.09761 0.02203 60 49 58
1.17406 -1.11390 0.02383 53 45 49
1.18979 -1.10458 0.02091 51 42 52
1.18730 -1.12093 0.02272 53 44 48
2.01639 -1.52910 -0.06231 9 12 23
2.00400 -1.52911 -0.07889 18 19 15
2.02459 -1.53941 -0.05539 46 46 42
2.01951 -1.54916 -0.03918 82 76 59
2.01642 -1.56946 -0.03694 93 84 68
3.02280 -2.13058 -0.05615 65 56 36
3.00759 -2.13059 -0.07649 70 60 49
3.01265 -2.14033 -0.03613 47 10 30
3.00886 -2.16519 -0.03339 32 3 6
3.23050 -2.28472 -0.01677 24 8 13
3.21477 -2.28473 -0.03781 18 5 7
3.22066 -2.29763 -0.02586 21 6 8
3.07612 -2.39954 0.24533 112 93 68
3.06118 -2.39956 0.22536 125 105 70
3.05759 -2.41708 0.28157 96 89 93
3.00712 -2.41600 0.31820 133 127 121
3.01431 -2.42842 0.32855 158 150 130
3.00141 -2.43599 0.34789 184 171 129
2.99584 -2.44526 0.36385 201 181 123
2.99402 -2.45539 0.37810 206 178 107
2.99038 -2.47923 0.38074 201 183 132
3.00108 -2.46770 0.38843 194 163 77
3.04784 -2.49000 0.38153 169 135 50
3.06208 -2.50425 0.38891 131 100 60
3.06543 -2.51575 0.40100 109 83 72
3.05555 -2.52382 0.41868 110 88 74
3.04567 -2.53181 0.43627 114 106 123
3.05072 -2.54366 0.44752 121 136 174
3.04780 -2.55339 0.46208 134 156 196
3.06912 -2.56958 0.46660 157 175 186
3.04377 -2.57321 0.49030 143 140 141
3.03338 -2.58079 0.50774 132 125 128
3.04566 -2.59453 0.51595 118 123 96
3.02066 -2.59794 0.53911 165 172 147
3.02743 -2.61012 0.54947 179 181 155
3.01484 -2.61682 0.56747 122 121 106
2.98926 -2.61973 0.59044 103 92 64
2.99025 -2.63014 0.60291 96 110 105
2.97394 -2.63551 0.62202 52 56 103
2.97657 -2.64632 0.63376 107 120 137
2.93444 -2.64392 0.66244 186 202 205
2.93095 -2.66683 0.66497 188 190 190
2.84231 -2.66491 0.75848 218 229 234
2.81255 -2.67474 0.79338 209 211 214
2.80919 -2.69680 0.79581 204 209 213
2.80391 -2.68148 0.80844 202 204 207
2.80056 -2.70346 0.81087 201 208 210
2.80245 -2.69041 0.82089 200 201 198
2.79520 -2.69748 0.83533 221 222 214
2.77947 -2.70177 0.85263 217 216 212
2.68991 -2.70922 0.92953 190 211 190
2.70281 -2.70921 0.94679 252 251 122
2.69475 -2.71981 0.93933 231 244 166
1.00218 -0.97833 -0.01804 251 251 250
1.00455 -0.96274 -0.01976 254 254 254
0.99861 -0.97054 -0.02526 252 254 253
1.00812 -0.97053 -0.01255 254 254 254
1.01110 -0.98513 -0.01618 231 244 242
1.01304 -0.99324 -0.00733 198 215 211
1.01800 -1.00080 -0.00147 157 136 162
1.01562 -1.01642 0.00026 80 68 72
1.03831 -1.00570 -0.01068 94 68 104
1.04676 -1.01274 -0.00814 58 54 66
1.04435 -1.02851 -0.00640 86 80 61
1.06420 -1.02684 -0.00346 77 77 70
1.05816 -1.03476 -0.00904 78 77 75
1.06178 -1.04268 -0.00171 81 80 78
1.07007 -1.03440 0.00171 85 81 73
1.06765 -1.05026 0.00346 87 82 77
1.10079 -1.06375 0.01572 90 86 65
1.11153 -1.07073 0.01643 87 85 56
1.12436 -1.07747 0.01526 79 75 48
1.12191 -1.09355 0.01703 56 43 55
1.13638 -1.08439 0.01492 71 61 57
1.13392 -1.10053 0.01671 53 47 48
1.14787 -1.09144 0.01515 60 52 55
1.14540 -1.10762 0.01694 52 47 42
1.16050 -1.09839 0.01440 55 45 43
1.15802 -1.11464 0.01620 51 48 42
2.01005 -1.53933 -0.07047 8 11 18
1.99765 -1.53935 -0.08705 19 21 14
2.00229 -1.54951 -0.07763 10 14 12
2.01858 -1.54967 -0.06379 42 38 37
2.01946 -1.55968 -0.05172 80 72 54
2.01636 -1.58002 -0.04947 92 84 66
2.99726 -2.14030 -0.05626 64 56 44
2.98211 -2.14031 -0.07652 67 59 51
3.04424 -2.40657 0.24719 120 100 70
3.02938 -2.40659 0.22732 123 103 72
3.03496 -2.41877 0.23860 122 103 73
3.03695 -2.41574 0.26441 94 76 68
3.03325 -2.44005 0.26710 78 65 54
3.02750 -2.42433 0.28255 76 64 65
3.00470 -2.42964 0.30667 104 96 66
2.97195 -2.43240 0.33511 121 109 85
2.97389 -2.44346 0.34772 140 129 112
2.98200 -2.45603 0.35756 166 153 134
2.98494 -2.46732 0.36971 187 172 141
2.98959 -2.48955 0.39449 205 183 113
2.98597 -2.51335 0.39712 204 190 143
2.99640 -2.50179 0.40490 203 175 99
2.99924 -2.51301 0.41704 195 161 87
3.01533 -2.52769 0.42349 173 138 64
3.02608 -2.54101 0.43228 138 109 62
3.03722 -2.55446 0.44094 96 80 75
3.02380 -2.56133 0.45989 60 51 97
2.99361 -2.56354 0.48569 81 91 115
2.99776 -2.57499 0.49713 78 84 89
2.99983 -2.58587 0.50940 90 105 137
3.01386 -2.60007 0.51681 140 162 169
3.00737 -2.60853 0.53253 171 194 186
3.00705 -2.61869 0.54571 179 197 207
3.02203 -2.63320 0.55279 144 158 162
3.02514 -2.64432 0.56461 133 144 123
2.96220 -2.63622 0.60219 91 94 69
3.00128 -2.65772 0.59984 26 15 52
2.98425 -2.66279 0.61926 120 134 147
2.93675 -2.65867 0.65016 187 200 201
2.93324 -2.68165 0.65270 186 189 181
2.85637 -2.68304 0.74237 201 203 206
2.84272 -2.68305 0.72412 200 206 193
2.84784 -2.69424 0.73449 197 199 190
2.85295 -2.70543 0.74485 199 198 193
2.83177 -2.68495 0.76354 201 205 210
2.82838 -2.70718 0.76599 196 200 200
2.80145 -2.71312 0.82249 195 204 212
2.79450 -2.72022 0.83682 175 177 178
2.77329 -2.72261 0.85602 155 140 135
2.76997 -2.74436 0.85842 131 128 120
2.70058 -2.71703 0.90425 91 99 125
2.69246 -2.72769 0.89674 129 127 121
2.66251 -2.72230 0.93994 175 206 191
2.67534 -2.72229 0.95710 244 246 154
2.65930 -2.74336 0.94227 109 117 138
2.64816 -2.72636 0.95603 193 196 168
2.66092 -2.72635 0.97311 249 251 156
2.64496 -2.74731 0.95835 103 96 116
0.98159 -0.97200 -0.03032 247 251 252
0.98396 -0.95646 -0.03204 254 254 254
0.97804 -0.96424 -0.03751 253 254 254
0.98751 -0.96423 -0.02485 254 254 254
0.98677 -0.97946 -0.02478 223 245 237
0.99456 -0.98645 -0.02184 197 196 188
0.99843 -0.99417 -0.01495 140 117 147
1.01783 -0.99914 -0.02353 70 56 76
1.02575 -1.00622 -0.02057 56 51 79
1.02335 -1.02194 -0.01883 94 85 66
1.09118 -1.06374 0.00259 85 81 62
1.08753 -1.05576 -0.00480 88 84 78
1.10123 -1.07082 0.00389 77 72 47
1.09879 -1.08683 0.00566 58 45 53
1.11550 -1.07735 0.00127 70 56 58
1.11305 -1.09344 0.00304 57 46 56
1.12457 -1.08467 0.00364 62 44 57
1.12211 -1.10079 0.00542 55 48 52
2.23252 -1.35137 -0.50789 14 9 15
2.23594 -1.32898 -0.51037 10 8 13
2.22741 -1.34018 -0.51825 11 7 17
2.24105 -1.34017 -0.50001 11 9 8
2.24616 -1.35135 -0.48965 10 10 5
2.23680 -1.36256 -0.49688 15 9 7
2.25044 -1.36255 -0.47864 10 9 6
2.24192 -1.37375 -0.48652 13 8 11
2.01748 -1.56018 -0.07569 34 30 26
2.00504 -1.56019 -0.09233 15 17 8
2.02076 -1.57031 -0.06527 74 67 50
2.61873 -1.89551 -0.10975 88 82 68
2.62227 -1.87225 -0.11232 94 81 75
2.61341 -1.88389 -0.12052 94 83 73
2.62759 -1.88388 -0.10156 93 81 76
2.63290 -1.89550 -0.09080 92 81 74
2.63726 -1.90884 -0.10699 83 77 64
2.65148 -1.90883 -0.08797 90 81 74
2.65019 -1.92150 -0.10075 82 76 69
2.66443 -1.92149 -0.08169 88 79 67
2.65553 -1.93319 -0.08993 81 73 65
2.64662 -1.94489 -0.09817 78 69 59
2.96697 -2.14908 -0.05367 61 54 46
2.95190 -2.14910 -0.07383 64 56 48
3.28976 -2.33840 -0.06009 37 24 20
3.27377 -2.33842 -0.08147 20 6 6
3.27977 -2.35153 -0.06933 36 24 15
3.00487 -2.42247 0.26647 104 85 65
2.99013 -2.42248 0.24676 121 103 70
2.98504 -2.43913 0.30300 97 88 43
2.95529 -2.44247 0.33016 113 99 66
2.94250 -2.44985 0.34942 111 99 87
2.92987 -2.45717 0.36849 119 107 100
2.94486 -2.47139 0.37514 142 129 118
2.97584 -2.48975 0.37476 165 157 141
2.97942 -2.50117 0.38659 188 179 144
2.99002 -2.52487 0.40873 206 189 137
2.99090 -2.53555 0.42169 201 183 115
2.98897 -2.54546 0.43583 189 161 86
2.99835 -2.55838 0.44513 150 118 75
3.01904 -2.57441 0.44970 116 77 76
2.97753 -2.57340 0.48033 121 113 85
2.97516 -2.58302 0.49445 92 80 30
2.95966 -2.58894 0.51393 65 68 50
2.96231 -2.59987 0.52586 78 78 97
2.96777 -2.61160 0.53664 101 119 154
2.95923 -2.61930 0.55305 119 136 171
2.96202 -2.64031 0.57775 80 81 89
2.98637 -2.65754 0.58104 52 46 20
2.98898 -2.66842 0.59292 40 25 48
2.98107 -2.67613 0.60886 145 163 167
2.94227 -2.67447 0.63658 191 201 196
2.93876 -2.69752 0.63913 189 192 190
2.93028 -2.69061 0.66643 185 190 185
2.92154 -2.70208 0.65836 189 194 185
2.90512 -2.69269 0.68844 196 200 197
2.90165 -2.71545 0.69096 186 197 189
2.81222 -2.72092 0.79597 198 198 200
2.80717 -2.70988 0.78575 204 206 205
2.81489 -2.73119 0.80703 162 151 183
2.77688 -2.72813 0.83237 142 139 155
2.73868 -2.72482 0.85753 136 130 133
2.57567 -2.70616 0.95907 131 145 157
2.57253 -2.72679 0.96135 115 108 109
0.95406 -0.95869 -0.04602 254 254 254
0.95642 -0.94323 -0.04772 254 254 254
0.95053 -0.95096 -0.05317 254 254 254
0.95995 -0.95095 -0.04057 254 254 254
0.96349 -0.95868 -0.03341 254 254 254
0.96020 -0.96590 -0.04155 241 254 254
0.96714 -0.97298 -0.03788 212 244 240
0.96549 -0.98171 -0.02540 186 151 190
0.98656 -0.98618 -0.03606 122 88 132
0.99705 -0.99270 -0.03586 57 48 69
1.00573 -0.99960 -0.03376 58 61 79
1.00334 -1.01528 -0.03203 91 84 74
1.01413 -1.00659 -0.03134 84 81 66
1.01174 -1.02230 -0.02960 94 85 76
1.02470 -1.01324 -0.03103 94 85 70
1.02230 -1.02900 -0.02929 92 86 72
1.07546 -1.05612 -0.01554 78 78 64
1.07181 -1.04815 -0.02293 76 73 69
1.07302 -1.07208 -0.01378 61 52 47
1.08298 -1.06353 -0.01190 75 69 65
1.08054 -1.07951 -0.01014 59 51 53
1.09426 -1.07043 -0.01183 65 55 59
1.09181 -1.08646 -0.01006 57 51 49
1.10003 -1.07815 -0.00643 59 48 42
1.09759 -1.09419 -0.00466 56 50 49
2.20252 -1.35164 -0.51309 17 14 26
2.20592 -1.32936 -0.51555 11 7 12
2.19743 -1.34050 -0.52340 10 8 15
2.18894 -1.35165 -0.53125 10 8 19
2.21443 -1.36269 -0.50819 36 33 33
2.21984 -1.37384 -0.49811 34 32 27
2.23417 -1.39614 -0.48066 16 9 12
2.24779 -1.39613 -0.46245 7 10 9
2.23927 -1.40731 -0.47032 10 10 9
2.01276 -1.57054 -0.08506 26 24 17
2.00031 -1.57056 -0.10171 17 17 6
2.02221 -1.58101 -0.07900 65 63 51
2.02794 -1.59129 -0.07028 89 83 71
2.04042 -1.59128 -0.05360 92 84 71
2.03262 -1.60152 -0.06081 92 83 73
2.02482 -1.61176 -0.06802 94 82 77
2.60006 -1.89496 -0.12594 88 81 59
2.60360 -1.87173 -0.12851 94 83 79
2.59475 -1.88335 -0.13669 92 83 75
2.61526 -1.90785 -0.12125 66 62 57
2.62539 -1.92012 -0.11339 61 50 55
2.63692 -1.93261 -0.10635 71 61 58
2.63336 -1.95597 -0.10377 78 68 62
2.93808 -2.15797 -0.05171 59 53 39
2.92307 -2.15799 -0.07178 62 52 47
2.93432 -2.18259 -0.04899 40 9 32
2.97325 -2.42916 0.26843 112 96 63
2.96804 -2.43856 0.28454 89 77 56
2.96438 -2.46256 0.28719 52 52 96
2.95824 -2.44679 0.30270 83 77 51
2.95460 -2.47070 0.30534 45 50 112
2.94105 -2.45310 0.32414 89 85 74
2.93742 -2.47688 0.32677 38 45 122
2.92753 -2.46021 0.34378 80 76 91
2.91172 -2.46665 0.36432 78 79 90
2.90812 -2.49021 0.36692 83 90 88
2.90180 -2.47450 0.38209 105 96 88
2.90051 -2.48451 0.39591 117 109 99
2.96637 -2.52247 0.39336 157 156 138
2.98136 -2.53688 0.40017 171 160 142
2.95801 -2.54104 0.42364 157 143 116
2.95681 -2.55105 0.43741 155 129 79
2.97055 -2.56513 0.44477 143 123 81
2.91511 -2.56014 0.48148 171 150 109
2.88482 -2.56187 0.50724 190 168 99
2.95044 -2.59037 0.49274 179 142 48
2.96528 -2.60477 0.49966 152 116 42
2.95340 -2.61158 0.51762 120 96 45
2.93973 -2.61779 0.53621 97 85 67
2.96606 -2.63553 0.53848 81 58 57
2.96690 -2.64591 0.55112 69 41 39
2.97332 -2.65791 0.56151 66 36 29
2.97746 -2.66924 0.57280 74 42 19
2.98621 -2.68195 0.58229 104 82 75
2.95808 -2.68351 0.60616 172 174 169
2.94740 -2.69024 0.62308 192 194 190
2.90265 -2.70601 0.67808 187 191 191
2.78462 -2.73506 0.80706 129 114 122
2.78127 -2.75702 0.80948 111 103 85
2.76763 -2.73876 0.82501 115 109 105
2.76430 -2.76060 0.82742 120 107 84
2.72999 -2.73548 0.85008 119 105 90
2.71556 -2.73979 0.86681 119 103 82
2.71333 -2.74813 0.87923 109 93 66
2.71006 -2.76960 0.88160 103 88 69
0.92919 -0.95343 -0.05325 253 254 254
0.93154 -0.93805 -0.05495 254 254 254
0.92568 -0.94574 -0.06037 254 254 254
0.93505 -0.94573 -0.04784 254 254 254
0.93602 -0.96044 -0.04960 235 251 248
0.94182 -0.96769 -0.04485 207 219 221
0.94523 -0.97542 -0.03760 166 142 180
0.94287 -0.99083 -0.03589 89 77 83
0.96453 -0.98011 -0.04673 86 66 109
0.97713 -0.98617 -0.04884 57 45 95
0.97475 -1.00176 -0.04712 92 86 70
0.98426 -0.99331 -0.04527 71 64 82
0.98188 -1.00892 -0.04355 92 86 73
0.99578 -0.99968 -0.04613 88 80 64
0.99339 -1.01535 -0.04440 95 85 70
1.00513 -1.00650 -0.04471 91 85 64
1.00273 -1.02221 -0.04298 92 86 75
1.04854 -1.04175 -0.03352 91 82 56
1.05096 -1.02586 -0.03527 91 83 69
1.04491 -1.03381 -0.04087 89 83 68
1.05459 -1.03380 -0.02792 90 81 64
1.05822 -1.04174 -0.02057 82 75 65
1.04611 -1.05763 -0.03176 65 55 50
1.05864 -1.04869 -0.03253 79 72 49
1.05621 -1.06462 -0.03077 60 56 45
1.06446 -1.05632 -0.02730 68 62 55
1.06203 -1.07227 -0.02554 58 56 54
1.07359 -1.06349 -0.02526 62 57 54
1.07115 -1.07947 -0.02350 58 54 52
2.18720 -1.36287 -0.51546 23 21 34
2.17365 -1.36288 -0.53358 10 8 18
2.18230 -1.37407 -0.49721 51 58 47
2.17892 -1.39625 -0.49476 50 59 63
2.18501 -1.38517 -0.48509 51 62 54
2.20360 -1.39620 -0.48550 40 44 28
2.21823 -1.40732 -0.48271 29 25 20
2.22237 -1.41846 -0.47165 22 13 13
2.23596 -1.41845 -0.45347 7 10 4
2.21010 -1.42949 -0.44784 10 10 8
2.22363 -1.42948 -0.42976 7 10 4
2.21517 -1.44058 -0.43757 8 9 6
2.01112 -1.58109 -0.09666 19 18 15
1.99864 -1.58111 -0.11334 15 17 9
2.02410 -1.59179 -0.09311 59 59 56
2.02946 -1.60209 -0.08409 88 81 76
2.02633 -1.62261 -0.08183 94 81 76
2.53520 -1.87773 -0.12721 92 83 68
2.53870 -1.85477 -0.12974 91 83 75
2.52996 -1.86626 -0.13783 92 84 74
2.54395 -1.86624 -0.11912 92 83 77
2.55761 -1.89138 -0.12727 85 75 59
2.58716 -1.90606 -0.13162 69 60 46
2.59159 -1.91754 -0.12034 48 33 52
2.60036 -1.92960 -0.11173 51 36 50
2.61995 -1.94318 -0.10967 68 58 54
2.61639 -1.96649 -0.10710 80 69 65
2.92853 -2.17026 -0.06029 57 50 36
2.91353 -2.17027 -0.08035 60 49 45
3.37531 -2.38697 -0.13282 33 23 12
3.36918 -2.37355 -0.14524 19 5 7
3.35895 -2.38698 -0.15470 15 5 9
3.43361 -2.41155 -0.14703 54 45 24
3.42947 -2.43869 -0.14403 68 55 39
2.94579 -2.42607 0.25490 116 101 73
2.94945 -2.40209 0.25225 122 102 70
2.94031 -2.41409 0.24381 119 102 71
2.94464 -2.43643 0.26912 101 90 72
2.94099 -2.46037 0.27177 40 46 106
2.94028 -2.44596 0.28480 72 69 81
2.89661 -2.47686 0.35882 42 59 113
2.88228 -2.47687 0.33965 26 41 142
2.88765 -2.48862 0.35053 33 55 133
2.88649 -2.49489 0.38994 89 84 70
2.87758 -2.50660 0.38170 79 71 54
2.88292 -2.51829 0.39253 91 80 73
2.88914 -2.50587 0.40197 94 90 78
2.89527 -2.51777 0.41244 98 91 89
2.90412 -2.53040 0.42173 101 72 80
2.91128 -2.54259 0.43177 87 60 68
2.91881 -2.55489 0.44166 132 126 93
2.88898 -2.55685 0.46762 187 178 121
2.85487 -2.55745 0.49518 202 186 131
2.85136 -2.58046 0.49772 208 191 153
2.85316 -2.56698 0.50878 198 176 119
2.85920 -2.57869 0.51908 197 169 97
2.84481 -2.58454 0.53790 200 173 102
2.83877 -2.59271 0.55315 203 182 100
2.85054 -2.60602 0.56101 203 174 97
2.90090 -2.64069 0.56599 175 141 42
2.88573 -2.64611 0.58487 169 132 54
2.90943 -2.66314 0.58814 177 151 55
2.94203 -2.68295 0.58799 189 167 82
2.93849 -2.70616 0.59056 204 180 117
2.95129 -2.69576 0.59718 191 167 126
2.95847 -2.70794 0.60720 191 170 140
2.94398 -2.71341 0.62560 190 177 157
2.92974 -2.71885 0.64379 184 183 173
2.90062 -2.71952 0.66752 174 177 183
2.83429 -2.75583 0.76630 174 160 131
2.77497 -2.74562 0.79978 127 105 78
2.77163 -2.76757 0.80221 103 92 83
2.72593 -2.75683 0.85273 122 107 78
2.71276 -2.75685 0.83512 119 110 85
2.71770 -2.76764 0.84512 127 120 80
0.90310 -0.94854 -0.05883 246 254 254
0.90543 -0.93325 -0.06052 254 254 254
0.89961 -0.94090 -0.06590 254 254 254
0.90893 -0.94089 -0.05345 254 254 254
0.91310 -0.95483 -0.05866 224 249 238
0.92249 -0.96130 -0.05778 203 195 188
0.92690 -0.96880 -0.05161 150 119 154
0.94046 -0.97452 -0.05501 73 64 82
0.95009 -0.98107 -0.05421 67 60 96
0.94773 -0.99656 -0.05250 99 88 76
0.97128 -0.99396 -0.05442 95 85 80
0.96534 -1.00176 -0.05991 97 89 79
0.96890 -1.00955 -0.05270 95 88 73
1.02782 -1.03502 -0.04639 89 86 71
1.02420 -1.02710 -0.05372 93 87 82
1.03905 -1.04172 -0.04666 82 78 59
1.03663 -1.05761 -0.04491 64 53 59
1.04638 -1.04909 -0.04298 75 61 60
1.04395 -1.06501 -0.04122 60 55 55
2.16980 -1.37408 -0.51610 19 16 32
2.15629 -1.37409 -0.53417 9 9 12
2.18124 -1.38512 -0.51094 36 44 49
2.17734 -1.40732 -0.47923 48 51 46
2.17397 -1.42945 -0.47679 47 48 47
2.19174 -1.41842 -0.47636 43 45 32
2.19850 -1.42952 -0.46742 42 29 26
2.19205 -1.44049 -0.44815 27 21 27
2.18877 -1.45144 -0.43144 16 10 14
2.20222 -1.45143 -0.41345 9 7 6
2.19381 -1.46247 -0.42122 10 7 10
2.00823 -1.59161 -0.10741 12 13 15
1.99574 -1.59163 -0.12412 16 18 14
2.02149 -1.60237 -0.10407 53 54 53
2.02787 -1.61275 -0.09577 86 79 71
2.02474 -1.63331 -0.09349 92 81 74
2.48130 -1.86205 -0.13445 92 84 80
2.48476 -1.83930 -0.13696 95 85 76
2.47610 -1.85068 -0.14498 95 86 82
2.48996 -1.85067 -0.12644 97 84 78
2.50022 -1.87513 -0.13262 84 78 66
2.52297 -1.88877 -0.13310 77 67 49
2.51947 -1.91171 -0.13056 36 22 36
2.53982 -1.90174 -0.12975 63 50 37
2.56506 -1.91590 -0.13154 41 29 32
2.57548 -1.92816 -0.12402 37 21 51
2.58931 -1.94091 -0.11856 55 45 52
2.58577 -1.96413 -0.11599 77 71 61
2.60182 -1.95353 -0.11222 72 65 57
2.59827 -1.97679 -0.10965 81 70 64
2.93202 -2.18497 -0.07610 55 48 36
2.91697 -2.18498 -0.09623 59 49 40
3.12566 -2.23271 -0.16831 36 8 33
3.13155 -2.24560 -0.15638 25 4 11
3.12172 -2.25851 -0.16546 26 7 16
3.39089 -2.40594 -0.15562 32 24 17
2.92800 -2.42531 0.23689 111 96 74
2.93166 -2.40135 0.23424 118 100 68
2.92253 -2.41334 0.22580 116 98 71
2.92435 -2.44928 0.23953 61 37 96
2.92848 -2.43606 0.25036 93 73 75
2.91730 -2.44389 0.26933 64 53 82
2.90810 -2.46263 0.30079 31 39 129
2.91352 -2.47448 0.31176 24 36 140
2.87120 -2.49463 0.37134 67 79 97
2.85694 -2.49465 0.35227 24 44 134
2.87367 -2.52603 0.40985 92 79 71
2.85946 -2.52605 0.39085 112 93 70
2.87011 -2.54935 0.41243 81 65 58
2.87789 -2.53738 0.42113 79 60 56
2.88228 -2.54878 0.43233 85 66 39
2.89020 -2.56114 0.44198 137 134 80
2.87002 -2.56565 0.46380 171 163 124
2.84610 -2.56896 0.48707 191 182 136
2.81120 -2.57890 0.52759 215 195 142
2.80788 -2.58780 0.54170 215 193 138
2.80441 -2.61051 0.54421 214 197 150
2.80129 -2.59570 0.55712 215 196 134
2.79783 -2.61835 0.55962 221 197 137
2.80689 -2.60714 0.56742 217 193 125
2.80344 -2.62980 0.56993 215 188 131
2.81331 -2.61883 0.57739 214 187 117
2.80985 -2.64149 0.57990 210 186 130
2.82946 -2.63345 0.58341 212 189 109
2.82600 -2.65616 0.58591 208 185 131
2.84432 -2.64772 0.59001 211 189 116
2.84084 -2.67049 0.59252 209 183 132
2.87524 -2.66693 0.59022 213 189 115
2.87175 -2.68985 0.59275 208 182 129
2.90870 -2.68705 0.58957 210 185 116
2.90519 -2.71012 0.59212 203 180 120
2.94630 -2.71854 0.60031 198 172 113
2.96097 -2.73308 0.60741 186 157 117
2.96796 -2.74524 0.61753 154 129 130
2.96662 -2.75475 0.63085 121 113 135
2.96614 -2.76450 0.64381 123 133 152
2.81681 -2.72610 0.71287 148 168 170
2.83044 -2.72608 0.73110 186 191 193
2.83358 -2.76958 0.75560 175 163 128
2.77925 -2.76083 0.78747 127 109 62
2.71672 -2.77641 0.85719 123 108 78
2.70357 -2.77642 0.83961 133 119 86
2.71343 -2.79798 0.85957 126 106 78
0.87312 -0.93627 -0.07057 254 254 254
0.87543 -0.92108 -0.07225 254 254 254
0.86965 -0.92868 -0.07760 254 254 254
0.87890 -0.92867 -0.06522 254 254 254
0.88237 -0.93626 -0.05819 254 254 254
0.87937 -0.94326 -0.06656 240 253 254
0.88853 -0.94966 -0.06563 215 245 241
0.87301 -0.96123 -0.03822 184 155 188
0.90483 -0.96300 -0.06147 120 94 129
0.92212 -0.96789 -0.06902 68 68 95
0.91977 -0.98330 -0.06732 97 90 85
0.92952 -0.97483 -0.06599 77 72 94
0.92717 -0.99027 -0.06428 99 92 82
0.93633 -0.98191 -0.06229 92 83 72
0.93397 -0.99737 -0.06058 99 91 81
0.94493 -0.98868 -0.06044 97 88 80
0.94257 -1.00418 -0.05873 97 90 82
1.00832 -1.02815 -0.06028 86 86 68
1.00472 -1.02026 -0.06759 94 87 81
1.01820 -1.03502 -0.05932 81 80 66
1.01578 -1.05086 -0.05757 63 55 64
1.02638 -1.04221 -0.05659 74 63 72
1.02396 -1.05808 -0.05484 62 55 59
1.04248 -1.04821 -0.06176 68 52 64
1.04004 -1.06416 -0.06000 63 56 52
2.14641 -1.38526 -0.51181 12 11 21
2.13296 -1.38528 -0.52980 8 9 6
2.15579 -1.39629 -0.50508 26 31 43
2.15931 -1.40733 -0.49362 53 61 68
2.15594 -1.42944 -0.49118 59 62 65
2.16332 -1.41837 -0.48256 53 53 58
2.16948 -1.44042 -0.45901 50 42 46
2.16107 -1.45146 -0.46678 42 43 51
2.16611 -1.46248 -0.45657 40 45 45
2.16851 -1.45136 -0.44408 40 39 45
2.16836 -1.46229 -0.42984 27 22 26
2.16428 -1.47310 -0.41258 17 13 23
2.17764 -1.47309 -0.39470 10 7 8
2.16087 -1.48387 -0.39592 13 7 14
2.17420 -1.48386 -0.37809 9 8 11
2.16586 -1.49481 -0.38579 9 7 10
2.15753 -1.50576 -0.39350 11 8 13
2.00485 -1.60214 -0.11785 10 11 18
1.99234 -1.60215 -0.13457 18 20 15
2.01905 -1.61300 -0.11520 48 47 45
2.02795 -1.62356 -0.10868 83 76 63
2.02480 -1.64418 -0.10640 91 83 71
2.43210 -1.84710 -0.14398 90 86 64
2.43554 -1.82453 -0.14647 96 85 78
2.42694 -1.83582 -0.15442 95 86 75
2.44069 -1.83581 -0.13603 99 87 79
2.45190 -1.86016 -0.14298 78 71 55
2.44844 -1.88282 -0.14047 36 25 40
2.47929 -1.87426 -0.14673 64 55 57
2.47581 -1.89705 -0.14421 35 23 35
2.49709 -1.88726 -0.14421 52 42 42
2.51332 -1.90013 -0.14060 41 32 38
2.54902 -1.92649 -0.13517 37 24 37
2.55905 -1.93868 -0.12745 49 41 55
2.55553 -1.96180 -0.12489 79 72 62
2.57187 -1.95131 -0.12142 67 63 58
2.56834 -1.97446 -0.11886 81 72 62
3.11293 -2.24506 -0.17579 35 9 31
3.10900 -2.27084 -0.17295 24 8 20
3.36509 -2.40394 -0.17272 13 7 12
3.36920 -2.37700 -0.17570 14 5 5
3.35893 -2.39048 -0.18519 11 4 5
3.34867 -2.40396 -0.19468 12 5 6
3.35483 -2.41742 -0.18221 14 8 12
2.92284 -2.42763 0.21276 109 93 79
2.92650 -2.40361 0.21011 113 93 69
2.91735 -2.41563 0.20165 112 92 73
2.90820 -2.42764 0.19319 106 89 79
2.91918 -2.45165 0.21541 55 38 115
2.92021 -2.43763 0.22780 91 71 88
2.90886 -2.45598 0.26062 53 47 104
2.90500 -2.46553 0.27607 53 67 127
2.89686 -2.47393 0.29346 45 62 147
2.89325 -2.49765 0.29608 30 46 156
2.88849 -2.48221 0.31088 33 49 150
2.89389 -2.49402 0.32182 25 41 147
2.88489 -2.50585 0.31349 24 43 147
2.85726 -2.50500 0.36540 56 67 101
2.84302 -2.50501 0.34636 20 42 132
2.85140 -2.51366 0.38130 99 89 66
2.84785 -2.53696 0.38388 107 94 70
2.86446 -2.53761 0.40178 103 85 60
2.86091 -2.56093 0.40436 79 62 49
2.87640 -2.56127 0.42280 94 85 52
2.86228 -2.56745 0.44212 116 105 70
2.84538 -2.57275 0.46253 122 111 93
2.84579 -2.58290 0.47531 143 133 113
2.81434 -2.58382 0.50174 166 158 152
2.80243 -2.59025 0.51962 190 183 159
2.79401 -2.59763 0.53591 207 193 149
2.92352 -2.72576 0.59764 199 173 110
2.90942 -2.72578 0.57878 203 176 120
2.93533 -2.73940 0.60579 177 138 82
2.91573 -2.74302 0.62620 124 75 42
2.95731 -2.76623 0.62284 69 34 36
2.94736 -2.77289 0.63944 42 25 45
2.93627 -2.77911 0.65638 62 63 75
2.93590 -2.78878 0.66918 99 119 156
2.84285 -2.76771 0.71659 134 156 178
2.82507 -2.78076 0.74773 165 160 132
2.77806 -2.77429 0.77709 124 105 67
2.74714 -2.78227 0.81222 127 113 86
2.74381 -2.80411 0.81463 137 123 94
0.85083 -0.93084 -0.07944 252 254 254
0.85314 -0.91572 -0.08112 254 254 254
0.84738 -0.92328 -0.08644 254 254 254
0.85659 -0.92327 -0.07412 254 254 254
0.85854 -0.93746 -0.07711 234 251 244
0.86069 -0.94531 -0.06867 212 217 207
0.90090 -0.96190 -0.07977 70 60 103
0.89856 -0.97725 -0.07808 97 90 83
0.90730 -0.96899 -0.07576 84 74 89
0.90496 -0.98436 -0.07407 99 90 86
0.91678 -0.97549 -0.07501 94 85 85
0.91443 -0.99091 -0.07331 99 92 84
0.97399 -1.01543 -0.06962 91 89 74
0.97041 -1.00760 -0.07687 94 91 88
0.98354 -1.01542 -0.05686 92 86 75
0.98614 -1.02179 -0.07122 85 86 66
0.98374 -1.03752 -0.06948 64 59 61
0.99738 -1.02838 -0.07179 78 75 68
0.99497 -1.04416 -0.07005 63 59 59
1.00525 -1.03557 -0.06885 69 61 68
1.00284 -1.05138 -0.06710 62 56 56
1.01709 -1.04216 -0.06991 65 56 63
1.01467 -1.05803 -0.06815 63 57 57
2.12352 -1.39635 -0.50779 7 10 12
2.11012 -1.39637 -0.52571 8 9 6
2.11515 -1.40735 -0.51553 7 9 12
2.12989 -1.40734 -0.49870 20 26 34
2.14079 -1.41835 -0.49326 53 64 63
2.14943 -1.44036 -0.47173 48 50 54
2.14607 -1.46239 -0.46930 41 49 50
2.14408 -1.47298 -0.42510 37 40 36
2.13074 -1.47299 -0.44294 40 46 45
2.13574 -1.48393 -0.43281 41 44 44
2.14244 -1.48377 -0.40978 30 29 37
2.14260 -1.49456 -0.39591 23 18 27
2.00193 -1.61272 -0.12864 10 10 22
1.98940 -1.61273 -0.14540 17 22 17
1.99410 -1.62300 -0.13589 10 12 19
2.01345 -1.62344 -0.12408 44 38 41
2.02859 -1.63446 -0.12207 79 72 56
2.02544 -1.65513 -0.11978 91 84 70
2.40436 -1.84544 -0.15320 92 80 72
2.40779 -1.82296 -0.15568 96 84 79
2.39922 -1.83420 -0.16360 95 83 79
2.42480 -1.85855 -0.15278 64 57 51
2.45997 -1.87359 -0.16178 45 37 23
2.50261 -1.91133 -0.14742 39 28 43
2.51381 -1.92360 -0.14059 49 36 49
2.52428 -1.93580 -0.13326 62 51 58
2.52077 -1.95879 -0.13072 82 72 64
2.53722 -1.94839 -0.12743 73 66 60
2.53370 -1.97142 -0.12489 83 72 64
3.09540 -2.25645 -0.18058 34 13 22
3.09148 -2.28219 -0.17773 18 5 13
2.91803 -2.44072 0.20217 87 69 93
2.91194 -2.46044 0.23268 49 49 139
2.89468 -2.46661 0.25467 76 94 151
2.90119 -2.47878 0.26518 64 85 152
2.89756 -2.50260 0.26781 20 40 157
2.88562 -2.48522 0.28616 41 56 160
2.88201 -2.50892 0.28877 25 46 157
2.84267 -2.51515 0.35979 27 48 109
2.82845 -2.51517 0.34077 21 43 142
2.83378 -2.52683 0.35157 24 45 127
2.83769 -2.52400 0.37531 77 79 90
2.86748 -2.57293 0.41459 102 92 52
2.86393 -2.59626 0.41717 118 101 60
2.85172 -2.57858 0.43470 119 102 66
2.84819 -2.60179 0.43726 121 101 70
2.84767 -2.58749 0.44953 123 103 79
2.84414 -2.61064 0.45209 123 102 66
2.82322 -2.59044 0.47319 122 106 85
2.81972 -2.61343 0.47573 125 104 71
2.78976 -2.59062 0.50055 121 113 99
2.75508 -2.59025 0.52819 145 138 127
2.77064 -2.60461 0.53418 172 165 138
2.77671 -2.61617 0.54426 195 187 158
2.77725 -2.62607 0.55666 210 192 149
2.78241 -2.63735 0.56711 214 190 138
2.89471 -2.73097 0.59744 198 168 113
2.88067 -2.73098 0.57867 206 177 122
2.91464 -2.74719 0.60231 189 152 95
2.89719 -2.75139 0.62190 162 121 51
2.90654 -2.76421 0.63095 131 89 18
2.94231 -2.78572 0.62983 92 56 12
2.91334 -2.78598 0.65366 56 24 31
2.89826 -2.79071 0.67202 29 18 41
2.86794 -2.79023 0.69599 38 32 65
2.82172 -2.78423 0.72569 81 87 134
2.78604 -2.78157 0.75117 107 103 126
2.77946 -2.78868 0.76571 96 82 88
2.75651 -2.79009 0.78616 108 106 94
0.82901 -0.92539 -0.08853 245 254 254
0.83130 -0.91034 -0.09019 254 254 254
0.82557 -0.91787 -0.09550 254 254 254
0.83474 -0.91786 -0.08323 254 254 254
0.83641 -0.93202 -0.08597 225 248 238
0.84491 -0.93844 -0.08459 205 190 189
0.83885 -0.94806 -0.06710 147 119 157
0.87343 -0.95730 -0.08343 82 69 104
0.87110 -0.97255 -0.08174 95 90 78
0.94731 -1.01003 -0.07538 92 90 83
0.94375 -1.00225 -0.08259 98 91 81
0.96215 -1.01584 -0.08000 85 86 74
0.95977 -1.03149 -0.07827 65 59 63
0.97266 -1.02247 -0.07998 78 72 68
0.97027 -1.03817 -0.07825 64 60 61
0.98278 -1.02922 -0.07948 71 61 64
0.98038 -1.04497 -0.07774 62 62 56
2.11003 -1.41830 -0.49710 15 20 29
2.09667 -1.41832 -0.51497 8 9 10
2.12322 -1.42931 -0.49359 38 52 52
2.12899 -1.44030 -0.48402 55 64 63
2.12863 -1.45122 -0.46954 49 54 52
2.12528 -1.47316 -0.46711 40 52 50
2.11512 -1.49420 -0.40256 40 44 47
2.10188 -1.49422 -0.42027 44 49 56
2.10684 -1.50508 -0.41021 45 48 54
2.12104 -1.51579 -0.37933 15 11 24
2.13427 -1.51578 -0.36165 8 10 7
2.12600 -1.52664 -0.36929 6 9 7
2.11773 -1.53750 -0.37694 8 8 10
2.00552 -1.63375 -0.13127 37 32 34
1.99297 -1.63376 -0.14806 12 15 10
2.03353 -1.64574 -0.13863 74 69 54
2.39275 -1.85631 -0.15911 87 67 70
2.37906 -1.85632 -0.17741 86 67 68
2.38419 -1.86754 -0.16702 85 65 71
2.41732 -1.86998 -0.16146 62 46 59
2.45130 -1.88498 -0.16980 53 41 34
2.45685 -1.89639 -0.15949 55 44 49
2.45338 -1.91915 -0.15698 85 72 58
2.47087 -1.90895 -0.15464 62 51 50
2.46739 -1.93176 -0.15212 85 73 61
2.48463 -1.92153 -0.14957 72 59 52
2.48114 -1.94439 -0.14704 84 71 68
2.49575 -1.93378 -0.14274 79 66 58
2.49226 -1.95668 -0.14022 82 71 68
2.51674 -1.94748 -0.14213 81 71 67
2.51324 -1.97048 -0.13959 83 71 65
3.05323 -2.25129 -0.18659 39 34 24
3.09656 -2.27151 -0.19580 29 14 13
3.09263 -2.29731 -0.19295 15 4 5
2.94031 -2.43914 0.15025 100 87 69
2.94402 -2.41485 0.14756 99 84 62
2.93476 -2.42701 0.13901 96 83 64
2.94957 -2.42699 0.15880 108 89 69
2.92779 -2.44679 0.17046 82 70 85
2.92410 -2.47098 0.17313 16 27 119
2.92434 -2.45663 0.18607 45 37 111
2.91769 -2.46560 0.20320 27 34 132
2.89669 -2.47085 0.22723 45 69 149
2.88707 -2.47890 0.24558 51 70 158
2.89312 -2.49096 0.25631 22 42 149
2.88948 -2.51479 0.25894 18 43 154
2.82575 -2.53480 0.36852 48 62 104
2.81158 -2.53481 0.34957 28 49 142
2.81689 -2.54643 0.36033 36 52 120
2.82220 -2.55806 0.37109 65 64 82
2.83540 -2.54763 0.37730 86 85 65
2.83185 -2.57091 0.37987 80 71 53
2.84558 -2.56063 0.38586 90 73 38
2.85528 -2.57352 0.39468 86 68 29
2.86202 -2.58558 0.40485 106 92 47
2.85846 -2.60892 0.40743 115 101 62
2.74157 -2.60006 0.52237 122 102 79
2.72785 -2.60007 0.50402 124 105 62
2.73299 -2.61132 0.51444 122 103 64
2.73813 -2.62257 0.52486 125 102 69
2.72793 -2.60567 0.54084 123 110 91
2.72147 -2.61336 0.55614 145 135 133
2.75440 -2.63302 0.55473 174 169 148
2.76156 -2.64489 0.56429 194 186 140
2.77528 -2.64487 0.58264 211 187 133
2.76671 -2.65614 0.57471 206 190 140
2.85854 -2.73367 0.60030 202 173 113
2.84459 -2.73369 0.58166 210 183 124
2.84982 -2.74512 0.59225 207 180 123
2.85760 -2.74311 0.61334 198 168 102
2.87173 -2.75743 0.62040 186 157 83
2.87572 -2.76847 0.63148 172 140 40
2.90081 -2.79623 0.64702 130 89 11
2.89714 -2.80470 0.66106 94 61 9
2.85139 -2.79891 0.69100 71 36 17
2.81251 -2.79521 0.71805 51 19 34
2.77846 -2.79297 0.74303 36 14 37
2.77676 -2.81103 0.76791 61 66 52
2.73440 -2.80549 0.79542 108 121 109
2.73229 -2.81391 0.80810 132 130 116
2.74559 -2.81390 0.82588 136 121 93
2.73728 -2.82481 0.81819 140 127 102
0.80082 -0.91325 -0.10091 254 254 254
0.80310 -0.89828 -0.10256 254 254 254
0.79740 -0.90577 -0.10783 254 254 254
0.80652 -0.90576 -0.09563 254 254 254
0.80994 -0.91324 -0.08871 254 254 254
0.80743 -0.91998 -0.09760 239 252 254
0.81555 -0.92639 -0.09597 217 241 239
0.82580 -0.93235 -0.09668 185 158 182
0.84880 -0.94390 -0.10065 79 73 100
0.84648 -0.95909 -0.09897 95 88 86
0.86218 -0.95772 -0.09370 90 80 69
0.85985 -0.97296 -0.09201 99 93 86
0.93056 -1.00294 -0.09133 91 92 67
0.92701 -0.99517 -0.09853 94 91 78
0.93648 -0.99516 -0.08586 102 91 80
0.92819 -1.01848 -0.08962 70 66 54
0.93882 -1.00986 -0.08914 84 84 61
0.93644 -1.02544 -0.08741 65 62 63
0.94817 -1.01663 -0.08806 78 68 77
0.94579 -1.03225 -0.08633 64 62 53
0.95940 -1.02312 -0.08888 71 64 67
0.95701 -1.03879 -0.08715 64 61 62
2.09213 -1.42920 -0.49700 10 12 19
2.07881 -1.42922 -0.51482 9 10 8
2.08380 -1.44014 -0.50470 8 10 8
2.09022 -1.44006 -0.48126 22 24 33
2.10283 -1.45106 -0.47735 40 43 39
2.10404 -1.46193 -0.46418 40 45 45
2.09733 -1.51546 -0.38878 43 50 57
2.08414 -1.51548 -0.40642 49 52 54
2.10460 -1.52636 -0.38060 20 17 31
2.10130 -1.54801 -0.37821 9 8 14
2.00502 -1.64459 -0.14391 28 26 21
1.99244 -1.64460 -0.16074 15 17 7
2.03855 -1.65710 -0.15536 67 64 54
2.04423 -1.66758 -0.14639 90 82 73
2.05693 -1.66757 -0.12941 94 83 76
2.04899 -1.67799 -0.13675 94 82 77
2.04105 -1.68842 -0.14409 94 82 78
2.39821 -1.87991 -0.16248 82 69 70
2.38449 -1.87993 -0.18083 85 70 72
2.38963 -1.89118 -0.17041 85 73 74
2.39477 -1.90243 -0.15999 86 72 68
2.41680 -1.89294 -0.16088 85 70 60
2.41336 -1.91554 -0.15838 84 72 66
2.43938 -1.90659 -0.16177 85 72 58
2.43592 -1.92929 -0.15926 85 70 62
3.01933 -2.21280 -0.24249 46 43 51
3.02323 -2.18723 -0.24532 62 52 49
3.01348 -2.20002 -0.25433 54 47 51
3.02907 -2.20001 -0.23348 58 51 51
3.03491 -2.21279 -0.22165 55 48 51
3.01543 -2.23838 -0.23967 24 23 51
3.02017 -2.22463 -0.22776 39 37 48
3.05648 -2.26667 -0.20299 26 22 28
3.08162 -2.28338 -0.20200 22 11 8
3.07769 -2.30916 -0.19915 15 5 3
2.96451 -2.44877 0.11071 89 78 63
2.96825 -2.42426 0.10800 90 77 62
2.95891 -2.43652 0.09936 88 77 61
2.94958 -2.44879 0.09073 76 72 62
2.94773 -2.45545 0.13331 75 66 67
2.94401 -2.47983 0.13600 14 21 101
2.93819 -2.46383 0.15214 42 41 90
2.93448 -2.48812 0.15483 9 24 115
2.89566 -2.49544 0.22860 14 25 138
2.88039 -2.50192 0.24968 16 33 145
2.87676 -2.52572 0.25231 19 40 145
2.85530 -2.58774 0.38242 89 75 45
2.84105 -2.58776 0.36336 66 67 73
2.84639 -2.59944 0.37418 85 78 64
2.85173 -2.61113 0.38500 103 92 58
2.85987 -2.59921 0.39359 104 91 54
2.85631 -2.62259 0.39617 113 99 62
2.70742 -2.62284 0.55064 121 104 81
2.69382 -2.62286 0.53245 125 105 70
2.69892 -2.63401 0.54278 123 106 59
2.70402 -2.64516 0.55310 124 104 72
2.71135 -2.63363 0.56146 122 112 98
2.71651 -2.64480 0.57176 140 133 112
2.75908 -2.66770 0.56638 171 165 142
2.77280 -2.66768 0.58473 210 189 132
2.77892 -2.68359 0.57069 194 184 146
2.79269 -2.68358 0.58910 209 182 129
2.78409 -2.69489 0.58114 207 184 140
2.80472 -2.74006 0.62298 203 179 125
2.79095 -2.74007 0.60456 212 187 134
2.81285 -2.75233 0.63226 198 173 116
2.81725 -2.76338 0.64303 191 158 99
2.84194 -2.78121 0.64585 185 146 63
2.83968 -2.79005 0.65926 169 139 47
2.85455 -2.80468 0.66602 156 123 60
2.85450 -2.81424 0.67854 131 98 60
2.83251 -2.81624 0.69935 118 88 44
2.81504 -2.81967 0.71829 87 64 36
2.74786 -2.80566 0.75564 60 36 15
2.74244 -2.81300 0.76970 53 31 11
2.75229 -2.82569 0.77810 56 56 50
2.74893 -2.84769 0.78053 46 22 30
2.72897 -2.82660 0.79860 83 93 106
2.71906 -2.83218 0.81408 111 124 117
2.73233 -2.83217 0.83182 140 126 90
2.71536 -2.83994 0.82726 129 129 100
2.72860 -2.83992 0.84496 138 125 83
2.72032 -2.85079 0.83731 142 129 92
0.77732 -0.90845 -0.10737 251 254 253
0.77959 -0.89356 -0.10901 254 254 254
0.77391 -0.90101 -0.11426 254 254 254
0.78299 -0.90100 -0.10212 254 254 254
0.78443 -0.91500 -0.10475 233 250 244
0.80274 -0.91894 -0.11490 214 214 213
0.81134 -0.92525 -0.11385 167 143 182
0.80905 -0.94031 -0.11218 90 76 85
0.83613 -0.93630 -0.12013 84 64 103
0.83382 -0.95149 -0.11845 99 88 86
0.84019 -0.94376 -0.11375 91 74 95
0.83787 -0.95896 -0.11208 100 91 86
0.90120 -0.98986 -0.10448 96 91 75
0.90355 -0.97441 -0.10619 96 94 80
0.89767 -0.98214 -0.11163 96 93 83
0.90709 -0.98213 -0.09904 98 92 81
0.91062 -0.98985 -0.09189 98 90 82
0.91217 -0.99618 -0.10539 94 88 69
0.90981 -1.01169 -0.10368 69 62 65
0.92006 -1.00313 -0.10290 83 79 68
0.91769 -1.01867 -0.10118 65 64 66
0.92844 -1.01003 -0.10088 74 68 67
0.92606 -1.02560 -0.09916 67 63 58
2.07131 -1.45083 -0.48027 10 8 15
2.05806 -1.45084 -0.49799 9 8 8
2.06303 -1.46171 -0.48793 9 7 12
2.06800 -1.47258 -0.47787 8 6 15
2.06729 -1.46155 -0.46288 15 8 24
2.06665 -1.47227 -0.44831 20 16 34
2.07906 -1.48326 -0.44431 26 38 43
2.09228 -1.48325 -0.42662 42 52 53
2.07807 -1.49395 -0.42950 34 49 56
2.08302 -1.50478 -0.41948 43 55 64
2.07843 -1.52591 -0.38800 50 53 51
2.06529 -1.52592 -0.40557 44 55 53
2.08648 -1.53680 -0.38047 26 22 31
2.00674 -1.65565 -0.15825 20 20 14
1.99412 -1.65566 -0.17512 13 19 9
2.04848 -1.66894 -0.17579 59 60 53
2.05234 -1.67933 -0.16542 88 81 73
2.04914 -1.70027 -0.16311 93 83 74
2.96886 -2.18300 -0.27317 53 49 49
2.97274 -2.15756 -0.27598 65 58 53
2.96305 -2.17029 -0.28494 59 53 52
2.97855 -2.17027 -0.26421 61 55 50
2.98436 -2.18299 -0.25244 58 50 49
2.98621 -2.19786 -0.26824 46 43 49
2.98232 -2.22337 -0.26543 21 21 51
2.99893 -2.21191 -0.26050 39 36 50
3.01513 -2.22666 -0.25475 31 29 50
3.03103 -2.25309 -0.23348 31 29 54
3.04233 -2.26698 -0.22475 26 33 50
3.04532 -2.27923 -0.21123 26 22 33
3.05145 -2.29210 -0.19952 22 10 11
3.04754 -2.31775 -0.19669 14 5 4
2.97691 -2.46647 0.09100 62 56 74
2.96189 -2.46648 0.07092 49 49 79
2.97315 -2.49111 0.09372 12 23 109
2.96059 -2.47324 0.11351 37 33 85
2.95685 -2.49775 0.11621 10 26 115
2.86974 -2.51340 0.24207 19 33 135
2.85524 -2.51342 0.22267 20 27 115
2.86067 -2.52531 0.23368 22 29 120
2.70867 -2.65617 0.56362 117 101 79
2.69508 -2.65618 0.54543 127 104 68
2.70017 -2.66733 0.55576 123 103 69
2.70527 -2.67848 0.56608 123 103 67
2.71299 -2.66707 0.57427 124 108 87
2.70756 -2.67486 0.58900 147 134 127
2.77542 -2.70617 0.57321 178 170 151
2.78919 -2.70616 0.59163 212 183 125
2.78570 -2.71913 0.58156 200 187 136
2.79087 -2.73043 0.59203 209 191 144
2.77005 -2.74273 0.62553 209 184 133
2.76149 -2.75396 0.61762 207 189 149
2.76263 -2.74976 0.64094 207 180 123
2.76132 -2.75879 0.65385 206 178 115
2.76295 -2.76878 0.66556 204 173 102
2.78771 -2.78664 0.66821 192 158 94
2.80762 -2.80293 0.67285 179 144 98
2.78417 -2.80430 0.69428 176 160 132
2.79363 -2.81699 0.70297 178 177 134
2.80073 -2.82887 0.71257 182 179 135
2.77506 -2.82922 0.73450 167 160 118
2.72837 -2.82197 0.76408 126 113 85
2.73616 -2.83393 0.77321 76 49 26
2.74485 -2.85539 0.79402 44 45 53
2.71182 -2.85252 0.81790 97 96 98
2.70850 -2.87427 0.82030 168 143 100
2.70596 -2.85942 0.83184 143 136 115
2.71917 -2.85941 0.84951 145 128 86
2.71091 -2.87026 0.84187 159 144 118
2.70265 -2.88111 0.83423 166 143 103
0.74881 -0.89677 -0.11841 253 254 254
0.75106 -0.88197 -0.12004 254 254 254
0.74543 -0.88938 -0.12525 254 254 254
0.75444 -0.88937 -0.11319 254 254 254
0.75782 -0.89676 -0.10635 254 254 254
0.75585 -0.90325 -0.11586 245 254 253
0.76344 -0.90963 -0.11390 225 245 237
0.78747 -0.91209 -0.13098 202 187 193
0.79454 -0.91872 -0.12825 150 131 159
0.79225 -0.93375 -0.12659 91 82 66
0.81030 -0.92337 -0.13548 94 84 92
0.80800 -0.93849 -0.13381 92 86 84
0.81662 -0.93027 -0.13176 90 78 106
0.81431 -0.94541 -0.13009 97 88 82
0.88098 -0.98358 -0.11621 95 94 69
0.87746 -0.97588 -0.12334 97 93 82
0.88685 -0.97587 -0.11078 100 93 80
0.89122 -0.98998 -0.11647 89 87 65
0.88887 -1.00543 -0.11476 68 62 66
0.90080 -0.99656 -0.11592 83 76 67
0.89843 -1.01205 -0.11421 68 62 64
0.90901 -1.00344 -0.11383 77 66 68
0.90664 -1.01897 -0.11212 68 61 61
2.05135 -1.48294 -0.45019 9 7 17
2.03818 -1.48295 -0.46780 9 6 12
2.04312 -1.49375 -0.45780 8 7 7
2.04805 -1.50455 -0.44780 7 9 12
2.05303 -1.49365 -0.43755 12 13 28
2.04757 -1.50413 -0.41919 18 26 44
2.05484 -1.51496 -0.41112 33 47 52
2.06106 -1.53634 -0.38832 51 52 49
2.06830 -1.54718 -0.38020 30 27 31
2.06502 -1.56871 -0.37783 11 10 14
2.07801 -1.55816 -0.37401 10 9 16
2.09115 -1.55814 -0.35645 8 8 10
2.08293 -1.56893 -0.36404 7 9 9
2.07472 -1.57971 -0.37163 7 9 10
2.01431 -1.66725 -0.17699 11 15 14
2.00163 -1.66726 -0.19395 14 21 15
2.06307 -1.68128 -0.19979 52 56 52
2.06338 -1.69143 -0.18673 86 83 69
2.06017 -1.71249 -0.18441 92 84 73
2.91410 -2.16424 -0.28536 57 51 47
2.91795 -2.13900 -0.28815 69 60 53
2.90833 -2.15163 -0.29704 63 55 47
2.92371 -2.15161 -0.27647 64 56 53
2.93106 -2.17891 -0.28044 48 45 47
2.92720 -2.20421 -0.27764 24 22 41
2.95122 -2.19424 -0.27736 39 38 43
2.96872 -2.20915 -0.27259 29 29 45
3.00391 -2.23919 -0.26291 22 23 61
3.01105 -2.25224 -0.25182 38 35 70
3.02910 -2.26748 -0.24707 50 56 70
3.02924 -2.27915 -0.23187 43 49 48
3.02905 -2.29072 -0.21653 33 27 38
3.02628 -2.30172 -0.19975 23 10 13
3.02238 -2.32728 -0.19693 11 4 5
2.85706 -2.61690 0.35694 73 74 69
2.84274 -2.61691 0.33779 34 40 94
2.86967 -2.63078 0.36451 96 93 59
2.87504 -2.64254 0.37540 113 99 67
2.70345 -2.68740 0.57932 124 106 84
2.68988 -2.68741 0.56117 125 107 61
2.69497 -2.69854 0.57148 128 107 72
2.69702 -2.69478 0.59445 127 119 105
2.75992 -2.73439 0.59326 181 170 148
2.75766 -2.74317 0.60670 200 185 149
2.73308 -2.75388 0.64152 210 187 131
2.72969 -2.77615 0.64398 208 191 150
2.73418 -2.77303 0.66573 207 184 112
2.72592 -2.77954 0.68126 201 178 127
2.71010 -2.78338 0.69966 210 204 197
2.70759 -2.80097 0.72488 214 225 214
2.77117 -2.84197 0.72494 189 177 164
2.72564 -2.83497 0.75424 147 120 84
2.73924 -2.84904 0.76121 131 99 42
2.72443 -2.85285 0.77873 134 110 26
2.70767 -2.85586 0.79685 153 132 60
2.70434 -2.87765 0.79926 171 145 88
2.69882 -2.86167 0.81196 167 142 92
2.69551 -2.88339 0.81436 169 143 86
2.66637 -2.88540 0.87054 155 132 101
2.66147 -2.87469 0.86062 163 135 98
2.65331 -2.88541 0.85307 171 146 86
2.67943 -2.88539 0.88800 167 158 131
2.67126 -2.89611 0.88045 181 178 146
2.66310 -2.90684 0.87290 171 152 109
0.72989 -0.89107 -0.12953 253 254 254
0.73214 -0.87632 -0.13116 254 254 254
0.72652 -0.88370 -0.13635 254 254 254
0.73551 -0.88369 -0.12433 254 254 254
0.73628 -0.89767 -0.12629 239 251 250
0.74075 -0.90477 -0.12076 216 230 232
0.76920 -0.90600 -0.14344 183 163 190
0.77609 -0.91264 -0.14058 129 116 141
0.77380 -0.92763 -0.13893 90 83 80
0.78714 -0.91831 -0.14255 93 87 106
0.78485 -0.93336 -0.14089 95 89 85
0.79631 -0.92449 -0.14225 92 82 96
0.79401 -0.93958 -0.14059 99 91 84
0.85857 -0.97781 -0.12525 97 90 75
0.86091 -0.96247 -0.12694 101 93 83
0.85506 -0.97014 -0.13234 97 91 81
0.86441 -0.97013 -0.11984 101 92 82
0.86749 -0.98440 -0.12419 89 83 70
0.86515 -0.99977 -0.12249 73 62 66
0.87757 -0.99081 -0.12436 83 71 71
0.87522 -1.00623 -0.12266 70 62 54
0.88850 -0.99711 -0.12540 78 67 63
0.88614 -1.01258 -0.12369 63 62 68
2.03386 -1.51471 -0.42230 6 12 24
2.02077 -1.51473 -0.43980 7 9 5
2.02568 -1.52546 -0.42986 6 8 11
2.03827 -1.52543 -0.41196 15 20 34
2.04454 -1.53621 -0.40312 28 40 36
2.04965 -1.54696 -0.39333 36 47 35
2.05478 -1.55771 -0.38357 25 29 25
2.05151 -1.57920 -0.38119 10 10 12
2.03139 -1.67973 -0.20294 7 14 15
2.01861 -1.67974 -0.22003 17 22 16
2.06309 -1.69253 -0.21318 48 53 49
2.06651 -1.70296 -0.20236 83 82 68
2.06329 -1.72409 -0.20003 92 83 74
2.87686 -2.16027 -0.29249 55 48 44
2.88069 -2.13517 -0.29527 69 58 51
2.87112 -2.14773 -0.30411 61 53 48
2.87303 -2.18537 -0.28972 35 30 43
2.89498 -2.17510 -0.28844 46 42 41
2.91443 -2.19026 -0.28511 35 32 40
2.95726 -2.22154 -0.28050 20 21 53
2.96733 -2.23510 -0.27126 21 27 65
2.98803 -2.25078 -0.26829 41 49 85
2.98413 -2.27634 -0.26547 84 94 109
2.99594 -2.26397 -0.25769 71 74 96
3.01011 -2.27845 -0.25073 72 85 87
3.02141 -2.29239 -0.24204 42 49 46
3.02266 -2.30424 -0.22749 25 24 37
3.01872 -2.31497 -0.21001 17 8 12
3.01482 -2.34054 -0.20718 10 4 15
3.02168 -2.37294 -0.13622 8 4 9
3.02556 -2.34753 -0.13903 9 5 5
3.01588 -2.36024 -0.14798 9 4 3
3.03136 -2.36023 -0.12727 7 3 4
3.03717 -2.37293 -0.11550 7 3 5
3.03751 -2.38793 -0.13001 8 5 19
3.05303 -2.38792 -0.10924 7 3 6
3.05310 -2.40292 -0.12359 8 5 24
