ply
format ascii 1.0
element face 0
property list uchar int vertex_indices
element vertex 1336
property float x
property float y
property float z
property uchar diffuse_red
property uchar diffuse_green
property uchar diffuse_blue
end_header
0.15067 -0.31035 -0.71937 65 43 54
0.17635 -0.31475 -0.74899 130 111 117
0.18084 -0.32028 -0.74755 224 218 209
0.18583 -0.32581 -0.74682 253 253 246
0.18341 -0.33688 -0.74568 254 254 251
0.19643 -0.45469 -0.58254 252 248 242
0.19060 -0.45443 -0.59205 254 254 252
0.20357 -0.46055 -0.58434 218 193 182
0.22413 -0.47830 -0.58828 252 253 253
0.22172 -0.48931 -0.58715 254 254 254
0.28293 -0.70131 -0.36033 254 253 235
0.27706 -0.70104 -0.36991 254 254 254
0.28053 -0.71223 -0.35921 252 240 206
0.27632 -0.70509 -0.34588 225 214 149
0.28728 -0.71789 -0.34335 183 207 198
0.29741 -0.72539 -0.34703 241 250 249
0.31317 -0.74999 -0.33479 254 254 252
0.31559 -0.73895 -0.33592 254 254 254
0.31142 -0.74434 -0.34020 254 254 254
0.31735 -0.74460 -0.33051 254 254 254
0.31694 -0.75613 -0.33149 247 250 239
0.32153 -0.76249 -0.32904 223 216 202
0.33743 -0.77172 -0.33835 171 153 143
0.34633 -0.77926 -0.34027 120 92 99
0.34871 -0.78516 -0.33538 88 61 66
0.34625 -0.79639 -0.33422 88 79 64
0.36188 -0.79920 -0.33418 88 77 64
0.35760 -0.80472 -0.33856 86 80 68
0.37331 -0.81290 -0.33106 86 79 57
0.38079 -0.82028 -0.33123 78 70 49
0.39493 -0.82954 -0.33803 66 54 41
0.40888 -0.83884 -0.34452 47 35 34
0.40634 -0.85041 -0.34334 26 21 25
0.41154 -0.84499 -0.33967 32 24 31
0.40900 -0.85657 -0.33848 24 22 25
2.19719 -2.11762 -1.05613 58 60 60
2.18514 -2.11708 -1.07580 64 63 73
2.20373 -2.13062 -1.04717 50 55 46
2.21345 -2.14528 -1.04034 33 41 31
2.22562 -2.16124 -1.03510 14 11 17
2.22068 -2.18378 -1.03279 4 4 5
2.17160 -2.26490 -0.81597 21 23 30
2.15985 -2.26437 -0.83515 10 11 17
2.18198 -2.27995 -0.80950 33 35 36
2.17718 -2.30187 -0.80725 26 23 25
2.19377 -2.29584 -0.80384 32 33 35
2.20558 -2.29637 -0.78458 30 33 28
2.19727 -2.30709 -0.79308 29 29 27
2.18896 -2.31780 -0.80159 28 26 27
2.37205 -2.63413 -0.58198 16 10 47
2.35994 -2.63359 -0.60175 9 5 22
2.34228 -2.63383 -0.54098 21 18 62
2.33384 -2.64471 -0.54962 41 25 45
2.33469 -2.63817 -0.52439 30 39 80
2.33090 -2.64488 -0.50979 33 48 87
2.29472 -2.63081 -0.47902 64 82 125
2.28617 -2.63430 -0.46227 71 75 130
2.28190 -2.64049 -0.44773 71 73 156
2.27255 -2.64335 -0.43075 73 79 162
2.25737 -2.65118 -0.39876 155 141 151
2.27967 -2.69229 -0.37268 36 32 124
2.28210 -2.70271 -0.36158 87 82 158
2.28268 -2.71190 -0.34963 107 96 178
2.26419 -2.70832 -0.32887 154 152 212
2.29052 -2.73471 -0.32885 196 196 221
0.10782 -0.27327 -0.72817 64 51 57
0.11015 -0.26264 -0.72927 54 49 50
0.10612 -0.26783 -0.73338 58 50 55
0.11184 -0.26808 -0.72405 55 49 51
0.10548 -0.28391 -0.72708 86 76 78
0.11043 -0.27865 -0.72435 71 58 66
0.10809 -0.28930 -0.72326 87 76 76
0.11416 -0.28395 -0.72220 80 71 76
0.12870 -0.29976 -0.72060 80 71 64
0.12464 -0.30500 -0.72476 73 52 45
0.13446 -0.30503 -0.72134 77 60 49
0.14102 -0.31029 -0.72323 71 44 43
0.14435 -0.31574 -0.72031 90 54 71
0.15384 -0.32094 -0.72638 168 142 153
0.17343 -0.32580 -0.74711 236 230 225
0.17101 -0.33682 -0.74598 254 254 247
0.17780 -0.33135 -0.74552 253 254 249
0.17538 -0.34239 -0.74438 254 254 248
0.18744 -0.45971 -0.58026 250 246 237
0.18164 -0.45945 -0.58974 254 254 252
0.19574 -0.46564 -0.58365 212 185 173
0.19130 -0.47081 -0.57022 105 65 111
0.20403 -0.47708 -0.57935 207 206 216
0.21740 -0.48349 -0.58919 253 254 254
0.21499 -0.49448 -0.58806 254 254 254
0.27575 -0.70597 -0.36120 254 254 250
0.26989 -0.70571 -0.37077 254 254 254
0.27162 -0.71129 -0.36543 254 254 254
0.28326 -0.71804 -0.35494 141 160 122
0.28500 -0.72883 -0.34234 231 239 235
0.29205 -0.73567 -0.34272 253 254 254
0.29794 -0.73594 -0.33311 254 254 254
0.29379 -0.74128 -0.33735 254 254 254
0.30486 -0.74915 -0.34193 251 254 250
0.30854 -0.75526 -0.33858 242 239 230
0.31739 -0.76268 -0.34067 206 196 181
0.32331 -0.76941 -0.33962 150 122 114
0.32088 -0.78052 -0.33847 81 62 53
0.33146 -0.77673 -0.34085 96 67 67
0.33787 -0.78364 -0.34022 78 57 62
0.33542 -0.79484 -0.33907 89 79 65
0.34428 -0.79059 -0.33953 85 70 65
0.34182 -0.80182 -0.33838 85 79 63
0.37204 -0.81928 -0.33855 73 68 44
0.38694 -0.82876 -0.34626 58 48 39
0.38443 -0.84023 -0.34508 31 22 27
0.39869 -0.83744 -0.35066 43 28 34
0.39616 -0.84898 -0.34948 28 23 23
0.40699 -0.84519 -0.35151 32 23 28
0.40445 -0.85678 -0.35032 24 21 20
1.78297 -1.40494 -1.50321 44 48 56
2.19063 -2.12955 -1.06614 63 64 69
2.17857 -2.12901 -1.08582 65 67 78
2.18214 -2.14050 -1.07483 65 70 80
2.19820 -2.14310 -1.05789 53 60 60
2.20513 -2.15635 -1.04917 35 40 39
2.21483 -2.17106 -1.04230 13 11 18
2.17773 -2.28364 -0.83341 18 17 20
2.16593 -2.28311 -0.85267 10 9 13
2.16942 -2.29436 -0.84191 10 10 13
2.34241 -2.64098 -0.56684 40 22 41
2.33751 -2.66337 -0.56454 60 50 23
2.32477 -2.64805 -0.53222 22 12 54
2.31989 -2.67028 -0.52994 48 17 46
2.31843 -2.65309 -0.51631 18 16 74
2.31745 -2.66154 -0.50318 33 37 98
2.30581 -2.66305 -0.48473 29 26 96
2.27092 -2.64936 -0.45482 55 59 130
2.26771 -2.65617 -0.44084 70 81 151
2.26344 -2.66224 -0.42638 92 102 161
2.22951 -2.64876 -0.39753 150 156 181
2.25169 -2.67216 -0.39608 137 124 156
2.27571 -2.70569 -0.38309 69 64 115
2.27357 -2.71306 -0.36982 87 85 140
2.27651 -2.72382 -0.35896 94 91 165
2.27066 -2.72865 -0.34401 134 144 205
2.28139 -2.74465 -0.33680 136 135 197
0.10322 -0.27851 -0.73143 83 72 81
0.11449 -0.29444 -0.72514 81 72 65
0.11045 -0.29965 -0.72927 71 52 46
0.11870 -0.29976 -0.72366 75 64 56
0.12961 -0.31032 -0.72436 85 54 49
0.13189 -0.31580 -0.71993 119 86 73
0.15113 -0.32054 -0.74056 173 142 125
0.15441 -0.32606 -0.73749 228 213 200
0.15201 -0.33698 -0.73637 254 254 246
0.16480 -0.33134 -0.74484 250 249 240
0.16239 -0.34233 -0.74371 254 254 247
0.17918 -0.46474 -0.57888 247 245 235
0.17339 -0.46448 -0.58834 254 254 252
0.18700 -0.47064 -0.58171 200 182 171
0.17549 -0.47529 -0.55892 133 88 117
0.19539 -0.48208 -0.57762 219 220 222
0.20898 -0.48853 -0.58785 254 254 254
0.20658 -0.49948 -0.58673 254 254 254
0.26261 -0.71445 -0.34824 254 251 238
0.25680 -0.71419 -0.35774 254 254 254
0.27226 -0.72181 -0.35164 197 193 177
0.28016 -0.72881 -0.35304 172 146 146
0.28992 -0.74150 -0.34914 248 253 252
0.29331 -0.74752 -0.34554 248 251 244
0.30022 -0.75441 -0.34570 226 217 216
0.30794 -0.76154 -0.34666 185 164 163
0.31734 -0.76914 -0.34937 128 99 103
0.32168 -0.77549 -0.34664 87 61 59
0.33289 -0.78891 -0.34377 89 75 64
0.32865 -0.79437 -0.34810 90 79 61
0.35221 -0.80993 -0.34179 78 73 62
0.36223 -0.81798 -0.34472 66 60 49
0.38230 -0.82891 -0.35788 50 42 34
0.37978 -0.84039 -0.35670 30 25 24
1.76277 -1.41096 -1.49991 32 33 35
1.74336 -1.42321 -1.45531 46 47 47
1.75450 -1.42371 -1.43711 49 49 55
1.74666 -1.43383 -1.44514 48 50 51
2.19058 -2.15452 -1.06719 56 66 79
2.17850 -2.15398 -1.08690 64 71 81
2.18208 -2.16549 -1.07589 60 68 81
2.19618 -2.16709 -1.05757 41 41 49
2.20432 -2.18100 -1.04966 19 14 16
2.20306 -2.18997 -1.03535 8 5 6
2.21514 -2.19052 -1.01564 3 3 4
2.20664 -2.20149 -1.02434 4 3 3
2.20668 -2.32477 -0.85220 13 13 16
2.19476 -2.32424 -0.87165 9 9 10
2.19829 -2.33560 -0.86078 10 12 16
2.35744 -2.64840 -0.61367 13 9 27
2.36239 -2.62582 -0.61599 17 10 23
2.35384 -2.63684 -0.62473 33 23 28
2.34530 -2.64786 -0.63347 46 39 35
2.33374 -2.65178 -0.57540 33 19 27
2.31809 -2.66002 -0.54172 55 30 28
2.30195 -2.66771 -0.50813 38 12 67
2.28980 -2.66880 -0.48939 26 11 75
2.27714 -2.66948 -0.47051 40 45 96
2.26070 -2.66759 -0.44987 50 62 131
2.26007 -2.67604 -0.43718 52 68 144
2.24231 -2.67311 -0.41612 76 92 168
2.23322 -2.67584 -0.39942 120 125 179
2.27634 -2.73102 -0.38343 53 58 128
2.28249 -2.74396 -0.37405 48 62 142
2.28661 -2.75555 -0.36371 62 83 164
2.31242 -2.78190 -0.36346 50 54 146
2.31573 -2.79299 -0.35265 50 48 133
2.32689 -2.80946 -0.34545 50 46 121
2.32208 -2.83140 -0.34319 80 44 82
0.09574 -0.27282 -0.74584 82 69 76
0.09706 -0.27829 -0.74005 87 74 77
0.10385 -0.28894 -0.73485 86 77 71
0.10572 -0.29438 -0.72989 78 67 63
0.11525 -0.30494 -0.72872 77 52 46
0.11977 -0.31028 -0.72771 110 75 59
0.14348 -0.31469 -0.75539 162 127 96
0.14333 -0.32036 -0.74724 210 189 150
0.14430 -0.32597 -0.74077 239 229 194
0.14191 -0.33686 -0.73965 254 253 242
0.14817 -0.33147 -0.73861 252 249 229
0.14578 -0.34237 -0.73749 254 253 246
0.16924 -0.46962 -0.57520 242 241 229
0.17017 -0.47506 -0.56890 185 169 153
0.16523 -0.48008 -0.55481 158 109 97
0.18485 -0.48689 -0.57331 229 229 212
0.19424 -0.49304 -0.57812 254 254 254
0.19186 -0.50391 -0.57701 254 254 254
0.26347 -0.72087 -0.35792 254 254 250
0.25763 -0.72061 -0.36744 254 254 254
0.25936 -0.72617 -0.36212 254 254 254
0.25550 -0.72417 -0.34190 244 227 212
0.26968 -0.73264 -0.35031 171 130 150
0.28514 -0.74670 -0.35270 230 238 223
0.27570 -0.74956 -0.33521 213 203 193
0.28608 -0.75729 -0.33921 157 130 139
0.28368 -0.76824 -0.33808 77 61 67
0.30722 -0.76782 -0.35467 102 70 88
0.31273 -0.77446 -0.35324 79 57 68
0.31029 -0.78557 -0.35210 89 79 66
0.31777 -0.78100 -0.35128 82 70 62
0.31533 -0.79214 -0.35014 89 78 61
0.32260 -0.78752 -0.34906 91 78 62
0.33333 -0.80089 -0.34565 85 78 53
0.34072 -0.80817 -0.34602 76 69 48
0.35610 -0.81770 -0.35465 61 51 45
0.35361 -0.82905 -0.35348 34 23 30
0.37026 -0.82698 -0.36188 44 33 39
0.36775 -0.83842 -0.36070 31 26 24
0.37643 -0.83408 -0.36075 33 25 30
0.37391 -0.84555 -0.35957 30 27 19
1.74883 -1.41906 -1.50236 20 15 12
1.73761 -1.41856 -1.52067 20 15 14
1.74094 -1.42925 -1.51044 21 14 8
1.74426 -1.43994 -1.50021 18 16 15
2.18904 -2.17878 -1.06721 55 62 62
2.17695 -2.17824 -1.08694 65 73 84
2.19103 -2.18946 -1.05511 39 42 38
2.19186 -2.19950 -1.04222 21 15 22
2.18890 -2.20750 -1.02679 9 5 8
2.20095 -2.20804 -1.00712 3 4 4
2.19246 -2.21898 -1.01580 5 4 5
2.34658 -2.65794 -0.62117 26 19 31
2.32552 -2.66285 -0.58419 13 8 21
2.31331 -2.66412 -0.56498 38 47 17
2.29230 -2.65959 -0.54131 70 69 18
2.29428 -2.66991 -0.52967 77 51 24
2.29219 -2.67757 -0.51596 69 24 40
2.27863 -2.67766 -0.49646 65 23 49
2.27570 -2.68468 -0.48245 41 16 54
2.26514 -2.68660 -0.46465 25 23 97
2.26035 -2.70845 -0.46241 70 35 74
2.26258 -2.69378 -0.45094 29 34 116
2.25780 -2.71559 -0.44870 63 32 86
2.26540 -2.70452 -0.43994 29 34 130
2.22816 -2.68841 -0.40927 71 75 153
2.27496 -2.73744 -0.40748 55 40 121
2.27018 -2.75924 -0.40524 40 35 97
2.28283 -2.75159 -0.39891 31 37 115
2.28619 -2.76269 -0.38816 36 53 118
2.28141 -2.78452 -0.38592 51 37 83
2.29699 -2.77886 -0.38093 37 48 116
2.30445 -2.79279 -0.37208 29 24 95
2.30526 -2.80217 -0.36011 31 26 87
2.31248 -2.81595 -0.35112 58 38 91
0.08917 -0.26144 -0.76956 70 59 68
0.08684 -0.27209 -0.76846 89 81 80
0.09130 -0.26686 -0.76501 81 71 76
0.09260 -0.28351 -0.74349 89 75 73
0.09027 -0.29414 -0.74240 76 53 47
0.09453 -0.28893 -0.73865 82 68 63
0.09779 -0.29427 -0.73585 78 58 55
0.10081 -0.29964 -0.73267 73 54 49
0.10601 -0.30489 -0.73280 96 66 57
0.13840 -0.30871 -0.77413 144 113 89
0.12739 -0.31494 -0.74951 195 171 128
0.13294 -0.32031 -0.74997 233 217 170
0.13167 -0.32599 -0.74015 251 245 210
0.12929 -0.33682 -0.73903 253 252 243
0.13514 -0.33147 -0.73746 254 253 233
0.13277 -0.34231 -0.73635 253 253 244
0.16108 -0.46921 -0.58138 254 254 251
0.16343 -0.45850 -0.58248 254 254 253
0.15938 -0.46372 -0.58663 254 254 253
0.15533 -0.46895 -0.59078 254 254 254
0.16068 -0.47455 -0.57330 241 236 224
0.15344 -0.47939 -0.55606 170 136 143
0.15561 -0.48487 -0.55150 174 118 107
0.17116 -0.49141 -0.56472 236 236 213
0.16880 -0.50214 -0.56362 254 254 254
0.18293 -0.49774 -0.57279 254 254 254
0.18056 -0.50856 -0.57168 254 254 254
0.25239 -0.72966 -0.34716 254 245 231
0.26462 -0.73772 -0.35347 172 154 166
0.26634 -0.74329 -0.34814 162 161 145
0.29226 -0.76006 -0.36195 136 104 115
0.28984 -0.77109 -0.36081 85 67 67
0.29725 -0.76653 -0.36005 90 63 75
0.29483 -0.77759 -0.35891 89 77 69
0.30833 -0.77983 -0.35734 85 74 68
0.30413 -0.78526 -0.36164 89 79 66
0.32651 -0.80040 -0.35465 83 74 51
0.33313 -0.80747 -0.35427 69 62 40
0.34539 -0.81614 -0.35976 55 43 37
0.34291 -0.82746 -0.35859 33 24 28
1.64005 -1.44828 -1.33827 41 46 46
1.65081 -1.44876 -1.32070 49 50 54
1.63202 -1.45431 -1.31822 46 51 51
1.64275 -1.45479 -1.30072 52 51 62
1.63520 -1.46453 -1.30845 50 51 58
2.17992 -2.18943 -1.07550 63 74 78
2.16783 -2.18889 -1.09523 67 71 87
2.17141 -2.20041 -1.08421 65 73 87
2.17499 -2.21192 -1.07319 66 72 82
2.18239 -2.20036 -1.06372 55 67 67
2.18256 -2.21004 -1.05037 40 36 50
2.17436 -2.21517 -1.03134 23 18 22
2.16907 -2.22182 -1.01437 11 7 9
2.18107 -2.22236 -0.99479 4 4 3
2.17262 -2.23325 -1.00343 5 5 4
2.10564 -2.41444 -0.65236 30 32 31
2.11032 -2.39310 -0.65455 22 25 19
2.10225 -2.40351 -0.66282 24 30 23
2.11372 -2.40403 -0.64410 33 35 34
2.11711 -2.41496 -0.63364 42 37 42
2.10904 -2.42537 -0.64190 42 45 44
2.30788 -2.67694 -0.57518 9 21 32
2.27978 -2.66767 -0.54770 54 79 27
2.27220 -2.67170 -0.53111 79 91 18
2.27736 -2.68407 -0.52117 82 57 25
2.26599 -2.68552 -0.50275 100 65 23
2.26104 -2.69115 -0.48770 85 43 24
2.25506 -2.69606 -0.47220 71 33 58
2.25027 -2.71789 -0.46995 99 61 28
2.25966 -2.72567 -0.43722 68 38 95
2.25141 -2.73631 -0.44566 100 49 43
2.25488 -2.74747 -0.43498 94 45 55
2.26527 -2.73829 -0.42759 67 36 106
2.28234 -2.77635 -0.39873 39 37 94
2.27059 -2.77583 -0.41790 68 36 58
2.29478 -2.80253 -0.37991 69 39 63
2.30246 -2.81664 -0.37115 78 48 53
2.31492 -2.83409 -0.36460 88 63 54
2.31010 -2.85606 -0.36234 92 111 18
2.31642 -2.84395 -0.35291 101 77 41
2.31991 -2.85519 -0.34215 105 89 43
0.08707 -0.27766 -0.76095 88 77 70
0.08473 -0.28830 -0.75985 78 53 56
0.08575 -0.28334 -0.75104 82 70 70
0.08711 -0.28880 -0.74532 80 63 59
0.09310 -0.29950 -0.73896 95 61 61
0.10569 -0.30432 -0.75049 131 102 83
0.11274 -0.30952 -0.75341 180 155 123
0.12321 -0.31459 -0.76150 225 209 171
0.11817 -0.32045 -0.74591 247 241 203
0.11580 -0.33124 -0.74480 253 251 240
0.12090 -0.32593 -0.74216 253 250 224
0.11853 -0.33672 -0.74105 253 251 241
0.12433 -0.33139 -0.73946 253 252 237
0.12196 -0.34220 -0.73835 253 252 242
0.15343 -0.47419 -0.58063 254 253 251
0.14769 -0.47393 -0.59000 254 254 254
0.15237 -0.47947 -0.57166 239 230 227
0.14848 -0.48450 -0.55891 159 114 160
0.15084 -0.48999 -0.55461 180 136 141
0.17404 -0.49723 -0.57816 239 240 228
0.17167 -0.50802 -0.57705 254 254 254
0.24604 -0.73438 -0.34881 245 243 223
0.24024 -0.73412 -0.35826 235 230 226
0.24196 -0.73964 -0.35298 197 183 166
0.25837 -0.74250 -0.35531 174 162 144
0.27889 -0.75273 -0.37075 122 94 83
0.28268 -0.75887 -0.36761 96 69 83
0.28890 -0.76565 -0.36711 83 60 79
0.28648 -0.77669 -0.36597 90 78 67
0.30945 -0.79190 -0.36002 86 78 59
0.31735 -0.79928 -0.36112 78 70 52
0.32470 -0.80654 -0.36158 65 53 46
0.33778 -0.81545 -0.36807 48 33 39
0.33530 -0.82675 -0.36691 33 25 28
0.34038 -0.82146 -0.36337 37 24 34
0.33790 -0.83277 -0.36220 31 26 25
1.63113 -1.45754 -1.34479 23 24 34
1.61612 -1.46983 -1.30564 41 44 50
1.62680 -1.47031 -1.28821 53 50 59
1.61144 -1.47697 -1.28878 47 48 54
1.62209 -1.47745 -1.27140 54 49 58
1.61459 -1.48712 -1.27907 50 50 57
2.17201 -2.21988 -1.05765 60 70 76
2.15995 -2.21934 -1.07733 71 76 88
2.16352 -2.23083 -1.06634 70 74 86
2.17470 -2.23089 -1.04604 49 62 60
2.15122 -2.22755 -1.01659 31 26 21
2.14650 -2.23440 -1.00008 14 7 7
2.15843 -2.23494 -0.98061 3 5 4
2.15003 -2.24577 -0.98920 5 4 4
2.11208 -2.42492 -0.68164 31 33 21
2.10867 -2.41393 -0.69216 41 40 32
2.10055 -2.42441 -0.70047 47 42 40
2.11604 -2.43625 -0.67145 22 21 24
2.10975 -2.44123 -0.65528 39 47 42
2.10218 -2.44536 -0.63845 52 56 51
2.11364 -2.44588 -0.61974 50 49 50
2.10557 -2.45628 -0.62800 57 55 55
2.09750 -2.46669 -0.63626 61 58 57
2.29832 -2.67800 -0.59604 26 11 31
2.29776 -2.68672 -0.58293 9 8 41
2.28386 -2.68665 -0.56282 27 45 37
2.26374 -2.68237 -0.53958 63 96 27
2.25574 -2.68602 -0.52280 83 96 26
2.24939 -2.69070 -0.50697 100 106 11
2.24459 -2.71260 -0.50472 83 116 13
2.24574 -2.69714 -0.49258 101 90 15
2.24095 -2.71900 -0.49034 83 100 11
2.24251 -2.70383 -0.47847 97 69 26
2.23773 -2.72564 -0.47623 85 94 8
2.25933 -2.75931 -0.42478 89 48 57
2.27381 -2.78684 -0.40706 62 35 65
2.28133 -2.80083 -0.39830 77 56 50
2.27653 -2.82271 -0.39605 86 106 23
2.29290 -2.81764 -0.39143 96 75 35
2.30041 -2.83168 -0.38259 101 90 36
2.31826 -2.85296 -0.37858 97 106 29
2.32653 -2.87642 -0.35756 82 109 25
2.33838 -2.87695 -0.33821 98 92 31
2.33003 -2.88771 -0.34675 70 93 22
2.32169 -2.89847 -0.35529 35 45 32
0.08019 -0.27750 -0.76846 84 73 70
0.07617 -0.28269 -0.77257 80 57 59
0.08380 -0.29393 -0.75054 89 58 63
0.08855 -0.29918 -0.75009 121 88 67
0.10235 -0.30391 -0.76365 172 141 107
0.11089 -0.30904 -0.76894 217 197 160
0.10925 -0.31474 -0.75849 244 234 199
0.10689 -0.32551 -0.75738 252 251 236
0.10850 -0.32037 -0.74944 252 249 224
0.10615 -0.33112 -0.74833 252 250 240
0.11213 -0.32580 -0.74710 253 252 237
0.10977 -0.33656 -0.74599 252 250 242
0.14553 -0.47913 -0.57950 254 253 251
0.13980 -0.47887 -0.58884 254 254 254
0.13952 -0.48400 -0.56380 237 226 228
0.14443 -0.48968 -0.56297 148 110 172
0.13993 -0.49460 -0.54941 188 161 168
0.16615 -0.50216 -0.57723 242 246 240
0.16380 -0.51292 -0.57612 254 254 254
0.26983 -0.75168 -0.37688 128 103 70
0.26393 -0.75141 -0.38650 117 86 99
0.27277 -0.75760 -0.37283 73 47 37
0.27966 -0.76454 -0.37314 69 56 56
0.27725 -0.77556 -0.37201 86 76 62
0.28708 -0.77165 -0.37399 85 75 69
0.30474 -0.79198 -0.37118 84 76 57
0.30297 -0.78627 -0.37664 88 78 64
0.31085 -0.79888 -0.37041 73 67 46
0.32469 -0.81321 -0.37047 43 29 39
0.32223 -0.82447 -0.36932 29 22 25
0.33302 -0.82082 -0.37193 36 23 33
0.33054 -0.83213 -0.37076 29 22 23
1.62107 -1.47538 -1.33750 13 13 28
1.61033 -1.47490 -1.35503 16 11 15
1.61351 -1.48513 -1.34524 15 12 14
1.60695 -1.47889 -1.31182 22 23 35
1.59778 -1.48423 -1.29083 33 38 42
1.59023 -1.49013 -1.27141 42 47 52
1.60082 -1.49061 -1.25413 52 51 58
1.59337 -1.50022 -1.26176 50 52 61
2.16195 -2.23950 -1.05179 66 74 84
2.14991 -2.23896 -1.07145 74 75 90
2.16117 -2.24857 -1.03783 50 59 61
2.12966 -2.24055 -1.00292 23 19 16
2.12319 -2.24631 -0.98529 8 5 3
2.13506 -2.24684 -0.96592 3 5 4
2.12670 -2.25762 -0.97447 5 5 3
2.11835 -2.26840 -0.98302 8 7 5
2.12950 -2.46013 -0.69248 22 24 32
2.11595 -2.46059 -0.67194 36 46 39
2.10588 -2.46314 -0.65356 55 59 54
2.10118 -2.48455 -0.65136 66 65 60
2.28469 -2.68547 -0.60190 48 31 32
2.28382 -2.69397 -0.58862 24 10 44
2.28016 -2.70058 -0.57389 8 12 44
2.26511 -2.69958 -0.55322 30 57 42
2.24069 -2.69222 -0.52778 66 101 31
2.24110 -2.70139 -0.51544 83 114 10
2.24502 -2.75701 -0.44262 107 93 21
2.24156 -2.74585 -0.45330 104 94 13
2.24963 -2.76895 -0.43251 104 90 31
2.25339 -2.78031 -0.42197 89 71 28
2.26373 -2.79624 -0.41464 83 75 35
2.27263 -2.81121 -0.40656 86 97 32
2.29646 -2.84544 -0.39317 82 110 31
2.31533 -2.86753 -0.38967 77 104 32
2.31049 -2.88960 -0.38740 23 33 30
2.31862 -2.87867 -0.37875 63 91 27
2.31378 -2.90075 -0.37648 12 20 33
0.06429 -0.27252 -0.76938 85 73 61
0.05862 -0.27227 -0.77865 83 67 62
0.06881 -0.27770 -0.76874 82 67 59
0.07406 -0.28841 -0.76135 88 56 57
0.07388 -0.29396 -0.75321 114 76 70
0.09297 -0.29827 -0.77536 158 125 109
0.11547 -0.30254 -0.80264 204 180 141
0.10290 -0.30890 -0.77500 238 224 177
0.10053 -0.31968 -0.77389 253 251 232
0.10122 -0.31460 -0.76445 251 245 214
0.09886 -0.32535 -0.76335 252 251 236
0.10417 -0.32004 -0.76109 253 251 232
0.10181 -0.33081 -0.75999 252 250 238
0.13602 -0.48391 -0.57609 254 252 250
0.13031 -0.48366 -0.58540 254 254 254
0.13472 -0.48911 -0.56681 233 220 221
0.13976 -0.49481 -0.56620 132 101 162
0.13819 -0.49996 -0.55657 195 179 179
0.15547 -0.50681 -0.57246 247 250 244
0.15312 -0.51751 -0.57136 254 254 254
0.22658 -0.72178 -0.37317 254 254 252
0.22893 -0.71103 -0.37428 254 254 254
0.22487 -0.71628 -0.37844 254 254 254
0.23064 -0.71654 -0.36901 254 254 254
0.23235 -0.72204 -0.36375 254 254 254
0.23062 -0.72784 -0.37058 247 248 240
0.23641 -0.72810 -0.36114 250 253 248
0.23637 -0.73433 -0.36990 222 214 207
0.23928 -0.74015 -0.36595 168 147 151
0.26879 -0.76300 -0.37728 60 49 47
0.26638 -0.77398 -0.37615 67 62 56
0.27511 -0.76981 -0.37698 70 63 58
0.28683 -0.78329 -0.37525 87 76 61
0.29259 -0.79004 -0.37420 80 71 54
0.30359 -0.79826 -0.37885 68 59 45
0.31523 -0.80672 -0.38409 48 39 38
0.31276 -0.81797 -0.38294 29 23 25
0.32004 -0.81333 -0.38186 36 27 34
0.31757 -0.82460 -0.38070 28 23 21
1.59744 -1.49671 -1.30504 16 14 30
1.58132 -1.49916 -1.27770 23 26 38
1.57719 -1.50632 -1.26145 33 42 45
1.58775 -1.50679 -1.24422 54 52 59
1.58094 -1.51663 -1.25239 44 50 54
1.59150 -1.51710 -1.23516 55 52 56
1.58407 -1.52669 -1.24277 51 52 63
2.14733 -2.24703 -1.05620 72 78 88
2.13530 -2.24649 -1.07582 75 78 96
2.13886 -2.25794 -1.06486 75 81 95
2.15005 -2.25802 -1.04466 60 63 73
2.11152 -2.24589 -1.00479 36 24 23
2.10152 -2.24959 -0.98474 16 10 6
2.28068 -2.46654 -0.94265 26 30 34
2.27704 -2.45482 -0.95386 20 21 22
2.26838 -2.46599 -0.96273 23 21 20
2.28934 -2.45537 -0.93378 25 32 31
2.29298 -2.46709 -0.92257 33 38 37
2.28432 -2.47826 -0.93143 34 37 40
2.14912 -2.47907 -0.73010 42 43 35
2.13741 -2.47855 -0.74922 47 45 45
2.14087 -2.48972 -0.73854 46 48 47
2.13312 -2.47805 -0.70785 35 34 33
2.12262 -2.48038 -0.68900 33 37 31
2.10317 -2.47700 -0.66501 59 65 56
2.09847 -2.49844 -0.66281 71 71 66
2.26632 -2.68976 -0.60514 63 58 44
2.25438 -2.68922 -0.62463 67 65 65
2.26609 -2.69863 -0.59223 46 29 41
2.26095 -2.70421 -0.57672 24 12 38
2.25772 -2.71101 -0.56229 10 15 37
2.25213 -2.71620 -0.54666 34 56 29
2.23701 -2.71490 -0.52611 52 83 17
2.22814 -2.71775 -0.50895 57 91 16
2.22404 -2.72378 -0.49434 62 90 7
2.22301 -2.73186 -0.48136 60 90 4
2.23471 -2.73239 -0.46226 93 96 11
2.22592 -2.74263 -0.47041 60 94 6
2.23068 -2.75467 -0.46040 68 96 9
2.23623 -2.76726 -0.45078 73 97 16
2.23975 -2.77846 -0.44013 77 101 34
2.24846 -2.79326 -0.43205 72 85 32
2.25447 -2.80621 -0.42261 64 85 26
2.26562 -2.82277 -0.41565 59 88 33
2.27817 -2.84036 -0.40931 52 79 26
2.28578 -2.85450 -0.40054 42 63 22
2.29774 -2.87175 -0.39382 35 47 30
2.29291 -2.89377 -0.39155 4 5 12
0.05663 -0.26689 -0.78333 82 73 71
0.06316 -0.28299 -0.77020 83 64 65
0.06822 -0.28816 -0.77041 107 74 74
0.10911 -0.29661 -0.81948 195 169 129
0.10449 -0.30258 -0.80411 233 217 177
0.10211 -0.31344 -0.80299 253 250 233
0.09179 -0.30894 -0.77610 250 242 208
0.08943 -0.31968 -0.77499 253 250 234
0.12946 -0.48889 -0.57669 254 251 248
0.12377 -0.48863 -0.58598 254 254 254
0.12478 -0.49378 -0.56275 228 211 210
0.12247 -0.50432 -0.56167 103 70 136
0.12704 -0.49922 -0.55839 106 80 146
0.12889 -0.50464 -0.55345 194 187 192
0.14996 -0.51189 -0.57463 249 252 247
0.14762 -0.52259 -0.57353 254 254 254
0.21807 -0.72087 -0.37943 251 254 250
0.22042 -0.71015 -0.38054 254 254 254
0.21636 -0.71538 -0.38469 254 254 254
0.22078 -0.72660 -0.37534 241 236 227
0.23047 -0.73405 -0.37925 204 191 181
0.21954 -0.73645 -0.35951 150 118 122
0.21720 -0.74714 -0.35841 85 65 58
0.24219 -0.74718 -0.37809 93 65 72
0.25093 -0.75452 -0.38072 79 58 62
0.24854 -0.76542 -0.37960 88 77 57
0.26552 -0.76859 -0.38253 69 64 57
0.26137 -0.77395 -0.38678 77 68 52
0.28375 -0.78899 -0.38075 76 68 49
0.29581 -0.79750 -0.38668 64 51 42
0.29336 -0.80866 -0.38553 39 28 28
0.31158 -0.81238 -0.38910 35 24 29
0.30911 -0.82363 -0.38795 27 23 17
1.57509 -1.50926 -1.28644 12 12 16
1.56450 -1.50879 -1.30372 18 13 11
1.56764 -1.51887 -1.29407 16 12 10
1.57077 -1.52896 -1.28442 15 12 14
1.56087 -1.51228 -1.26091 17 16 26
1.56546 -1.52291 -1.25267 28 25 42
1.57504 -1.53561 -1.24893 41 41 51
1.58559 -1.53609 -1.23171 53 52 64
1.58506 -1.54854 -1.24553 50 50 55
1.59563 -1.54901 -1.22826 54 53 57
1.58819 -1.55861 -1.23588 54 52 55
2.13639 -2.26601 -1.04971 68 77 80
2.12439 -2.26547 -1.06929 78 82 96
2.09452 -2.25178 -1.00737 52 40 30
2.07980 -2.26195 -0.97094 18 15 13
2.09156 -2.26247 -0.95174 6 5 4
2.06949 -2.26525 -0.95085 12 8 6
2.08120 -2.26577 -0.93174 5 4 6
2.07296 -2.27641 -0.94017 8 5 6
2.26530 -2.47367 -0.94721 25 24 28
2.24939 -2.47357 -0.92358 38 38 41
2.26160 -2.47412 -0.90365 40 38 39
2.25300 -2.48521 -0.91245 41 38 40
2.15150 -2.50540 -0.73214 41 45 47
2.13976 -2.50487 -0.75130 51 50 39
2.15550 -2.51692 -0.72174 26 27 38
2.11546 -2.50043 -0.68535 60 67 67
2.22455 -2.68725 -0.58287 71 62 36
2.24741 -2.71153 -0.58251 50 32 35
2.24185 -2.71673 -0.56683 28 15 26
2.23818 -2.72315 -0.55222 21 18 33
2.23754 -2.73160 -0.53925 24 32 32
2.23272 -2.75358 -0.53699 23 13 25
2.23119 -2.73613 -0.52333 29 40 27
2.22715 -2.74220 -0.50868 30 46 12
2.22236 -2.76407 -0.50643 11 11 12
2.22162 -2.74720 -0.49332 30 44 7
2.21684 -2.76901 -0.49108 11 10 12
2.21239 -2.74959 -0.47612 30 46 9
2.20762 -2.77132 -0.47389 10 9 9
2.20449 -2.75285 -0.45970 33 45 9
2.20018 -2.75854 -0.44517 36 47 17
2.21039 -2.77434 -0.43797 37 49 31
2.20331 -2.77805 -0.42213 34 41 31
2.20349 -2.78681 -0.40994 30 39 23
2.23126 -2.81504 -0.41132 23 35 21
2.22649 -2.83676 -0.40908 6 4 9
2.24680 -2.83472 -0.40657 16 24 19
2.24203 -2.85652 -0.40433 7 6 7
2.25803 -2.85140 -0.39964 8 10 10
2.25324 -2.87325 -0.39740 6 9 10
2.25117 -2.85521 -0.38398 4 5 10
2.24640 -2.87699 -0.38174 8 10 16
0.04572 -0.26711 -0.78402 86 70 75
0.04007 -0.26685 -0.79325 85 72 65
0.08226 -0.28646 -0.81151 141 119 110
0.09319 -0.29700 -0.81297 224 205 161
0.07996 -0.30344 -0.78385 246 237 195
0.07761 -0.31414 -0.78275 252 250 236
0.08481 -0.30875 -0.78360 253 249 223
0.08246 -0.31947 -0.78250 252 249 236
0.12057 -0.49364 -0.57402 253 249 246
0.11490 -0.49339 -0.58327 254 254 254
0.12284 -0.49910 -0.56966 224 200 200
0.12620 -0.50991 -0.55932 198 197 206
0.14422 -0.51694 -0.57645 251 254 252
0.14188 -0.52763 -0.57536 254 254 254
0.20408 -0.71360 -0.38644 254 254 252
0.20642 -0.70292 -0.38754 254 254 254
0.20238 -0.70813 -0.39167 254 254 254
0.20812 -0.70839 -0.38231 254 254 254
0.20800 -0.71959 -0.38380 248 249 241
0.21049 -0.72526 -0.37948 227 219 213
0.20422 -0.72879 -0.36501 183 160 157
0.22152 -0.73810 -0.37780 129 94 105
0.23698 -0.74707 -0.38833 89 62 66
0.23460 -0.75793 -0.38722 92 80 64
0.24753 -0.76002 -0.38577 91 74 62
0.24340 -0.76535 -0.38999 90 80 60
0.26957 -0.78131 -0.38865 67 55 51
0.26539 -0.78670 -0.39292 57 47 44
0.26715 -0.79235 -0.38751 46 34 43
0.27712 -0.78854 -0.38972 62 56 47
1.55223 -1.53005 -1.25492 15 11 22
1.54173 -1.52958 -1.27206 17 10 11
1.54484 -1.53959 -1.26248 15 10 10
1.54795 -1.54960 -1.25291 15 10 14
1.55838 -1.54133 -1.24811 20 13 30
1.56865 -1.55436 -1.24502 29 24 37
1.58659 -1.57070 -1.24878 38 41 43
1.59719 -1.57117 -1.23148 57 53 56
1.60199 -1.58604 -1.25014 47 51 49
1.61264 -1.58652 -1.23276 56 53 61
1.61683 -1.60121 -1.25087 52 54 57
1.62752 -1.60169 -1.23343 55 54 65
1.61999 -1.61140 -1.24113 55 55 62
2.12877 -2.27737 -1.05893 76 83 94
2.11677 -2.27684 -1.07852 82 85 99
2.11915 -2.28131 -1.03882 67 78 72
2.06518 -2.26897 -0.97505 32 23 31
2.05971 -2.27499 -0.95824 24 17 18
2.04470 -2.27542 -0.93501 17 11 9
2.05634 -2.27594 -0.91601 5 5 5
2.04309 -2.28355 -0.92098 12 8 7
2.05471 -2.28408 -0.90201 6 7 5
2.04496 -2.29371 -0.90933 10 9 7
2.05657 -2.29423 -0.89037 9 10 6
2.04869 -2.30495 -0.89893 14 13 10
2.06030 -2.30547 -0.87997 13 13 9
2.20907 -2.44663 -0.93877 38 35 36
2.22174 -2.46367 -0.93356 45 44 46
2.21071 -2.46636 -0.91312 57 61 50
2.20586 -2.47274 -0.89672 56 52 43
2.21794 -2.47328 -0.87701 37 37 38
2.20419 -2.48103 -0.88239 48 41 42
2.21624 -2.48157 -0.86271 37 39 37
2.20776 -2.49251 -0.87140 44 44 39
2.19927 -2.50346 -0.88008 48 46 42
2.16781 -2.53168 -0.75539 45 45 40
2.16299 -2.55369 -0.75313 37 37 41
2.16023 -2.53587 -0.73797 28 26 34
2.14078 -2.53241 -0.71360 49 59 61
2.13161 -2.53544 -0.69546 69 71 67
2.14327 -2.53596 -0.67642 76 76 71
2.13506 -2.54655 -0.68482 80 76 78
2.12685 -2.55715 -0.69323 76 74 76
2.17505 -2.67018 -0.56891 84 76 50
2.16337 -2.66966 -0.58796 78 80 65
2.16683 -2.68078 -0.57732 79 78 64
2.19368 -2.69159 -0.56649 71 64 49
2.22696 -2.72303 -0.57184 53 41 39
2.22613 -2.73135 -0.55875 42 29 40
2.22527 -2.73962 -0.54566 32 17 33
2.21875 -2.75278 -0.51708 14 13 13
2.18566 -2.76464 -0.45030 10 10 17
2.19486 -2.77974 -0.44265 9 10 20
2.21189 -2.80040 -0.43888 7 7 14
2.22493 -2.81830 -0.43303 6 5 12
2.22016 -2.84005 -0.43079 9 5 10
0.07993 -0.29159 -0.81850 223 208 182
0.06876 -0.29795 -0.79243 244 231 196
0.06642 -0.30862 -0.79133 252 249 235
0.06957 -0.30347 -0.78578 252 245 218
0.06724 -0.31413 -0.78469 251 249 237
0.07320 -0.30882 -0.78365 252 249 230
0.07086 -0.31950 -0.78255 251 250 237
0.11374 -0.49854 -0.57413 251 247 241
0.10808 -0.49829 -0.58337 254 254 253
0.11474 -0.50387 -0.56804 219 191 179
0.11208 -0.50885 -0.55690 123 78 109
0.11880 -0.51472 -0.55871 211 209 215
0.13665 -0.52179 -0.57576 253 254 254
0.13432 -0.53245 -0.57466 254 254 254
0.19376 -0.71226 -0.39036 252 254 250
0.19609 -0.70162 -0.39146 254 254 254
0.19206 -0.70682 -0.39558 254 254 254
0.19880 -0.71851 -0.38911 244 241 230
0.20372 -0.72475 -0.38767 212 200 188
0.20417 -0.72992 -0.38097 157 125 130
0.20183 -0.74060 -0.37987 85 66 64
0.22694 -0.74063 -0.40029 102 68 81
0.23141 -0.74688 -0.39816 86 60 70
0.22903 -0.75774 -0.39704 92 82 67
0.23640 -0.75327 -0.39660 90 74 65
0.23401 -0.76415 -0.39548 89 81 62
0.25082 -0.77245 -0.39112 85 78 52
0.24842 -0.78340 -0.39000 60 50 34
0.25956 -0.77995 -0.39370 73 67 43
0.25715 -0.79095 -0.39257 47 36 32
0.28304 -0.80196 -0.39793 41 28 37
0.27705 -0.80170 -0.40770 37 30 30
0.27882 -0.80740 -0.40224 34 28 31
0.28059 -0.81310 -0.39678 33 27 30
1.56182 -1.56419 -1.25315 16 11 20
1.55127 -1.56371 -1.27036 12 10 13
1.55439 -1.57376 -1.26074 13 9 13
1.55751 -1.58381 -1.25113 13 10 15
1.57589 -1.57893 -1.25348 20 15 27
1.58698 -1.59246 -1.25101 28 25 38
1.60814 -1.61041 -1.25753 38 39 50
1.62295 -1.62570 -1.25820 48 50 54
1.63368 -1.62618 -1.24069 57 55 62
1.62613 -1.63592 -1.24842 55 55 56
2.11879 -2.28740 -1.06650 76 87 101
2.08347 -2.28578 -1.01510 53 59 54
2.06377 -2.28361 -0.98825 46 52 58
2.03943 -2.27860 -0.95839 40 43 40
2.03467 -2.30031 -0.95616 49 55 61
2.02250 -2.27778 -0.93382 36 28 34
2.02268 -2.28691 -0.92104 29 19 31
2.02372 -2.29654 -0.90887 25 18 27
2.02927 -2.30882 -0.89975 27 23 27
2.08949 -2.38108 -0.88805 52 60 73
2.08470 -2.40293 -0.88581 92 95 97
2.11823 -2.40762 -0.89382 71 84 88
2.11340 -2.42964 -0.89156 87 92 95
2.13738 -2.42845 -0.89318 82 88 84
2.13253 -2.45057 -0.89091 84 91 91
2.16096 -2.45208 -0.89527 81 84 72
2.17061 -2.46723 -0.88828 74 73 57
2.18382 -2.48462 -0.88351 60 53 43
2.19349 -2.55505 -0.79756 59 55 49
2.19837 -2.53280 -0.79985 51 49 43
2.18995 -2.54366 -0.80846 59 55 50
2.18153 -2.55452 -0.81708 64 62 61
2.18507 -2.56592 -0.80618 66 64 66
2.17907 -2.55495 -0.77577 53 52 49
2.17421 -2.57709 -0.77350 38 41 42
2.15673 -2.55866 -0.73650 51 54 54
2.14880 -2.56250 -0.71896 67 74 68
2.16628 -2.68917 -0.56449 77 77 62
2.15462 -2.68865 -0.58352 78 80 76
2.15807 -2.69976 -0.57289 78 82 73
2.17894 -2.70659 -0.55885 74 77 53
2.19574 -2.72690 -0.55538 68 62 47
2.21053 -2.74589 -0.55073 52 38 43
2.21346 -2.75673 -0.53969 39 30 30
2.21039 -2.76339 -0.52550 29 25 12
2.20515 -2.76851 -0.51022 22 17 17
2.19517 -2.77026 -0.49254 20 18 18
2.18544 -2.77212 -0.47509 23 18 14
2.17922 -2.77638 -0.45953 23 18 22
2.18667 -2.79028 -0.45101 22 17 23
2.20012 -2.80846 -0.44548 17 13 16
2.21266 -2.82603 -0.43942 13 7 15
0.05210 -0.29287 -0.79194 254 249 236
0.04978 -0.30347 -0.79085 253 251 236
0.05543 -0.29819 -0.78942 254 249 229
0.05310 -0.30880 -0.78833 252 248 236
0.06123 -0.30337 -0.79090 253 249 231
0.05890 -0.31401 -0.78980 251 247 236
0.10640 -0.50337 -0.57351 250 247 237
0.10075 -0.50312 -0.58272 254 254 253
0.10912 -0.50885 -0.56983 220 192 170
0.11582 -0.51996 -0.56418 223 218 216
0.13008 -0.52672 -0.57638 254 254 254
0.12775 -0.53735 -0.57528 254 254 254
0.18322 -0.71087 -0.39393 249 252 248
0.18554 -0.70027 -0.39502 254 254 254
0.18153 -0.70544 -0.39912 254 254 254
0.17921 -0.71605 -0.39803 217 209 206
0.18368 -0.71601 -0.38727 231 225 217
0.17200 -0.71819 -0.36622 191 169 162
0.19843 -0.72966 -0.39034 140 104 115
0.19609 -0.74034 -0.38924 90 74 69
0.22172 -0.74052 -0.41050 91 65 71
0.21934 -0.75136 -0.40938 93 80 65
0.23073 -0.75306 -0.40636 92 78 67
0.22661 -0.75837 -0.41058 92 81 67
0.24380 -0.77188 -0.39943 84 78 54
0.25190 -0.77921 -0.40135 75 67 42
0.24949 -0.79020 -0.40022 45 30 32
1.58625 -1.60504 -1.26479 14 12 23
1.57561 -1.60456 -1.28216 12 10 8
1.57876 -1.61470 -1.27245 10 10 9
1.59698 -1.61851 -1.26193 19 17 34
1.61404 -1.63484 -1.26471 30 29 43
1.62290 -1.64759 -1.26003 41 43 51
1.63365 -1.64807 -1.24249 55 55 60
1.63233 -1.66063 -1.25579 49 50 57
1.64310 -1.66111 -1.23822 56 56 60
1.63552 -1.67089 -1.24597 56 54 59
2.10931 -2.28831 -1.08788 76 83 87
2.11421 -2.26596 -1.09017 79 85 94
2.10576 -2.27686 -1.09882 79 89 95
2.06061 -2.27887 -1.02668 28 22 22
2.05580 -2.30084 -1.02442 28 26 27
2.04546 -2.27927 -1.00286 26 26 34
2.04068 -2.30112 -1.00062 27 26 31
2.03148 -2.28025 -0.98001 34 36 48
2.02205 -2.28381 -0.96044 39 45 51
1.99245 -2.28433 -0.91427 49 57 50
1.99206 -2.29303 -0.90121 47 47 40
1.98737 -2.31440 -0.89901 58 64 62
1.99993 -2.30665 -0.89377 44 38 45
2.01340 -2.32366 -0.89004 39 30 45
2.03565 -2.34603 -0.89211 43 36 48
2.04975 -2.36357 -0.88862 63 69 72
2.10998 -2.40928 -0.91550 86 95 94
2.10515 -2.43132 -0.91324 84 91 97
2.16645 -2.48076 -0.89967 76 82 78
2.14448 -2.47629 -0.87238 55 55 44
2.13859 -2.48173 -0.85553 39 39 34
2.15046 -2.48226 -0.83615 50 50 49
2.13104 -2.48609 -0.83770 44 49 49
2.14287 -2.48662 -0.81839 54 53 53
2.13454 -2.49736 -0.82692 54 53 52
2.18790 -2.57685 -0.79484 56 60 65
2.17594 -2.57631 -0.81435 69 66 64
2.16887 -2.58267 -0.75731 49 49 50
2.15596 -2.58325 -0.73667 67 78 79
2.17561 -2.60509 -0.73550 71 77 70
2.18748 -2.60562 -0.71614 79 76 80
2.17077 -2.62717 -0.73323 58 60 60
2.19525 -2.62701 -0.73421 75 76 73
2.20717 -2.62755 -0.71475 83 86 85
2.21411 -2.64851 -0.73234 76 76 79
2.22609 -2.64904 -0.71280 90 89 83
2.20923 -2.67079 -0.73005 55 40 43
2.22602 -2.66546 -0.72630 78 78 79
2.23802 -2.66600 -0.70671 86 85 79
2.22761 -2.67560 -0.71422 67 68 71
2.23961 -2.67614 -0.69464 85 85 74
2.21264 -2.67464 -0.69262 63 69 64
2.22457 -2.67518 -0.67314 86 82 71
2.15400 -2.65310 -0.63353 69 64 60
2.16570 -2.65362 -0.61443 80 80 73
2.14922 -2.67488 -0.63129 64 50 39
2.12784 -2.64421 -0.60615 75 71 70
2.13944 -2.64473 -0.58721 79 80 75
2.11360 -2.64326 -0.58566 73 74 79
2.11702 -2.65426 -0.57514 76 79 71
2.15917 -2.70925 -0.56098 82 85 68
2.14752 -2.70873 -0.58000 77 81 80
2.17050 -2.72580 -0.55463 80 79 63
2.18480 -2.74446 -0.54982 69 65 62
2.19680 -2.76158 -0.54370 63 63 49
2.20763 -2.77792 -0.53690 58 56 35
2.20171 -2.78253 -0.52121 50 41 40
2.19149 -2.78406 -0.50333 49 47 43
2.17746 -2.78283 -0.48358 48 41 32
2.17177 -2.78742 -0.46826 47 40 39
2.18241 -2.80361 -0.46138 41 31 41
2.17588 -2.80756 -0.44571 36 29 35
2.20763 -2.84757 -0.43706 23 20 27
2.21412 -2.86951 -0.41556 18 15 14
2.22579 -2.87003 -0.39650 9 13 19
2.21757 -2.88063 -0.40491 13 12 15
0.04329 -0.28730 -0.80404 252 254 250
0.09933 -0.50820 -0.57321 249 245 235
0.09370 -0.50795 -0.58240 254 254 251
0.09376 -0.51284 -0.55792 220 192 175
0.10600 -0.52447 -0.56013 234 224 213
0.12322 -0.53159 -0.57657 254 254 254
0.12090 -0.54221 -0.57548 254 254 254
0.16823 -0.70342 -0.39920 252 254 251
0.17055 -0.69288 -0.40029 254 254 254
0.16656 -0.69802 -0.40437 254 254 254
0.17222 -0.69828 -0.39512 254 254 254
0.16424 -0.70857 -0.40329 235 233 224
0.17319 -0.70960 -0.39800 245 243 238
0.17088 -0.72017 -0.39692 146 109 121
0.19898 -0.72588 -0.41451 166 139 139
0.19663 -0.73662 -0.41341 84 69 72
0.20576 -0.73263 -0.41529 110 76 90
0.21205 -0.73930 -0.41545 87 62 79
0.20968 -0.75011 -0.41434 93 82 73
0.23079 -0.76459 -0.40809 89 81 62
0.23591 -0.77108 -0.40669 82 75 56
1.59746 -1.63175 -1.27689 10 11 15
1.58676 -1.63127 -1.29435 12 11 5
1.58993 -1.64147 -1.28460 10 10 6
1.60533 -1.64405 -1.27139 17 18 26
1.61121 -1.65548 -1.26405 26 27 38
1.61858 -1.66761 -1.25802 37 36 49
1.62877 -1.68105 -1.25448 45 44 56
1.63954 -1.68154 -1.23690 55 57 63
1.63737 -1.69380 -1.24945 50 53 60
1.64816 -1.69429 -1.23184 55 58 63
1.64056 -1.70409 -1.23961 53 58 64
2.09421 -2.28598 -1.10524 64 75 79
2.08932 -2.30831 -1.10295 26 23 31
2.06827 -2.28037 -1.07317 40 36 46
2.06342 -2.30249 -1.07090 28 28 31
2.06081 -2.28531 -1.05450 31 19 30
2.05597 -2.30736 -1.05223 28 27 28
2.00606 -2.28975 -0.96339 26 24 35
1.99446 -2.28923 -0.98232 29 28 24
1.99790 -2.30028 -0.97175 24 25 26
2.00133 -2.31134 -0.96117 23 24 28
1.99395 -2.29155 -0.94205 28 27 43
1.98924 -2.31304 -0.93984 26 31 32
1.98454 -2.29489 -0.92269 35 40 39
1.98096 -2.30165 -0.90742 51 55 44
1.99337 -2.32692 -0.89030 54 61 59
2.00732 -2.34429 -0.88691 53 50 55
2.04202 -2.37442 -0.89731 64 65 71
2.08950 -2.41257 -0.91597 80 87 89
2.11542 -2.44679 -0.90688 81 89 90
2.12505 -2.46192 -0.90005 77 82 73
2.10662 -2.46858 -0.86195 31 28 36
2.09477 -2.47014 -0.84135 20 23 23
2.10406 -2.49401 -0.82141 51 54 47
2.11581 -2.49454 -0.80223 61 56 54
2.10754 -2.50521 -0.81070 62 60 51
2.09926 -2.51588 -0.81917 64 63 54
2.17587 -2.58537 -0.80124 62 60 58
2.16393 -2.58483 -0.82073 73 68 58
2.17861 -2.59622 -0.78986 51 46 34
2.17373 -2.61845 -0.78757 35 20 29
2.17795 -2.60486 -0.77643 49 38 38
2.17272 -2.61046 -0.76028 57 68 62
2.18120 -2.62507 -0.75240 52 59 51
2.20988 -2.66217 -0.74345 62 50 58
2.23125 -2.69460 -0.72991 49 40 45
2.19591 -2.67987 -0.69639 49 50 53
2.14280 -2.66172 -0.64028 65 46 46
2.09586 -2.64716 -0.58855 60 55 56
2.09116 -2.66857 -0.58634 61 46 46
2.10286 -2.66059 -0.58007 67 66 65
2.11001 -2.67415 -0.57165 68 77 82
2.14233 -2.71383 -0.56463 89 91 82
2.13414 -2.72438 -0.57300 94 100 97
2.13758 -2.73545 -0.56240 93 89 89
2.15242 -2.72954 -0.55766 86 84 78
2.17526 -2.76293 -0.54502 79 74 72
2.17049 -2.78470 -0.54278 91 90 81
2.18223 -2.77654 -0.53622 85 84 71
2.17745 -2.79834 -0.53398 86 87 75
2.18076 -2.78422 -0.52293 84 80 73
2.17599 -2.80598 -0.52069 84 86 82
2.17741 -2.79052 -0.50867 84 86 80
2.17264 -2.81224 -0.50644 86 86 79
2.18524 -2.80476 -0.50032 78 77 65
2.18457 -2.81294 -0.48752 74 74 59
2.19247 -2.82725 -0.47917 66 59 60
2.19454 -2.83739 -0.46781 64 61 57
2.21530 -2.86969 -0.45350 55 53 54
2.19284 -2.87058 -0.41746 43 39 28
2.19121 -2.87794 -0.40435 28 25 13
2.20282 -2.87846 -0.38540 12 13 19
2.19270 -2.88757 -0.39281 18 16 8
2.20431 -2.88809 -0.37387 17 13 19
2.19847 -2.90036 -0.38337 16 13 14
2.21008 -2.90088 -0.36441 16 14 18
2.22794 -2.93069 -0.38537 16 13 22
0.03845 -0.29252 -0.80675 251 250 249
0.03445 -0.29768 -0.81084 245 235 234
0.03613 -0.30310 -0.80566 245 237 217
0.09263 -0.51304 -0.57340 247 241 228
0.08701 -0.51278 -0.58257 254 254 251
0.08335 -0.51725 -0.55282 210 178 168
0.08161 -0.52219 -0.54298 194 150 140
0.10081 -0.52946 -0.56248 238 221 213
0.11039 -0.53574 -0.56838 254 254 254
0.10808 -0.54629 -0.56730 254 254 254
0.15812 -0.70213 -0.40301 250 252 247
0.16043 -0.69162 -0.40409 254 254 254
0.15645 -0.69675 -0.40816 254 254 253
0.15582 -0.71264 -0.40193 172 149 148
0.17319 -0.71572 -0.40694 199 181 177
0.19463 -0.73105 -0.41832 93 70 71
0.19228 -0.74179 -0.41722 95 83 75
0.20701 -0.74433 -0.41850 91 79 76
0.20292 -0.74961 -0.42268 92 83 74
0.22661 -0.76477 -0.41964 88 78 63
0.22487 -0.75918 -0.42498 91 81 67
0.23115 -0.77112 -0.41758 81 72 53
0.22875 -0.78205 -0.41646 53 38 37
0.24520 -0.78007 -0.42661 68 55 49
0.24278 -0.79110 -0.42547 42 35 32
1.60958 -1.66792 -1.27714 16 16 25
1.61068 -1.67721 -1.26546 25 27 36
1.61899 -1.68982 -1.26026 36 36 43
1.61460 -1.70984 -1.25820 36 40 38
1.62054 -1.69931 -1.24899 40 44 52
1.62790 -1.71151 -1.24289 46 51 58
1.63867 -1.71200 -1.22531 58 60 62
1.63108 -1.72178 -1.23307 54 57 62
1.98842 -2.19469 -1.10920 77 82 96
1.99320 -2.17291 -1.11144 71 79 90
1.98496 -2.18354 -1.11987 73 80 84
1.98365 -2.21648 -1.10696 88 96 118
2.06820 -2.27736 -1.11460 60 58 67
2.06333 -2.29958 -1.11231 29 23 27
2.05609 -2.27967 -1.09236 30 27 34
2.05124 -2.30179 -1.09009 30 28 31
1.96882 -2.30961 -0.91289 34 35 35
1.95736 -2.30910 -0.93160 30 32 33
1.96076 -2.32001 -0.92115 34 35 36
1.96415 -2.33093 -0.91070 37 37 35
1.97052 -2.31950 -0.90128 42 41 36
1.96585 -2.34081 -0.89909 38 39 33
1.98208 -2.33540 -0.89640 47 51 46
1.97739 -2.35677 -0.89420 31 36 27
1.99215 -2.35044 -0.89045 54 60 57
1.98745 -2.37185 -0.88825 36 38 37
2.03010 -2.38270 -0.90320 63 71 74
2.02536 -2.40434 -0.90098 46 49 55
2.07469 -2.41926 -0.92012 71 83 87
2.06988 -2.44118 -0.91786 56 64 64
2.08192 -2.43281 -0.91187 75 86 87
2.07712 -2.45476 -0.90962 70 78 67
2.09078 -2.45646 -0.89160 68 49 60
2.09894 -2.47064 -0.88389 57 38 44
2.09862 -2.47949 -0.87065 45 33 37
2.08410 -2.47928 -0.84826 34 25 30
2.08422 -2.48832 -0.83541 33 30 36
2.07866 -2.49370 -0.81897 47 51 45
2.15359 -2.58713 -0.80127 64 60 47
2.15371 -2.59624 -0.78834 49 43 28
2.14887 -2.61835 -0.78606 22 19 44
2.17483 -2.62821 -0.77521 42 37 49
2.18093 -2.64130 -0.76587 39 35 42
2.18836 -2.65527 -0.75731 53 56 71
2.19492 -2.66869 -0.74821 69 73 75
2.20259 -2.68287 -0.73974 84 88 72
2.19989 -2.69007 -0.72514 95 89 81
2.19501 -2.71232 -0.72286 106 106 101
2.18868 -2.69146 -0.70564 104 108 91
2.18382 -2.71362 -0.70336 114 110 105
2.10586 -2.66140 -0.61963 79 73 66
2.08936 -2.65871 -0.59775 65 67 51
2.09463 -2.67958 -0.57588 49 55 69
2.10665 -2.69654 -0.57019 67 76 80
2.14446 -2.74895 -0.55369 93 90 87
2.13283 -2.74843 -0.57267 91 86 91
2.13628 -2.75951 -0.56207 96 93 96
2.13972 -2.77060 -0.55146 92 91 86
2.16392 -2.81459 -0.48942 91 89 79
2.15229 -2.81407 -0.50840 85 87 82
2.15573 -2.82515 -0.49780 95 95 92
2.20982 -2.88237 -0.46336 89 84 77
2.20503 -2.90421 -0.46112 104 106 98
2.21132 -2.89211 -0.45166 99 98 80
2.22020 -2.90726 -0.44368 83 85 73
2.21121 -2.90927 -0.42676 68 71 47
2.18443 -2.89804 -0.40112 57 51 31
2.19502 -2.91441 -0.39405 53 43 35
2.21136 -2.93510 -0.38974 53 41 44
2.22317 -2.95247 -0.38314 60 59 52
2.26293 -2.99084 -0.38990 61 67 66
0.08464 -0.51771 -0.57169 246 240 224
0.07903 -0.51746 -0.58083 254 254 252
0.07445 -0.52176 -0.54978 204 172 159
0.08191 -0.52771 -0.55294 186 125 141
0.09361 -0.53419 -0.56199 236 225 221
0.09131 -0.54465 -0.56091 254 254 254
0.10152 -0.54030 -0.56563 254 254 254
0.09922 -0.55081 -0.56455 254 254 254
0.14196 -0.69446 -0.40640 253 254 251
0.14425 -0.68401 -0.40747 254 254 254
0.14030 -0.68911 -0.41151 254 254 254
0.14591 -0.68936 -0.40235 254 254 254
0.14749 -0.70071 -0.40606 247 245 238
0.15274 -0.70693 -0.40535 222 213 206
0.17900 -0.72329 -0.42304 120 86 101
0.17496 -0.72850 -0.42718 89 68 73
0.18581 -0.73003 -0.42403 90 65 72
0.18346 -0.74075 -0.42293 96 84 74
0.21620 -0.76330 -0.42381 83 76 58
0.22599 -0.77105 -0.42803 76 65 47
0.23399 -0.77836 -0.43005 64 48 39
0.23158 -0.78935 -0.42892 43 32 28
1.60494 -1.68781 -1.27485 20 20 28
1.60816 -1.69807 -1.26509 31 34 34
1.60377 -1.71808 -1.26303 36 38 39
1.61167 -1.71721 -1.24293 40 43 38
1.60411 -1.72696 -1.25067 37 40 38
1.62133 -1.73053 -1.23890 46 51 59
1.63209 -1.73101 -1.22133 59 59 69
1.63119 -1.74398 -1.23498 54 55 66
1.64198 -1.74446 -1.21737 61 59 75
1.63438 -1.75426 -1.22515 59 61 72
1.62679 -1.76405 -1.23292 56 59 70
1.96394 -2.18691 -1.11866 80 81 94
1.96869 -2.16522 -1.12089 74 78 88
1.96049 -2.17581 -1.12929 78 80 91
1.98663 -2.20900 -1.12248 87 89 109
2.03260 -2.25384 -1.13005 75 93 96
2.05617 -2.27678 -1.13403 57 50 55
2.05130 -2.29900 -1.13175 31 25 35
2.04596 -2.28015 -1.11305 40 24 46
2.04111 -2.30229 -1.11078 31 28 33
2.09282 -2.48277 -0.89385 75 84 77
2.08100 -2.48224 -0.91315 58 52 69
2.06853 -2.47631 -0.86492 70 71 66
2.06374 -2.49812 -0.86267 92 93 81
2.06515 -2.48309 -0.84978 58 44 50
2.05606 -2.48617 -0.83101 42 32 31
2.05855 -2.49665 -0.81977 38 40 32
2.06331 -2.50860 -0.80999 50 56 57
2.07497 -2.50913 -0.79096 67 66 63
2.08124 -2.52914 -0.80853 66 67 71
2.09295 -2.52967 -0.78943 72 70 62
2.08471 -2.54030 -0.79786 76 75 71
2.10836 -2.56471 -0.79983 76 73 56
2.12323 -2.58344 -0.79617 63 68 46
2.11841 -2.60543 -0.79391 38 24 39
2.12767 -2.59532 -0.78597 45 50 37
2.14641 -2.62569 -0.77158 52 50 59
2.14531 -2.63390 -0.75797 77 81 70
2.14048 -2.65595 -0.75570 86 86 85
2.14293 -2.64123 -0.74362 85 90 81
2.15735 -2.65988 -0.73938 93 94 86
2.17525 -2.68094 -0.73712 97 94 95
2.17039 -2.70311 -0.73484 106 110 112
2.17921 -2.69258 -0.72651 101 100 102
2.17434 -2.71476 -0.72423 110 108 105
2.15066 -2.69971 -0.67123 114 109 96
2.13888 -2.69918 -0.69046 111 107 108
2.14237 -2.71040 -0.67972 110 109 103
2.14586 -2.72163 -0.66898 114 111 104
2.08991 -2.67517 -0.61100 97 93 78
2.08034 -2.67713 -0.59309 84 79 63
2.07975 -2.68529 -0.58035 57 58 65
2.08918 -2.70047 -0.57326 57 58 60
2.10445 -2.71978 -0.56938 83 87 95
2.18056 -2.86901 -0.47347 95 95 86
2.17579 -2.89074 -0.47124 101 99 98
2.18763 -2.88279 -0.46468 98 101 90
2.18286 -2.90455 -0.46244 104 101 101
2.20974 -2.91632 -0.45104 105 107 105
2.20148 -2.92698 -0.45950 104 102 105
2.20495 -2.93817 -0.44880 108 107 100
2.21851 -2.93143 -0.44299 109 106 90
2.21371 -2.95332 -0.44074 107 105 97
2.22535 -2.94514 -0.43394 105 96 81
2.22841 -2.95604 -0.42300 101 93 81
2.22952 -2.96548 -0.41110 101 92 86
2.22472 -2.98737 -0.40885 106 105 102
2.23030 -2.97466 -0.39906 105 104 88
2.22550 -2.99653 -0.39681 108 109 103
2.24092 -2.99124 -0.39180 105 102 91
2.23611 -3.01316 -0.38954 112 115 98
0.07409 -0.52208 -0.56628 247 243 227
0.06852 -0.52183 -0.57537 254 254 253
0.07003 -0.52675 -0.55305 211 186 154
0.07630 -0.53258 -0.55457 190 122 118
0.08791 -0.53908 -0.56357 237 240 234
0.08562 -0.54953 -0.56250 254 254 254
0.13105 -0.69298 -0.40891 251 253 249
0.13333 -0.68258 -0.40998 254 254 254
0.12940 -0.68765 -0.41401 254 254 254
0.13630 -0.69915 -0.40830 238 236 223
0.15498 -0.70855 -0.42436 205 187 177
0.14561 -0.71129 -0.40551 153 112 126
0.16627 -0.72132 -0.42378 100 70 79
0.16394 -0.73194 -0.42269 98 83 73
0.18194 -0.73531 -0.42840 96 81 71
0.17789 -0.74054 -0.43255 98 84 67
0.17959 -0.74603 -0.42730 93 83 68
0.19791 -0.75464 -0.42575 89 81 68
0.20526 -0.76167 -0.42724 81 74 59
0.21062 -0.76821 -0.42627 69 58 50
0.20824 -0.77908 -0.42515 44 35 39
0.22174 -0.77636 -0.43213 57 43 41
0.21934 -0.78730 -0.43101 42 34 33
0.22798 -0.78321 -0.43210 47 33 29
0.22557 -0.79419 -0.43097 40 32 35
1.59472 -1.69633 -1.28018 18 17 23
1.58398 -1.69585 -1.29771 14 11 11
1.59604 -1.70569 -1.26870 28 29 33
1.59166 -1.72566 -1.26665 37 36 42
1.60801 -1.73754 -1.24152 41 43 52
1.59726 -1.73706 -1.25906 41 41 43
1.60044 -1.74730 -1.24926 41 40 45
1.61879 -1.75145 -1.23849 49 51 62
1.94452 -2.18197 -1.13177 85 85 101
1.94926 -2.16033 -1.13399 76 78 90
1.94108 -2.17089 -1.14237 80 82 97
1.93289 -2.18145 -1.15075 88 91 109
1.93633 -2.19253 -1.14015 91 97 115
1.95311 -2.19600 -1.12507 90 92 103
1.96870 -2.21409 -1.12362 90 102 110
1.99261 -2.23705 -1.12832 82 85 95
2.02358 -2.26424 -1.13811 49 50 39
2.01874 -2.28632 -1.13584 27 29 33
2.02679 -2.27537 -1.12706 35 24 27
2.02195 -2.29745 -1.12479 24 29 32
2.05436 -2.47422 -0.88243 68 65 79
2.04264 -2.47369 -0.90155 58 56 52
2.04611 -2.48485 -0.89087 60 57 57
2.04122 -2.47471 -0.86083 80 83 82
2.03130 -2.48602 -0.82866 76 78 64
2.02657 -2.50760 -0.82644 69 67 48
2.02596 -2.49136 -0.81242 46 51 41
2.02125 -2.51288 -0.81021 47 49 55
2.03434 -2.50562 -0.80506 46 48 55
2.05076 -2.52518 -0.80278 61 61 66
2.06543 -2.54365 -0.79930 67 70 69
2.06404 -2.55157 -0.78561 56 55 54
2.07620 -2.56845 -0.78044 41 39 44
2.11225 -2.61023 -0.77716 27 21 37
2.08467 -2.60057 -0.74733 66 73 68
2.09086 -2.61354 -0.73835 85 86 86
2.08610 -2.63528 -0.73612 86 86 81
2.12535 -2.65456 -0.73367 93 92 95
2.12054 -2.67648 -0.73141 102 100 106
2.14280 -2.67532 -0.73129 100 102 107
2.13797 -2.69734 -0.72903 108 106 107
2.07560 -2.69849 -0.59086 97 85 78
2.07626 -2.70750 -0.57883 72 58 69
2.07157 -2.72888 -0.57663 61 54 72
2.08546 -2.72257 -0.57161 59 60 79
2.09222 -2.73592 -0.56298 80 84 85
2.09563 -2.74690 -0.55248 91 87 90
2.08752 -2.75736 -0.56078 92 90 82
2.16262 -2.87246 -0.47684 102 97 96
2.15443 -2.88303 -0.48523 107 101 104
2.15787 -2.89413 -0.47461 98 94 100
2.21750 -2.96476 -0.43017 111 106 94
2.20574 -2.96423 -0.44937 107 108 102
2.20922 -2.97544 -0.43865 114 112 99
2.21270 -2.98665 -0.42792 116 114 103
2.22124 -2.97616 -0.41957 109 107 98
2.21644 -2.99805 -0.41732 110 108 103
0.07122 -0.52726 -0.57180 250 248 234
0.06564 -0.52701 -0.58090 254 254 254
