ply
format ascii 1.0
element face 0
property list uchar int vertex_indices
element vertex 1335
property float x
property float y
property float z
property uchar diffuse_red
property uchar diffuse_green
property uchar diffuse_blue
end_header
2.33044 -1.63938 0.13931 70 47 66
2.34080 -1.65447 0.14123 71 53 59
2.32748 -1.66830 0.13795 90 79 71
2.35332 -1.67037 0.14245 84 71 60
2.33992 -1.68427 0.13915 92 77 76
2.35274 -1.68202 0.14826 92 79 70
2.33933 -1.69594 0.14496 96 78 78
3.08063 -2.08433 -0.02849 52 28 39
3.06426 -2.10133 -0.03252 43 16 20
2.88390 -2.44035 0.23964 65 55 106
2.88048 -2.45427 0.24797 62 58 136
2.80472 -2.43350 0.27638 138 148 183
2.87216 -2.48150 0.26508 159 177 203
2.78970 -2.45697 0.29509 95 107 170
2.86315 -2.50848 0.28243 30 45 144
2.82686 -2.61712 0.35226 49 61 103
2.82492 -2.60990 0.32921 28 42 141
2.81760 -2.62211 0.33869 35 45 120
2.83329 -2.63656 0.35823 91 87 80
2.83524 -2.64381 0.38136 114 96 70
2.82595 -2.64882 0.36775 109 95 62
2.58112 -2.94981 0.63408 98 73 45
2.30183 -3.06056 0.82760 134 108 76
2.29998 -3.05368 0.80565 142 116 68
2.23768 -3.03070 0.84583 179 174 156
2.22216 -3.05226 0.86389 193 180 154
2.18855 -3.04391 0.87690 169 156 142
2.13462 -3.03640 0.90057 160 161 149
2.12611 -3.04099 0.88811 162 157 132
2.11939 -3.05221 0.89682 161 156 141
2.09950 -3.02622 0.91347 164 167 160
1.26153 -2.90868 1.28082 173 187 188
1.27386 -2.89589 1.28386 181 192 188
1.26697 -2.89960 1.27377 181 194 192
1.24921 -2.92147 1.27779 160 166 179
1.25222 -2.91404 1.28807 161 173 176
1.22397 -2.91529 1.30293 162 169 171
1.20936 -2.91529 1.31031 171 178 184
1.19718 -2.92793 1.30731 184 195 197
1.08192 -3.02900 1.42856 173 177 176
1.08051 -3.02377 1.41188 180 190 198
1.06992 -3.04145 1.42561 155 160 156
1.61506 -0.97755 0.17441 38 36 44
1.62494 -0.96729 0.17684 41 33 39
1.61943 -0.97027 0.16875 37 36 37
1.61391 -0.97324 0.16067 39 37 36
1.62058 -0.97457 0.18249 42 29 45
1.61997 -0.98649 0.17613 63 57 58
1.61006 -0.99678 0.17369 105 101 92
1.66119 -1.00211 0.16253 94 91 77
1.65821 -1.00980 0.16768 99 92 85
1.65939 -1.01419 0.18168 87 77 78
1.65377 -1.01722 0.17344 97 91 88
1.64814 -1.02025 0.16520 109 103 102
1.70443 -1.05205 0.16410 104 94 98
1.70969 -1.06159 0.16592 111 100 100
1.70540 -1.06925 0.17172 119 107 100
1.69121 -1.08341 0.18562 132 117 113
1.68426 -1.09050 0.19250 139 122 123
1.67431 -1.09693 0.20060 149 134 125
1.66185 -1.11134 0.21374 168 153 149
1.66156 -1.12844 0.22196 186 175 164
1.65581 -1.13154 0.21353 192 180 168
1.65126 -1.13913 0.21942 198 182 177
1.58480 -1.18772 0.28898 220 212 196
1.57680 -1.19432 0.29616 142 114 137
1.59266 -1.20705 0.29410 95 71 64
1.58243 -1.21767 0.29158 98 87 80
2.24980 -1.47373 0.08565 147 150 155
2.24830 -1.46818 0.06794 94 108 138
2.25367 -1.48584 0.08940 169 176 192
2.23849 -1.49247 0.10025 135 148 154
2.24502 -1.50543 0.10304 37 33 45
2.24372 -1.51613 0.10875 18 13 27
2.23787 -1.52549 0.11615 30 9 23
2.24140 -1.53771 0.12011 125 101 72
2.22857 -1.55101 0.11696 192 175 136
2.23832 -1.54795 0.12651 187 165 133
2.23214 -1.55724 0.13404 208 188 141
2.23489 -1.56933 0.13835 153 131 120
2.22203 -1.58268 0.13518 92 73 75
2.25456 -1.58683 0.13660 94 79 61
2.24160 -1.60027 0.13341 92 81 81
2.29123 -1.63301 0.13973 89 80 71
2.28969 -1.62728 0.12144 94 81 79
2.28389 -1.63697 0.12897 92 81 77
2.27808 -1.64666 0.13649 92 81 76
2.31452 -1.65228 0.13698 90 81 69
2.30126 -1.66603 0.13371 91 79 76
3.06086 -2.05596 -0.05220 87 76 64
3.07714 -2.03906 -0.04819 93 78 76
3.06805 -2.04397 -0.06152 93 78 77
3.05895 -2.04887 -0.07484 91 78 71
3.07905 -2.07732 -0.05138 69 45 34
3.07443 -2.09036 -0.04287 51 17 27
3.05804 -2.10736 -0.04691 43 15 17
2.88978 -2.43687 0.21456 96 79 95
2.87625 -2.44601 0.22577 53 45 118
2.88560 -2.46607 0.23047 80 90 160
2.83377 -2.45674 0.25243 143 169 201
2.78876 -2.45039 0.27234 116 134 185
2.86699 -2.50412 0.25789 51 59 142
2.85048 -2.52126 0.25383 25 29 121
2.85980 -2.51634 0.26732 25 32 132
2.84329 -2.53347 0.26325 28 36 125
2.82379 -2.64146 0.34467 64 69 91
2.82185 -2.63421 0.32155 30 42 133
2.81451 -2.64646 0.33106 44 55 107
2.59880 -2.93839 0.59924 116 92 54
2.59687 -2.93120 0.57631 130 109 64
2.58935 -2.96596 0.61706 94 68 45
2.28977 -3.06296 0.81523 134 105 76
2.28792 -3.05609 0.79330 142 115 65
2.22830 -3.03486 0.83323 175 166 149
2.24518 -3.06371 0.83826 208 212 194
2.22955 -3.07993 0.83441 195 185 148
2.21785 -3.06015 0.85048 197 189 163
2.15352 -3.04523 0.87617 164 157 123
1.42013 -2.87843 1.17054 170 149 127
1.43290 -2.86518 1.17368 176 155 131
1.42577 -2.86903 1.16323 173 153 127
1.41864 -2.87287 1.15278 168 151 124
1.42727 -2.87459 1.18099 170 151 131
1.42163 -2.88400 1.18829 189 182 163
1.31687 -2.80068 1.18638 191 185 164
1.31831 -2.80605 1.20350 197 195 186
1.31144 -2.80975 1.19342 197 190 180
1.25224 -2.91008 1.27087 163 173 179
1.23321 -2.92031 1.28538 165 174 180
1.20680 -2.92312 1.30015 179 192 192
1.19460 -2.93578 1.29714 185 199 202
1.60437 -0.97960 0.16854 42 42 42
1.60321 -0.97530 0.15482 43 38 33
1.61790 -0.99010 0.16654 67 65 66
1.64446 -1.01131 0.16288 112 104 99
1.63886 -1.01434 0.15466 117 112 104
1.63442 -1.02174 0.16041 117 111 110
1.67849 -1.04274 0.16020 112 105 101
1.68870 -1.03215 0.16272 97 90 91
1.68300 -1.03522 0.15436 109 104 101
1.67730 -1.03830 0.14601 119 115 109
1.67279 -1.04582 0.15185 124 118 107
1.68443 -1.06078 0.16563 122 111 110
1.67418 -1.07143 0.16310 137 125 118
1.67929 -1.06821 0.17175 129 117 111
1.66904 -1.07886 0.16923 142 128 121
1.67326 -1.07546 0.17825 134 120 113
1.67120 -1.08353 0.18309 140 123 120
1.66096 -1.08987 0.19132 148 131 129
1.64672 -1.10383 0.20517 166 153 138
1.63952 -1.11930 0.21612 186 170 163
1.62930 -1.12991 0.21360 196 182 170
1.57386 -1.18085 0.27868 224 216 201
1.58400 -1.17033 0.28118 222 211 202
1.57834 -1.17338 0.27288 226 212 207
1.57522 -1.19843 0.28624 99 74 57
1.57848 -1.20793 0.28903 94 78 75
1.56828 -1.21852 0.28652 99 85 89
2.24257 -1.47753 0.07527 125 151 168
2.24108 -1.47198 0.05757 43 38 82
2.23803 -1.48722 0.08215 142 156 161
2.21526 -1.49158 0.09587 82 85 107
2.20258 -1.50474 0.09275 4 10 24
2.22865 -1.50654 0.09603 20 14 13
2.22407 -1.51624 0.10294 4 7 14
2.23075 -1.52935 0.10567 94 63 34
2.22676 -1.53928 0.11238 174 157 127
2.22065 -1.55976 0.12512 182 165 138
2.23630 -1.57591 0.12469 109 78 86
2.22341 -1.58929 0.12151 94 81 78
3.06497 -2.06571 -0.07001 86 72 58
3.06306 -2.05860 -0.09273 89 76 69
3.08200 -2.08673 -0.06887 65 38 39
3.08517 -2.10273 -0.06298 50 18 21
2.89995 -2.43537 0.18815 117 95 83
2.91646 -2.41825 0.19221 115 94 83
2.90724 -2.42321 0.17870 116 94 84
2.89802 -2.42818 0.16519 118 95 84
2.89297 -2.44768 0.19750 80 61 103
2.87847 -2.45640 0.20903 52 45 135
2.83148 -2.44944 0.22984 95 113 173
2.78620 -2.44302 0.25003 109 137 178
2.86815 -2.49844 0.23406 55 70 135
2.85163 -2.51559 0.22999 20 25 112
2.86215 -2.51125 0.24315 20 27 114
2.84563 -2.52840 0.23908 26 30 116
2.82309 -2.66723 0.33642 83 80 73
2.82113 -2.65995 0.31320 36 47 116
2.82712 -2.68567 0.34301 100 91 61
2.82908 -2.69297 0.36629 112 98 62
2.81973 -2.69801 0.35259 107 96 61
2.59605 -2.98122 0.60022 85 67 42
2.27226 -3.06138 0.80381 135 105 72
2.27041 -3.05452 0.78193 143 114 62
2.21491 -3.03608 0.82132 173 163 138
2.21888 -3.05548 0.82839 194 192 174
2.14987 -3.05352 0.86284 188 183 141
2.07775 -3.03160 0.88951 170 159 134
1.41676 -2.88563 1.15973 168 152 128
1.41526 -2.88006 1.14195 163 145 124
1.40397 -2.89890 1.15658 188 188 179
1.31522 -2.80908 1.17582 192 188 170
1.29866 -2.80813 1.18387 201 198 184
1.30010 -2.81349 1.20095 212 215 204
1.29324 -2.81718 1.19090 208 214 203
1.28638 -2.82088 1.18085 204 211 205
1.25528 -2.89473 1.24677 174 186 187
1.26758 -2.88195 1.24980 184 194 197
1.26071 -2.88566 1.23973 181 193 193
1.24840 -2.89843 1.23670 166 176 180
1.24837 -2.90238 1.25391 162 175 177
1.23380 -2.91692 1.26820 166 175 187
1.22415 -2.92185 1.27546 175 187 198
1.21188 -2.93458 1.27244 186 200 207
1.21027 -2.92261 1.28292 182 196 201
1.19805 -2.93529 1.27992 186 201 206
0.96125 -3.38361 1.62703 155 148 127
0.97355 -3.37084 1.63006 166 151 134
0.96668 -3.37455 1.61999 158 146 125
0.96812 -3.37991 1.63710 164 152 135
0.96269 -3.38897 1.64415 165 154 134
0.96199 -3.40069 1.63467 157 150 128
0.96343 -3.40607 1.65183 167 157 139
0.94965 -3.41349 1.63164 161 131 120
1.58765 -0.98055 0.16532 50 44 46
1.60629 -0.99198 0.16103 74 70 73
1.63107 -1.00467 0.15417 110 107 99
1.62106 -1.01505 0.15171 116 113 106
1.65594 -1.05087 0.16292 129 120 112
1.65026 -1.05393 0.15460 134 129 118
1.64578 -1.06142 0.16042 138 131 121
1.64073 -1.08140 0.18504 149 133 130
1.63030 -1.08763 0.19333 157 143 135
1.62294 -1.09449 0.20034 165 153 138
1.62055 -1.10242 0.20527 172 160 146
1.61704 -1.11860 0.21465 191 176 167
1.60687 -1.12915 0.21215 198 184 174
1.55999 -1.18184 0.27366 201 195 190
1.55877 -1.19011 0.27815 107 92 115
1.56334 -1.19990 0.28036 92 70 53
1.55319 -1.21043 0.27787 98 84 74
1.56731 -1.20958 0.28284 98 84 69
1.55713 -1.22015 0.28033 100 86 81
2.21743 -1.48712 0.07686 27 19 69
2.20474 -1.50029 0.07373 19 24 28
2.21585 -1.49766 0.08259 10 23 39
2.21025 -1.51806 0.09502 25 8 17
2.21137 -1.52948 0.09978 133 121 71
2.19862 -1.54271 0.09664 178 163 127
2.21405 -1.54143 0.10398 177 159 128
2.20841 -1.55084 0.11129 184 164 131
2.20914 -1.56225 0.11624 133 118 122
2.19634 -1.57553 0.11309 95 79 81
2.21892 -1.57657 0.11788 98 78 77
2.20606 -1.58991 0.11472 96 83 82
3.06097 -2.07252 -0.08514 82 72 59
3.05905 -2.06539 -0.10788 88 75 69
3.07917 -2.09404 -0.08448 69 47 44
3.08987 -2.11291 -0.08119 55 25 23
3.08209 -2.12489 -0.07157 42 14 12
3.08402 -2.13208 -0.04861 38 12 22
3.07480 -2.13705 -0.06212 35 9 13
3.06557 -2.14202 -0.07564 34 6 9
2.90491 -2.44703 0.17044 109 90 86
2.89702 -2.45896 0.18009 61 50 106
2.87658 -2.46486 0.19340 55 58 142
2.87473 -2.47965 0.20127 79 101 158
2.87474 -2.49538 0.20862 49 67 136
2.85818 -2.51257 0.20454 20 28 124
2.86473 -2.50626 0.21887 20 27 112
2.80807 -2.66920 0.32426 64 62 88
2.80612 -2.66193 0.30108 29 41 125
2.79876 -2.67422 0.31062 48 51 105
2.81491 -2.68916 0.33006 85 81 62
2.59793 -2.97646 0.57635 84 59 38
2.59061 -2.98869 0.58584 77 62 44
2.59529 -3.00876 0.59280 120 106 71
2.57865 -3.02603 0.58871 134 110 67
2.24902 -3.05556 0.79346 136 108 67
2.24719 -3.04873 0.77168 140 113 60
2.19861 -3.03513 0.80995 170 157 133
2.19780 -3.05099 0.81778 192 190 173
2.19715 -3.06702 0.82560 196 186 143
2.11270 -3.05288 0.86260 205 197 162
2.04951 -3.03714 0.88787 181 170 128
2.03449 -3.05273 0.88417 109 87 59
1.40743 -2.88752 1.14948 164 150 135
1.40594 -2.88195 1.13172 159 139 126
1.29976 -2.81905 1.17308 202 204 193
1.28745 -2.83183 1.17004 199 206 203
1.24950 -2.88525 1.22997 174 183 185
1.26179 -2.87250 1.23299 183 194 195
1.25492 -2.87620 1.22294 182 192 193
1.24806 -2.87989 1.21288 181 190 196
1.22529 -2.90474 1.25157 172 183 188
1.21304 -2.91745 1.24856 188 200 203
1.21692 -2.91088 1.25877 179 192 196
1.20468 -2.92358 1.25576 189 201 207
1.20466 -2.91319 1.26618 184 198 205
1.19246 -2.92586 1.26317 190 202 209
1.17372 -3.33440 1.47898 89 87 70
1.18660 -3.32103 1.48215 99 97 90
1.17940 -3.32491 1.47161 93 95 89
1.17522 -3.34001 1.49690 99 95 88
1.16803 -3.34389 1.48635 88 85 78
0.96804 -3.38886 1.61063 151 131 115
0.96659 -3.38348 1.59346 179 178 153
0.96114 -3.39257 1.60052 187 184 158
0.95569 -3.40167 1.60759 191 187 159
0.95909 -3.39342 1.61738 151 131 117
0.96268 -3.41428 1.62528 158 133 114
1.57090 -0.97349 0.15848 44 44 40
1.58067 -0.96335 0.16088 39 33 30
1.57521 -0.96629 0.15288 39 37 36
1.56976 -0.96923 0.14489 41 38 43
1.56544 -0.97643 0.15048 46 44 49
1.57475 -0.98217 0.16051 56 57 52
1.60194 -0.99518 0.15241 84 85 81
1.61756 -1.00621 0.14942 108 109 105
1.62358 -1.07363 0.17764 149 136 128
1.62804 -1.06618 0.17185 142 132 123
1.62239 -1.06922 0.16357 146 138 127
1.61615 -1.08046 0.18468 156 143 137
1.60439 -1.09473 0.19743 171 160 145
1.60080 -1.10236 0.20285 178 165 155
1.59070 -1.11284 0.20036 190 178 164
1.54201 -1.17323 0.26638 216 207 199
1.54220 -1.18180 0.27027 147 132 144
1.53214 -1.19225 0.26779 93 81 76
1.54419 -1.19087 0.27345 95 74 71
1.53410 -1.20134 0.27097 98 87 79
1.54728 -1.20026 0.27621 95 84 74
1.53717 -1.21076 0.27372 95 87 77
2.19036 -1.50701 0.08434 6 10 17
2.18888 -1.50150 0.06674 15 18 31
2.19506 -1.51945 0.08768 97 64 55
2.19743 -1.53124 0.09192 164 151 116
2.19377 -1.55235 0.10365 170 154 124
2.20307 -1.56644 0.10537 108 85 80
2.19026 -1.57973 0.10221 95 82 81
3.08146 -2.08843 -0.10882 81 68 64
3.07953 -2.08126 -0.13171 84 73 71
3.07226 -2.09339 -0.12229 80 65 62
3.07487 -2.10082 -0.09964 69 56 46
3.08977 -2.12133 -0.09785 54 26 25
3.08390 -2.13407 -0.08887 38 8 10
3.06735 -2.15125 -0.09295 32 8 14
3.28551 -2.35413 -0.09141 28 25 25
3.30308 -2.33588 -0.08709 19 19 26
3.29327 -2.34117 -0.10147 20 16 13
3.28345 -2.34647 -0.11586 20 15 11
3.29533 -2.34883 -0.07703 34 29 33
3.28757 -2.36179 -0.06697 50 40 35
3.29112 -2.37264 -0.08572 43 39 31
3.29318 -2.38032 -0.06121 64 50 34
3.28333 -2.38563 -0.07564 56 49 35
2.92173 -2.44864 0.14176 117 96 83
2.93837 -2.43138 0.14585 115 93 83
2.92908 -2.43638 0.13224 113 93 79
2.91979 -2.44139 0.11863 105 91 79
2.90313 -2.45555 0.15465 87 75 87
2.88654 -2.47277 0.15057 21 27 103
2.88079 -2.46060 0.16862 38 39 103
2.87240 -2.47226 0.17840 34 52 128
2.85588 -2.48941 0.17433 18 31 128
2.88123 -2.49226 0.18311 35 59 130
2.86464 -2.50948 0.17903 18 32 130
2.86762 -2.50141 0.19444 19 33 122
2.85106 -2.51861 0.19037 21 39 136
2.80223 -2.69239 0.31726 68 62 63
2.82095 -2.71899 0.31989 86 79 62
2.85404 -2.77041 0.32659 111 97 62
2.85604 -2.77783 0.35026 119 101 68
2.84653 -2.78295 0.33633 119 99 70
2.83703 -2.78807 0.32240 113 96 64
2.62952 -2.99080 0.54586 128 102 70
2.62756 -2.98351 0.52259 129 109 72
2.58909 -2.98173 0.56267 86 61 40
2.58177 -2.99396 0.57217 74 60 45
2.57080 -3.00380 0.58245 118 105 71
2.55423 -3.02100 0.57837 134 112 73
2.44243 -3.05320 0.67220 99 77 51
2.44088 -3.06912 0.68040 124 99 68
2.42459 -3.08603 0.67639 136 112 68
2.22810 -3.05135 0.78282 135 107 69
2.22627 -3.04455 0.76111 140 114 59
2.20622 -3.05179 0.79441 166 153 130
2.18896 -3.05552 0.80512 205 208 180
2.18837 -3.07162 0.81291 209 207 166
2.17279 -3.07649 0.82329 194 185 161
2.13967 -3.06800 0.83657 189 189 174
2.09225 -3.04837 0.85210 201 202 185
2.07650 -3.05263 0.86228 213 209 177
2.05521 -3.05253 0.87330 197 184 141
2.04012 -3.06818 0.86959 112 84 62
1.40146 -2.89241 1.13891 160 147 138
1.39996 -2.88684 1.12113 157 139 120
1.30403 -2.81884 1.15538 185 192 182
1.29560 -2.82522 1.16273 202 206 195
1.28327 -2.83802 1.15969 199 205 200
1.24172 -2.88808 1.21998 176 182 191
1.23486 -2.89177 1.20993 180 195 204
1.23041 -2.89147 1.22745 172 183 190
1.22095 -2.89660 1.23475 177 189 196
1.16510 -3.33662 1.46841 79 80 69
1.16359 -3.33101 1.45051 88 110 130
1.15791 -3.34049 1.45788 77 98 104
1.16661 -3.35454 1.47595 79 81 83
1.16813 -3.36016 1.49391 90 86 81
1.16667 -3.37083 1.48350 82 82 82
1.16819 -3.37647 1.50150 91 85 86
1.16514 -3.38531 1.49103 84 83 87
1.16666 -3.39096 1.50906 93 88 90
1.15218 -3.39877 1.48784 92 115 133
1.16359 -3.39984 1.49859 87 88 91
1.16511 -3.40550 1.51665 95 89 90
1.15061 -3.41331 1.49539 98 121 139
0.91766 -3.36814 1.61178 197 191 165
0.91624 -3.36284 1.59485 228 231 219
0.91087 -3.37181 1.60182 233 236 223
0.90549 -3.38077 1.60878 238 241 232
1.60240 -1.00741 0.14544 95 89 91
1.59246 -1.01773 0.14300 101 93 98
1.60982 -1.01699 0.14599 107 101 103
1.61099 -1.02134 0.15987 120 114 113
1.61284 -1.02578 0.14848 119 116 110
1.61401 -1.03014 0.16239 125 118 115
1.59247 -1.07965 0.18408 164 151 139
1.58561 -1.08652 0.19085 172 158 145
1.58232 -1.09417 0.19611 178 164 153
1.57228 -1.10459 0.19364 191 175 164
1.57531 -1.10099 0.20294 184 172 162
1.56528 -1.11140 0.20047 195 179 168
1.52806 -1.16567 0.25763 224 214 201
1.53807 -1.15529 0.26009 220 206 200
1.53248 -1.15830 0.25190 224 212 201
1.51634 -1.17120 0.26633 177 170 160
1.53271 -1.18385 0.26360 99 81 77
1.52266 -1.19428 0.26113 95 85 81
1.54352 -1.22110 0.27517 78 77 65
1.54471 -1.22552 0.28929 60 56 68
1.58021 -1.23969 0.26455 31 24 36
1.56991 -1.25038 0.26202 23 18 27
1.58761 -1.25055 0.26569 25 23 24
1.58882 -1.25505 0.28008 38 36 43
1.58305 -1.25817 0.27161 37 33 39
1.57727 -1.26128 0.26315 36 28 41
2.18413 -1.52210 0.07876 137 130 107
2.17145 -1.53526 0.07564 182 162 141
2.18182 -1.53245 0.08476 174 161 133
2.17622 -1.54180 0.09202 179 163 133
2.18934 -1.55703 0.09219 127 109 120
2.17659 -1.57027 0.08905 93 80 69
2.19244 -1.56920 0.09620 97 77 71
2.17965 -1.58247 0.09305 96 83 80
3.08978 -2.12982 -0.11462 56 31 28
3.08570 -2.14328 -0.10625 38 9 16
3.06911 -2.16051 -0.11034 32 7 19
3.29139 -2.36592 -0.11102 23 21 18
3.28932 -2.35824 -0.13554 17 13 19
3.28154 -2.37123 -0.12545 18 19 21
3.29330 -2.38297 -0.10413 38 36 28
3.29589 -2.40038 -0.09743 52 47 34
3.29797 -2.40810 -0.07280 67 54 41
3.28807 -2.41343 -0.08730 65 51 40
2.92925 -2.46159 0.12301 98 84 81
2.90614 -2.46640 0.13735 57 50 84
2.88950 -2.48367 0.13325 18 26 108
2.87119 -2.48111 0.16247 18 32 125
2.86194 -2.48610 0.14892 19 32 127
2.85463 -2.49830 0.15839 20 32 130
2.76395 -2.63319 0.28903 20 35 122
2.78046 -2.61606 0.29309 17 29 118
2.77124 -2.62103 0.27958 16 28 113
2.77317 -2.62822 0.30254 20 34 119
2.74745 -2.65033 0.28496 28 49 151
2.76956 -2.65230 0.29493 28 45 138
2.77961 -2.67390 0.29966 40 49 118
2.78827 -2.69489 0.30484 51 45 67
2.80392 -2.71986 0.30818 70 62 62
2.82607 -2.74860 0.30988 88 77 58
2.84068 -2.77338 0.31369 103 90 59
2.58481 -2.98997 0.54798 92 64 46
2.55713 -3.00588 0.56985 118 104 68
2.54057 -3.02307 0.56577 134 113 70
2.44474 -3.04902 0.64870 113 91 66
2.44283 -3.04192 0.62604 130 107 55
2.42845 -3.06593 0.64469 99 71 54
2.43633 -3.07721 0.66615 125 101 71
2.42001 -3.09414 0.66213 135 110 69
2.22785 -3.06229 0.76849 134 108 68
2.22602 -3.05547 0.74673 139 114 62
2.22109 -3.07393 0.77742 163 149 124
2.20721 -3.08026 0.78762 206 210 187
2.20359 -3.09423 0.79598 212 213 182
2.17826 -3.09183 0.80814 181 171 158
2.12552 -3.08490 0.83257 170 174 164
2.11015 -3.10086 0.82879 171 167 152
2.07451 -3.06218 0.84879 195 197 176
1.39223 -2.89437 1.12867 156 143 132
1.39074 -2.88881 1.11091 156 140 120
1.30380 -2.82861 1.14458 185 190 180
1.29793 -2.83736 1.15170 207 210 194
1.28555 -2.85020 1.14866 200 205 203
1.26795 -2.86623 1.18077 182 197 204
1.28029 -2.85343 1.18381 184 194 195
1.27340 -2.85714 1.17371 182 197 200
1.27484 -2.86252 1.19087 187 195 200
1.26940 -2.87161 1.19793 188 196 200
1.26126 -2.87416 1.18794 183 197 206
1.26271 -2.87953 1.20509 185 195 199
1.25302 -2.88059 1.19524 182 199 207
1.24218 -2.88453 1.20274 180 197 206
1.21969 -2.89143 1.21772 180 198 205
1.20832 -2.89467 1.22517 182 202 208
1.19665 -2.89753 1.23262 186 203 211
1.18816 -2.90345 1.23981 187 203 212
1.17737 -2.90707 1.24713 189 204 213
1.16540 -2.90945 1.25451 190 207 215
1.16682 -2.91473 1.27134 189 202 209
1.15100 -2.90933 1.26200 189 207 216
1.15241 -2.91459 1.27877 189 201 209
1.13571 -2.90821 1.26949 190 206 215
1.13711 -2.91345 1.28619 190 201 207
1.13198 -2.91865 1.27628 191 205 211
1.13339 -2.92389 1.29299 189 201 206
1.12668 -2.92751 1.28315 191 206 211
1.11259 -2.94164 1.29707 189 203 211
1.12458 -2.92918 1.30003 188 200 206
1.11788 -2.93280 1.29021 189 205 213
1.11929 -2.93802 1.30689 189 200 205
1.11399 -2.94687 1.31376 187 198 204
1.10835 -2.95157 1.30389 187 201 209
1.10976 -2.95681 1.32058 184 196 204
1.10097 -2.95825 1.31085 185 199 207
1.10237 -2.96348 1.32753 184 194 204
1.09567 -2.96709 1.31771 184 197 205
1.03657 -3.03403 1.37966 175 185 197
1.04850 -3.02164 1.38260 179 189 195
1.04184 -3.02523 1.37283 177 191 198
1.03797 -3.03923 1.39626 154 159 172
1.03130 -3.04282 1.38649 161 169 180
1.02463 -3.04642 1.37672 162 175 194
1.17170 -3.37288 1.46564 80 101 119
1.17018 -3.36723 1.44759 86 109 129
1.15872 -3.38635 1.46244 92 117 146
1.18149 -3.40081 1.47342 85 104 125
1.16844 -3.41436 1.47021 95 123 155
1.18347 -3.41963 1.48110 88 107 130
1.17037 -3.43323 1.47787 100 129 167
1.60115 -1.02760 0.14296 117 115 108
1.60313 -1.03622 0.14588 133 128 118
1.59313 -1.04661 0.14341 141 134 129
1.58813 -1.06628 0.16763 152 141 133
1.59815 -1.05588 0.17010 142 134 126
1.59256 -1.05890 0.16190 147 136 130
1.58696 -1.06192 0.15370 152 141 132
1.57030 -1.07911 0.18296 169 157 142
1.55987 -1.09347 0.19507 186 171 159
1.54989 -1.10383 0.19261 193 178 167
1.51492 -1.15835 0.24867 226 215 199
1.52488 -1.14801 0.25112 219 208 196
1.51931 -1.15101 0.24297 222 211 201
1.51375 -1.15401 0.23482 223 213 200
1.51053 -1.16569 0.25437 202 197 189
1.51849 -1.17616 0.25498 123 102 122
1.52418 -1.21185 0.26842 92 86 84
1.52863 -1.20442 0.26264 97 87 82
1.55738 -1.22940 0.25897 37 50 62
1.54716 -1.24001 0.25645 13 13 26
1.57171 -1.24205 0.25723 18 14 35
1.56142 -1.25273 0.25469 17 14 21
2.16701 -1.50087 0.06215 18 12 18
2.17961 -1.48779 0.06525 27 25 49
2.16554 -1.49538 0.04463 20 17 28
2.13267 -1.50145 0.08054 102 75 37
2.17067 -1.52397 0.07085 165 152 127
2.16369 -1.54393 0.08372 161 150 131
2.18385 -1.56139 0.08112 102 84 82
2.17109 -1.57463 0.07798 93 83 77
3.08315 -2.12082 -0.13602 72 63 48
3.08121 -2.11360 -0.15906 77 62 66
3.07390 -2.12581 -0.14958 73 61 63
3.08791 -2.13763 -0.13079 59 40 28
3.09307 -2.15468 -0.12566 43 11 24
3.07641 -2.17197 -0.12976 31 8 20
3.28499 -2.38895 -0.11912 32 30 28
3.28292 -2.38125 -0.14371 14 14 23
3.28301 -2.40445 -0.11094 49 41 29
3.27760 -2.41852 -0.10160 63 47 33
3.27967 -2.42624 -0.07697 70 54 46
3.26978 -2.43157 -0.09147 67 52 40
3.25988 -2.43690 -0.10596 60 50 38
2.95880 -2.46915 0.08999 81 78 98
2.97562 -2.45169 0.09413 105 89 73
2.96622 -2.45675 0.08036 90 81 90
2.95683 -2.46182 0.06659 67 67 123
2.93619 -2.47434 0.10431 61 57 95
2.91943 -2.49174 0.10018 19 26 112
2.89823 -2.47207 0.12330 31 28 91
2.88159 -2.48934 0.11921 18 31 119
2.76136 -2.62565 0.26626 20 36 126
2.77786 -2.60852 0.27032 18 26 115
2.76864 -2.61348 0.25681 21 33 121
2.75764 -2.63972 0.27470 23 42 140
2.74112 -2.65687 0.27064 28 52 161
2.76445 -2.67572 0.28768 34 49 128
2.78176 -2.70146 0.29040 38 35 74
2.76505 -2.71880 0.28628 40 35 61
2.79082 -2.72285 0.29546 52 43 64
2.79958 -2.74421 0.30067 73 62 57
2.83394 -2.78004 0.29903 91 78 59
2.84775 -2.80462 0.30305 104 90 61
2.84976 -2.81207 0.32683 117 99 63
2.84020 -2.81722 0.31284 113 97 62
2.58463 -3.00092 0.53232 98 68 54
2.56798 -3.01820 0.52822 86 62 44
2.56299 -3.00379 0.54506 82 57 44
2.54640 -3.02101 0.54098 113 97 55
2.56948 -3.02516 0.55148 116 100 56
2.55283 -3.04244 0.54738 132 113 69
2.44021 -3.05709 0.63441 113 89 59
2.42389 -3.07402 0.63040 103 86 40
2.24298 -3.08466 0.75121 134 108 69
2.24113 -3.07779 0.72930 138 112 68
2.23606 -3.09629 0.76022 160 141 120
2.21449 -3.09695 0.77191 201 207 184
2.21547 -3.11447 0.77946 211 207 180
2.19974 -3.13079 0.77559 201 188 154
2.16260 -3.10788 0.80433 169 162 135
2.14705 -3.12402 0.80051 184 176 142
2.07703 -3.09170 0.84205 183 172 143
2.07524 -3.08505 0.82083 182 173 148
2.06177 -3.10753 0.83830 111 89 68
1.37412 -2.88826 1.11943 153 140 131
1.37263 -2.88272 1.10174 157 140 125
1.29536 -2.83094 1.13461 184 185 179
1.29484 -2.84458 1.14117 211 214 197
1.28244 -2.85745 1.13812 198 205 206
1.28484 -2.86372 1.15526 188 197 205
1.29176 -2.85999 1.16541 188 197 199
1.27498 -2.86877 1.16279 167 175 201
1.27308 -2.88124 1.16953 149 150 188
1.26434 -2.88728 1.17693 148 145 184
1.25125 -2.88916 1.18470 150 149 187
1.23705 -2.88989 1.19253 151 154 189
1.22872 -2.89616 1.19981 153 157 190
1.21721 -2.89932 1.20735 155 162 192
1.20587 -2.90259 1.21484 157 163 194
1.19181 -2.90312 1.22250 159 164 197
1.18179 -2.90753 1.22982 161 165 198
1.16661 -2.90678 1.23749 165 170 201
1.15658 -2.91105 1.24475 166 172 204
1.13139 -2.91424 1.25951 169 177 205
1.12523 -2.92223 1.26644 169 175 203
1.11756 -2.92867 1.27346 171 177 205
1.11147 -2.93670 1.28037 171 177 207
1.10588 -2.94525 1.28725 170 176 205
1.10165 -2.95519 1.29407 166 175 201
1.09427 -2.96186 1.30103 165 174 199
1.09183 -2.97370 1.30777 166 174 200
1.09324 -2.97893 1.32447 182 195 207
1.08568 -2.98165 1.31468 163 172 202
1.08709 -2.98688 1.33137 182 194 201
1.07549 -2.99977 1.32840 160 171 197
1.07689 -3.00500 1.34510 178 194 201
1.06572 -3.00382 1.33542 161 175 198
1.06712 -3.00904 1.35209 177 193 200
1.05763 -3.00963 1.34236 161 172 197
1.05903 -3.01484 1.35901 178 192 195
1.04670 -3.01231 1.34937 161 174 191
1.04810 -3.01752 1.36598 177 191 196
1.03562 -3.01477 1.35635 161 175 194
1.03005 -3.02320 1.36317 162 174 197
1.02958 -3.03726 1.36990 162 173 199
1.17132 -3.38491 1.45513 88 114 136
1.16980 -3.37924 1.43703 91 116 144
1.15831 -3.39841 1.45192 100 126 159
1.05522 -3.66187 1.64392 252 251 240
1.06839 -3.64821 1.64716 252 254 246
1.06103 -3.65217 1.63639 250 252 253
1.05368 -3.65613 1.62562 253 254 254
1.06258 -3.65791 1.65470 252 244 214
1.05676 -3.66761 1.66223 193 168 137
1.04004 -3.65879 1.65052 227 209 174
1.04158 -3.66450 1.66875 144 118 103
1.02693 -3.67240 1.64729 179 151 124
1.01042 -3.63574 1.65554 161 126 101
1.01194 -3.64140 1.67359 135 117 106
1.00469 -3.64530 1.66297 133 113 99
1.54175 -0.98795 0.14386 64 55 48
1.54605 -0.98077 0.13828 54 46 43
1.54746 -0.99700 0.14497 75 63 65
1.55448 -1.00637 0.14553 87 74 80
1.54466 -1.01656 0.14311 107 96 89
1.56384 -1.01625 0.14508 103 92 92
1.55398 -1.02649 0.14265 123 116 104
1.58170 -1.02788 0.14091 119 115 106
1.58696 -1.03713 0.14235 133 131 123
1.57699 -1.04748 0.13989 143 138 128
1.56903 -1.06645 0.16531 157 147 137
1.56786 -1.06211 0.15145 155 145 138
1.56319 -1.07349 0.17164 165 157 140
1.55345 -1.07968 0.17966 174 164 151
1.54351 -1.09000 0.17721 185 172 167
1.49418 -1.15757 0.24685 218 209 190
1.50960 -1.16986 0.24428 154 144 145
1.49962 -1.18021 0.24183 92 76 65
1.51009 -1.17846 0.24796 96 77 68
1.50010 -1.18883 0.24550 96 86 77
1.51267 -1.18763 0.25079 93 80 69
1.50265 -1.19803 0.24832 94 88 82
1.51521 -1.20540 0.25758 98 84 79
1.51765 -1.21465 0.26052 74 67 70
1.55656 -1.23380 0.24860 23 18 36
1.54632 -1.24443 0.24608 12 11 20
2.14858 -1.50123 0.05632 45 34 25
2.15800 -1.51504 0.05764 137 131 93
2.14539 -1.52814 0.05454 174 160 127
2.15990 -1.52664 0.06194 172 156 136
2.15432 -1.53595 0.06918 179 166 137
2.16624 -1.55076 0.06962 120 106 114
2.15353 -1.56395 0.06650 93 81 81
2.17303 -1.56406 0.07210 93 74 76
2.16028 -1.57729 0.06896 94 84 76
3.09562 -2.14915 -0.15043 62 51 41
3.09367 -2.14189 -0.17362 72 57 62
3.08984 -2.16205 -0.14145 46 19 35
3.27293 -2.39335 -0.13285 25 23 28
3.27086 -2.38565 -0.15743 14 11 19
3.26731 -2.40730 -0.12347 42 35 30
3.25754 -2.41949 -0.11269 54 44 31
3.23987 -2.43783 -0.11704 56 48 34
2.96089 -2.47966 0.07260 53 59 128
2.95892 -2.47230 0.04914 54 62 147
2.94216 -2.48670 0.08579 32 38 118
2.92533 -2.50416 0.08165 18 28 123
2.76225 -2.63602 0.24985 24 43 143
2.76032 -2.62881 0.22684 27 46 144
2.75301 -2.64101 0.23631 26 48 154
2.74571 -2.65320 0.24578 26 50 164
2.75544 -2.64848 0.25918 25 47 155
2.73889 -2.66566 0.25511 30 54 167
2.75154 -2.67872 0.27511 32 51 135
2.77379 -2.70724 0.27634 30 34 80
2.75707 -2.72459 0.27223 34 32 63
2.78848 -2.74833 0.28735 58 48 44
2.81932 -2.78228 0.28650 79 67 52
2.85295 -2.83510 0.29282 107 93 59
2.85496 -2.84259 0.31673 118 100 64
2.84536 -2.84777 0.30266 115 100 66
2.44487 -3.05452 0.61032 125 103 55
2.46121 -3.03756 0.61434 133 110 57
2.45208 -3.04248 0.60097 131 108 59
2.44295 -3.04740 0.58759 132 106 59
2.43574 -3.05944 0.59694 124 99 55
2.43718 -3.06623 0.61977 113 92 47
2.42084 -3.08319 0.61575 101 82 34
2.15449 -3.11300 0.79150 192 182 147
2.13894 -3.12915 0.78767 198 191 162
1.35261 -2.87898 1.11067 152 139 135
1.35113 -2.87347 1.09308 157 141 127
1.30410 -2.84899 1.12273 183 184 180
1.30258 -2.86183 1.12942 210 216 204
1.28817 -2.87702 1.14404 188 196 201
1.27917 -2.88290 1.15152 142 135 164
1.27462 -2.89295 1.15854 99 67 119
1.24524 -2.89372 1.17451 96 50 110
1.22324 -2.88693 1.18310 98 57 116
1.20225 -2.88092 1.19151 101 59 119
1.18188 -2.87535 1.19979 101 61 120
1.15878 -2.86693 1.20822 106 66 122
1.14607 -2.86853 1.21570 109 66 121
1.14322 -2.87978 1.22237 111 68 124
1.13863 -2.88933 1.22919 114 70 126
1.13278 -2.89763 1.23610 115 74 128
1.12796 -2.90696 1.24294 115 75 124
1.13524 -2.92854 1.24895 118 79 124
1.12765 -2.93513 1.25601 118 78 124
1.12692 -2.94873 1.26262 119 83 127
1.13298 -2.96935 1.26885 120 83 126
1.14122 -2.99239 1.27502 116 80 126
1.12901 -3.00506 1.27201 87 26 45
1.13345 -2.99890 1.28214 112 83 130
1.12125 -3.01156 1.27913 83 25 51
1.13343 -3.01351 1.28884 110 84 131
1.12121 -3.02620 1.28583 80 22 50
1.13277 -3.02750 1.29560 109 82 134
1.12052 -3.04021 1.29258 78 21 53
1.12618 -3.03527 1.30266 106 83 140
1.11394 -3.04797 1.29965 72 22 50
1.11641 -3.03964 1.30986 105 88 139
1.10419 -3.05232 1.30685 69 20 48
1.10848 -3.04592 1.31695 104 86 134
1.09768 -3.04908 1.32414 105 88 139
1.07520 -3.03952 1.33172 108 90 138
1.05799 -3.03548 1.33902 108 93 130
1.05579 -3.04776 1.34581 106 93 134
1.04486 -3.05045 1.35286 110 98 142
1.03284 -3.06293 1.34990 65 16 37
1.03624 -3.05563 1.35981 111 99 143
1.02231 -3.05485 1.36686 113 102 144
1.02371 -3.06006 1.38349 163 175 190
1.01035 -3.06726 1.36392 66 15 45
1.00926 -3.05494 1.37384 111 102 140
1.01065 -3.06013 1.39042 164 176 189
0.99734 -3.06731 1.37091 70 18 55
1.16872 -3.39436 1.44453 94 118 148
1.16719 -3.38868 1.42641 108 134 160
1.04691 -3.66453 1.63306 253 253 251
1.04537 -3.65879 1.61476 253 252 253
1.03956 -3.66849 1.62229 251 250 251
1.04184 -3.67523 1.64066 248 240 216
0.99296 -3.64300 1.65189 134 113 90
0.99447 -3.64865 1.66990 133 120 105
0.98724 -3.65255 1.65930 128 117 95
0.98000 -3.65644 1.64870 127 111 89
1.52338 -0.98054 0.13810 56 50 40
1.53306 -0.97049 0.14048 47 42 43
1.52765 -0.97340 0.13256 48 45 34
1.52225 -0.97632 0.12463 51 47 31
1.53392 -0.99043 0.13696 68 60 58
1.54479 -1.00048 0.13572 79 66 72
1.55612 -1.06789 0.16038 163 150 143
1.55495 -1.06356 0.14655 158 146 138
1.54869 -1.07457 0.16740 171 161 147
1.48485 -1.15123 0.23653 222 212 201
1.49473 -1.14098 0.23896 219 206 198
1.48921 -1.14395 0.23087 222 209 201
1.48370 -1.14693 0.22279 223 212 199
1.46659 -1.15503 0.24804 187 178 167
1.49735 -1.17117 0.23892 106 85 96
1.50187 -1.20638 0.25255 82 79 74
1.53276 -1.22326 0.24370 30 34 59
1.52260 -1.23381 0.24120 13 11 22
1.53951 -1.23380 0.24489 11 11 29
1.52931 -1.24439 0.24237 13 12 17
2.13179 -1.49117 0.04497 19 9 30
2.14430 -1.47819 0.04805 29 27 30
2.13033 -1.48572 0.02758 15 20 34
2.09860 -1.49200 0.06312 103 78 73
2.14164 -1.51599 0.05101 162 150 118
2.13413 -1.53565 0.06399 152 145 124
2.12154 -1.54872 0.06089 98 73 82
2.16464 -1.55632 0.05707 103 83 73
2.15192 -1.56953 0.05394 94 79 82
3.11944 -2.16695 -0.17600 64 52 45
3.11747 -2.15963 -0.19937 72 54 58
3.09343 -2.17209 -0.15973 48 26 34
3.07095 -2.17850 -0.14477 33 8 18
3.07290 -2.18576 -0.12158 23 7 13
3.06359 -2.19078 -0.13523 25 7 14
3.05428 -2.19580 -0.14887 28 8 9
3.25865 -2.39680 -0.14580 20 17 28
3.25658 -2.38910 -0.17036 10 8 14
3.24627 -2.40785 -0.13414 34 31 31
3.23137 -2.41778 -0.12164 47 43 29
3.21376 -2.43605 -0.12597 50 45 32
2.95216 -2.48506 0.05857 46 52 137
2.93528 -2.50257 0.05442 21 30 125
2.93874 -2.49463 0.07012 28 35 124
2.92189 -2.51212 0.06597 16 29 127
2.73855 -2.68168 0.26259 36 55 141
2.73661 -2.67445 0.23954 33 54 170
2.76335 -2.71166 0.26297 29 35 86
2.74664 -2.72901 0.25886 29 29 70
2.78061 -2.75426 0.27314 48 39 42
2.77120 -2.75933 0.25936 38 33 55
2.79884 -2.78118 0.27565 68 55 48
2.83496 -2.81850 0.27332 86 75 49
2.84547 -2.84149 0.27816 99 87 56
2.24043 -3.17339 0.75348 211 207 175
2.23153 -3.17820 0.74042 216 212 187
2.22449 -3.18995 0.74955 214 209 179
1.34026 -2.87795 1.10095 152 139 135
1.33878 -2.87245 1.08339 159 142 128
1.31283 -2.86716 1.11072 181 180 177
1.30523 -2.87447 1.11812 204 213 209
1.29272 -2.88746 1.11504 193 203 206
1.29616 -2.88039 1.12567 195 205 206
1.29419 -2.89291 1.13244 186 191 192
1.26995 -2.88450 1.14159 139 121 139
1.26706 -2.89612 1.14843 97 54 88
1.25182 -2.89598 1.15653 93 41 73
1.23603 -2.89521 1.16464 94 44 75
1.21639 -2.89062 1.17306 94 44 76
1.19963 -2.88865 1.18114 95 41 76
1.18860 -2.89215 1.18864 97 41 74
1.17156 -2.88969 1.19664 100 40 71
1.15572 -2.90246 1.21095 102 40 72
1.15156 -2.91256 1.21778 104 40 71
1.13744 -2.91267 1.22539 103 40 66
1.12911 -2.91851 1.23252 104 42 59
1.13073 -2.93444 1.23891 105 40 60
1.12225 -2.94014 1.24605 104 40 57
1.11084 -2.95714 1.25991 99 36 44
1.09878 -2.96966 1.25694 152 120 93
1.10926 -2.96992 1.26658 94 31 44
1.09718 -2.98246 1.26360 145 111 91
1.06069 -3.02008 1.31545 70 19 51
1.05463 -3.02812 1.32236 71 17 41
1.05159 -3.03946 1.32916 68 18 34
1.06552 -3.06951 1.33540 65 16 37
1.05478 -3.07249 1.34250 66 16 39
1.03093 -3.07558 1.35669 65 15 44
1.01889 -3.08807 1.35373 108 66 54
1.16622 -3.40398 1.43390 115 142 169
1.13337 -3.38115 1.44109 123 152 183
1.13488 -3.38678 1.45905 106 133 170
1.12767 -3.39066 1.44848 132 160 192
1.12045 -3.39455 1.43791 179 200 216
1.03149 -3.67507 1.62961 252 250 237
1.02995 -3.66934 1.61133 251 251 251
1.01833 -3.67458 1.63643 223 202 168
0.98507 -3.64599 1.64122 155 122 90
1.51328 -0.98258 0.13231 61 57 37
1.52284 -0.99230 0.13156 73 65 59
1.54300 -1.00412 0.12604 84 71 76
1.53704 -1.01103 0.13239 96 81 84
1.52725 -1.02119 0.12998 118 107 91
1.53922 -1.06847 0.15726 166 155 146
1.53086 -1.07490 0.16468 175 161 154
1.52498 -1.08186 0.17101 182 167 164
1.51509 -1.09212 0.16858 192 179 174
1.46509 -1.15066 0.23452 206 195 190
1.47775 -1.16218 0.23292 131 112 130
1.46786 -1.17245 0.23048 94 83 72
1.48808 -1.17322 0.23235 95 73 65
1.47814 -1.18354 0.22990 98 88 75
1.49144 -1.18254 0.23476 97 84 74
1.48704 -1.18989 0.24047 97 87 75
1.49168 -1.19963 0.24238 91 88 70
1.50044 -1.21051 0.24259 46 59 60
1.52451 -1.22562 0.23646 18 14 47
1.51436 -1.23616 0.23396 15 11 19
2.11433 -1.49177 0.03895 48 38 44
2.11638 -1.50326 0.04305 135 125 102
2.13134 -1.51877 0.04202 160 145 128
2.12657 -1.52827 0.04890 166 155 119
2.14211 -1.54416 0.04773 114 97 94
2.12946 -1.55729 0.04461 94 78 81
3.10531 -2.17017 -0.18803 64 49 42
3.10335 -2.16286 -0.21137 70 54 53
3.09336 -2.18076 -0.17678 50 31 25
3.06921 -2.18650 -0.16114 35 10 14
3.05251 -2.20384 -0.16526 27 8 12
3.22703 -2.39284 -0.15272 15 13 22
3.22497 -2.38518 -0.17716 8 5 8
3.21270 -2.40296 -0.14040 27 27 25
3.20435 -2.41562 -0.13016 41 39 24
3.00133 -2.46976 0.00391 51 66 136
3.01834 -2.45210 0.00810 69 66 91
3.00884 -2.45722 -0.00582 46 53 120
3.01083 -2.46463 0.01784 60 65 108
2.99182 -2.47488 -0.01001 59 71 150
2.99382 -2.48229 0.01365 55 73 144
2.96352 -2.48403 0.03078 53 64 147
2.94659 -2.50160 0.02661 26 36 136
2.95320 -2.49514 0.04139 39 44 131
2.93628 -2.51269 0.03722 20 32 133
2.73549 -2.69009 0.24723 42 55 145
2.73355 -2.68285 0.22414 34 54 176
2.74641 -2.71247 0.25148 32 34 95
2.72974 -2.72978 0.24738 26 26 70
2.79525 -2.78962 0.26012 57 44 50
2.79326 -2.78223 0.23652 32 27 61
2.82220 -2.82183 0.26019 77 66 45
2.83421 -2.84572 0.26454 91 80 52
2.84696 -2.88739 0.27656 112 97 66
2.84899 -2.89493 0.30063 120 103 70
2.83932 -2.90014 0.28646 117 101 70
2.82965 -2.90536 0.27230 113 97 65
2.08384 -3.13100 0.79869 192 184 139
2.09924 -3.11501 0.80249 192 185 162
2.09064 -3.11964 0.78988 200 194 166
2.08564 -3.13771 0.82012 109 85 62
2.07704 -3.14235 0.80751 112 90 61
2.06843 -3.14698 0.79490 113 89 62
1.32651 -2.87561 1.09144 154 140 135
1.32503 -2.87012 1.07393 161 142 129
1.31593 -2.88025 1.09925 179 175 175
1.30213 -2.88185 1.10742 197 205 208
1.29420 -2.90326 1.12141 187 194 195
1.28719 -2.90703 1.11114 187 203 208
1.28112 -2.90536 1.12942 170 166 169
1.25858 -2.89840 1.13842 156 146 147
1.24755 -2.90225 1.14611 154 142 138
1.22826 -2.89809 1.15463 156 146 138
1.21485 -2.89945 1.16249 159 147 140
1.19427 -2.90804 1.17748 162 145 133
1.17595 -2.90434 1.18569 165 144 134
1.17130 -2.91403 1.19259 166 146 137
1.15896 -2.93040 1.20667 166 142 130
1.16225 -2.96259 1.21949 171 145 124
1.14956 -2.96418 1.22706 170 144 126
1.12692 -2.95547 1.23532 166 138 120
1.12196 -2.96482 1.24223 165 136 110
1.12104 -2.97835 1.24887 161 132 101
1.11978 -3.02087 1.26883 137 103 92
1.11909 -3.03487 1.27555 135 101 83
1.11368 -3.04390 1.28256 131 94 69
1.10276 -3.04700 1.28986 126 92 75
1.09876 -3.05750 1.29678 121 92 82
1.09249 -3.06556 1.30382 117 83 64
1.09807 -3.08656 1.31033 116 77 54
1.08563 -3.08790 1.31764 113 77 47
1.06986 -3.08545 1.32504 110 74 48
1.06999 -3.10056 1.33182 107 69 46
1.06895 -3.11444 1.33867 106 69 47
1.14550 -3.34289 1.40097 130 144 166
1.15840 -3.32951 1.40415 100 119 147
1.15120 -3.33339 1.39359 121 138 155
1.15271 -3.33901 1.41153 100 119 149
1.14701 -3.34851 1.41891 103 124 154
1.15100 -3.36564 1.40832 144 155 179
1.15908 -3.39161 1.41574 156 170 199
1.16389 -3.41385 1.42323 164 182 199
1.15080 -3.42743 1.42000 227 236 237
1.12163 -3.37959 1.43049 172 191 203
1.10874 -3.39297 1.42731 227 237 240
1.01826 -3.67088 1.61834 251 252 250
1.01672 -3.66517 1.60010 249 251 252
1.01093 -3.67483 1.60761 249 250 252
1.00935 -3.67621 1.62556 245 241 215
0.97576 -3.64699 1.63043 184 154 126
0.97135 -3.65835 1.63796 136 105 76
0.95841 -3.67178 1.63477 123 104 87
0.96039 -3.66047 1.64483 128 112 95
0.96190 -3.66610 1.66280 132 121 112
0.95469 -3.66999 1.65223 132 119 108
1.50430 -0.97693 0.12248 59 50 40
1.51394 -0.96692 0.12485 46 42 39
1.50856 -0.96983 0.11696 52 41 44
1.50944 -0.98578 0.12368 68 61 47
1.51839 -0.99541 0.12316 77 67 65
1.52559 -1.00478 0.12347 88 75 79
1.52713 -1.01311 0.12640 103 89 85
1.52895 -1.06222 0.14756 160 149 137
1.53883 -1.05197 0.14999 152 141 131
1.53331 -1.05494 0.14191 153 140 131
1.52780 -1.05791 0.13383 154 140 131
1.52298 -1.06914 0.15393 169 159 148
1.51599 -1.07584 0.16075 178 166 159
1.50885 -1.08249 0.16763 186 172 168
1.49900 -1.09271 0.16520 195 183 175
1.45467 -1.14408 0.22485 216 206 189
1.46447 -1.13391 0.22726 219 206 194
1.45899 -1.13686 0.21924 221 208 198
1.42990 -1.14617 0.23926 159 154 141
1.42017 -1.15627 0.23686 94 78 52
1.47872 -1.16681 0.22204 98 85 70
1.46881 -1.17710 0.21960 97 88 76
1.48053 -1.19265 0.23271 95 87 74
1.47937 -1.18830 0.21885 98 88 70
1.48558 -1.20250 0.23441 74 68 62
1.51264 -1.21833 0.22684 25 24 34
1.50253 -1.22883 0.22436 13 11 21
1.51195 -1.22681 0.23105 12 11 31
1.50183 -1.23732 0.22855 13 11 21
2.09330 -1.48047 0.02960 20 15 36
2.10569 -1.46760 0.03265 30 33 35
2.09877 -1.47133 0.02251 33 32 36
2.09185 -1.47507 0.01237 38 29 42
2.08094 -1.48751 0.03950 95 75 69
2.11180 -1.50775 0.03186 142 132 105
2.11617 -1.52003 0.03502 151 137 118
2.10578 -1.52775 0.04415 141 127 120
2.09326 -1.54074 0.04107 94 78 76
3.10448 -2.17855 -0.20490 63 51 39
3.10251 -2.17122 -0.22829 67 54 51
3.09509 -2.18361 -0.21867 63 51 40
3.09112 -2.18861 -0.19311 53 38 23
3.06593 -2.19393 -0.17702 38 13 19
3.04921 -2.21129 -0.18114 29 9 17
3.18813 -2.38567 -0.15692 7 7 12
3.18609 -2.37806 -0.18120 8 3 8
3.17838 -2.39092 -0.17121 5 4 7
3.17412 -2.39581 -0.14473 16 14 16
3.16635 -2.40862 -0.13473 32 29 20
3.15325 -2.41909 -0.12289 44 38 33
3.15529 -2.42668 -0.09868 57 45 39
3.14556 -2.43192 -0.11293 50 41 42
3.13584 -2.43716 -0.12718 41 33 56
2.95215 -2.48821 0.01756 42 54 142
2.93523 -2.50577 0.01339 24 39 143
2.73236 -2.69849 0.23184 44 55 155
2.73041 -2.69124 0.20871 36 55 177
2.72678 -2.71173 0.24084 32 34 102
2.78461 -2.79407 0.24657 47 36 51
2.78262 -2.78667 0.22297 28 23 61
2.77513 -2.79917 0.23268 38 29 45
2.82017 -2.83131 0.24405 67 56 41
2.82600 -2.85170 0.25008 83 70 47
2.83359 -2.87323 0.25566 95 81 57
2.83669 -2.89225 0.26256 106 91 60
2.43947 -3.13658 0.58861 115 91 55
2.44677 -3.12440 0.57915 97 73 43
2.43753 -3.12938 0.56562 103 76 45
2.44140 -3.14379 0.61160 129 109 54
2.43217 -3.14877 0.59807 130 110 53
2.32879 -3.21215 0.68284 150 125 87
2.32688 -3.20504 0.66012 137 113 66
2.32175 -3.22432 0.69215 195 197 170
2.30785 -3.23122 0.70281 212 213 193
2.30066 -3.24323 0.71214 217 212 196
2.09267 -3.14944 0.78284 190 180 138
2.07719 -3.16551 0.77902 117 93 71
1.32008 -2.87996 1.08106 156 141 136
1.31860 -2.87447 1.06354 161 143 131
1.31304 -2.88375 1.07075 158 143 133
1.31758 -2.89207 1.08788 171 166 166
1.30241 -2.89241 1.09627 184 194 204
1.29483 -2.89976 1.10371 186 200 212
1.28087 -2.91553 1.11841 190 208 208
1.26804 -2.91780 1.12640 193 212 210
1.25542 -2.92020 1.13434 194 213 209
1.24295 -2.93314 1.13127 185 214 236
1.24089 -2.92065 1.14244 197 215 210
1.22590 -2.92057 1.15055 201 219 213
1.21340 -2.92281 1.15835 206 222 215
1.20105 -2.93562 1.15531 204 226 238
1.20164 -2.92570 1.16605 210 226 215
1.18981 -2.92845 1.17371 213 227 214
1.18054 -2.93367 1.18110 217 228 218
1.17114 -2.93872 1.18849 220 228 219
1.15934 -2.94130 1.19606 224 230 219
1.14713 -2.95398 1.19306 229 239 245
1.14869 -2.94497 1.20351 227 232 218
1.13650 -2.95762 1.20051 230 238 244
1.13916 -2.94972 1.21083 227 234 216
1.12700 -2.96235 1.20783 229 239 243
1.12867 -2.95344 1.21821 226 234 215
1.11653 -2.96604 1.21522 231 239 243
1.12215 -2.96119 1.22524 227 232 216
1.12019 -2.97365 1.23193 227 230 212
1.11812 -2.98604 1.23864 222 226 207
1.12293 -3.00568 1.24489 215 218 201
1.13202 -3.02996 1.25091 202 206 191
1.13971 -3.05293 1.25709 187 194 184
1.14351 -3.07191 1.26359 186 192 179
1.14471 -3.08822 1.27029 184 191 170
1.14405 -3.10260 1.27714 180 187 168
1.13187 -3.10453 1.28463 175 185 169
1.12334 -3.11037 1.29190 170 179 160
1.11193 -3.11301 1.29928 166 171 156
1.10332 -3.11866 1.30651 164 168 149
1.09146 -3.12067 1.31386 163 166 150
1.07842 -3.12127 1.32122 163 169 148
1.05475 -3.10984 1.32893 163 168 146
1.04091 -3.10929 1.33619 165 171 150
1.03815 -3.12121 1.34307 170 174 153
1.03958 -3.12651 1.36000 111 66 57
1.03278 -3.13018 1.35004 164 157 132
1.02598 -3.13384 1.34007 152 149 141
1.14677 -3.32436 1.37570 125 142 151
1.15965 -3.31099 1.37887 58 79 130
1.15245 -3.31486 1.36833 25 42 93
1.15396 -3.32048 1.38624 108 126 145
1.12673 -3.31698 1.38326 169 177 180
1.12223 -3.32778 1.39058 189 195 197
1.13157 -3.35505 1.39780 207 215 216
1.11824 -3.35543 1.40521 216 224 234
1.09960 -3.34931 1.41258 223 232 236
1.08682 -3.36258 1.40944 250 253 252
0.99672 -3.67273 1.61438 251 250 238
0.99519 -3.66704 1.59621 251 252 253
0.97868 -3.66513 1.62075 223 199 163
0.96085 -3.65762 1.62706 155 115 73
0.93951 -3.66250 1.64085 128 116 110
0.94101 -3.66811 1.65875 132 120 100
0.93383 -3.67199 1.64822 132 118 102
0.92664 -3.67586 1.63769 127 117 108
1.48666 -0.96972 0.11676 62 51 58
1.49624 -0.95977 0.11912 47 40 43
1.49089 -0.96266 0.11127 52 41 50
1.48554 -0.96554 0.10343 61 54 65
1.49396 -0.97891 0.11689 72 62 60
1.50369 -0.98863 0.11593 80 67 63
1.51468 -0.99867 0.11441 85 70 68
1.51779 -1.00726 0.11657 96 81 78
1.50804 -1.01738 0.11417 124 109 104
1.53095 -1.01787 0.11413 112 95 86
1.53194 -1.02616 0.11731 122 108 97
1.53309 -1.03045 0.13098 129 119 107
1.52760 -1.03340 0.12294 130 120 112
1.51060 -1.06244 0.14527 161 150 139
1.50599 -1.06963 0.15102 171 161 150
1.49432 -1.08345 0.16361 190 177 169
1.48450 -1.09364 0.16119 199 185 179
1.45099 -1.13919 0.21233 220 211 199
1.46078 -1.12903 0.21474 217 203 197
1.45531 -1.13198 0.20673 220 207 203
1.44984 -1.13492 0.19872 222 211 204
1.42002 -1.13976 0.22954 188 179 173
1.46654 -1.15971 0.21303 113 93 94
1.47272 -1.19505 0.22551 84 82 65
1.49308 -1.20901 0.22063 34 40 62
1.48303 -1.21943 0.21816 11 9 24
1.49781 -1.21889 0.22248 14 11 30
1.48773 -1.22935 0.22000 12 10 17
2.07301 -1.48016 0.02496 35 34 47
2.07156 -1.47478 0.00779 36 30 48
2.09104 -1.49642 0.02239 106 103 81
2.09111 -1.50729 0.02723 131 125 90
2.09075 -1.51807 0.03226 134 124 90
2.09799 -1.53127 0.03423 105 96 79
2.08547 -1.54426 0.03114 94 83 82
3.08841 -2.19630 -0.20932 56 46 29
3.08644 -2.18897 -0.23271 65 49 47
3.07082 -2.20464 -0.19595 42 19 30
3.13427 -2.38798 -0.14839 9 5 11
3.13224 -2.38043 -0.17247 5 3 8
3.12460 -2.39319 -0.16256 7 4 11
3.12803 -2.40135 -0.13898 23 19 16
3.11858 -2.41332 -0.12843 36 30 33
3.07829 -2.44374 -0.09273 38 36 98
3.08031 -2.45125 -0.06875 48 44 93
3.06104 -2.46164 -0.09698 35 38 130
2.97090 -2.47462 -0.02011 44 61 145
2.97839 -2.46212 -0.02982 40 52 142
2.96891 -2.46723 -0.04371 31 47 134
2.95393 -2.49223 -0.02428 29 45 146
2.95246 -2.48193 -0.00674 40 55 146
2.93554 -2.49950 -0.01090 23 41 147
2.93701 -2.49058 0.00560 31 44 145
2.72791 -2.70619 0.21679 44 60 163
2.72596 -2.69893 0.19364 40 56 176
2.70941 -2.71220 0.22961 34 36 108
2.73011 -2.74027 0.23088 27 25 69
2.71339 -2.75762 0.22677 28 24 64
2.81452 -2.83874 0.22888 56 46 29
2.81251 -2.83126 0.20501 32 26 45
2.81443 -2.85574 0.23656 73 60 42
2.82212 -2.87736 0.24205 87 75 52
2.82480 -2.89615 0.24902 98 85 55
2.82613 -2.91422 0.25640 107 92 60
2.82816 -2.92178 0.28051 119 99 66
2.81848 -2.92700 0.26632 115 96 65
2.47505 -3.13861 0.54923 117 92 46
2.49171 -3.12131 0.55333 127 107 52
2.48240 -3.12633 0.53969 127 106 55
2.45621 -3.16021 0.56923 112 90 55
2.43956 -3.17749 0.56513 122 102 61
2.44652 -3.17079 0.57928 129 110 55
2.44847 -3.17804 0.60242 135 111 66
2.43918 -3.18305 0.58880 137 111 69
2.42988 -3.18806 0.57518 129 109 68
2.36067 -3.24826 0.66103 147 125 84
2.35873 -3.24106 0.63806 136 113 70
2.34660 -3.25524 0.67186 190 192 170
2.33990 -3.26783 0.68118 207 202 188
2.32341 -3.28494 0.67712 203 197 179
2.29773 -3.25293 0.69757 212 205 191
2.29965 -3.26005 0.72028 216 210 187
2.29053 -3.26497 0.70691 215 212 189
2.28140 -3.26988 0.69355 206 201 182
1.31008 -2.89545 1.07762 160 155 151
1.30861 -2.88995 1.06008 160 146 132
1.30304 -2.89925 1.06730 155 148 142
1.30501 -2.90521 1.08477 162 167 185
1.29385 -2.90922 1.09268 168 185 208
1.28320 -2.91367 1.10050 175 205 224
1.27237 -2.91788 1.10832 181 217 234
1.25984 -2.93089 1.10523 178 227 249
1.26079 -2.92131 1.11620 184 219 237
1.24829 -2.93429 1.11312 181 225 247
1.24980 -2.92524 1.12398 183 215 235
1.22041 -2.92569 1.14026 191 218 238
1.18313 -2.93233 1.16364 210 229 237
1.17235 -2.93602 1.17120 215 231 240
1.16208 -2.94017 1.17868 220 231 243
1.14985 -2.95286 1.17567 234 241 250
1.15087 -2.94330 1.18622 225 235 244
1.13866 -2.95597 1.18322 235 242 250
1.11785 -2.98193 1.22163 231 239 242
1.11642 -2.97663 1.20470 237 242 249
1.11433 -2.99285 1.22845 228 235 237
1.11041 -3.00336 1.23532 221 228 220
1.13863 -3.04794 1.23988 192 195 187
1.15070 -3.07572 1.24574 158 161 186
1.14010 -3.07941 1.25320 167 184 191
1.12767 -3.09231 1.25014 160 168 173
1.14079 -3.09522 1.25992 173 189 189
1.13887 -3.10828 1.26683 166 177 182
1.12628 -3.10975 1.27438 154 167 178
1.11739 -3.11519 1.28168 148 165 181
1.10501 -3.11674 1.28915 146 163 183
1.09458 -3.12035 1.29648 155 176 186
1.08212 -3.12164 1.30388 155 171 187
1.05736 -3.12415 1.31855 148 168 185
1.04511 -3.13686 1.31554 104 115 168
1.05854 -3.14065 1.32531 153 173 188
1.04626 -3.15340 1.32229 132 132 174
1.04951 -3.14558 1.33247 166 179 180
1.03724 -3.15831 1.32945 139 139 151
1.13119 -3.28633 1.35093 41 22 65
1.14397 -3.27306 1.35408 65 51 68
1.13683 -3.27691 1.34362 85 56 79
1.12969 -3.28076 1.33316 149 147 145
1.13833 -3.28248 1.36139 21 22 63
1.12453 -3.29455 1.35827 12 20 97
1.10471 -3.28733 1.36587 149 175 199
1.10367 -3.30207 1.37306 224 233 234
1.09890 -3.31245 1.38033 242 243 241
1.08617 -3.32566 1.37719 253 254 254
1.09889 -3.32853 1.38755 250 252 247
1.08614 -3.34177 1.38440 252 253 253
1.08695 -3.34651 1.40215 251 252 252
1.07420 -3.35975 1.39901 251 252 253
0.98385 -3.66885 1.60323 252 253 250
0.98233 -3.66317 1.58510 250 251 251
0.97657 -3.67277 1.59256 251 253 252
0.92794 -3.62509 1.61419 173 142 127
0.92480 -3.65560 1.62960 121 111 104
1.47898 -0.97218 0.11001 72 72 75
1.47786 -0.96800 0.09669 71 71 79
1.48222 -0.98062 0.11199 83 84 83
1.49082 -0.99013 0.11149 96 92 89
1.49949 -0.99972 0.11100 108 101 92
1.52915 -1.02966 0.10802 129 111 106
1.52366 -1.03262 0.09997 152 143 140
1.52547 -1.03704 0.11335 135 119 109
1.52662 -1.04133 0.12703 139 128 122
1.52112 -1.04429 0.11898 141 126 117
1.50685 -1.05761 0.13279 155 141 132
1.51667 -1.04742 0.13521 147 134 127
1.51118 -1.05037 0.12717 147 131 124
1.50136 -1.06057 0.12475 159 142 131
1.48862 -1.07000 0.14836 174 162 152
1.48586 -1.07755 0.15326 187 171 161
1.47607 -1.08772 0.15085 195 181 171
1.43255 -1.13892 0.21004 204 194 191
1.42760 -1.14594 0.21590 144 124 140
1.41786 -1.15604 0.21350 98 82 75
1.45668 -1.16158 0.20686 99 73 72
