ply
format ascii 1.0
element face 0
property list uchar int vertex_indices
element vertex 1321
property float x
property float y
property float z
property uchar diffuse_red
property uchar diffuse_green
property uchar diffuse_blue
end_header
1.69493 -0.05276 -0.71418 244 239 219
1.67739 -0.04813 -0.69021 230 222 217
1.61954 -0.08056 -0.62453 186 150 142
1.62476 -0.08929 -0.61627 221 239 246
1.65796 -0.19933 -0.49747 243 240 234
1.64680 -0.20016 -0.51226 251 248 241
1.65628 -0.21767 -0.49526 254 254 254
1.66102 -0.20837 -0.48787 252 251 247
1.65934 -0.22670 -0.48565 254 254 254
1.68154 -0.23362 -0.46645 254 253 243
1.67036 -0.23445 -0.48127 254 254 254
1.66670 -0.24545 -0.44534 210 194 196
1.77448 -0.23840 -0.50278 149 129 134
1.73012 -0.25479 -0.46274 95 70 52
1.17117 -0.62144 0.23672 39 34 37
1.16239 -0.62209 0.22509 49 42 34
1.19296 -0.62766 0.23440 72 65 64
1.19162 -0.64218 0.23615 111 115 94
1.20046 -0.64153 0.24787 73 77 61
1.20346 -0.64848 0.25497 36 32 25
1.20213 -0.66300 0.25672 26 23 24
1.63795 -0.85689 0.31147 4 20 62
1.62804 -0.85762 0.29834 12 19 17
2.02580 -0.96644 0.26887 250 254 253
2.02746 -0.94836 0.26668 254 254 254
2.02112 -0.95781 0.26049 254 254 254
2.03553 -0.97544 0.27540 218 207 232
2.01138 -0.99832 0.31419 44 32 56
2.04089 -1.01714 0.32370 65 69 83
2.05186 -1.01633 0.33822 91 99 124
2.05153 -1.02626 0.32997 68 79 101
2.06252 -1.02545 0.34452 101 109 146
2.05620 -1.03488 0.33833 88 101 126
4.55478 -1.56008 -0.15574 74 87 97
4.53642 -1.56144 -0.18007 63 59 58
4.40856 -1.55256 -0.09859 144 167 180
4.44297 -1.57047 -0.09240 195 206 206
4.44026 -1.59999 -0.08884 205 209 209
3.31545 -1.95494 0.88654 218 220 224
3.31748 -1.93273 0.88386 218 223 227
3.30971 -1.94434 0.87624 219 222 227
3.32322 -1.94334 0.89415 219 222 228
3.32896 -1.95394 0.90445 218 221 229
3.29678 -1.95915 0.90011 210 210 220
3.27995 -1.96374 0.91333 207 207 220
3.29333 -1.96275 0.93107 212 215 215
3.28563 -1.97424 0.92353 214 218 216
3.24493 -1.97230 0.93963 213 214 210
3.23731 -1.98368 0.93216 190 189 212
3.22873 -1.97680 0.95245 195 191 206
3.22674 -1.99848 0.95507 198 215 235
3.23097 -1.98624 0.96291 186 188 217
3.22780 -1.99418 0.97400 196 209 233
3.22686 -2.00270 0.98480 201 215 235
3.22600 -2.01122 0.99555 176 182 212
3.22679 -2.02017 1.00609 130 129 171
3.16073 -2.01030 1.02403 97 96 129
3.14261 -2.01374 1.03643 87 93 106
3.13218 -2.01928 1.04790 87 89 102
3.13025 -2.04030 1.05044 74 64 78
3.12634 -2.02608 1.05882 81 75 94
3.13853 -2.03805 1.06785 69 65 81
3.17952 -2.07540 1.09470 61 55 59
0.55893 0.43023 -0.78114 166 206 253
0.55027 0.42959 -0.79262 107 134 210
0.56574 0.42526 -0.77820 194 236 252
0.57442 0.42590 -0.76670 195 231 248
0.56942 0.41845 -0.77159 198 235 249
0.56443 0.41100 -0.77648 200 240 250
0.89339 0.31955 -0.79988 172 212 253
0.89483 0.33530 -0.80178 181 217 250
0.88932 0.32707 -0.80718 174 216 252
0.89890 0.32778 -0.79448 177 215 252
0.90297 0.32026 -0.78718 173 212 252
0.89788 0.31222 -0.79301 165 206 254
0.90747 0.31293 -0.78031 171 212 252
0.90042 0.30402 -0.78417 159 199 253
0.90186 0.29535 -0.77425 155 196 254
0.91023 0.28973 -0.77124 149 191 254
0.91462 0.28235 -0.76426 142 183 251
0.92389 0.27706 -0.76207 126 167 244
0.94184 0.27543 -0.76833 115 147 229
0.96942 0.27775 -0.78384 73 103 186
0.99472 0.27893 -0.79691 43 61 129
1.00339 0.27306 -0.79374 34 48 115
1.00190 0.25685 -0.79178 44 41 56
1.00252 0.26325 -0.78137 35 46 95
1.00104 0.24707 -0.77941 35 33 54
1.00250 0.25382 -0.76986 33 36 76
1.00696 0.24623 -0.76264 38 32 72
1.00548 0.23008 -0.76069 45 46 68
1.06651 0.20363 -0.73805 13 13 32
1.07234 0.19641 -0.73193 16 19 45
1.06656 0.18492 -0.71526 27 31 55
1.08100 0.18086 -0.71694 41 45 75
1.10037 0.17850 -0.72297 52 69 109
1.14737 0.18588 -0.75358 64 91 140
1.15501 0.17906 -0.74877 83 115 170
1.15348 0.16229 -0.74674 118 150 230
1.36146 0.12085 -0.77266 141 191 232
1.36365 0.11167 -0.76247 221 234 241
1.36787 0.10310 -0.75396 243 238 234
1.72065 0.07810 -0.88563 232 218 179
1.72777 0.06928 -0.87814 197 182 149
1.72598 0.04969 -0.87578 179 120 138
1.73744 0.06108 -0.87258 161 125 129
1.72836 0.04822 -0.85273 178 141 126
1.71169 0.02316 -0.81449 153 126 121
1.70151 0.01032 -0.79416 188 174 155
1.69320 -0.00197 -0.77534 229 233 227
1.69008 -0.01299 -0.76047 246 241 220
1.69102 -0.02303 -0.74865 247 238 216
1.68926 -0.04214 -0.74634 249 252 243
1.68269 -0.03512 -0.73008 238 232 197
1.67397 -0.04720 -0.71133 229 221 181
1.66551 -0.06918 -0.68063 244 233 204
1.64562 -0.08338 -0.65417 231 207 146
1.63936 -0.09459 -0.63761 187 176 145
1.62423 -0.10754 -0.61487 233 250 254
1.68984 -0.24092 -0.48233 254 252 246
1.67861 -0.24175 -0.49722 254 254 254
1.67831 -0.25222 -0.46324 225 208 210
1.79917 -0.24356 -0.52936 176 156 144
1.74728 -0.26101 -0.48422 111 87 55
1.74556 -0.27972 -0.48196 95 76 70
1.17709 -0.62857 0.22623 39 34 43
1.16828 -0.62922 0.21455 49 43 31
1.19721 -0.63492 0.22474 71 70 62
1.19587 -0.64950 0.22650 114 118 90
1.20479 -0.64884 0.23823 76 77 59
1.20721 -0.65584 0.24565 36 32 22
1.20587 -0.67040 0.24741 23 22 23
1.63801 -0.86566 0.30356 6 19 62
1.65663 -0.87415 0.30536 174 216 235
1.66661 -0.87342 0.31858 246 252 254
1.96037 -0.96340 0.27460 243 254 253
1.96200 -0.94561 0.27245 254 254 254
1.95577 -0.95490 0.26635 254 254 254
2.02483 -0.97628 0.26068 205 179 228
1.99489 -0.98231 0.28180 113 80 145
1.99188 -0.99027 0.29289 43 32 68
1.99577 -0.99875 0.30145 35 26 48
2.00938 -1.00803 0.30652 52 41 56
2.02284 -1.01735 0.31169 71 59 59
2.03497 -1.02658 0.31739 70 52 58
2.03779 -1.03502 0.32638 64 40 57
2.05287 -1.04458 0.33111 84 61 91
2.06386 -1.04377 0.34567 102 125 166
4.43243 -1.55986 -0.13420 70 77 87
4.41442 -1.56119 -0.15807 64 59 56
4.42377 -1.57162 -0.11587 121 142 158
4.41771 -1.58370 -0.09835 184 198 203
3.32295 -1.96144 0.86566 213 216 221
3.32500 -1.93913 0.86297 218 221 227
3.31718 -1.95079 0.85532 217 220 225
3.29004 -1.96191 0.88136 203 203 209
3.28801 -1.98403 0.88404 168 176 191
3.25198 -1.96086 0.89758 187 186 202
3.25167 -1.96973 0.90854 193 197 209
3.23698 -1.97471 0.92137 201 203 212
3.21269 -1.98582 0.94609 187 197 225
3.21301 -2.00347 0.96748 188 200 218
3.19811 -2.00807 0.97993 154 155 184
3.19903 -2.01703 0.99044 114 111 146
3.16970 -2.01743 1.00441 92 92 118
3.14233 -2.01826 1.01800 91 90 99
3.14039 -2.03941 1.02055 65 62 59
3.13217 -2.02388 1.02953 81 85 81
3.12488 -2.03028 1.04069 71 69 77
3.12661 -2.04768 1.06112 72 71 77
3.14082 -2.06028 1.06996 71 73 83
3.17411 -2.08702 1.08727 100 100 96
3.18772 -2.09954 1.09629 95 92 82
3.19319 -2.10965 1.10610 85 84 75
3.18578 -2.12070 1.09884 92 89 91
0.54761 0.41909 -0.77854 144 181 238
0.53898 0.41845 -0.78998 112 135 211
0.54631 0.40490 -0.77682 179 223 253
0.56159 0.41829 -0.78408 191 239 252
0.56028 0.40403 -0.78236 199 240 251
0.86494 0.32891 -0.81610 170 213 253
0.86638 0.34458 -0.81799 180 218 250
0.86089 0.33639 -0.82336 175 216 252
0.87043 0.33709 -0.81072 177 217 251
0.87448 0.32961 -0.80346 175 215 252
0.87300 0.32326 -0.81295 159 203 254
0.88040 0.31729 -0.80909 156 201 253
0.88730 0.31107 -0.80470 154 194 252
0.90977 0.31178 -0.81604 139 181 248
0.94569 0.31831 -0.84076 121 156 237
0.95677 0.31368 -0.84026 116 154 236
0.96360 0.30713 -0.83543 107 140 233
0.92618 0.28148 -0.78662 94 123 219
0.94346 0.27954 -0.79230 75 103 193
0.98315 0.28697 -0.81989 59 76 155
0.98890 0.27989 -0.81390 46 59 110
0.99222 0.27179 -0.80555 42 49 77
0.99169 0.26212 -0.79346 42 44 59
1.00521 0.23935 -0.77191 42 37 72
0.99537 0.23862 -0.78496 42 58 59
1.03356 0.21292 -0.75279 39 52 58
1.04938 0.19083 -0.73314 45 50 79
1.07989 0.19277 -0.74973 53 73 124
1.08414 0.18491 -0.74210 69 99 148
1.08263 0.16846 -0.74012 98 146 224
1.11266 0.18583 -0.75651 86 123 178
1.11114 0.16922 -0.75450 105 147 228
1.11156 0.17597 -0.74393 98 141 205
1.13250 0.17395 -0.75123 104 150 219
1.31159 0.13741 -0.78998 85 134 220
1.31758 0.12948 -0.78307 87 140 228
1.34716 0.09933 -0.75998 157 190 227
1.36749 0.09557 -0.76485 230 232 230
1.37353 0.08752 -0.75782 248 243 240
1.37190 0.06977 -0.75568 254 254 253
1.68097 0.07007 -0.87974 252 254 248
1.70205 0.06489 -0.88322 243 242 228
1.70562 0.05521 -0.87304 212 181 178
1.70022 0.03283 -0.84315 205 180 170
1.66845 0.01472 -0.80620 223 218 196
1.68143 0.00748 -0.80338 212 195 163
1.70135 0.00180 -0.80572 188 173 131
1.68371 -0.01263 -0.77984 191 168 157
1.67616 -0.02462 -0.76166 229 230 225
1.69465 -0.03070 -0.76284 240 244 246
1.68172 -0.05397 -0.72835 245 239 227
1.68329 -0.06378 -0.71709 247 220 218
1.66434 -0.07788 -0.69101 252 253 244
1.66144 -0.08850 -0.67666 247 243 216
1.64674 -0.10148 -0.65394 200 200 168
1.64331 -0.11206 -0.63940 219 228 196
1.70135 -0.24780 -0.50040 254 253 249
1.69005 -0.24864 -0.51537 254 254 254
1.69405 -0.25848 -0.48394 238 223 212
1.75931 -0.25840 -0.51445 174 158 149
1.76742 -0.26693 -0.50779 124 114 123
1.18581 -0.63566 0.21426 41 36 46
1.17695 -0.63632 0.20252 51 44 40
1.20131 -0.64225 0.21509 70 72 59
1.19997 -0.65687 0.21686 116 117 91
1.20875 -0.65622 0.22872 81 80 59
1.21224 -0.66321 0.23564 33 30 22
1.21090 -0.67783 0.23741 25 22 16
1.64272 -0.86708 0.28442 8 15 31
1.64422 -0.85069 0.28244 21 23 12
1.63848 -0.85925 0.27682 21 22 22
1.63274 -0.86782 0.27120 22 20 21
1.59541 -0.87237 0.31294 12 46 76
1.64187 -0.88225 0.30338 178 226 238
1.64037 -0.89859 0.30535 247 253 254
1.64620 -0.89006 0.31091 247 253 254
1.64470 -0.90640 0.31288 254 254 254
1.88255 -0.95141 0.27582 254 254 254
1.88415 -0.93395 0.27371 254 254 254
1.87804 -0.94307 0.26772 254 254 254
1.88866 -0.94228 0.28181 254 254 254
1.91625 -0.96182 0.27286 230 250 231
1.94497 -0.98014 0.28188 87 56 108
1.96894 -0.99013 0.28293 46 17 76
1.98967 -0.99994 0.28527 47 22 39
1.98935 -1.00808 0.29538 53 36 36
1.99950 -1.01709 0.30167 78 56 52
2.01975 -1.02702 0.30438 115 92 74
2.02671 -1.03582 0.31190 124 99 79
2.02506 -1.05382 0.31408 150 128 99
2.03466 -1.04472 0.31909 129 103 84
2.06552 -1.06404 0.32833 145 122 108
3.53579 -1.35677 0.00130 102 66 55
3.53812 -1.33141 -0.00176 153 137 102
3.52923 -1.34466 -0.01046 143 106 78
3.52035 -1.35791 -0.01915 171 106 92
3.54467 -1.34352 0.01000 141 128 105
3.55123 -1.35563 0.02176 120 108 106
3.53844 -1.36838 0.01426 65 44 67
3.55386 -1.36724 0.03470 100 87 94
3.54499 -1.38048 0.02601 49 37 61
4.40800 -1.58624 -0.12444 106 117 139
4.38310 -1.59543 -0.10159 173 187 197
4.40618 -1.61180 -0.09233 201 205 209
4.42408 -1.61048 -0.06861 208 208 212
4.41378 -1.62584 -0.07870 205 206 209
4.40349 -1.64120 -0.08878 203 205 208
3.36059 -1.96663 0.82893 215 219 226
3.36266 -1.94405 0.82620 218 220 225
3.35475 -1.95585 0.81846 217 219 226
3.36850 -1.95483 0.83667 219 222 226
3.27945 -1.96366 0.86311 194 194 202
3.25968 -1.96745 0.87695 178 180 190
3.22306 -1.97551 0.90388 170 178 200
3.21262 -1.99038 0.92693 192 208 230
3.21033 -1.99856 0.93800 195 210 229
3.19520 -2.00315 0.95066 169 176 206
3.20870 -2.01566 0.95967 126 129 169
3.17698 -2.01547 0.97422 94 100 129
3.17501 -2.03689 0.97681 85 79 87
3.16710 -2.02133 0.98599 88 90 98
3.16514 -2.04268 0.98857 81 80 76
3.15275 -2.02585 0.99822 86 82 83
3.15080 -2.04711 1.00078 73 71 77
3.13919 -2.03053 1.01026 80 72 75
3.12315 -2.04290 1.03286 62 67 64
3.12357 -2.05148 1.04316 82 87 97
3.12320 -2.05981 1.05352 97 100 109
3.12925 -2.07001 1.06319 108 109 117
3.12732 -2.09101 1.06572 118 124 126
3.13247 -2.07938 1.07314 119 121 124
3.13826 -2.08951 1.08284 117 120 119
0.54291 0.41183 -0.78372 130 167 242
0.53427 0.41119 -0.79516 122 146 243
0.53794 0.40441 -0.78858 125 158 249
0.84015 0.34917 -0.84725 179 218 252
0.84159 0.36481 -0.84914 190 223 249
0.83611 0.35664 -0.85450 185 223 251
0.84563 0.35734 -0.84188 184 222 250
0.84968 0.34987 -0.83462 179 218 251
0.84334 0.34129 -0.83909 171 211 253
0.85287 0.34199 -0.82648 178 219 251
0.84795 0.33409 -0.83243 162 206 253
0.85310 0.32713 -0.82633 157 200 253
0.85974 0.32085 -0.82176 149 191 249
0.86188 0.31249 -0.81253 136 171 245
0.90642 0.32336 -0.84689 118 150 237
0.92361 0.32162 -0.85288 109 132 229
0.92130 0.31109 -0.83887 87 112 208
0.93412 0.30729 -0.84027 70 82 163
0.93894 0.29993 -0.83351 65 84 158
0.95265 0.29640 -0.83566 55 67 148
0.95283 0.28700 -0.82421 41 50 121
0.96560 0.28298 -0.82531 30 42 94
0.96412 0.26683 -0.82336 12 13 33
0.97270 0.27650 -0.82072 20 26 68
0.97122 0.26034 -0.81876 13 14 33
0.98179 0.27083 -0.81805 12 17 53
0.98695 0.26350 -0.81150 12 15 43
0.99159 0.25594 -0.80442 26 26 51
0.99221 0.24676 -0.79345 39 51 53
0.99669 0.22976 -0.77472 47 57 72
1.01277 0.22673 -0.77859 38 47 57
1.02265 0.22746 -0.76549 42 49 58
1.02017 0.22022 -0.77411 24 30 52
1.04802 0.21211 -0.77731 66 77 106
1.05781 0.20639 -0.77491 79 107 144
1.06675 0.20030 -0.77167 94 124 167
1.08500 0.19762 -0.77700 98 131 190
1.08397 0.18778 -0.76444 97 140 210
1.10190 0.18484 -0.76931 98 146 217
1.12666 0.16523 -0.75695 102 145 224
1.12513 0.14855 -0.75493 56 80 148
1.30269 0.14704 -0.81777 116 159 236
1.30286 0.13724 -0.80583 92 144 239
1.31531 0.13133 -0.80447 91 146 243
1.31623 0.12179 -0.79319 96 148 246
1.31899 0.11284 -0.78352 100 151 241
1.36133 0.08632 -0.77098 214 230 242
1.36730 0.07824 -0.76390 250 252 251
1.67766 0.05029 -0.87620 215 203 196
1.70943 0.04766 -0.88798 178 151 141
1.74180 0.04501 -0.90001 182 132 108
1.68833 0.02147 -0.84588 203 183 169
1.64168 -0.00006 -0.79745 241 240 235
1.63993 -0.01909 -0.79515 247 244 245
1.64401 -0.00975 -0.78665 247 244 226
1.66125 -0.01599 -0.78714 223 217 195
1.67621 -0.02283 -0.78582 185 170 165
1.67445 -0.04199 -0.78351 208 161 120
1.68857 -0.03031 -0.78248 194 184 167
1.69426 -0.03932 -0.77412 199 175 161
1.68318 -0.05199 -0.75335 218 224 238
1.67831 -0.06322 -0.73727 214 210 235
1.67397 -0.07427 -0.72166 242 224 225
1.66789 -0.08563 -0.70486 254 254 253
1.65718 -0.09785 -0.68480 252 251 245
1.64136 -0.11101 -0.66119 236 230 214
1.63964 -0.12971 -0.65893 192 200 220
1.64015 -0.12114 -0.64820 186 197 189
1.62378 -0.13418 -0.62447 233 249 254
1.62724 -0.16276 -0.59105 252 254 254
1.62893 -0.14429 -0.59328 254 254 254
1.62246 -0.15394 -0.59961 254 254 254
1.63371 -0.15311 -0.58472 254 254 254
1.63848 -0.16193 -0.57615 254 254 254
1.62554 -0.18123 -0.58882 245 226 224
1.69180 -0.25796 -0.50477 254 253 250
1.68052 -0.25879 -0.51972 254 254 254
1.67274 -0.27033 -0.48059 244 232 209
1.74728 -0.26903 -0.51738 156 144 138
1.74730 -0.27870 -0.50553 145 140 146
1.19440 -0.64284 0.20228 44 39 48
1.18549 -0.64350 0.19047 54 47 40
1.20313 -0.64969 0.20655 71 70 56
1.20178 -0.66435 0.20832 117 117 94
1.21035 -0.66370 0.22033 83 83 61
1.21703 -0.67065 0.22569 36 31 20
1.21568 -0.68533 0.22747 25 21 14
1.64415 -0.87600 0.27585 9 12 32
1.63415 -0.87674 0.26260 23 19 24
1.64546 -0.89130 0.29400 176 222 236
1.64395 -0.90768 0.29598 241 251 254
1.85449 -0.95098 0.26849 239 254 254
1.85609 -0.93362 0.26639 254 254 254
1.85000 -0.94269 0.26043 254 254 254
1.91093 -0.96301 0.25658 210 203 238
1.90549 -0.97069 0.26857 125 117 157
1.93022 -0.98063 0.26909 60 52 63
1.94949 -0.99025 0.27178 46 19 43
1.96772 -0.99985 0.27495 56 30 58
1.96518 -1.00777 0.28587 95 77 85
1.97325 -1.01657 0.29285 143 141 123
1.98234 -1.02548 0.29949 161 154 107
2.00774 -1.03590 0.30027 157 136 63
2.01966 -1.04516 0.30600 153 127 69
2.05103 -1.06451 0.31492 145 122 114
2.06292 -1.07389 0.32081 147 115 123
2.08958 -1.08482 0.32162 151 125 135
2.10070 -1.08400 0.33635 125 90 147
2.09430 -1.09354 0.33009 137 114 126
2.08790 -1.10309 0.32383 116 82 108
3.53394 -1.37095 -0.00959 145 77 51
3.51848 -1.37209 -0.03008 150 112 111
3.52505 -1.38422 -0.01830 170 112 98
3.53161 -1.39635 -0.00652 170 96 71
3.55194 -1.38460 -0.00134 93 38 24
3.53457 -1.39351 0.01780 58 25 24
3.54999 -1.39237 0.03823 49 40 42
3.54112 -1.40561 0.02954 57 27 20
4.36828 -1.59721 -0.12611 107 114 132
4.35042 -1.59853 -0.14978 69 69 84
4.32251 -1.60304 -0.09734 167 180 188
4.35801 -1.62127 -0.09174 197 203 209
4.35533 -1.65048 -0.08822 201 205 207
3.26315 -1.96391 0.84566 183 186 203
3.23731 -1.97501 0.87148 173 179 195
3.21204 -1.97710 0.88598 173 185 204
3.18738 -1.98805 0.91106 195 210 231
3.18600 -1.99645 0.92202 183 195 208
3.18467 -2.00484 0.93293 146 146 171
3.18269 -2.02641 0.93554 83 82 100
3.15808 -2.00611 0.94705 102 103 132
3.16425 -2.01652 0.95691 80 88 105
3.16310 -2.02485 0.96766 81 80 97
3.13459 -2.05092 1.01312 77 69 87
3.12605 -2.05691 1.02450 87 90 96
3.12412 -2.07800 1.02704 110 113 119
3.11459 -2.06198 1.03613 100 109 111
3.11266 -2.08299 1.03867 112 114 121
3.11001 -2.06904 1.04694 108 113 118
3.10808 -2.09000 1.04948 116 121 124
3.11389 -2.07859 1.05683 114 118 124
3.12143 -2.09761 1.07659 105 106 113
3.11951 -2.11855 1.07912 89 84 88
3.13910 -2.11134 1.08510 85 85 97
3.13718 -2.13234 1.08764 96 100 103
0.83244 0.35877 -0.87342 176 216 253
0.82920 0.34778 -0.85834 171 216 253
0.83448 0.34090 -0.85241 164 204 253
0.83613 0.33230 -0.84263 146 184 249
0.83575 0.32277 -0.83072 124 158 240
0.90240 0.32522 -0.86564 88 102 196
0.87458 0.30320 -0.82524 72 86 169
0.90752 0.30856 -0.84760 65 80 148
0.92628 0.30742 -0.85518 56 68 118
0.93135 0.30016 -0.84867 49 53 76
0.95652 0.30162 -0.86251 35 45 61
0.95503 0.28541 -0.86055 11 9 27
0.95728 0.29240 -0.85154 18 26 61
0.96749 0.28724 -0.85008 9 14 49
0.97077 0.27911 -0.84165 11 13 37
1.02568 0.22551 -0.80199 14 11 37
1.03519 0.21974 -0.79945 7 9 44
1.03359 0.20967 -0.78630 56 68 101
1.04665 0.20521 -0.78706 104 137 177
1.05734 0.19979 -0.78551 121 158 208
1.06280 0.19238 -0.77901 119 156 210
1.07920 0.18897 -0.78267 101 134 204
1.07805 0.17910 -0.76998 85 121 198
1.08741 0.17305 -0.76701 80 119 196
1.08762 0.14494 -0.73254 85 111 173
1.08610 0.12848 -0.73055 31 38 87
1.29520 0.13742 -0.82265 101 132 226
1.30312 0.13008 -0.81742 82 129 236
1.30777 0.12170 -0.80933 92 147 247
1.30929 0.11235 -0.79856 120 171 251
1.30116 0.10009 -0.77959 148 188 247
1.31060 0.09321 -0.77564 171 194 222
1.32011 0.08631 -0.77171 155 168 172
1.30694 0.06306 -0.73680 181 189 214
1.35611 0.06754 -0.76586 230 237 247
1.36472 0.06022 -0.76096 251 253 254
1.37552 0.06102 -0.74665 254 254 254
1.36930 0.05174 -0.75274 254 254 254
1.66998 0.03994 -0.88215 220 199 195
1.69206 0.03487 -0.88648 191 167 154
1.68021 0.02148 -0.86434 213 191 141
1.65805 0.00575 -0.83438 214 195 193
1.62216 -0.01302 -0.79411 238 230 235
1.66426 -0.03402 -0.78844 209 190 164
1.69222 -0.04834 -0.78420 204 175 171
1.65221 -0.07728 -0.72944 119 137 182
1.65047 -0.09622 -0.72716 118 129 116
1.65506 -0.09679 -0.70682 224 243 254
1.65908 -0.10598 -0.69744 247 253 252
1.64773 -0.11822 -0.67694 245 243 240
1.62256 -0.14285 -0.63459 234 235 237
1.62016 -0.15308 -0.62086 254 254 254
1.62288 -0.16231 -0.61081 250 253 253
1.62344 -0.17192 -0.59926 244 232 242
1.67901 -0.26858 -0.50696 254 252 247
1.66774 -0.26941 -0.52189 254 254 254
1.66392 -0.28029 -0.48533 242 229 206
1.19788 -0.65024 0.19283 45 42 44
1.18894 -0.65090 0.18098 58 50 29
1.20213 -0.65724 0.19941 71 70 53
1.20078 -0.67193 0.20118 120 119 95
1.21033 -0.67126 0.21273 87 80 67
1.22079 -0.67816 0.21620 39 28 21
1.21944 -0.69289 0.21798 31 20 15
1.64392 -0.88487 0.26793 10 11 36
1.63391 -0.88561 0.25466 21 19 18
1.60977 -0.89062 0.29135 19 24 94
1.81672 -0.94987 0.26517 224 249 232
1.80040 -0.95659 0.28125 155 164 155
1.87966 -0.97035 0.26023 72 52 102
1.89196 -0.97931 0.26537 35 19 51
1.91114 -0.98886 0.26793 49 34 34
1.92674 -0.99818 0.27193 82 63 72
1.92511 -1.01587 0.27407 140 153 167
1.93146 -1.00664 0.28008 125 118 128
1.95787 -1.01698 0.28015 157 164 160
1.96621 -1.02582 0.28703 170 178 182
1.96959 -1.03421 0.29575 174 182 174
1.97472 -1.04277 0.30381 172 168 124
2.00936 -1.05418 0.30126 163 142 70
2.01771 -1.06313 0.30827 150 114 68
2.02002 -1.07148 0.31745 126 89 81
2.03773 -1.08142 0.32120 120 88 84
2.05934 -1.09184 0.32367 128 94 105
2.07786 -1.11018 0.33736 89 72 109
2.08423 -1.10067 0.34359 122 101 124
2.08894 -1.10936 0.35203 150 155 171
2.08256 -1.11886 0.34579 110 117 159
3.05477 -1.28042 0.07913 209 191 176
3.05690 -1.25731 0.07634 148 119 100
3.04071 -1.28146 0.06050 254 252 243
3.06287 -1.26835 0.08705 149 107 114
3.06884 -1.27938 0.09776 168 105 112
3.06074 -1.29145 0.08984 179 144 121
3.51771 -1.40565 0.01157 155 86 66
3.50231 -1.40679 -0.00883 147 118 116
3.50885 -1.41886 0.00290 168 121 116
3.51539 -1.43094 0.01463 176 114 103
3.57047 -1.42422 0.00916 130 71 53
3.58601 -1.42307 0.02976 60 39 35
3.56813 -1.44975 0.01225 165 92 84
4.34100 -1.60992 -0.13126 113 124 136
4.32320 -1.61123 -0.15485 81 72 82
4.33076 -1.62520 -0.14129 120 128 139
4.28140 -1.61340 -0.09845 166 179 182
4.27875 -1.64231 -0.09495 193 198 203
4.32338 -1.63267 -0.09484 196 202 207
4.32071 -1.66175 -0.09132 199 204 205
3.26348 -1.96858 0.82573 176 179 198
3.22010 -1.97496 0.85434 175 180 202
3.20630 -1.98013 0.86731 180 191 218
3.16583 -1.97793 0.88397 188 208 231
3.16477 -1.98642 0.89492 189 206 229
3.17616 -1.99834 0.90414 161 170 196
3.12255 -1.99210 0.92213 119 117 149
3.13999 -2.00565 0.93045 90 82 112
3.17003 -2.03150 0.94787 90 94 99
3.16249 -2.03800 0.95947 100 97 101
3.16360 -2.04695 0.96995 97 96 102
3.16164 -2.06835 0.97253 74 67 86
3.16509 -2.05599 0.98036 78 83 84
3.15826 -2.06258 0.99173 70 71 81
3.13934 -2.06556 1.00445 91 93 109
3.13740 -2.08678 1.00702 107 114 121
3.12805 -2.07072 1.01620 106 110 117
3.12611 -2.09185 1.01875 109 112 123
3.08688 -2.09192 1.06198 117 118 120
3.07420 -2.09285 1.04517 115 121 129
3.08213 -2.09877 1.07268 101 95 101
0.75276 0.36093 -0.85559 180 222 251
0.75417 0.37624 -0.85744 191 228 249
0.74881 0.36824 -0.86269 188 226 250
0.75812 0.36893 -0.85034 188 225 249
0.76208 0.36162 -0.84324 185 224 250
0.76209 0.35630 -0.85440 172 213 253
0.77143 0.35699 -0.84202 183 222 250
0.77963 0.35568 -0.86215 165 210 253
0.81442 0.35395 -0.87689 156 200 254
0.82633 0.35027 -0.87813 147 189 251
0.80974 0.33293 -0.84869 130 171 246
0.82603 0.33132 -0.85460 120 152 238
0.85052 0.33344 -0.86911 90 116 214
0.83343 0.31608 -0.83940 77 87 166
0.83368 0.30688 -0.82816 66 77 157
0.92053 0.31803 -0.88405 46 53 90
0.91906 0.30192 -0.88211 11 11 48
0.93525 0.31502 -0.88748 35 36 72
0.93376 0.29883 -0.88552 12 12 41
0.93513 0.30540 -0.87555 17 21 57
0.94450 0.29995 -0.87338 9 12 43
0.95215 0.29371 -0.86939 13 9 36
0.96180 0.27876 -0.85564 12 12 37
0.96509 0.27064 -0.84721 16 15 40
0.96360 0.25442 -0.84525 55 69 103
0.96696 0.26193 -0.83737 19 19 34
0.96590 0.25203 -0.82465 32 30 52
0.97919 0.24803 -0.82616 45 43 62
1.03627 0.21379 -0.81162 6 9 30
1.02627 0.21305 -0.82488 7 12 26
1.03052 0.20520 -0.81725 7 12 21
1.05051 0.20974 -0.81352 22 29 59
1.05725 0.20278 -0.80821 42 66 126
1.05808 0.19361 -0.79730 54 67 144
1.06421 0.18642 -0.79140 67 75 143
1.07866 0.18224 -0.79326 70 76 136
1.07713 0.16566 -0.79126 47 45 80
1.10158 0.18105 -0.80291 59 65 123
1.10781 0.17376 -0.79694 48 57 117
1.12034 0.16868 -0.79675 49 67 114
1.13064 0.16275 -0.79443 57 68 115
1.16909 0.16652 -0.81773 44 54 105
1.16752 0.14948 -0.81568 25 25 56
1.35264 0.14835 -0.88436 42 57 142
1.32421 0.12940 -0.84720 41 64 157
1.34256 0.12516 -0.85086 54 91 179
1.29336 0.10018 -0.79618 98 139 206
1.30006 0.09246 -0.78991 152 185 228
1.30452 0.08406 -0.78171 188 208 231
1.30056 0.07318 -0.76637 188 200 205
1.31716 0.06834 -0.76845 156 162 169
1.31425 0.04815 -0.74214 172 188 207
1.35271 0.04932 -0.76224 222 233 243
1.36462 0.04290 -0.76009 249 252 254
1.37543 0.04370 -0.74577 254 254 254
1.36921 0.03442 -0.75186 254 254 254
1.62366 0.02010 -0.85763 225 194 206
1.65745 0.01795 -0.87138 204 165 183
1.60470 -0.00507 -0.81739 234 236 210
1.62141 -0.01133 -0.81777 235 223 222
1.61306 -0.02350 -0.79871 240 224 226
1.62467 -0.03101 -0.79508 249 250 249
1.60528 -0.05562 -0.75531 243 233 200
1.63896 -0.06842 -0.75586 178 139 150
1.62747 -0.08094 -0.73484 155 121 137
1.66046 -0.10422 -0.72212 155 154 186
1.66021 -0.11430 -0.70957 210 205 208
1.63381 -0.12947 -0.67805 205 219 244
1.64948 -0.13633 -0.67719 179 179 222
1.62353 -0.15114 -0.64633 228 213 220
1.61342 -0.16281 -0.62704 251 249 250
1.61689 -0.17189 -0.61751 243 227 240
1.62031 -0.18098 -0.60796 246 224 237
1.61861 -0.19949 -0.60573 254 254 253
1.65096 -0.29082 -0.48733 236 219 208
1.65230 -0.30005 -0.47660 203 176 166
1.65062 -0.31838 -0.47438 114 86 86
1.19789 -0.65778 0.18513 50 43 38
1.18893 -0.65845 0.17326 61 52 37
1.20167 -0.66481 0.19197 74 70 49
1.21064 -0.67884 0.20492 90 81 70
1.22257 -0.68575 0.20766 47 28 23
1.22121 -0.70052 0.20944 34 22 14
1.63428 -0.89326 0.26390 7 11 27
1.62428 -0.89400 0.25065 20 18 20
1.64068 -0.90883 0.28001 164 188 222
1.72621 -0.94502 0.28316 195 180 231
1.80831 -0.95869 0.26020 105 106 167
1.80673 -0.97590 0.26228 27 16 54
1.86571 -0.97089 0.24740 39 31 81
1.87004 -0.97923 0.25559 38 11 61
1.88919 -0.98875 0.25804 51 38 55
1.90829 -0.99834 0.26061 89 92 94
1.91981 -1.00736 0.26615 126 139 146
1.93949 -1.02519 0.27860 132 144 165
1.95116 -1.03432 0.28419 130 144 170
1.96372 -1.04356 0.28950 144 160 178
1.96577 -1.05182 0.29870 166 174 182
1.96045 -1.05934 0.31055 171 154 144
2.01420 -1.07281 0.30110 151 115 87
1.99830 -1.07928 0.31678 122 86 62
1.99110 -1.08657 0.32927 102 65 63
1.99431 -1.09493 0.33803 95 49 72
2.02175 -1.10599 0.33836 85 42 72
2.03514 -1.11555 0.34366 73 46 71
2.04889 -1.12520 0.34890 73 54 97
2.05988 -1.12439 0.36345 191 202 220
2.05356 -1.13382 0.35726 136 131 175
3.04417 -1.29217 0.07203 250 246 235
3.03012 -1.29321 0.05341 254 254 254
3.03609 -1.30423 0.06412 254 254 252
3.05027 -1.30321 0.08269 232 221 189
3.03643 -1.31162 0.09978 194 170 129
3.04237 -1.32260 0.11044 147 124 115
4.24018 -1.62355 -0.09938 166 176 182
4.22268 -1.62485 -0.12257 155 129 139
4.23011 -1.63858 -0.10924 177 171 181
4.23754 -1.65231 -0.09591 194 196 201
3.23768 -1.96629 0.80974 173 178 193
3.21656 -1.97860 0.83517 175 184 208
3.16539 -1.99120 0.87553 179 190 215
3.10163 -1.98220 0.89536 142 141 175
3.09968 -2.00353 0.89794 74 74 84
3.11243 -1.99387 0.90452 98 96 130
3.12111 -2.00496 0.91399 79 81 108
3.13207 -2.01671 0.92317 90 87 107
3.13010 -2.03810 0.92575 144 152 155
3.14844 -2.03003 0.93166 105 106 112
3.14647 -2.05148 0.93425 150 159 155
3.16745 -2.04416 0.93986 123 132 131
3.17844 -2.05600 0.94914 133 137 135
3.17646 -2.07754 0.95174 80 61 92
3.16566 -2.07813 0.98264 82 86 97
3.16369 -2.09952 0.98522 105 110 118
3.13887 -2.07872 0.99636 101 111 118
3.13692 -2.09997 0.99893 105 111 124
3.03928 -2.09864 1.06925 91 88 97
0.53678 0.39464 -0.80889 107 145 224
0.53809 0.40889 -0.81061 114 140 234
0.53309 0.40144 -0.81550 92 120 197
0.54177 0.40209 -0.80400 119 150 242
0.53178 0.38719 -0.81377 102 144 185
0.54545 0.39528 -0.79739 138 172 238
0.72039 0.36709 -0.86508 184 221 252
0.72179 0.38229 -0.86691 194 233 250
0.71646 0.37435 -0.87212 191 231 251
0.72572 0.37503 -0.85986 192 227 249
0.72964 0.36778 -0.85282 192 227 249
0.73700 0.35699 -0.86075 165 209 251
0.74625 0.35236 -0.85956 161 207 253
0.75847 0.34915 -0.86160 152 192 252
0.78835 0.35455 -0.88297 126 162 246
0.81509 0.34875 -0.88893 111 143 238
0.79986 0.33203 -0.86077 101 121 220
0.85412 0.34846 -0.90777 74 97 186
0.82515 0.32532 -0.86489 61 75 151
0.81730 0.31229 -0.84492 51 57 130
0.83364 0.31054 -0.85079 47 51 92
0.87869 0.32184 -0.88691 33 34 71
0.87723 0.30589 -0.88498 11 12 43
0.88692 0.31609 -0.88384 19 19 60
0.90009 0.31252 -0.88590 10 10 45
0.90806 0.30657 -0.88245 8 11 45
0.93695 0.29067 -0.87699 13 16 45
0.94647 0.28524 -0.87495 18 16 41
0.95277 0.27839 -0.86958 29 26 37
0.95392 0.26936 -0.85897 36 32 55
1.04004 0.25680 -0.88577 54 81 105
1.07682 0.18452 -0.81443 61 64 101
1.07529 0.16788 -0.81242 54 54 82
1.08408 0.17765 -0.80950 61 67 99
1.08255 0.16099 -0.80749 38 33 65
1.22074 0.10916 -0.79195 14 16 52
1.21916 0.09194 -0.78987 23 26 42
1.26009 0.08280 -0.77870 32 48 110
1.29699 0.06478 -0.77454 151 173 198
1.25559 0.03369 -0.71573 97 118 145
1.26269 0.02624 -0.71000 81 112 157
1.30858 0.02953 -0.73663 140 177 212
1.35555 0.03284 -0.76381 220 243 251
1.59365 -0.01601 -0.82043 245 250 241
1.59228 -0.02651 -0.80677 241 229 221
1.60727 -0.04336 -0.79330 245 252 253
1.56699 -0.07240 -0.73757 243 228 202
1.62902 -0.07902 -0.75987 168 140 140
1.60551 -0.14345 -0.66860 108 75 120
1.61032 -0.15234 -0.65998 96 78 132
1.60620 -0.16288 -0.64491 187 181 209
1.60731 -0.17242 -0.63366 245 236 247
1.60561 -0.19094 -0.63142 253 253 253
1.60914 -0.18180 -0.62295 252 246 247
1.60744 -0.20030 -0.62072 254 254 253
1.61242 -0.19090 -0.61331 253 249 248
1.61072 -0.20940 -0.61107 254 254 254
1.65267 -0.30871 -0.48735 216 187 186
1.20155 -0.66527 0.17550 54 45 41
1.19257 -0.66594 0.16359 64 55 45
1.20403 -0.67235 0.18304 76 70 46
1.20888 -0.67938 0.18935 123 122 90
1.21179 -0.68644 0.19666 95 86 69
1.22322 -0.69340 0.19965 52 30 23
1.22186 -0.70820 0.20143 34 22 18
1.64650 -0.90289 0.25073 7 12 29
1.63644 -0.90364 0.23739 22 20 17
1.60189 -0.90781 0.27875 35 56 85
1.63493 -0.91741 0.27438 148 190 219
1.78701 -0.95867 0.25066 70 71 124
1.78544 -0.97583 0.25273 36 32 40
1.84221 -0.97070 0.23841 26 30 65
1.86364 -0.98834 0.24970 48 44 54
1.88366 -0.99798 0.25178 96 103 103
1.89948 -1.00734 0.25557 129 139 142
1.90978 -1.01626 0.26155 119 131 150
1.92561 -1.02571 0.26546 100 109 135
1.92399 -1.04344 0.26760 78 75 93
1.94129 -1.03520 0.26950 87 95 126
1.93410 -1.04258 0.28215 101 114 131
1.95141 -1.05228 0.28564 130 144 153
1.96064 -1.06123 0.29218 156 162 177
1.96471 -1.06969 0.30063 173 171 177
1.97264 -1.07854 0.30769 163 142 126
1.98858 -1.08826 0.31188 123 88 69
1.98298 -1.09568 0.32382 93 49 59
2.00589 -1.10624 0.32562 81 31 53
2.01232 -1.11501 0.33330 67 26 35
2.02069 -1.12401 0.34032 52 21 30
2.04085 -1.13443 0.34330 65 48 65
2.07753 -1.14692 0.34072 141 153 167
2.08861 -1.14610 0.35541 230 235 245
2.08224 -1.15561 0.34916 230 246 249
2.07586 -1.16513 0.34292 248 253 253
3.06702 -1.31857 0.06665 254 251 241
3.05289 -1.31961 0.04792 254 254 254
3.05889 -1.33070 0.05869 254 254 253
3.06745 -1.32890 0.07922 245 237 214
3.13568 -1.34852 0.06995 216 204 177
3.14999 -1.34746 0.08891 141 114 111
3.00944 -1.34128 0.12305 183 170 141
3.01534 -1.35218 0.13363 137 122 104
3.00734 -1.36411 0.12581 212 197 161
3.27595 -1.94444 0.73819 215 218 222
3.27801 -1.92195 0.73548 217 219 222
3.27014 -1.93370 0.72776 216 218 222
3.28383 -1.93269 0.74590 217 219 223
3.21930 -1.97499 0.80382 172 179 196
3.16572 -1.98710 0.84516 189 203 228
3.17245 -1.99780 0.85508 164 170 202
3.09865 -1.98596 0.87671 122 121 163
3.11211 -1.99840 0.88548 82 77 109
3.12417 -2.01914 0.90520 93 99 102
3.11667 -2.03033 0.89786 139 146 157
3.12221 -2.04055 0.90779 165 175 175
3.13420 -2.03066 0.91452 118 122 131
3.13223 -2.05209 0.91711 161 167 172
3.17328 -2.06795 0.94145 121 113 130
3.16573 -2.07921 0.93407 86 68 100
3.15551 -2.08851 0.97562 99 107 112
3.14802 -2.09969 0.96829 102 108 111
3.15355 -2.10990 0.97821 104 108 115
3.03912 -2.09518 1.04109 116 117 123
3.04103 -2.07447 1.03859 111 116 125
3.03377 -2.08529 1.03148 112 116 124
3.02652 -2.09611 1.02438 114 117 121
3.01673 -2.09647 1.05369 102 99 105
3.01731 -2.11297 1.07382 93 97 103
3.01543 -2.13351 1.07630 103 105 117
0.54532 0.38599 -0.81903 109 148 211
0.53660 0.38534 -0.83059 94 120 176
0.55404 0.38663 -0.80747 169 214 252
0.54903 0.37915 -0.81239 141 184 250
0.71454 0.35888 -0.86968 168 206 253
0.72153 0.35318 -0.86609 135 176 244
0.74958 0.35802 -0.88607 112 140 231
0.74430 0.34606 -0.86860 111 148 241
0.78357 0.35617 -0.90071 105 130 226
0.75340 0.33200 -0.85570 83 98 191
0.76239 0.32712 -0.85412 72 82 160
0.80040 0.33614 -0.88424 62 77 147
0.82477 0.32893 -0.88744 36 43 90
0.84655 0.32971 -0.89925 22 28 71
0.84509 0.31386 -0.89734 13 13 46
0.85755 0.32535 -0.89932 11 10 61
0.86242 0.31810 -0.89276 10 11 50
0.87065 0.31239 -0.88976 11 10 45
0.89447 0.30414 -0.89140 13 14 32
0.90201 0.29799 -0.88752 17 16 40
0.91405 0.29378 -0.88829 22 21 47
0.91257 0.27766 -0.88635 79 97 132
0.92484 0.28896 -0.88769 30 25 51
0.93210 0.28257 -0.88339 36 40 74
1.01520 0.30851 -0.95695 50 69 105
1.03049 0.30515 -0.96041 76 104 132
1.08773 0.27932 -0.95687 109 128 180
1.04262 0.25145 -0.89983 56 80 123
1.05511 0.18902 -0.82859 16 13 41
1.04501 0.18827 -0.84197 9 12 30
1.06703 0.18390 -0.82818 45 56 69
1.06550 0.16725 -0.82617 41 46 72
1.06880 0.17503 -0.81806 67 77 90
1.06727 0.15841 -0.81605 40 35 69
1.20553 0.04033 -0.71906 48 66 115
1.26311 0.03806 -0.74492 85 119 171
1.24587 0.02367 -0.71848 70 106 164
1.26322 0.01908 -0.72143 40 83 154
1.30524 0.01159 -0.73307 151 204 235
1.35883 0.01641 -0.76574 219 247 252
1.47599 0.00756 -0.81312 253 254 253
1.55906 -0.01219 -0.82999 208 177 171
1.56366 -0.02124 -0.82106 236 221 218
1.57512 -0.03880 -0.80498 239 232 231
1.57357 -0.04924 -0.79126 215 216 216
1.55197 -0.07405 -0.74972 226 180 203
1.55647 -0.08299 -0.74087 223 150 199
1.61572 -0.14999 -0.68726 212 179 158
1.63967 -0.15535 -0.69254 191 170 124
1.59652 -0.17316 -0.64895 208 176 134
1.60244 -0.18180 -0.64118 243 243 251
1.64598 -0.30892 -0.50517 235 217 194
1.64429 -0.32731 -0.50294 250 233 192
1.64371 -0.31864 -0.49198 223 194 178
1.84697 -0.30158 -0.61438 95 58 54
1.20419 -0.67283 0.16636 56 50 47
1.19518 -0.67350 0.15441 68 58 46
1.20627 -0.67993 0.17413 76 71 53
1.21268 -0.68696 0.17966 124 128 94
1.21318 -0.69408 0.18824 97 93 68
1.22351 -0.70108 0.19178 53 33 22
1.22215 -0.71592 0.19357 36 21 20
1.66013 -0.91272 0.23686 12 16 28
1.65001 -0.91347 0.22344 20 22 17
1.65431 -0.92142 0.23115 20 21 27
1.68756 -0.92214 0.23489 41 48 64
1.65602 -0.92777 0.25758 110 128 180
1.79468 -0.96078 0.22946 44 56 77
1.85560 -0.98934 0.23455 37 42 44
1.84893 -0.99677 0.24709 79 89 92
1.88353 -1.00768 0.24340 120 136 140
1.88191 -1.02529 0.24552 139 154 156
1.89352 -1.01657 0.24945 132 140 154
1.90275 -1.02541 0.25582 116 115 140
1.92886 -1.03586 0.25577 94 90 109
1.94204 -1.05322 0.27075 91 91 103
1.93794 -1.06084 0.28225 128 132 143
1.95423 -1.07052 0.28614 154 163 178
1.95765 -1.07890 0.29483 167 175 180
1.96496 -1.08770 0.30210 155 133 132
1.96265 -1.09545 0.31286 117 62 65
1.97616 -1.10494 0.31791 92 37 48
1.99491 -1.11507 0.32115 81 36 45
1.99418 -1.12299 0.33134 63 25 26
2.01916 -1.13396 0.33250 69 36 47
2.03476 -1.14388 0.33704 133 122 129
2.09729 -1.15968 0.32549 211 222 216
2.09560 -1.17802 0.32770 254 254 254
3.06123 -1.34128 0.07065 254 253 249
3.04711 -1.34233 0.05193 254 254 254
3.05311 -1.35341 0.06269 254 254 254
3.05910 -1.36448 0.07345 254 254 253
3.06552 -1.36234 0.09463 240 235 209
3.25173 -1.94270 0.72188 209 212 216
3.25379 -1.92026 0.71917 216 216 221
3.24593 -1.93199 0.71147 215 216 219
3.24528 -1.95019 0.73439 202 201 206
3.24323 -1.97258 0.73709 171 174 185
3.23008 -1.95531 0.74831 184 186 194
3.21185 -1.95954 0.76263 173 178 189
3.17012 -1.98410 0.81388 189 205 229
3.16066 -1.99035 0.82635 179 189 210
3.09820 -1.98176 0.84680 148 149 177
3.11756 -1.99589 0.85469 114 112 140
3.11338 -2.00341 0.86611 75 73 108
3.09547 -2.00699 0.87946 65 60 90
3.09350 -2.02836 0.88205 159 167 176
3.11224 -2.02042 0.88777 97 96 113
3.11027 -2.04184 0.89036 180 186 186
2.99435 -2.09433 1.03819 116 115 120
2.98185 -2.09526 1.02163 116 119 125
2.98511 -2.09959 1.04931 94 94 103
2.97774 -2.10537 1.06017 83 87 91
2.97586 -2.12578 1.06263 100 105 105
2.99192 -2.11794 1.06869 96 104 111
2.99004 -2.13839 1.07116 104 107 108
0.55273 0.38554 -0.83897 103 134 200
0.54395 0.38489 -0.85060 89 115 168
0.54768 0.37800 -0.84391 106 148 202
0.55414 0.37735 -0.82950 115 155 237
0.56291 0.37800 -0.81788 189 238 252
0.55786 0.37047 -0.82282 174 215 253
0.60487 0.36028 -0.83386 190 232 251
0.60621 0.37492 -0.83563 198 236 249
0.60109 0.36727 -0.84065 193 236 251
0.61000 0.36793 -0.82884 197 236 249
0.61378 0.36094 -0.82206 198 235 249
0.60353 0.34565 -0.83210 154 201 253
0.61620 0.35733 -0.83590 185 229 251
0.62514 0.35799 -0.82406 194 234 249
0.70874 0.35070 -0.87435 132 173 240
0.75348 0.34526 -0.89016 63 85 156
0.76059 0.33942 -0.88649 58 64 136
0.80076 0.34965 -0.91949 51 50 104
0.79931 0.33394 -0.91759 13 10 50
0.84092 0.33089 -0.91641 18 11 38
0.84680 0.32413 -0.91097 16 11 42
0.86507 0.30406 -0.89523 15 15 35
0.87634 0.29967 -0.89545 25 19 52
0.87488 0.28369 -0.89352 81 105 157
0.89570 0.28929 -0.89231 39 52 95
0.96483 0.30997 -0.95292 58 79 116
1.02793 0.29777 -0.96959 100 136 171
1.05322 0.25901 -0.93412 83 90 141
1.07001 0.24608 -0.92651 19 17 27
1.06846 0.22917 -0.92447 14 14 26
1.05448 0.18226 -0.83927 14 12 39
1.04436 0.18151 -0.85268 12 14 33
1.04866 0.17357 -0.84497 14 13 40
1.06291 0.17582 -0.83552 32 36 58
1.06138 0.15917 -0.83351 38 39 60
1.17929 0.02557 -0.70732 25 28 60
1.16903 0.02481 -0.72091 22 25 45
1.22982 0.03076 -0.73927 46 71 122
1.22955 0.02123 -0.72729 62 111 186
1.26673 0.01270 -0.73543 61 116 193
1.25447 -0.00012 -0.71330 45 100 185
1.28081 -0.01191 -0.71192 132 180 218
1.29370 -0.01798 -0.71088 178 174 206
1.55522 -0.03150 -0.82603 229 240 234
1.55409 -0.04185 -0.81258 239 240 240
1.55237 -0.06061 -0.81031 214 193 191
1.55005 -0.05283 -0.79689 226 206 212
1.53081 -0.06715 -0.76936 187 159 197
1.52546 -0.07824 -0.75286 185 152 207
1.53378 -0.08629 -0.74704 215 169 205
1.54330 -0.09412 -0.74210 238 207 228
1.53650 -0.10541 -0.72463 246 228 230
1.53480 -0.12387 -0.72240 254 254 254
1.53950 -0.11459 -0.71472 253 253 247
1.53781 -0.13304 -0.71249 254 254 254
1.54027 -0.12422 -0.70313 253 251 248
1.53858 -0.14264 -0.70091 254 254 252
1.53637 -0.13475 -0.68805 249 247 243
1.53468 -0.15313 -0.68583 254 254 250
1.54513 -0.14274 -0.68254 248 246 234
1.54344 -0.16113 -0.68032 254 254 251
1.60042 -0.18096 -0.66289 222 207 165
1.60346 -0.19015 -0.65299 232 214 205
1.59927 -0.20060 -0.63788 250 251 254
1.60405 -0.20944 -0.62929 254 254 254
1.59757 -0.21912 -0.63564 254 254 254
1.63903 -0.30917 -0.52287 226 201 185
1.63427 -0.30037 -0.53141 250 243 234
1.62782 -0.31000 -0.53772 242 221 214
1.63734 -0.32759 -0.52064 253 251 248
1.73805 -0.32478 -0.55342 161 110 39
1.73142 -0.33467 -0.55991 248 227 171
1.20771 -0.68042 0.15670 61 56 46
1.19867 -0.68109 0.14472 72 61 47
1.20251 -0.68819 0.15161 65 58 47
1.20947 -0.68755 0.16468 79 75 54
1.21945 -0.69457 0.16838 127 129 101
1.21609 -0.70174 0.17899 100 96 76
1.22282 -0.70881 0.18439 55 36 25
1.22146 -0.72366 0.18618 37 23 23
1.68398 -0.93105 0.22817 21 23 38
1.67377 -0.93181 0.21464 21 24 20
1.67811 -0.93982 0.22242 27 26 27
1.68244 -0.94783 0.23020 34 30 27
1.79283 -0.96220 0.21198 33 44 47
1.81560 -0.97186 0.21251 29 40 46
1.84578 -0.98220 0.21015 26 26 46
1.83766 -0.98954 0.22338 35 32 52
1.84779 -0.99835 0.22922 66 79 93
1.88587 -1.01764 0.23401 123 140 156
1.90387 -1.03533 0.24693 145 150 152
1.89767 -1.04457 0.24086 144 161 169
1.91384 -1.04430 0.25306 129 125 127
1.92839 -1.05374 0.25747 109 104 102
1.92676 -1.07152 0.25962 145 152 158
1.92338 -1.06126 0.26935 115 117 117
1.92789 -1.06972 0.27760 139 149 157
1.94578 -1.07960 0.28086 152 158 176
1.93135 -1.08604 0.29615 142 125 152
1.94641 -1.09565 0.30051 118 72 91
1.95373 -1.10443 0.30775 99 42 48
1.96849 -1.11409 0.31231 88 33 41
1.98463 -1.12396 0.31644 76 27 39
1.98180 -1.13160 0.32738 79 46 62
2.00758 -1.14271 0.32820 136 118 139
2.05717 -1.15689 0.32081 216 211 215
2.05550 -1.17508 0.32301 254 254 254
2.03232 -1.16182 0.33949 249 251 248
2.03066 -1.17986 0.34167 254 254 254
3.05004 -1.37337 0.08908 254 253 247
3.03596 -1.37441 0.07043 254 254 254
3.04194 -1.38545 0.08115 254 254 254
3.04791 -1.39649 0.09187 254 254 253
3.04305 -1.38250 0.10396 253 249 233
3.02329 -1.38965 0.12283 243 234 201
3.17320 -1.43288 0.10096 181 163 129
3.18758 -1.43181 0.12002 135 120 124
3.17930 -1.44416 0.11192 135 120 81
3.17103 -1.45651 0.10382 204 185 130
3.24582 -1.94575 0.70240 206 208 210
3.24376 -1.96823 0.70511 173 177 189
3.22010 -1.94815 0.71836 190 190 195
3.20912 -1.95434 0.73162 177 175 184
3.19595 -1.96892 0.75640 175 179 193
3.19042 -1.97643 0.76853 182 188 210
3.18070 -1.98274 0.78129 189 203 228
3.17361 -1.98972 0.79355 188 201 230
3.16199 -1.99539 0.80646 164 168 202
3.10358 -1.98789 0.82661 127 128 157
3.11374 -1.99947 0.83590 101 105 126
3.12062 -2.01014 0.84570 85 83 101
3.11602 -2.01754 0.85723 73 68 77
3.11404 -2.03907 0.85983 179 191 181
3.10721 -2.02368 0.86932 102 106 114
3.10524 -2.04515 0.87191 190 192 192
2.95837 -2.09602 1.03443 109 111 118
2.94595 -2.09694 1.01797 120 123 130
2.95527 -2.10312 1.04482 87 90 101
0.55923 0.37550 -0.84669 112 145 236
0.55416 0.36793 -0.85165 101 129 204
0.55888 0.36631 -0.83506 150 192 248
0.56768 0.36696 -0.82340 195 237 252
0.56262 0.35942 -0.82836 184 238 254
0.57952 0.35971 -0.83736 181 225 253
0.58462 0.36731 -0.83238 195 234 250
0.59555 0.35941 -0.84519 177 220 254
0.59421 0.34477 -0.84342 134 178 249
0.60229 0.35400 -0.84189 167 211 254
0.65950 0.34784 -0.86345 125 156 244
0.80803 0.40539 -1.01119 78 97 182
0.72664 0.34518 -0.89445 47 50 111
0.83332 0.33114 -0.93149 14 14 28
0.83536 0.32259 -0.92186 23 17 27
0.84123 0.31583 -0.91642 29 19 32
0.84432 0.30777 -0.90795 29 21 56
0.85553 0.30342 -0.90825 34 40 76
0.92332 0.31477 -0.95707 68 83 132
0.92182 0.29842 -0.95510 84 118 186
1.01369 0.28549 -0.96674 70 96 145
1.00931 0.27388 -0.95002 60 87 142
1.06779 0.25833 -0.96052 92 105 128
1.16920 0.01556 -0.70945 29 30 67
1.19462 0.01351 -0.71989 74 92 139
1.20128 0.00605 -0.71399 105 150 211
1.20380 -0.00257 -0.70451 91 151 234
1.22689 -0.00557 -0.71259 81 152 232
1.24317 -0.01053 -0.71472 66 138 210
1.26025 -0.01536 -0.71742 56 123 196
1.26779 -0.02278 -0.71201 75 127 188
1.28316 -0.02820 -0.71311 112 116 164
1.28362 -0.03751 -0.70174 166 135 165
1.28203 -0.05481 -0.69965 181 170 166
1.52156 -0.07744 -0.77356 210 176 195
1.50994 -0.08987 -0.75212 199 173 194
1.52985 -0.09542 -0.75537 224 217 207
1.54665 -0.10173 -0.75609 246 249 249
1.59949 -0.19942 -0.66121 226 203 192
1.58465 -0.27841 -0.55506 251 254 254
1.58633 -0.26014 -0.55727 254 254 254
1.57993 -0.26969 -0.56353 254 254 254
1.59105 -0.26887 -0.54879 254 254 254
1.59578 -0.27759 -0.54032 254 254 254
1.58298 -0.29669 -0.55285 242 202 238
1.75588 -0.34133 -0.56410 168 143 97
1.74429 -0.34219 -0.57946 254 253 243
1.74921 -0.35129 -0.57063 249 240 211
1.75413 -0.36038 -0.56180 233 215 162
1.21353 -0.69520 0.15472 82 72 59
1.20446 -0.69587 0.14270 69 56 50
1.22901 -0.70222 0.15556 130 130 109
1.21845 -0.70945 0.16998 107 95 83
1.22295 -0.71655 0.17655 58 35 28
1.22158 -0.73144 0.17835 31 25 18
1.81727 -0.98156 0.20335 18 17 33
1.80666 -0.98235 0.18929 15 16 14
1.84286 -0.99162 0.20281 24 25 49
1.84059 -0.99943 0.21371 51 62 83
1.83899 -1.01694 0.21583 68 81 112
1.83205 -1.00665 0.22710 73 87 110
1.82267 -1.01374 0.24073 89 103 125
1.90155 -1.06094 0.25930 148 152 151
1.91420 -1.07819 0.27435 141 127 151
1.91881 -1.08664 0.28254 125 83 116
1.91719 -1.10433 0.28468 89 15 28
1.94151 -1.09710 0.28399 102 44 83
1.93983 -1.10488 0.29456 91 27 58
1.94697 -1.11365 0.30185 89 24 29
1.95406 -1.12243 0.30918 91 22 28
1.94332 -1.12907 0.32296 111 55 78
1.98418 -1.14198 0.31818 162 146 156
2.03361 -1.15614 0.31057 221 224 222
2.03195 -1.17427 0.31276 254 254 254
2.00590 -1.16066 0.33038 249 248 249
2.00425 -1.17862 0.33255 254 254 254
3.01504 -1.40159 0.11504 254 253 246
3.00109 -1.40262 0.09655 254 254 254
3.00702 -1.41356 0.10718 254 254 254
3.01294 -1.42451 0.11781 254 254 253
3.01034 -1.41088 0.12904 252 248 229
3.00042 -1.41931 0.14462 238 230 193
3.18368 -1.58063 0.25221 204 205 209
3.18582 -1.55730 0.24940 206 206 208
3.17765 -1.56949 0.24140 213 214 216
3.19185 -1.56844 0.26021 207 208 208
3.19787 -1.57958 0.27103 207 209 210
3.18970 -1.59177 0.26303 205 206 212
3.21715 -1.95197 0.69844 180 184 194
3.19375 -1.96393 0.72532 174 175 190
3.18621 -1.97093 0.73791 175 182 198
3.18015 -1.97829 0.75019 184 199 218
3.16816 -1.99290 0.77454 178 185 211
3.13446 -1.99240 0.79116 148 147 181
3.13246 -2.01419 0.79379 98 96 114
3.13276 -2.00074 0.80244 114 111 142
3.12147 -2.00635 0.81520 100 98 119
3.11455 -2.01313 0.82720 86 83 96
3.10950 -2.02040 0.83885 75 74 76
3.10752 -2.04196 0.84145 162 176 176
3.11285 -2.03005 0.84918 120 129 118
3.11087 -2.05160 0.85179 187 193 196
2.93913 -2.11089 1.03886 81 81 97
2.94546 -2.12094 1.04817 92 99 108
2.94360 -2.14126 1.05062 106 106 112
0.55872 0.37951 -0.86850 90 114 181
0.56429 0.36455 -0.85267 114 155 233
0.55920 0.35696 -0.85765 90 117 198
0.56296 0.35003 -0.85092 76 98 183
0.57654 0.36227 -0.85616 131 168 251
0.57520 0.34768 -0.85440 67 86 160
0.60972 0.37129 -0.88463 124 153 249
0.60836 0.35648 -0.88284 71 90 161
0.62560 0.37071 -0.89214 135 186 251
0.62423 0.35582 -0.89034 58 61 148
0.62199 0.35050 -0.86498 111 142 232
0.66680 0.36496 -0.90628 88 115 197
0.59656 0.31913 -0.81254 74 84 166
0.64654 0.33604 -0.85959 55 52 130
0.67393 0.34098 -0.87996 37 43 93
0.75523 0.36358 -0.95035 12 11 65
0.83655 0.32696 -0.94665 30 33 58
0.90940 0.32196 -0.97811 86 111 159
0.90790 0.30561 -0.97614 80 115 187
0.93612 0.32422 -0.99478 88 120 173
0.93460 0.30771 -0.99279 80 115 192
1.01440 0.29919 -1.00402 65 84 131
1.07159 0.31326 -1.05124 45 62 105
1.07001 0.29602 -1.04915 28 27 55
1.08816 0.29993 -1.04314 20 24 69
1.08657 0.28264 -1.04105 30 30 49
1.14327 0.01028 -0.70924 27 31 39
1.14480 0.02701 -0.71126 22 26 41
1.13895 0.01827 -0.71699 24 30 38
1.13309 0.00953 -0.72272 28 35 48
1.18160 0.00266 -0.71955 93 127 178
1.18561 -0.00552 -0.71140 143 195 239
1.19127 -0.01324 -0.70466 120 185 248
1.19976 -0.02021 -0.70034 90 172 251
1.20685 -0.02758 -0.69479 87 176 238
1.25731 -0.03296 -0.71419 75 143 200
1.25573 -0.05019 -0.71211 92 175 226
1.26531 -0.04027 -0.70918 101 148 186
1.26373 -0.05753 -0.70710 145 196 219
1.49575 -0.05177 -0.81414 192 177 160
1.49405 -0.07030 -0.81190 230 214 198
1.48308 -0.07447 -0.77918 215 199 193
1.47664 -0.08408 -0.78548 228 213 200
1.48140 -0.09286 -0.77696 225 213 203
1.49790 -0.08102 -0.77865 232 218 202
1.50021 -0.09037 -0.76816 239 223 211
1.49198 -0.12147 -0.72498 226 218 213
1.49030 -0.13976 -0.72277 218 205 190
1.51548 -0.13611 -0.71883 250 253 252
1.52023 -0.14489 -0.71030 254 254 252
1.56626 -0.27090 -0.57646 251 254 254
1.56794 -0.25264 -0.57867 254 254 254
1.56155 -0.26218 -0.58493 254 254 254
1.57266 -0.26136 -0.57020 254 254 254
1.56459 -0.28916 -0.57426 240 223 229
1.56453 -0.28058 -0.56345 249 252 244
1.57799 -0.28800 -0.56114 244 216 222
1.21622 -0.70292 0.14544 81 69 63
1.20712 -0.70359 0.13338 75 58 44
1.23446 -0.70997 0.14482 130 130 110
1.22194 -0.71720 0.16034 117 97 83
1.22391 -0.72433 0.16825 58 35 27
1.22254 -0.73925 0.17005 33 23 9
1.82022 -0.99142 0.19362 14 8 22
1.80958 -0.99221 0.17951 18 15 19
1.83492 -1.00064 0.19754 33 37 70
1.82930 -1.00813 0.20982 56 75 115
1.82998 -1.02405 0.22940 79 79 110
1.82311 -1.03130 0.24202 86 91 125
1.82152 -1.04868 0.24412 116 127 145
1.91259 -1.06396 0.23655 149 159 169
1.90581 -1.07126 0.24920 146 143 152
1.91686 -1.08042 0.25493 130 106 123
1.94126 -1.09107 0.25562 110 52 77
1.93066 -1.09790 0.26965 97 21 41
1.93404 -1.11421 0.28831 90 16 32
1.95423 -1.12454 0.29078 109 55 73
1.92443 -1.12888 0.31165 155 121 131
1.97184 -1.14261 0.30428 209 183 185
1.98473 -1.15219 0.30959 238 235 230
1.98309 -1.17012 0.31175 254 254 254
1.98635 -1.16036 0.31898 251 253 250
1.98470 -1.17827 0.32114 254 254 254
2.99508 -1.43163 0.13597 254 253 243
2.98121 -1.43266 0.11759 254 254 254
2.98710 -1.44355 0.12816 254 254 254
2.99299 -1.45443 0.13873 254 254 253
2.99021 -1.44077 0.14992 251 245 226
3.00405 -1.43974 0.16827 173 153 132
3.03967 -1.45882 0.14690 233 225 206
3.05365 -1.45779 0.16542 134 123 107
3.04561 -1.46979 0.15755 203 192 160
3.22909 -1.58268 0.20378 173 188 203
3.20818 -1.58892 0.22242 194 200 216
3.14690 -1.59732 0.26467 195 198 217
3.16099 -1.59628 0.28334 207 207 209
3.15288 -1.60837 0.27540 209 210 214
3.19446 -1.96877 0.70485 173 177 191
3.16311 -1.97829 0.73300 189 206 227
3.15670 -1.98549 0.74532 187 201 225
3.15423 -1.99373 0.75691 164 166 197
3.13022 -1.99591 0.77207 129 125 153
3.13555 -2.00624 0.78225 101 101 123
3.11860 -2.01902 0.80701 109 99 104
3.11045 -2.02542 0.81924 84 67 87
3.10847 -2.04705 0.82185 153 153 148
3.12697 -2.03891 0.82757 95 91 115
3.12498 -2.06059 0.83019 184 194 198
0.54233 0.39272 -0.89368 104 91 139
0.54366 0.40726 -0.89543 68 49 97
0.53857 0.39967 -0.90042 66 59 92
0.54578 0.38561 -0.88656 114 99 154
0.54445 0.37107 -0.88480 75 76 138
0.55727 0.38303 -0.88935 87 91 153
0.55593 0.36843 -0.88759 69 74 117
