ply
format ascii 1.0
element face 0
property list uchar int vertex_indices
element vertex 1289
property float x
property float y
property float z
property uchar diffuse_red
property uchar diffuse_green
property uchar diffuse_blue
end_header
2.08665 -3.49106 0.06127 155 158 160
2.08281 -3.49237 0.04368 151 152 154
2.07898 -3.49368 0.02609 153 152 157
2.04866 -3.51138 0.03402 164 164 169
2.06001 -3.51710 0.04801 163 162 154
2.04345 -3.52467 0.05265 155 152 153
2.02442 -3.53485 0.03900 155 148 154
1.89242 -3.56623 0.09883 161 163 147
1.90366 -3.55873 0.07742 146 144 146
1.85854 -3.58002 0.10856 171 173 159
1.83970 -3.59010 0.09503 152 148 162
1.84426 -3.58957 0.11212 159 162 157
1.82541 -3.59966 0.09859 155 155 160
1.81445 -3.60742 0.11986 157 154 148
1.81064 -3.60872 0.10239 164 162 154
1.79559 -3.61751 0.10633 169 163 157
1.33631 -3.67577 0.27513 147 153 167
1.34712 -3.66857 0.25454 147 155 169
1.33264 -3.67702 0.25833 149 156 165
1.31078 -3.67067 0.28467 136 136 147
1.27636 -3.68057 0.29513 125 132 149
1.26098 -3.68773 0.29942 126 132 149
1.24295 -3.69737 0.28648 126 138 154
1.23311 -3.70568 0.30647 120 129 150
1.21891 -3.71433 0.31013 112 118 149
1.20557 -3.72409 0.31334 115 122 144
1.20130 -3.74567 0.31173 137 145 144
1.19277 -3.76185 0.31236 147 156 157
1.14339 -3.77925 0.32692 168 165 168
1.15418 -3.77206 0.30637 149 153 154
1.11276 -3.79377 0.33541 166 172 175
1.10043 -3.80509 0.33805 160 163 172
1.08747 -3.81559 0.34102 158 165 167
1.06936 -3.82529 0.32802 155 164 161
1.07317 -3.82425 0.34471 153 157 155
1.05505 -3.83395 0.33171 156 156 147
1.05266 -3.85301 0.34768 153 160 154
1.04139 -3.86608 0.34970 152 156 153
1.00455 -3.90132 0.35737 150 147 153
0.99368 -3.90856 0.37808 150 156 155
0.99000 -3.90982 0.36118 145 146 151
0.98631 -3.91108 0.34428 141 145 145
0.91723 -3.95237 0.38021 147 155 157
0.91354 -3.95363 0.36331 146 157 161
0.90054 -3.95759 0.38523 142 146 145
0.88231 -3.96734 0.37215 145 150 146
0.88877 -3.97039 0.38746 142 148 139
0.77720 -4.04659 0.41507 128 135 136
0.75891 -4.05637 0.40195 124 132 127
0.66367 -4.15503 0.43874 143 143 137
0.67465 -4.14771 0.41782 136 139 143
0.65190 -4.16890 0.44082 134 130 123
0.64090 -4.17623 0.46176 129 127 126
0.63718 -4.17750 0.44467 121 121 120
0.63345 -4.17878 0.42758 122 125 119
0.55971 -4.14133 0.47659 124 129 137
0.57789 -4.13160 0.48963 122 125 128
0.57422 -4.13286 0.47279 115 116 126
0.54154 -4.15105 0.46354 135 139 138
0.53598 -4.20455 0.47573 132 132 122
0.51764 -4.21437 0.46257 129 131 128
0.32372 -4.30832 0.53416 123 126 123
0.33461 -4.30106 0.51341 129 128 126
0.32003 -4.30958 0.51723 125 127 126
0.30916 -4.31688 0.53796 118 122 119
0.24634 -4.34074 0.55623 114 119 118
0.25721 -4.33350 0.53553 111 116 115
0.24266 -4.34200 0.53934 112 117 116
0.14009 -4.30297 0.59831 112 109 104
0.12025 -4.29786 0.60589 118 121 119
0.10242 -4.30740 0.59309 118 128 131
0.02857 -4.42266 0.61968 111 111 115
0.01780 -4.42984 0.64020 121 125 122
0.01415 -4.43109 0.62345 111 111 110
0.01049 -4.43234 0.60671 107 108 116
2.54100 -2.76620 -0.02778 138 116 69
2.55139 -2.75927 -0.04757 139 124 93
2.52913 -2.77566 -0.02504 133 109 62
2.51040 -2.78064 -0.01927 143 109 54
2.50314 -2.79315 -0.01858 118 89 50
2.54136 -2.83592 -0.03811 64 46 42
2.51767 -2.85544 -0.03275 33 31 80
2.51410 -2.85666 -0.04914 32 33 77
2.51911 -2.87422 -0.03600 37 36 90
2.51787 -2.89131 -0.03807 41 41 107
2.51112 -2.90474 -0.03769 45 48 123
2.50619 -2.91948 -0.03814 50 56 135
2.48830 -2.92905 -0.05098 54 63 143
2.51273 -2.94227 -0.04375 52 59 138
2.50752 -2.95704 -0.04410 50 54 123
2.48950 -2.96668 -0.05703 51 53 127
2.60190 -3.25928 -0.12112 48 51 121
2.61336 -3.25164 -0.14296 51 52 116
2.59801 -3.26061 -0.13894 51 51 117
2.58266 -3.26957 -0.13492 53 52 113
2.58502 -3.26708 -0.11640 47 49 124
2.56407 -3.27176 -0.10982 58 62 117
2.54534 -3.27809 -0.10424 85 85 105
2.54850 -3.30134 -0.10875 109 104 104
2.54471 -3.31935 -0.11006 121 116 117
2.54450 -3.34029 -0.11306 130 125 134
2.54913 -3.36521 -0.11832 145 138 147
2.52964 -3.37564 -0.13230 147 145 150
2.53617 -3.37635 -0.11545 154 149 153
2.52455 -3.38410 -0.09331 158 154 155
2.52061 -3.38544 -0.11138 161 159 148
2.51667 -3.38679 -0.12944 147 148 139
2.45003 -3.37165 -0.08486 157 151 156
2.46934 -3.36132 -0.07100 157 150 154
2.46544 -3.36265 -0.08889 159 156 146
2.45393 -3.37032 -0.06696 157 157 157
2.43462 -3.38066 -0.08082 163 157 163
2.43071 -3.38199 -0.09872 162 153 156
2.34466 -3.43681 -0.05782 145 144 150
2.34075 -3.43815 -0.07572 154 156 151
2.32533 -3.44715 -0.07169 156 156 151
2.33406 -3.44994 -0.05606 161 156 149
2.14194 -3.43795 0.01239 152 155 159
2.13811 -3.43925 -0.00514 166 162 161
2.12683 -3.44677 0.01634 151 149 151
2.05844 -3.49753 0.03265 159 159 167
2.03813 -3.52460 0.03574 156 151 159
2.03429 -3.52591 0.01812 161 154 152
2.01911 -3.53477 0.02209 159 148 147
1.98556 -3.52109 0.05450 157 156 166
1.98174 -3.52240 0.03699 157 153 158
1.96496 -3.52459 0.06114 170 169 169
1.93985 -3.52365 0.07000 168 167 162
1.92103 -3.53372 0.05649 142 138 143
1.92198 -3.52964 0.07532 150 148 152
1.91078 -3.53711 0.09666 168 168 158
1.90318 -3.53971 0.06183 141 142 136
1.88275 -3.56169 0.08425 154 152 141
1.86391 -3.57177 0.07073 166 170 162
1.86403 -3.56677 0.09000 167 170 166
1.84871 -3.57523 0.09408 162 163 165
1.65744 -3.59389 0.15775 164 164 170
1.67594 -3.58399 0.17102 154 153 155
1.67220 -3.58527 0.15389 149 154 169
1.66846 -3.58654 0.13675 154 158 165
1.65370 -3.59517 0.14061 160 160 162
1.64268 -3.60251 0.16161 168 168 169
1.29557 -3.68388 0.27019 132 135 158
1.27829 -3.68875 0.27548 132 142 159
1.26191 -3.69472 0.28029 130 140 158
1.23474 -3.71364 0.28695 128 141 148
1.22120 -3.72319 0.29025 129 140 152
1.20313 -3.73286 0.27729 159 164 171
1.21836 -3.74658 0.28781 149 154 161
1.20752 -3.75978 0.28965 167 175 179
1.19045 -3.76487 0.29483 165 175 170
1.17230 -3.77458 0.28180 157 160 166
1.17218 -3.76832 0.30066 151 156 157
1.13794 -3.77810 0.31112 159 161 158
1.13428 -3.77934 0.29436 151 160 159
1.11984 -3.78778 0.29814 159 158 158
1.12166 -3.78405 0.31590 166 166 168
1.10358 -3.79373 0.30292 155 157 159
1.10530 -3.78984 0.32073 160 162 167
1.09255 -3.80054 0.32359 145 145 162
1.07447 -3.81022 0.31062 152 151 142
1.07944 -3.81080 0.32664 153 161 155
1.04363 -3.84669 0.33381 150 151 155
1.02549 -3.85639 0.32080 133 137 146
1.03302 -3.86065 0.33545 138 142 146
1.01486 -3.87037 0.32242 137 138 142
1.02225 -3.87447 0.33717 141 141 144
1.01062 -3.88711 0.33935 146 146 157
0.99241 -3.89686 0.32629 132 136 147
0.99559 -3.89488 0.34343 137 134 151
0.97739 -3.90463 0.33037 138 140 142
0.93338 -3.92267 0.36096 140 142 151
0.95156 -3.91294 0.37400 143 143 150
0.94789 -3.91419 0.35716 137 138 148
0.94422 -3.91545 0.34033 129 135 139
0.92046 -3.93353 0.36386 145 151 155
0.88693 -3.94355 0.37403 146 150 153
0.88326 -3.94481 0.35721 149 152 155
0.85777 -3.96019 0.38171 136 147 144
0.84328 -3.96866 0.38550 131 138 144
0.79338 -4.01562 0.39595 136 136 135
0.80791 -4.00713 0.39215 137 141 139
0.80423 -4.00839 0.37527 138 143 139
0.78199 -4.02929 0.39790 129 128 129
0.76375 -4.03905 0.38481 119 123 113
0.76742 -4.03777 0.40172 123 128 127
0.65198 -4.14207 0.42652 139 140 143
0.64827 -4.14334 0.40951 133 136 138
0.63362 -4.15190 0.41334 133 135 127
0.64288 -4.16063 0.42696 134 133 127
0.62447 -4.17048 0.41375 129 130 122
0.30221 -4.31098 0.52321 122 128 129
0.31308 -4.30374 0.50250 128 128 135
0.28928 -4.32312 0.52592 122 125 127
0.27358 -4.32909 0.53049 116 119 120
0.25533 -4.33886 0.51740 118 123 118
0.22025 -4.33236 0.54853 117 120 122
0.23107 -4.32515 0.52792 114 120 115
0.21658 -4.33361 0.53171 117 117 112
0.20209 -4.34207 0.53550 115 113 109
0.19775 -4.32215 0.55784 118 121 124
0.17414 -4.30897 0.56796 118 124 124
0.03043 -4.43843 0.59889 109 109 121
-0.08673 -4.40389 0.64462 116 112 123
-0.06894 -4.39437 0.65739 125 126 121
-0.07253 -4.39560 0.64091 118 113 116
-0.07613 -4.39683 0.62443 120 118 112
-0.09032 -4.40512 0.62814 118 117 120
-0.15324 -4.40842 0.66705 122 123 120
-0.17091 -4.41788 0.65437 109 111 106
-0.18548 -4.46378 0.67013 119 122 127
-0.19968 -4.47208 0.67385 126 128 127
-0.20328 -4.47331 0.65736 122 126 123
2.52419 -2.75879 -0.03800 141 121 78
2.53455 -2.75188 -0.05773 133 113 123
2.51586 -2.77050 -0.03685 130 107 81
2.49845 -2.77982 -0.04934 150 124 79
2.49644 -2.77499 -0.03074 139 115 76
2.47891 -2.78067 -0.02547 140 117 65
2.52096 -2.82595 -0.04694 95 78 43
2.51845 -2.84188 -0.04845 46 38 61
2.50080 -2.85132 -0.06111 36 31 69
2.50120 -2.86574 -0.04600 36 36 88
2.50128 -2.88368 -0.04871 41 40 107
2.49767 -2.89921 -0.04978 46 49 123
2.49793 -2.91750 -0.05261 52 59 136
2.48006 -2.92707 -0.06543 53 60 146
2.49166 -2.94974 -0.05525 52 58 135
2.48803 -2.95098 -0.07189 53 59 144
2.54241 -3.25948 -0.11936 63 60 101
2.55380 -3.25188 -0.14106 51 52 103
2.52209 -3.26449 -0.11302 74 71 85
2.50401 -3.27119 -0.10771 79 73 78
2.48240 -3.27510 -0.10075 90 82 83
2.51714 -3.32322 -0.12008 118 113 110
2.53285 -3.35679 -0.13060 143 139 144
2.51341 -3.36719 -0.14454 148 143 149
2.46368 -3.36571 -0.10779 153 152 140
2.47519 -3.35803 -0.12972 150 146 142
2.45977 -3.36704 -0.12569 150 142 135
2.43186 -3.36141 -0.09603 155 147 145
2.11936 -3.44479 0.00057 151 149 154
2.11554 -3.44610 -0.01695 150 150 154
2.10045 -3.45491 -0.01300 147 146 145
2.05742 -3.47859 0.01713 153 143 164
2.07632 -3.46848 0.03070 155 153 156
2.07251 -3.46978 0.01319 154 155 155
2.06869 -3.47108 -0.00432 159 157 156
2.03852 -3.48871 0.00357 169 166 169
2.04803 -3.49271 0.01830 163 162 167
2.03636 -3.50475 0.02057 158 155 165
2.01741 -3.51489 0.00697 159 157 149
1.94862 -3.51382 0.04984 152 151 163
1.95982 -3.50635 0.02849 160 155 163
1.93019 -3.51927 0.05546 139 140 153
1.89078 -3.55105 0.06446 151 151 147
1.87196 -3.56112 0.05095 175 179 179
1.87377 -3.55784 0.06938 159 159 152
1.83846 -3.57002 0.07988 158 162 165
1.82118 -3.57644 0.08495 150 148 166
1.80620 -3.58518 0.08887 154 151 157
1.80241 -3.58648 0.07149 163 166 160
1.63742 -3.60214 0.14525 164 161 156
1.64843 -3.59479 0.12427 156 158 159
1.62640 -3.60948 0.16624 171 167 170
1.62692 -3.61539 0.14693 164 156 158
1.61589 -3.62274 0.16795 165 164 161
1.61215 -3.62402 0.15080 155 153 160
1.45389 -3.69791 0.19498 158 156 149
1.47234 -3.68804 0.20822 156 157 156
1.46861 -3.68931 0.19113 158 158 160
1.45762 -3.69664 0.21207 154 157 151
1.44289 -3.70524 0.21592 149 154 153
1.43917 -3.70651 0.19883 154 154 144
1.29437 -3.68816 0.25213 136 146 166
1.30515 -3.68097 0.23159 140 150 165
1.29071 -3.68941 0.23536 138 148 156
1.27706 -3.69303 0.25744 133 144 163
1.26115 -3.69959 0.26201 132 140 161
1.24804 -3.70967 0.26508 136 144 162
1.22996 -3.71935 0.25211 161 167 168
1.23221 -3.71632 0.26961 153 160 163
1.21414 -3.72599 0.25664 159 162 162
1.22160 -3.72964 0.27132 157 162 166
1.20351 -3.73933 0.25833 156 158 154
1.19639 -3.75130 0.27688 166 169 180
1.19273 -3.75255 0.26009 152 158 164
1.17827 -3.76099 0.26388 156 156 163
1.18168 -3.75942 0.28080 164 171 175
1.14555 -3.76668 0.29232 157 167 164
1.14190 -3.76793 0.27558 163 171 164
1.12748 -3.77635 0.27935 162 162 164
1.08502 -3.79647 0.30899 142 146 156
1.06697 -3.80613 0.29604 149 151 142
1.04111 -3.82074 0.32068 148 148 147
1.05187 -3.81357 0.30020 147 144 149
1.03747 -3.82199 0.30397 142 139 137
1.03142 -3.83583 0.32181 134 139 152
1.01334 -3.84551 0.30883 136 142 149
0.99488 -3.87089 0.32931 144 143 154
0.99122 -3.87214 0.31252 133 131 145
0.97676 -3.88059 0.31630 132 135 144
0.92522 -3.91715 0.34670 125 132 139
0.92155 -3.91840 0.32989 125 126 134
0.91224 -3.92788 0.34963 139 145 152
0.89503 -3.93218 0.35499 145 149 156
0.86431 -3.94632 0.36360 147 153 156
0.84923 -3.95381 0.36774 140 150 145
0.83111 -3.96351 0.35474 137 140 144
0.83295 -3.95937 0.37259 135 140 140
0.82216 -3.96657 0.39314 132 137 140
0.81850 -3.96781 0.37637 130 131 138
0.77887 -3.99920 0.38550 144 141 139
0.77521 -4.00045 0.36870 142 145 143
0.76594 -4.01018 0.38838 130 129 125
0.73607 -4.02557 0.39650 122 126 120
0.72526 -4.03277 0.41709 126 131 128
0.72332 -4.03694 0.39925 127 132 131
0.71250 -4.04415 0.41985 129 131 129
0.70517 -4.04665 0.38622 136 138 143
0.64598 -4.10470 0.41610 131 137 137
0.66421 -4.09494 0.42918 132 135 135
0.65684 -4.09746 0.39540 126 127 125
0.62775 -4.11445 0.40302 130 133 134
0.29181 -4.29746 0.51086 132 134 136
0.30265 -4.29024 0.49023 128 132 140
0.28814 -4.29872 0.49402 136 139 136
0.27363 -4.30719 0.49782 138 140 132
0.27942 -4.31064 0.51322 133 135 131
0.26360 -4.31621 0.51791 125 125 123
0.16871 -4.30596 0.55257 111 113 113
0.14684 -4.29639 0.56164 122 129 129
0.12895 -4.30596 0.54880 135 141 134
0.12773 -4.29308 0.56880 130 134 132
0.11331 -4.30096 0.57266 124 130 134
0.09547 -4.31050 0.55986 116 122 119
-0.13585 -4.37227 0.64896 125 128 130
-0.15343 -4.38169 0.63634 123 126 124
-0.19172 -4.45694 0.65578 118 126 122
-0.20948 -4.46645 0.64303 113 119 122
2.50573 -2.75029 -0.04737 144 125 97
2.51605 -2.74341 -0.06704 162 161 192
2.49611 -2.76110 -0.04565 150 125 86
2.46902 -2.77765 -0.03868 147 121 79
2.46029 -2.78913 -0.03737 129 98 76
2.50700 -2.83781 -0.06122 73 50 64
2.48496 -2.85836 -0.05663 34 35 86
2.48213 -2.87427 -0.05807 41 43 106
2.47277 -2.88580 -0.05655 48 50 126
2.47107 -2.90266 -0.05854 52 56 139
2.45330 -2.91216 -0.07129 52 60 155
2.46729 -2.95484 -0.06520 53 55 136
2.45660 -2.96196 -0.04484 50 51 130
2.45298 -2.96320 -0.06146 51 53 135
2.44935 -2.96444 -0.07808 51 53 139
2.52394 -3.24961 -0.13023 59 58 89
2.52009 -3.25092 -0.14788 54 54 79
2.51006 -3.25951 -0.12687 68 65 77
2.49975 -3.27219 -0.12519 73 68 75
2.47866 -3.27651 -0.11845 83 78 82
2.50059 -3.31460 -0.13199 114 109 106
2.50776 -3.34138 -0.13860 142 135 139
2.48842 -3.35172 -0.15248 150 144 150
2.42069 -3.35682 -0.11040 152 143 133
2.39463 -3.35700 -0.10128 162 159 151
2.38321 -3.36461 -0.07953 158 150 153
2.36605 -3.35500 -0.09094 165 156 156
2.35467 -3.36259 -0.06926 152 146 159
2.35192 -3.36482 -0.08749 164 161 159
2.33128 -3.36922 -0.08091 158 160 157
2.31991 -3.37680 -0.05926 151 147 154
2.31606 -3.37812 -0.07693 155 149 158
2.31220 -3.37943 -0.09460 150 147 156
2.12274 -3.43021 -0.01704 156 156 161
2.13780 -3.42141 -0.02098 157 154 170
2.11892 -3.43151 -0.03452 140 125 154
2.02848 -3.50225 0.00502 156 154 158
2.03976 -3.49474 -0.01647 161 160 162
1.94923 -3.51938 0.03022 161 157 170
1.93040 -3.52945 0.01671 149 146 158
1.92596 -3.52015 0.03827 145 141 153
1.90805 -3.52604 0.04366 148 155 146
1.88928 -3.53608 0.03019 163 162 157
1.89671 -3.53838 0.04574 146 152 151
1.87792 -3.54843 0.03226 167 162 165
1.87981 -3.54524 0.05063 163 166 174
1.84517 -3.55805 0.06083 167 168 167
1.82641 -3.56809 0.04737 144 142 144
1.82707 -3.56363 0.06633 153 155 152
1.80898 -3.56917 0.07183 159 160 162
1.63260 -3.60224 0.12869 151 154 152
1.62025 -3.61347 0.13130 151 152 155
1.60991 -3.62696 0.13287 151 157 162
1.59888 -3.63431 0.15389 156 158 155
1.59513 -3.63559 0.13673 153 161 161
1.55863 -3.64506 0.14810 145 154 148
1.57337 -3.63644 0.14424 153 162 158
1.56236 -3.64378 0.16522 146 147 144
1.55489 -3.64633 0.13098 152 150 152
1.54388 -3.65367 0.15196 145 141 142
1.54015 -3.65495 0.13484 150 153 149
1.51634 -3.64773 0.16253 157 148 153
1.52006 -3.64645 0.17959 153 148 154
1.50166 -3.65630 0.16638 162 159 160
1.49794 -3.65757 0.14933 156 159 158
1.45310 -3.67679 0.18029 159 155 152
1.47148 -3.66695 0.19347 157 156 159
1.46777 -3.66822 0.17645 153 148 144
1.43472 -3.68662 0.16710 167 169 168
1.43969 -3.68683 0.18346 162 167 163
1.42377 -3.69392 0.18796 154 161 151
1.41282 -3.70122 0.20882 144 154 161
1.40539 -3.70376 0.17477 140 136 145
1.40769 -3.70079 0.19255 141 147 148
1.39674 -3.70809 0.21341 140 150 171
1.38932 -3.71062 0.17937 136 140 155
1.26967 -3.68960 0.24272 143 157 154
1.25161 -3.69926 0.22976 164 173 160
1.25286 -3.69499 0.24780 154 166 163
1.23481 -3.70465 0.23485 158 159 167
1.24149 -3.70725 0.24991 157 162 168
1.22343 -3.71691 0.23695 161 167 173
1.15209 -3.75390 0.27415 158 161 167
1.16284 -3.74673 0.25367 158 163 161
1.14844 -3.75514 0.25744 157 165 167
1.09102 -3.78280 0.29116 162 165 164
1.10540 -3.77440 0.28740 167 162 165
1.07673 -3.79132 0.29488 150 158 151
1.05870 -3.80096 0.28195 146 152 149
1.02019 -3.82632 0.30937 135 139 133
1.03094 -3.81917 0.28890 146 146 148
0.99441 -3.84744 0.31518 133 136 140
0.95231 -3.87431 0.32585 137 138 146
0.94155 -3.88148 0.34635 132 140 140
0.93790 -3.88273 0.32962 135 144 137
0.92680 -3.89610 0.33147 133 139 130
0.90193 -3.91902 0.33669 138 139 147
0.88355 -3.92144 0.34277 142 140 149
0.86547 -3.93112 0.32980 132 137 143
0.86740 -3.92720 0.34756 139 142 148
0.85316 -3.93590 0.35123 135 138 147
0.83509 -3.94557 0.33826 127 128 138
0.83795 -3.94309 0.35546 134 135 144
0.81989 -3.95275 0.34250 137 135 138
0.77865 -3.97409 0.37154 133 133 137
0.79305 -3.96568 0.36777 123 123 131
0.78940 -3.96692 0.35105 126 126 131
0.75274 -3.99570 0.37732 135 139 132
0.73710 -4.00211 0.38183 124 127 117
0.72420 -4.01307 0.38468 124 127 120
0.70613 -4.02274 0.37171 133 135 137
0.71264 -4.02633 0.38671 129 134 135
0.69454 -4.03602 0.37372 135 137 142
0.63033 -4.08467 0.40667 126 129 133
0.62667 -4.08593 0.38987 124 123 127
0.25409 -4.30433 0.50512 128 129 126
0.23638 -4.30543 0.51117 115 118 116
0.22194 -4.31386 0.51495 106 110 108
0.21828 -4.31511 0.49818 104 107 110
0.18399 -4.30953 0.52893 119 124 121
0.18035 -4.31077 0.51225 127 129 129
0.16598 -4.31916 0.51601 122 120 121
0.16466 -4.30620 0.53623 114 118 118
0.14271 -4.29639 0.54544 125 132 131
0.12482 -4.30596 0.53260 133 138 131
0.11120 -4.30584 0.55505 123 123 123
0.09335 -4.31540 0.54224 120 121 121
0.08062 -4.40617 0.55042 116 123 126
0.09875 -4.39646 0.56343 129 130 137
0.09509 -4.39771 0.54664 130 132 135
0.08428 -4.40491 0.56722 127 128 128
0.06981 -4.41337 0.57100 124 130 126
0.06249 -4.41587 0.53741 113 117 116
0.06484 -4.41126 0.55518 115 122 123
0.05038 -4.41970 0.55896 111 114 122
0.04672 -4.42095 0.54218 115 119 122
-0.12315 -4.37161 0.62725 119 120 122
-0.14077 -4.38104 0.61461 126 126 122
-0.26736 -4.49572 0.65887 119 120 128
-0.24961 -4.48622 0.67161 126 125 122
-0.25320 -4.48745 0.65517 120 119 117
-0.25678 -4.48867 0.63872 116 116 114
-0.26377 -4.49450 0.67531 125 122 124
-0.27794 -4.50277 0.67902 124 124 123
-0.28251 -4.50075 0.66342 117 120 127
-0.29308 -4.50779 0.68355 121 125 119
-0.30024 -4.51024 0.65069 108 113 117
-0.30003 -4.49779 0.67002 118 121 120
-0.31772 -4.50725 0.65733 113 117 112
2.48304 -2.75604 -0.05736 139 123 110
2.46577 -2.77901 -0.05485 138 108 62
2.45087 -2.78640 -0.05075 137 102 65
2.46629 -2.81410 -0.06053 96 79 49
2.46936 -2.83372 -0.06469 43 44 52
2.46295 -2.84705 -0.06451 33 38 81
2.46034 -2.86304 -0.06609 43 44 106
2.45865 -2.87976 -0.06811 51 52 136
2.45471 -2.89504 -0.06911 53 56 152
2.43699 -2.90452 -0.08182 55 66 164
2.45575 -2.93212 -0.07528 51 61 152
2.49527 -3.25237 -0.13934 64 59 69
2.50660 -3.24482 -0.16092 43 43 71
2.48883 -3.26801 -0.13952 69 61 71
2.46754 -3.27214 -0.13265 81 74 80
2.47794 -3.30114 -0.14086 116 109 107
2.48931 -3.33119 -0.14958 144 136 142
2.43195 -3.34904 -0.13212 154 148 146
2.44728 -3.34009 -0.13613 153 149 151
2.40764 -3.35069 -0.12380 149 146 145
2.38416 -3.35292 -0.11586 155 153 155
2.36503 -3.36316 -0.12958 161 165 158
2.35747 -3.35243 -0.10636 167 163 160
2.34058 -3.35993 -0.10157 169 168 160
2.31932 -3.36377 -0.09466 155 155 160
2.30028 -3.37396 -0.10832 150 149 147
2.12802 -3.41739 -0.03552 150 149 161
2.14686 -3.40731 -0.02200 158 156 160
2.13924 -3.40991 -0.05691 158 144 152
2.12421 -3.41869 -0.05297 157 153 156
2.09127 -3.42892 -0.02435 152 150 151
2.08747 -3.43022 -0.04178 157 153 158
2.07627 -3.43769 -0.02043 149 144 150
2.00233 -3.50555 -0.00495 150 151 149
2.01359 -3.49804 -0.02639 157 157 164
1.99852 -3.50685 -0.02245 158 162 165
1.99107 -3.51305 0.01650 159 158 148
1.98726 -3.51435 -0.00100 152 137 140
1.96049 -3.51194 0.00882 161 154 160
1.95669 -3.51324 -0.00862 158 155 159
1.93953 -3.51498 0.01575 161 160 160
1.90040 -3.52356 0.02822 154 158 151
1.89661 -3.52485 0.01085 153 152 140
1.85461 -3.54888 0.04042 164 155 165
1.85082 -3.55017 0.02306 164 162 146
1.83586 -3.55891 0.02697 160 155 143
1.83669 -3.55463 0.04585 161 160 163
1.79657 -3.56165 0.05892 150 153 140
1.79279 -3.56294 0.04162 156 150 149
1.77789 -3.57164 0.04552 151 153 153
1.77607 -3.56460 0.06569 158 165 158
1.76496 -3.57201 0.08685 165 165 163
1.76119 -3.57329 0.06958 164 164 162
1.66560 -3.56968 0.10389 158 158 158
1.68031 -3.56108 0.10004 158 151 157
1.66932 -3.56841 0.12098 157 154 158
1.65461 -3.57700 0.12483 160 160 162
1.65088 -3.57827 0.10774 168 169 161
1.63815 -3.58901 0.11056 160 161 162
1.62809 -3.60267 0.11197 148 140 153
1.61927 -3.61776 0.11272 144 134 143
1.60076 -3.62767 0.09944 138 139 140
1.60560 -3.62760 0.11601 141 136 140
1.58820 -3.63333 0.12126 148 148 151
1.56969 -3.64323 0.10798 151 148 147
1.57232 -3.64071 0.12570 153 151 157
1.50801 -3.64374 0.14794 154 160 154
1.45648 -3.66066 0.16348 155 160 152
1.47111 -3.65212 0.15965 156 157 157
1.44028 -3.66737 0.16815 165 165 157
1.41041 -3.68371 0.17614 151 153 156
1.27692 -3.67806 0.22415 149 156 157
1.29131 -3.66965 0.22038 143 153 159
1.25888 -3.68771 0.21120 162 163 167
1.26378 -3.68804 0.22722 159 167 157
1.12523 -3.75176 0.26616 157 162 161
1.11008 -3.75907 0.27037 157 161 165
1.09253 -3.76311 0.27593 154 155 169
1.07823 -3.77151 0.27966 153 164 165
1.06027 -3.78112 0.26678 137 139 151
1.06372 -3.77964 0.28351 146 150 153
1.04576 -3.78925 0.27063 140 147 149
1.01063 -3.81916 0.29607 145 157 147
1.00700 -3.82040 0.27941 152 160 163
0.99764 -3.82949 0.29904 142 151 151
0.97964 -3.83912 0.28613 128 132 130
0.98201 -3.83605 0.30353 130 123 131
0.96402 -3.84568 0.29062 133 140 135
0.96741 -3.84408 0.30743 131 134 139
0.95518 -3.85558 0.30995 136 141 147
0.93784 -3.85957 0.31544 145 156 152
0.91986 -3.86919 0.30254 141 144 146
0.92471 -3.86976 0.31848 143 151 142
0.90672 -3.87939 0.30557 140 140 141
0.91534 -3.88564 0.31931 143 147 133
0.90267 -3.89663 0.32206 133 137 129
0.88463 -3.90628 0.30912 124 130 127
0.88876 -3.90577 0.32554 129 129 132
0.87072 -3.91543 0.31259 125 132 137
0.87081 -3.90872 0.33142 132 137 143
0.85279 -3.91836 0.31849 133 140 137
0.84025 -3.92269 0.34002 125 128 136
0.76791 -3.96381 0.35912 131 131 138
0.77864 -3.95666 0.33869 127 132 136
0.74991 -3.97344 0.34620 139 149 149
0.75427 -3.97337 0.36244 142 147 147
0.74378 -3.98818 0.36382 140 145 139
0.72575 -3.99783 0.35088 131 133 138
0.72905 -3.99603 0.36780 130 132 128
0.71102 -4.00567 0.35486 133 134 141
0.71642 -4.00737 0.37048 130 131 130
0.69837 -4.01703 0.35753 136 135 140
0.60003 -4.07250 0.40138 126 129 130
0.59638 -4.07374 0.38467 123 128 128
0.58928 -4.07966 0.42185 135 138 129
0.58564 -4.08090 0.40514 136 142 139
0.27235 -4.27317 0.48565 127 130 127
0.28677 -4.26475 0.48188 126 127 132
0.26870 -4.27442 0.46892 120 123 124
0.26099 -4.28841 0.48728 129 134 127
0.24289 -4.29809 0.47429 117 119 115
0.24523 -4.29386 0.49199 125 127 123
0.22714 -4.30353 0.47902 117 120 116
0.22944 -4.29919 0.49673 115 115 116
0.19969 -4.31392 0.50493 117 122 124
0.18163 -4.32358 0.49197 127 126 123
0.14255 -4.30588 0.52636 126 130 127
0.15323 -4.29877 0.50602 124 121 121
0.12463 -4.31547 0.51350 133 140 131
0.10613 -4.30349 0.53959 126 129 122
0.07514 -4.35795 0.54200 126 123 129
0.08948 -4.34958 0.53825 122 126 129
0.08585 -4.35082 0.52161 128 128 124
0.05718 -4.36756 0.52911 111 117 119
0.06630 -4.38030 0.54163 113 118 119
-0.11339 -4.36255 0.60784 121 123 119
-0.09578 -4.35313 0.62047 114 113 105
-0.11695 -4.36376 0.59153 126 129 127
-0.13099 -4.37197 0.59521 128 131 134
-0.28642 -4.50088 0.64728 106 105 113
-0.30415 -4.51037 0.63455 112 117 117
2.47810 -2.73925 -0.06999 140 128 196
2.48837 -2.73240 -0.08955 117 96 204
2.46072 -2.74491 -0.06473 122 111 148
2.45681 -2.75941 -0.06566 138 125 99
2.44632 -2.76964 -0.06357 140 124 66
2.43166 -2.77710 -0.05956 143 124 68
2.42875 -2.79246 -0.06098 132 117 71
2.45468 -2.82740 -0.07577 67 60 65
2.45093 -2.84250 -0.07685 40 41 85
2.44031 -2.85298 -0.07476 51 49 109
2.43952 -2.87026 -0.07724 57 58 144
2.44486 -2.89191 -0.08259 57 64 162
2.44532 -2.92855 -0.08861 52 65 162
2.44172 -2.92978 -0.10512 57 70 169
2.44840 -2.94908 -0.09299 49 59 157
2.43819 -2.96031 -0.09116 49 54 149
2.42752 -2.96742 -0.07083 49 51 131
2.42504 -2.96947 -0.08796 49 52 137
2.41436 -2.97658 -0.06763 47 51 132
2.41074 -2.97782 -0.08422 46 51 129
2.47104 -3.23791 -0.14720 56 50 61
2.48231 -3.23040 -0.16867 32 36 60
2.46857 -3.25656 -0.14930 63 54 62
2.45252 -3.26469 -0.14490 81 72 81
2.47350 -3.30201 -0.15831 116 111 116
2.46585 -3.31698 -0.15799 140 135 141
2.45453 -3.32910 -0.15591 146 141 147
2.43584 -3.33533 -0.15027 153 146 156
2.41667 -3.34560 -0.16403 157 155 160
2.39434 -3.34433 -0.13698 157 154 161
2.37468 -3.34964 -0.13085 154 152 153
2.32898 -3.35481 -0.11545 159 150 160
2.32514 -3.35613 -0.13308 153 147 155
2.30995 -3.36500 -0.12911 140 137 152
2.30439 -3.35582 -0.10689 148 142 156
2.13857 -3.36543 -0.04956 157 150 151
2.15349 -3.35672 -0.05346 147 142 136
2.14235 -3.36414 -0.03225 160 155 155
2.12744 -3.37285 -0.02835 159 156 161
2.12702 -3.37710 -0.04732 164 161 153
1.93315 -3.51378 -0.00035 156 153 154
1.94435 -3.50632 -0.02167 157 154 156
1.92936 -3.51507 -0.01775 154 146 145
1.91437 -3.52383 -0.01383 155 165 151
1.91103 -3.51559 0.00721 152 151 151
1.89228 -3.52562 -0.00624 153 160 155
1.88065 -3.53260 0.01528 155 157 149
1.87686 -3.53390 -0.00208 146 156 155
1.86322 -3.53889 0.02046 164 166 150
1.84449 -3.54891 0.00702 154 156 152
1.74165 -3.55824 0.06052 153 149 156
1.73059 -3.56561 0.08159 165 161 160
1.72684 -3.56689 0.06440 161 157 157
1.67430 -3.55993 0.08416 156 154 161
1.68900 -3.55134 0.08032 160 161 157
1.68528 -3.55261 0.06324 163 167 165
1.65799 -3.56682 0.08885 160 167 163
1.64274 -3.57481 0.09299 168 173 169
1.62432 -3.58466 0.07977 153 147 150
1.63129 -3.58689 0.09512 163 163 165
1.61285 -3.59676 0.08189 154 148 150
1.62376 -3.60330 0.09517 153 147 153
1.61418 -3.61757 0.09629 147 140 143
1.58241 -3.63233 0.10521 144 146 144
1.57868 -3.63360 0.08808 141 142 145
1.56392 -3.64222 0.09194 136 146 140
1.52066 -3.63836 0.12616 142 137 142
1.53162 -3.63106 0.10529 138 142 139
1.51695 -3.63963 0.10913 138 134 140
1.49779 -3.63757 0.13441 144 140 148
1.47945 -3.64739 0.12125 142 146 143
1.48036 -3.64291 0.13974 146 146 154
1.45940 -3.64410 0.14699 146 152 154
1.44111 -3.65389 0.13387 134 134 137
1.44408 -3.65178 0.15120 157 161 155
1.42498 -3.65500 0.15747 172 168 160
1.41016 -3.66321 0.16142 167 166 163
1.39696 -3.67335 0.16448 152 153 150
1.38372 -3.68346 0.16757 147 146 143
1.36914 -3.69198 0.17138 142 147 148
1.36545 -3.69324 0.15446 148 156 152
1.29383 -3.67851 0.20027 146 156 153
1.31190 -3.66884 0.21324 138 152 161
1.30825 -3.67008 0.19649 136 152 153
1.27575 -3.68818 0.18730 162 166 164
1.26785 -3.67256 0.21044 154 157 160
1.24985 -3.68219 0.19752 162 166 167
1.23956 -3.68989 0.21771 162 167 168
1.22752 -3.70125 0.22017 144 147 157
1.20950 -3.71089 0.20724 141 149 154
1.21168 -3.70778 0.22475 152 158 152
1.20095 -3.71493 0.24520 161 161 163
1.19367 -3.71742 0.21183 149 150 158
1.16416 -3.72720 0.23851 156 160 160
1.18215 -3.71758 0.25142 157 161 160
1.17851 -3.71882 0.23476 159 164 159
1.17488 -3.72006 0.21810 151 153 154
1.16779 -3.72596 0.25517 155 160 166
1.14742 -3.73243 0.24362 152 155 153
1.12946 -3.74205 0.23073 135 140 151
1.12841 -3.73458 0.25003 150 148 157
1.11047 -3.74418 0.23715 139 146 152
1.11536 -3.74464 0.25305 148 148 153
1.09741 -3.75424 0.24017 144 151 146
1.09956 -3.75101 0.25764 147 147 149
1.08162 -3.76061 0.24477 134 144 149
1.08419 -3.75793 0.26199 143 150 154
1.06626 -3.76753 0.24912 145 148 153
1.07057 -3.76723 0.26534 146 150 157
0.98564 -3.81873 0.28726 142 137 144
0.99633 -3.81160 0.26689 150 159 165
0.96770 -3.82833 0.27438 134 137 125
0.94182 -3.84253 0.29901 134 137 133
0.95250 -3.83541 0.27865 138 146 135
0.92388 -3.85212 0.28614 137 143 152
0.92625 -3.84903 0.30349 142 153 150
0.90832 -3.85862 0.29063 141 144 151
0.89188 -3.88704 0.30962 136 141 131
0.90260 -3.87990 0.28920 140 141 148
0.88825 -3.88829 0.29296 136 140 138
0.82911 -3.91219 0.32788 130 126 131
0.83981 -3.90507 0.30751 136 141 138
0.81116 -3.92180 0.31500 134 137 145
0.81451 -3.92012 0.33180 130 131 136
0.80019 -3.92848 0.33554 135 136 140
0.79656 -3.92972 0.31892 134 135 145
0.73221 -3.97629 0.35203 138 143 142
0.74292 -3.96915 0.33163 133 141 145
0.71423 -3.98591 0.33914 128 134 139
0.64708 -4.02817 0.37396 129 138 134
0.66506 -4.01855 0.38686 136 137 138
0.66143 -4.01979 0.37021 132 135 132
0.65072 -4.02693 0.39062 131 137 134
0.59932 -4.04488 0.38824 133 138 134
0.59569 -4.04612 0.37162 135 146 137
0.27624 -4.25090 0.47000 126 127 130
0.29425 -4.24126 0.48292 132 132 139
0.29061 -4.24250 0.46624 136 139 139
0.28697 -4.24375 0.44957 136 141 140
0.25508 -4.28460 0.47213 117 123 119
0.23700 -4.29427 0.45916 118 117 112
0.21061 -4.30711 0.48431 110 114 119
0.22137 -4.29994 0.46381 119 121 113
0.19345 -4.30912 0.49008 118 123 124
0.17541 -4.31877 0.47714 125 130 126
0.10198 -4.30338 0.52347 134 140 130
0.09838 -4.30461 0.50695 133 138 134
0.08414 -4.31293 0.51067 132 134 128
0.08237 -4.29840 0.53123 129 127 128
-0.27996 -4.48041 0.63075 112 107 110
-0.29763 -4.48987 0.61807 118 120 120
-0.29237 -4.49424 0.63295 109 111 111
-0.31007 -4.50372 0.62025 117 120 117
2.46186 -2.74913 -0.08282 104 99 169
2.45584 -2.76226 -0.08282 126 116 116
2.44485 -2.77217 -0.08051 142 122 72
2.43490 -2.78279 -0.07869 154 127 79
2.43540 -2.80048 -0.08176 149 126 83
2.44153 -2.82210 -0.08748 79 65 76
2.43170 -2.83302 -0.08575 52 51 94
2.41673 -2.84045 -0.08162 64 68 115
2.42583 -2.86448 -0.08879 79 74 144
2.42884 -2.88449 -0.09313 70 74 163
2.43714 -2.90834 -0.09998 59 73 168
2.43877 -2.94605 -0.10672 56 64 167
2.43516 -2.94729 -0.12326 56 68 175
2.42693 -2.95610 -0.10413 53 61 160
2.41104 -2.96327 -0.09963 50 58 150
2.39407 -2.96963 -0.09461 47 54 141
2.38343 -2.97672 -0.07435 48 52 133
2.37982 -2.97796 -0.09088 47 51 135
2.44578 -3.22261 -0.15435 48 43 50
2.45699 -3.21514 -0.17571 39 35 58
2.44888 -3.24551 -0.15920 60 50 57
2.43260 -3.25337 -0.15467 80 68 82
2.44769 -3.28600 -0.16538 110 105 117
2.43871 -3.29981 -0.16443 125 126 133
2.42620 -3.31086 -0.16177 133 131 144
2.41577 -3.32361 -0.16013 147 142 154
2.39667 -3.33384 -0.17383 163 163 161
2.36915 -3.34958 -0.14772 150 140 157
2.34339 -3.34979 -0.13856 155 149 158
2.27012 -3.35309 -0.11295 147 148 146
2.25885 -3.36060 -0.09148 150 149 141
2.24567 -3.35397 -0.10436 152 149 148
2.23443 -3.36146 -0.08295 142 143 141
2.23062 -3.36276 -0.10043 149 149 154
2.14628 -3.35501 -0.06906 149 149 143
2.16495 -3.34502 -0.05566 148 145 143
2.16118 -3.34631 -0.07295 152 150 145
2.15740 -3.34760 -0.09025 152 144 157
2.13116 -3.36353 -0.06505 167 168 167
2.11249 -3.37352 -0.07845 168 165 165
2.11663 -3.37255 -0.06134 176 173 172
2.10607 -3.38512 -0.05962 164 158 164
2.09116 -3.39383 -0.05572 165 157 157
1.96476 -3.36740 -0.00629 157 154 148
1.97941 -3.35884 -0.01012 153 152 148
1.97570 -3.36011 -0.02712 155 148 158
1.96847 -3.36613 0.01071 154 143 140
1.96105 -3.36866 -0.02329 158 163 152
1.95012 -3.37595 -0.00246 161 161 156
1.83328 -3.51413 0.01670 150 153 151
1.82952 -3.51541 -0.00052 151 141 142
1.81468 -3.52408 0.00336 151 150 149
1.73936 -3.53711 0.04647 148 149 156
1.75411 -3.52850 0.04261 158 158 165
1.75037 -3.52977 0.02549 152 143 148
1.73562 -3.53839 0.02935 143 144 150
1.72100 -3.54199 0.05223 150 145 147
1.69824 -3.54221 0.06032 164 162 164
1.66755 -3.55800 0.06869 158 163 166
1.66383 -3.55927 0.05164 156 161 154
1.64914 -3.56785 0.05548 157 159 148
1.65077 -3.56436 0.07364 156 154 151
1.63237 -3.57421 0.06044 157 155 150
1.63416 -3.57086 0.07852 153 146 142
1.61577 -3.58070 0.06532 156 156 152
1.60064 -3.60809 0.08440 153 151 146
1.61163 -3.60076 0.06346 154 152 155
1.59691 -3.60936 0.06731 158 159 153
1.58513 -3.61582 0.08868 147 147 147
1.48568 -3.62923 0.12198 139 138 145
1.49659 -3.62196 0.10122 148 147 144
1.46739 -3.63902 0.10886 155 158 155
1.45004 -3.63879 0.13315 140 141 133
1.41594 -3.64996 0.14350 137 139 147
1.41226 -3.65122 0.12661 145 143 147
1.40467 -3.66233 0.14550 144 145 151
1.39056 -3.67138 0.14906 148 149 150
1.37232 -3.68114 0.13597 160 161 160
1.37416 -3.67767 0.15389 151 156 150
1.35593 -3.68743 0.14080 153 158 157
1.28104 -3.66844 0.18863 154 162 159
1.29177 -3.66129 0.16818 160 159 157
1.27740 -3.66969 0.17194 155 160 159
1.23155 -3.68561 0.20349 158 165 165
1.24227 -3.67847 0.18309 156 158 160
1.22792 -3.68685 0.18684 154 155 160
1.21357 -3.69523 0.19059 151 152 160
1.21875 -3.69595 0.20638 143 153 158
1.20076 -3.70558 0.19347 159 161 158
1.15304 -3.71861 0.22613 146 154 151
1.13510 -3.72821 0.21326 135 132 139
1.13750 -3.72535 0.23058 135 145 146
0.97436 -3.80896 0.27517 141 139 144
0.92623 -3.82617 0.28954 132 137 137
0.90838 -3.83572 0.27673 145 150 156
0.81916 -3.90351 0.31513 138 139 143
0.81554 -3.90475 0.29855 134 141 146
0.80125 -3.91309 0.30229 135 138 147
0.63912 -4.02186 0.36008 123 125 127
0.62748 -4.03493 0.36211 122 133 132
0.60609 -4.03081 0.37041 129 140 138
0.58818 -4.04039 0.35756 128 135 133
0.26081 -4.26624 0.45523 126 132 131
0.27156 -4.25908 0.43477 128 135 135
0.25717 -4.26749 0.43854 129 136 134
0.24403 -4.26925 0.46073 121 122 121
0.19934 -4.29074 0.47318 117 118 118
0.17886 -4.28484 0.48145 123 129 125
0.16094 -4.29443 0.46859 127 135 133
0.05080 -4.27335 0.52904 132 132 119
0.06131 -4.26635 0.50902 129 132 126
0.04724 -4.27457 0.51270 129 131 120
-0.57039 -4.62593 0.69322 113 116 103
-0.55279 -4.61651 0.70585 113 115 117
-0.55635 -4.61773 0.68955 117 118 111
-0.56684 -4.62472 0.70953 115 116 107
-0.58088 -4.63292 0.71320 114 112 102
-0.58799 -4.63535 0.68060 94 103 90
2.46464 -2.73739 -0.09889 77 75 182
2.47489 -2.73056 -0.11842 132 122 204
2.45624 -2.74891 -0.09779 109 106 188
2.43901 -2.75813 -0.11016 130 119 164
2.44312 -2.75736 -0.09449 136 126 158
2.42589 -2.76658 -0.10685 145 124 118
2.43681 -2.77034 -0.09439 146 131 102
2.41955 -2.77958 -0.10678 160 139 85
2.42518 -2.77983 -0.09179 156 134 83
2.42397 -2.79634 -0.09411 142 113 81
2.42794 -2.81648 -0.09889 72 45 73
2.41200 -2.82319 -0.09428 55 53 90
2.39644 -2.83015 -0.08986 67 67 113
2.43005 -2.87106 -0.10873 122 127 154
2.40565 -2.87206 -0.10014 125 142 177
2.42489 -2.90350 -0.11229 76 90 158
2.42516 -2.92188 -0.11544 57 65 164
2.40740 -2.93138 -0.12818 54 66 176
2.41591 -2.95205 -0.11715 51 69 170
2.41231 -2.95328 -0.13368 54 69 176
2.39807 -2.96160 -0.12995 51 67 172
2.40138 -2.96016 -0.11329 47 65 162
2.38363 -2.96593 -0.10788 46 59 154
2.36367 -2.97006 -0.10140 48 54 142
2.35306 -2.97713 -0.08120 48 52 131
2.34022 -2.97159 -0.09324 50 52 133
2.32964 -2.97864 -0.07308 47 52 127
2.32605 -2.97987 -0.08953 50 51 128
2.43184 -3.23649 -0.17024 57 49 60
2.41546 -3.24421 -0.16565 76 70 80
2.40786 -3.27964 -0.16882 128 127 138
2.40175 -3.29568 -0.16930 141 136 149
2.38984 -3.30713 -0.16693 156 155 156
2.36042 -3.32558 -0.15945 157 152 161
2.35658 -3.32689 -0.17705 156 146 156
2.34683 -3.33572 -0.15626 148 133 147
2.32783 -3.34590 -0.16990 155 157 152
2.32551 -3.33949 -0.14924 153 146 144
2.30654 -3.34965 -0.16285 158 160 158
2.30345 -3.34258 -0.14183 155 157 159
2.27917 -3.34372 -0.13330 148 150 153
2.26101 -3.34993 -0.12782 142 134 137
2.24053 -3.35414 -0.12117 141 129 139
2.21936 -3.35770 -0.11417 147 138 150
2.20814 -3.36517 -0.09280 157 153 160
2.20434 -3.36647 -0.11024 152 151 153
2.20053 -3.36777 -0.12768 153 149 147
2.14043 -3.35449 -0.08531 156 156 155
2.15155 -3.34708 -0.10649 153 151 150
2.11805 -3.35661 -0.07763 161 157 162
2.09226 -3.37748 -0.07185 167 157 163
2.08849 -3.37876 -0.08912 165 167 166
2.07530 -3.38431 -0.06690 165 158 152
2.06420 -3.39170 -0.04575 155 152 159
2.06043 -3.39299 -0.06301 149 147 156
2.05667 -3.39428 -0.08027 147 150 152
1.92328 -3.35580 -0.00759 161 161 154
1.91241 -3.36304 0.01311 158 152 139
1.90873 -3.36430 -0.00378 160 155 146
1.90504 -3.36556 -0.02067 157 156 149
1.83159 -3.49410 0.00229 152 149 152
1.84637 -3.48546 -0.00158 152 158 158
1.84263 -3.48674 -0.01874 160 159 158
1.68408 -3.53256 0.04882 150 153 154
1.66572 -3.54238 0.03564 155 158 153
1.67816 -3.55031 0.04799 152 157 157
1.65975 -3.56016 0.03478 158 156 151
1.56906 -3.60344 0.07830 162 163 148
1.54964 -3.60670 0.08472 154 152 147
1.53500 -3.61525 0.08855 143 148 144
1.43902 -3.63153 0.12029 159 159 150
1.42456 -3.64010 0.12405 151 149 147
1.40635 -3.64985 0.11098 140 139 143
1.39583 -3.65748 0.13147 151 151 149
1.38196 -3.66676 0.13490 159 160 156
1.36374 -3.67650 0.12183 161 163 171
1.16291 -3.71043 0.20624 148 152 151
1.17360 -3.70331 0.18589 146 144 148
1.15929 -3.71166 0.18963 145 150 150
1.14498 -3.72002 0.19338 143 147 149
1.14739 -3.71719 0.21069 133 134 148
1.11383 -3.72728 0.22105 145 149 145
1.09977 -3.73590 0.22466 141 150 153
1.08549 -3.74424 0.22840 149 154 153
0.98062 -3.79558 0.25749 148 159 164
0.99487 -3.78725 0.25376 147 149 145
0.96277 -3.80513 0.24467 148 146 145
0.96686 -3.80460 0.26092 144 143 147
0.94900 -3.81416 0.24811 144 146 144
0.94737 -3.80532 0.26780 141 143 132
0.92955 -3.81486 0.25501 147 154 154
0.93327 -3.81381 0.27145 144 151 145
0.91544 -3.82335 0.25865 148 153 158
0.61726 -4.02456 0.34976 112 120 115
0.59551 -4.01967 0.35838 119 130 128
0.57766 -4.02922 0.34557 127 132 135
0.55875 -4.02136 0.37129 124 125 131
0.23817 -4.26550 0.44569 127 130 127
0.24889 -4.25836 0.42528 125 132 128
0.23454 -4.26674 0.42903 125 130 121
0.22019 -4.27512 0.43278 128 132 120
0.22301 -4.27204 0.45004 126 127 119
0.20512 -4.27227 0.45642 125 128 121
0.18718 -4.28187 0.44355 131 137 131
0.18464 -4.26635 0.46476 127 132 129
0.16676 -4.27591 0.45193 134 141 137
0.16067 -4.25199 0.47575 131 139 134
0.14289 -4.26150 0.46299 128 134 135
-0.03039 -4.29641 0.53693 120 122 121
-0.01284 -4.28702 0.54952 120 123 126
-0.01639 -4.28823 0.53326 121 125 124
-0.02685 -4.29520 0.55318 115 120 111
-0.04440 -4.30459 0.54059 113 119 127
-0.04794 -4.30580 0.52433 120 120 122
-0.57832 -4.60825 0.68164 105 114 93
-0.56787 -4.60129 0.66175 108 113 107
-0.58186 -4.60946 0.66540 105 112 98
-0.59584 -4.61763 0.66906 102 107 97
2.46615 -2.74183 -0.11718 98 96 190
2.47641 -2.73499 -0.13673 134 119 212
2.44651 -2.74599 -0.11080 112 115 186
2.41252 -2.79218 -0.10638 145 128 85
2.40492 -2.80445 -0.10572 75 53 81
2.39110 -2.81252 -0.10211 57 53 94
2.38616 -2.82669 -0.10273 71 74 120
2.40611 -2.85817 -0.11528 134 145 165
2.37786 -2.85639 -0.10478 205 196 180
2.37649 -2.87331 -0.10716 142 148 183
2.41899 -2.92128 -0.13065 67 80 178
2.37022 -2.96006 -0.11964 48 64 167
2.38081 -2.95300 -0.13982 55 67 177
2.36662 -2.96129 -0.13611 50 67 174
2.35337 -2.96641 -0.11464 49 59 159
2.33216 -2.96954 -0.10751 50 56 150
2.32393 -2.98218 -0.10670 51 53 141
2.31335 -2.98923 -0.08653 50 50 122
2.31532 -2.99459 -0.10570 50 51 130
2.30472 -3.00165 -0.08551 51 48 116
2.30113 -3.00288 -0.10198 47 49 117
2.31369 -3.03129 -0.11134 45 48 106
2.31731 -3.03006 -0.09475 49 48 111
2.30302 -3.03841 -0.09102 48 47 107
2.39061 -3.22895 -0.17268 78 74 79
2.36759 -3.29358 -0.17536 152 154 151
2.35582 -3.30509 -0.17307 154 151 155
2.33689 -3.31521 -0.18665 161 158 155
2.32611 -3.32314 -0.16541 153 151 152
2.26312 -3.33475 -0.14466 149 150 156
2.24428 -3.34484 -0.15817 146 140 136
2.24787 -3.34336 -0.14062 140 140 137
2.22786 -3.34790 -0.13417 144 140 137
2.20904 -3.35797 -0.14767 158 156 163
2.20735 -3.35196 -0.12745 152 147 142
2.18856 -3.36202 -0.14094 156 151 152
2.12583 -3.34632 -0.09708 156 151 155
2.13691 -3.33893 -0.11820 155 152 148
2.10525 -3.34995 -0.09027 158 154 155
2.08713 -3.35569 -0.08470 164 163 162
2.05934 -3.37465 -0.07790 152 152 153
2.04077 -3.38459 -0.09122 153 151 152
1.93766 -3.37381 -0.03384 155 148 152
1.68221 -3.48832 0.03888 152 153 154
1.69674 -3.47983 0.03508 162 159 151
1.66400 -3.49807 0.02581 162 163 161
1.66389 -3.49287 0.04472 153 156 154
1.64570 -3.50260 0.03167 151 152 157
1.56710 -3.58194 0.06451 151 151 148
1.58170 -3.57341 0.06069 152 153 148
1.56340 -3.58321 0.04756 147 139 141
1.53610 -3.59699 0.07314 157 160 150
1.51781 -3.60678 0.06002 156 160 154
1.52049 -3.60438 0.07752 141 147 141
1.50960 -3.61165 0.09827 146 153 141
1.50590 -3.61291 0.08133 144 145 143
1.50221 -3.61417 0.06440 156 156 153
1.44683 -3.62079 0.10131 147 146 146
1.46135 -3.61231 0.09751 146 145 149
1.42864 -3.63053 0.08826 142 145 146
1.43042 -3.62707 0.10617 153 159 155
1.41224 -3.63680 0.09312 150 150 150
1.41612 -3.63578 0.10985 148 155 155
1.38362 -3.64859 0.11940 148 148 154
1.36545 -3.65830 0.10637 162 164 168
1.36767 -3.65531 0.12401 160 164 174
1.34952 -3.66503 0.11099 161 163 168
1.19941 -3.68300 0.18003 145 153 159
1.18149 -3.69258 0.16718 136 141 153
1.18678 -3.69350 0.18280 145 144 153
1.16886 -3.70309 0.16994 139 145 153
1.12438 -3.72003 0.20081 140 147 147
1.13505 -3.71293 0.18050 140 141 141
1.12077 -3.72127 0.18424 141 146 153
1.10545 -3.72214 0.20729 141 144 142
1.08759 -3.73169 0.19447 132 139 143
1.09015 -3.72905 0.21163 133 135 146
1.07418 -3.73503 0.21638 138 137 141
1.06354 -3.74211 0.23663 142 148 159
1.05634 -3.74457 0.20358 139 144 150
0.98471 -3.77917 0.24116 134 138 148
1.00252 -3.76964 0.25395 143 152 152
0.99892 -3.77087 0.23745 143 151 150
0.98111 -3.78040 0.22466 124 130 151
0.96690 -3.78870 0.22838 133 139 142
0.97409 -3.79262 0.24271 139 141 152
0.95625 -3.80216 0.22991 144 142 144
0.86140 -3.83109 0.27684 146 144 146
0.87556 -3.82282 0.27313 152 153 156
0.87198 -3.82405 0.25670 148 152 157
0.85083 -3.83814 0.29698 137 136 140
0.84724 -3.83936 0.28054 138 138 138
0.62260 -4.00810 0.33294 123 128 122
0.63686 -3.99977 0.32921 131 134 130
0.63325 -4.00100 0.31265 135 141 137
0.61013 -4.01960 0.33548 118 125 117
0.59224 -4.02917 0.32265 129 135 133
0.58787 -4.01372 0.34452 122 129 131
0.57005 -4.02326 0.33173 132 136 135
0.54970 -4.01271 0.35846 129 133 136
0.54612 -4.01394 0.34203 138 143 140
0.48053 -3.98790 0.38764 132 132 129
0.48407 -3.98669 0.40387 133 136 131
0.47699 -3.98911 0.37141 130 128 128
0.47009 -3.99485 0.40753 122 128 125
0.46058 -3.98487 0.39535 126 124 121
0.45017 -3.99181 0.41518 123 127 126
0.44296 -3.98605 0.40151 119 120 115
0.43257 -3.99298 0.42131 127 128 127
0.42904 -3.99418 0.40515 123 131 129
0.40510 -4.08946 0.39760 121 132 127
0.40152 -4.09068 0.38119 120 129 123
0.38739 -4.09894 0.38489 126 128 125
0.18756 -4.24149 0.45027 129 132 125
0.19817 -4.23442 0.43007 128 135 124
0.18397 -4.24272 0.43378 132 135 128
0.16976 -4.25101 0.43750 131 133 125
-0.75091 -4.62034 0.72456 95 103 104
-0.73368 -4.61112 0.73692 99 103 106
-0.73716 -4.61231 0.72096 83 90 91
-0.74742 -4.61915 0.74052 102 110 107
-0.75439 -4.62153 0.70860 100 100 100
-0.76117 -4.62718 0.74411 105 110 112
-0.85211 -4.73725 0.74122 97 97 94
-0.83821 -4.72913 0.73758 96 99 99
-0.84173 -4.73033 0.72144 100 99 96
-0.84859 -4.73605 0.75736 106 105 106
-0.86602 -4.74537 0.74486 93 94 82
-0.86954 -4.74657 0.72872 91 94 86
2.45870 -2.74043 -0.13125 103 97 191
2.46896 -2.73359 -0.15079 92 83 194
2.45026 -2.75193 -0.13018 118 123 185
2.43765 -2.76073 -0.12713 133 129 157
2.42276 -2.76800 -0.12299 145 125 123
2.41184 -2.77794 -0.12074 157 130 96
2.40924 -2.79351 -0.12250 144 120 81
2.39703 -2.80265 -0.11965 83 56 69
2.38322 -2.81072 -0.11604 53 51 94
2.39507 -2.83644 -0.12480 79 86 138
2.40158 -2.85869 -0.13102 97 109 174
2.36666 -2.87010 -0.12032 156 161 195
2.40738 -2.91684 -0.14320 90 90 179
2.38967 -2.92632 -0.15590 59 71 174
2.39905 -2.92922 -0.14232 56 68 177
2.38490 -2.93749 -0.13862 56 69 179
2.38132 -2.93871 -0.15504 59 73 179
2.33034 -2.95346 -0.12159 50 64 170
2.34087 -2.94644 -0.14166 61 70 173
2.32677 -2.95468 -0.13797 59 69 169
2.31574 -2.96134 -0.11766 50 59 164
2.30692 -2.97349 -0.11656 47 55 155
2.29863 -2.98608 -0.11573 44 52 141
2.30291 -3.02713 -0.12440 38 44 94
2.37669 -3.20188 -0.18145 55 50 56
2.38778 -3.19448 -0.20258 52 49 51
2.33792 -3.25318 -0.17627 148 140 137
2.31920 -3.26320 -0.18970 149 143 142
2.34084 -3.27634 -0.18134 151 141 148
2.32204 -3.28640 -0.19483 148 143 144
2.33429 -3.29198 -0.18168 154 148 154
2.30125 -3.30710 -0.17231 152 145 153
2.28091 -3.31146 -0.16568 150 141 154
2.26211 -3.32152 -0.17917 140 137 132
2.26139 -3.31645 -0.15947 154 150 145
2.24261 -3.32650 -0.17294 139 138 139
2.24607 -3.32492 -0.15537 149 143 139
2.22729 -3.33496 -0.16885 142 135 140
2.21412 -3.34073 -0.14652 153 148 149
2.11998 -3.34577 -0.11324 147 141 147
2.13106 -3.33839 -0.13435 160 155 149
2.09951 -3.34949 -0.10646 140 135 141
2.08082 -3.35471 -0.10058 143 138 139
2.06541 -3.36281 -0.09639 155 160 160
2.04686 -3.37274 -0.10970 149 144 147
2.03963 -3.36160 -0.08683 154 148 144
2.02114 -3.37149 -0.10010 152 148 156
1.96288 -3.35769 -0.05831 148 149 147
1.97750 -3.34915 -0.06213 140 147 149
1.95176 -3.36946 -0.05631 150 142 146
1.93801 -3.37884 -0.05295 157 139 146
1.91966 -3.38866 -0.06611 157 159 159
1.91100 -3.37583 -0.04262 159 156 140
1.90010 -3.38309 -0.02187 151 158 165
1.89641 -3.38435 -0.03881 160 158 158
1.89272 -3.38561 -0.05574 161 154 160
1.73481 -3.47698 0.00378 154 151 155
1.73850 -3.47572 0.02071 165 168 161
1.72022 -3.48550 0.00759 142 134 148
1.68463 -3.47242 0.02277 153 151 157
1.68096 -3.47368 0.00595 153 152 153
1.56691 -3.56254 0.04987 151 152 149
1.58515 -3.55278 0.06295 154 158 147
1.58146 -3.55404 0.04606 150 156 154
1.56323 -3.56380 0.03298 156 159 163
1.53534 -3.57681 0.05885 148 142 151
1.53166 -3.57806 0.04197 147 146 154
1.51712 -3.58656 0.04578 154 152 157
1.51746 -3.58156 0.06452 155 157 160
1.49925 -3.59130 0.05146 156 156 154
1.43152 -3.60858 0.09102 142 144 141
1.44232 -3.60138 0.07044 152 152 151
1.42786 -3.60983 0.07423 154 156 142
1.41340 -3.61827 0.07801 154 155 143
1.39073 -3.63698 0.10089 152 148 147
1.40154 -3.62978 0.08030 151 150 142
1.37711 -3.64646 0.10419 157 156 154
1.35897 -3.65617 0.09117 166 166 157
1.23582 -3.65562 0.15387 158 159 160
1.25371 -3.64604 0.16671 151 153 155
1.24648 -3.64851 0.13356 165 163 167
1.23944 -3.65439 0.17045 147 150 152
1.23220 -3.65685 0.13729 165 166 167
1.21996 -3.66197 0.15852 154 155 156
1.20372 -3.66779 0.16341 138 141 147
1.18982 -3.67660 0.16692 137 142 151
1.09877 -3.71926 0.19257 133 137 137
0.88052 -3.77825 0.26153 143 148 143
0.89457 -3.77004 0.25786 140 144 150
0.87003 -3.78524 0.28152 149 151 157
0.87139 -3.79379 0.26215 144 146 150
0.85277 -3.82467 0.26356 143 147 145
0.84167 -3.83755 0.26535 135 136 129
0.83111 -3.84460 0.28548 132 138 135
0.82752 -3.84582 0.26905 125 131 132
0.82394 -3.84704 0.25263 127 135 127
0.74581 -3.90054 0.28922 127 131 139
0.76357 -3.89103 0.30196 137 139 145
0.75998 -3.89226 0.28551 138 140 145
0.75639 -3.89349 0.26907 138 142 144
0.73523 -3.90759 0.30937 123 126 123
0.73077 -3.90739 0.29349 120 125 126
0.71661 -3.91566 0.29720 123 127 128
0.71302 -3.91688 0.28076 131 134 135
0.61170 -3.99655 0.32124 132 136 133
0.62231 -3.98947 0.30102 131 136 141
0.60810 -3.99778 0.30474 133 137 140
0.59388 -4.00608 0.30846 134 141 140
0.59845 -4.00657 0.32431 129 136 131
0.58063 -4.01611 0.31152 132 140 136
0.51030 -3.98256 0.36046 132 141 141
0.52077 -3.97558 0.34052 136 141 139
0.49273 -3.99195 0.34785 124 131 131
0.48831 -3.97602 0.36957 126 129 132
0.47081 -3.98538 0.35701 129 130 127
0.45372 -3.97982 0.38146 125 122 120
0.45020 -3.98102 0.36530 127 128 124
0.43694 -3.98252 0.38708 119 120 113
0.42055 -3.98588 0.39244 122 136 132
0.41018 -3.99279 0.41219 123 127 125
0.40667 -3.99399 0.39608 126 131 132
0.40315 -3.99519 0.37996 129 134 128
0.01156 -4.29238 0.48773 124 130 124
0.02918 -4.28294 0.50038 122 129 132
0.02562 -4.28416 0.48405 125 131 134
0.01512 -4.29116 0.50406 123 130 124
0.00105 -4.29938 0.50774 117 125 123
-0.00251 -4.30059 0.49141 116 126 124
-0.51455 -4.57358 0.62989 110 113 107
-0.49701 -4.56420 0.64248 116 112 109
-0.50055 -4.56541 0.62623 114 116 106
-0.50410 -4.56662 0.60998 112 113 100
-0.53209 -4.58297 0.61731 101 97 96
2.44110 -2.73237 -0.14041 81 79 176
2.45133 -2.72556 -0.15988 80 82 177
2.43764 -2.73355 -0.15630 81 93 174
2.43419 -2.74483 -0.14009 83 84 171
2.41701 -2.75402 -0.15242 106 91 143
2.42351 -2.75485 -0.13796 106 95 148
2.40632 -2.76405 -0.15030 133 106 104
2.41598 -2.76699 -0.13736 136 111 105
