ply
format ascii 1.0
element face 0
property list uchar int vertex_indices
element vertex 1312
property float x
property float y
property float z
property uchar diffuse_red
property uchar diffuse_green
property uchar diffuse_blue
end_header
0.87872 -4.32788 0.68656 132 127 113
0.80098 -4.35187 0.73054 122 127 118
0.69708 -4.45788 0.79922 117 120 110
0.67848 -4.47329 0.79052 128 125 106
0.57425 -4.63290 0.88708 120 119 113
0.59299 -4.61736 0.89585 112 109 113
0.57899 -4.62509 0.86286 103 101 98
0.58125 -4.62903 0.90357 121 116 120
0.56951 -4.64071 0.91129 112 109 118
0.55550 -4.64844 0.87830 117 120 113
0.56235 -4.64425 0.89483 116 118 116
0.55761 -4.65205 0.91905 113 113 112
0.54785 -4.64999 0.90321 112 108 102
0.53773 -4.66514 0.91054 108 108 95
0.53300 -4.67294 0.93474 104 105 93
0.52600 -4.67681 0.91826 102 105 90
0.51900 -4.68067 0.90177 101 102 92
1.93726 -1.67872 -0.23928 25 17 21
1.95163 -1.66681 -0.23256 19 12 22
1.94626 -1.66977 -0.24520 15 11 14
1.94089 -1.67274 -0.25785 14 11 10
1.94262 -1.67576 -0.22664 32 22 30
1.93362 -1.68471 -0.22072 47 34 40
1.96147 -1.71712 -0.24702 54 36 43
1.97061 -1.73510 -0.24949 62 44 51
2.68912 -2.32323 -0.55132 7 5 19
2.69372 -2.31566 -0.57481 9 4 6
2.68233 -2.32698 -0.56732 6 5 9
2.68944 -2.34097 -0.54916 11 7 35
2.68483 -2.34857 -0.52561 12 10 46
2.67802 -2.35233 -0.54165 12 11 48
2.65678 -2.37594 -0.52736 16 14 67
2.63854 -2.39106 -0.53590 26 18 71
2.61279 -2.47670 -0.49097 76 50 26
2.61744 -2.46903 -0.51474 41 27 50
2.60019 -2.48751 -0.48291 87 61 40
2.58106 -2.49441 -0.47192 93 72 44
2.56195 -2.50125 -0.46094 99 70 40
2.53416 -2.50275 -0.44609 108 82 46
2.51362 -2.50855 -0.43450 119 88 59
2.49605 -2.51609 -0.42425 126 94 54
2.49196 -2.53196 -0.42002 118 85 55
2.48519 -2.54621 -0.41458 111 83 78
2.48355 -2.58239 -0.40898 106 90 97
2.47670 -2.58617 -0.42511 130 100 33
2.46679 -2.59043 -0.39909 100 83 85
2.45005 -2.59844 -0.38921 99 82 87
2.43348 -2.60651 -0.37941 115 90 96
2.41521 -2.62165 -0.38796 139 114 79
2.42470 -2.61963 -0.37307 122 102 95
2.40793 -2.62751 -0.36319 125 110 79
2.37390 -2.64280 -0.34325 154 145 85
2.35946 -2.65209 -0.33442 163 148 133
2.34251 -2.65966 -0.32449 147 136 99
2.32442 -2.66640 -0.31406 112 95 62
2.30491 -2.69120 -0.30053 74 77 115
2.28150 -2.71332 -0.28529 49 58 147
2.26585 -2.72160 -0.27595 91 85 168
2.23564 -2.71948 -0.26030 148 152 191
2.23973 -2.74173 -0.25954 136 142 175
2.29988 -2.80454 -0.28303 60 54 129
2.29657 -2.82201 -0.27900 46 55 154
2.27809 -2.83732 -0.28765 57 59 151
2.29766 -2.84277 -0.27685 49 58 157
2.27911 -2.85814 -0.28553 112 68 104
2.29992 -2.88476 -0.27254 142 81 77
2.29295 -2.88861 -0.28896 137 87 52
2.29492 -2.90138 -0.26773 140 107 38
2.29032 -2.91837 -0.26308 89 103 44
2.28798 -2.93713 -0.25939 60 86 46
2.29676 -2.96448 -0.26043 38 42 58
2.29710 -2.98557 -0.25785 23 20 47
2.27817 -3.00127 -0.26671 21 18 25
2.28316 -3.08056 -0.23806 36 33 29
2.30232 -3.06468 -0.22910 24 24 30
2.29517 -3.06863 -0.24595 32 26 30
2.28202 -3.10118 -0.23476 65 60 51
2.30663 -3.14265 -0.24230 93 93 89
2.30486 -3.16314 -0.23869 113 119 112
2.28542 -3.17926 -0.24778 134 132 124
2.30100 -3.18204 -0.23417 129 133 126
2.28152 -3.19819 -0.24329 134 131 136
2.18362 -3.33035 -0.15285 131 133 132
2.20319 -3.31413 -0.14370 135 131 128
2.19588 -3.31816 -0.16091 132 127 126
2.18857 -3.32220 -0.17813 133 125 118
2.19093 -3.32631 -0.13564 139 141 133
2.17867 -3.33850 -0.12757 143 143 134
2.16922 -3.34064 -0.14391 140 141 133
2.16428 -3.34878 -0.11865 141 139 130
2.15697 -3.35281 -0.13586 146 142 132
2.14966 -3.35685 -0.15307 144 144 138
1.88707 -3.52218 0.02864 145 141 145
1.89195 -3.51415 0.00373 137 139 138
1.87986 -3.52615 0.01167 139 138 144
1.84562 -3.55285 0.05452 153 153 149
1.82636 -3.56881 0.04551 140 137 126
1.83057 -3.56174 0.06362 144 145 133
1.64648 -3.63591 0.17041 147 150 145
1.66542 -3.62021 0.17927 147 151 144
1.65834 -3.62411 0.16260 147 154 146
1.65127 -3.62802 0.14594 153 155 151
1.63940 -3.63981 0.15374 151 155 153
1.63877 -3.65239 0.17663 142 138 130
1.61980 -3.66811 0.16775 137 137 128
1.62639 -3.68901 0.18795 136 136 129
1.61928 -3.69294 0.17121 135 140 133
1.60735 -3.70479 0.17905 141 146 140
1.29125 -3.61809 0.35538 137 146 147
1.29578 -3.61062 0.33223 134 143 155
1.27948 -3.62858 0.36296 117 120 115
1.23982 -3.60373 0.38062 57 46 45
1.22710 -3.61273 0.38851 38 34 46
1.22304 -3.63284 0.39328 52 48 62
1.20534 -3.63543 0.40295 45 39 60
1.20086 -3.64281 0.42587 26 23 55
1.18843 -3.63892 0.41233 34 27 55
1.18395 -3.64629 0.43520 26 24 57
1.17103 -3.64167 0.42186 32 27 57
1.16656 -3.64903 0.44468 26 25 55
1.15868 -3.65097 0.42959 33 28 57
1.13584 -3.64631 0.44102 39 32 59
1.12700 -3.66017 0.44750 48 47 69
1.12818 -3.68758 0.45047 54 63 84
1.11051 -3.70223 0.44220 92 107 118
1.12173 -3.70485 0.45613 62 74 97
1.10403 -3.71953 0.44785 94 108 114
1.10327 -3.70579 0.46599 72 87 101
1.10789 -3.73838 0.46782 80 97 104
1.07042 -3.73923 0.48770 94 109 116
1.01533 -3.82164 0.52754 86 88 105
0.96625 -3.85886 0.55829 87 92 104
0.95482 -3.86936 0.56569 94 101 109
0.94678 -3.88502 0.57198 101 104 113
0.93166 -3.88990 0.58059 106 110 122
0.95524 -4.12991 0.59960 127 126 126
0.95990 -4.12224 0.57581 132 136 136
0.94836 -4.13371 0.58340 135 132 127
0.93682 -4.14518 0.59098 133 131 125
0.93064 -4.12020 0.61130 124 124 125
0.91232 -4.13538 0.60272 136 137 130
0.90719 -4.11204 0.62260 127 132 129
0.88895 -4.12715 0.61406 141 140 133
0.89968 -4.16017 0.63286 136 135 131
0.89283 -4.16395 0.61672 140 141 135
0.88133 -4.17537 0.62427 139 142 135
0.90732 -4.20355 0.63451 141 141 132
0.88884 -4.21887 0.62586 142 142 136
0.91077 -4.27166 0.64161 148 145 138
0.90380 -4.27551 0.62518 147 146 137
0.90854 -4.29947 0.64643 138 134 126
0.88979 -4.31501 0.63766 139 136 127
0.89624 -4.31019 0.65432 133 126 123
0.87749 -4.32573 0.64555 137 137 127
0.87253 -4.33314 0.66984 137 132 122
0.85911 -4.34187 0.67805 127 119 116
0.84737 -4.35354 0.68577 123 118 114
0.84037 -4.35740 0.66929 128 124 114
0.73803 -4.35143 0.74315 130 125 112
0.74269 -4.34376 0.71934 136 132 119
0.73115 -4.35523 0.72693 141 137 125
0.73337 -4.35911 0.76696 121 117 102
0.56514 -4.63230 0.87110 108 104 97
0.56988 -4.62450 0.84691 103 98 96
0.53874 -4.64928 0.88725 116 109 105
0.53175 -4.65313 0.87079 122 117 111
0.52851 -4.66415 0.89459 109 104 97
1.93191 -1.68170 -0.25194 18 13 14
1.93555 -1.67571 -0.27050 15 10 13
1.92654 -1.68466 -0.26458 16 11 14
1.95292 -1.71860 -0.25836 44 31 35
1.96528 -1.73817 -0.26241 54 39 45
1.98777 -1.76293 -0.27117 63 49 49
1.98404 -1.76907 -0.25212 76 57 47
1.97853 -1.77211 -0.26509 72 55 48
2.69496 -2.35151 -0.57088 9 7 19
2.69958 -2.34390 -0.59450 7 5 10
2.68812 -2.35528 -0.58697 8 7 9
2.67899 -2.36040 -0.56127 11 10 35
2.66739 -2.37169 -0.55368 13 12 53
2.65128 -2.38044 -0.54402 19 16 67
2.60265 -2.47856 -0.50567 59 39 35
2.60730 -2.47090 -0.52942 31 24 68
2.58427 -2.49379 -0.51428 62 41 40
2.59042 -2.48958 -0.49778 75 50 33
2.57134 -2.49648 -0.48677 84 58 35
2.55137 -2.50278 -0.47538 95 69 28
2.53025 -2.50829 -0.46347 101 79 26
2.50393 -2.51054 -0.44923 110 77 53
2.48244 -2.51563 -0.43718 141 124 116
2.49400 -2.54122 -0.44003 142 113 84
2.47368 -2.54702 -0.42852 138 106 37
2.46794 -2.56195 -0.42356 137 109 56
2.45584 -2.59157 -0.41336 129 98 39
2.43643 -2.59783 -0.40226 128 105 61
2.41707 -2.60405 -0.39120 135 110 65
2.38261 -2.61907 -0.37100 135 109 70
2.37582 -2.62282 -0.38699 129 96 63
2.36444 -2.63413 -0.37951 124 92 69
2.35399 -2.63778 -0.35343 130 116 72
2.35053 -2.65440 -0.34947 152 136 147
2.33332 -2.66178 -0.33940 163 132 145
2.30401 -2.66081 -0.32398 104 77 98
2.30014 -2.67720 -0.31983 89 63 131
2.29309 -2.69145 -0.31427 66 47 149
2.27838 -2.70039 -0.30533 58 50 159
2.26571 -2.71073 -0.29728 97 72 171
2.22727 -2.70282 -0.27791 177 179 207
2.22394 -2.71967 -0.27399 208 201 212
2.23809 -2.74914 -0.27772 138 135 161
2.29892 -2.81263 -0.30186 48 37 116
2.30321 -2.83567 -0.30118 41 51 153
2.28466 -2.85105 -0.30986 92 68 126
2.29770 -2.91254 -0.28842 98 100 45
2.30244 -2.90474 -0.31264 105 94 48
2.28725 -2.92519 -0.28126 63 80 64
2.29084 -2.94851 -0.28019 40 51 58
2.29527 -2.97262 -0.27944 26 23 50
2.27636 -2.98829 -0.28829 19 17 21
2.29439 -2.99284 -0.27640 19 15 29
2.27972 -3.04471 -0.26198 31 28 30
2.29166 -3.03285 -0.26983 24 22 26
2.28684 -3.04078 -0.24521 26 25 24
2.27946 -3.06581 -0.25914 40 33 33
2.27112 -3.08062 -0.25282 58 58 49
2.30329 -3.12796 -0.26382 93 92 81
2.29680 -3.14456 -0.25826 110 110 107
2.27742 -3.16062 -0.26733 122 122 121
2.28717 -3.15866 -0.25134 121 124 118
2.26778 -3.17473 -0.26042 133 125 125
2.25627 -3.24415 -0.22402 138 136 126
2.26121 -3.23602 -0.24926 132 127 118
2.25133 -3.25229 -0.19878 138 136 126
2.24403 -3.25632 -0.21597 142 140 125
2.14947 -3.31066 -0.15887 128 123 119
2.15438 -3.30257 -0.18397 131 128 115
2.14221 -3.31467 -0.17597 130 125 113
2.14178 -3.32675 -0.15273 134 131 128
1.97971 -3.38621 -0.05918 140 139 134
1.99172 -3.37427 -0.06708 147 134 133
1.98456 -3.37822 -0.08395 142 130 131
1.98687 -3.38226 -0.04231 143 145 138
1.97255 -3.39016 -0.07605 132 128 132
1.97486 -3.39420 -0.03441 148 155 146
1.85724 -3.52741 0.02383 146 150 139
1.86210 -3.51940 -0.00101 140 142 139
1.85005 -3.53137 0.00691 140 135 137
1.83801 -3.54335 0.01484 141 139 145
1.84534 -3.53953 0.03170 146 145 147
1.82611 -3.55547 0.02270 143 140 142
1.83428 -3.55253 0.03922 144 142 140
1.81505 -3.56847 0.03022 142 143 135
1.57722 -3.72115 0.19712 155 156 153
1.59622 -3.70540 0.20601 145 143 139
1.58912 -3.70932 0.18929 148 146 140
1.58203 -3.71324 0.17258 148 147 138
1.57242 -3.72906 0.22166 160 159 149
1.56532 -3.73297 0.20494 155 158 155
1.29294 -3.63231 0.33650 133 142 146
1.28106 -3.64271 0.34414 118 123 123
1.27237 -3.65717 0.35060 83 84 67
1.25169 -3.65633 0.36146 72 88 77
1.23956 -3.66635 0.36917 98 114 96
1.21763 -3.66363 0.38045 76 84 89
1.19353 -3.65788 0.39250 51 50 79
1.18479 -3.67210 0.39895 51 50 80
1.16493 -3.67163 0.40943 54 52 83
1.14719 -3.68633 0.40112 77 87 108
1.15424 -3.68324 0.41658 61 61 91
1.13650 -3.69795 0.40828 76 93 105
1.14515 -3.69701 0.42316 75 87 106
1.12963 -3.70211 0.43204 86 104 117
1.10849 -3.75204 0.44964 89 105 107
1.11299 -3.74463 0.42664 74 84 98
1.10184 -3.75571 0.43398 74 85 98
1.08969 -3.75249 0.45967 82 101 105
1.06945 -3.75077 0.47018 83 94 102
1.01557 -3.83533 0.50958 92 98 112
1.01372 -3.86008 0.51372 99 101 115
1.00561 -3.87574 0.52003 100 105 116
0.98970 -3.87981 0.52899 101 114 117
0.96753 -3.87437 0.54005 103 115 119
0.95486 -3.88308 0.54788 112 125 127
0.93711 -3.89779 0.53958 128 130 131
0.97012 -3.93438 0.54635 121 126 130
0.95219 -3.94924 0.53796 128 130 134
0.96314 -3.95206 0.55232 121 126 130
0.96813 -3.98839 0.55432 120 124 128
0.90092 -4.30228 0.63012 144 143 130
0.90566 -4.29447 0.60591 150 151 136
0.89392 -4.30614 0.61363 146 147 130
0.86355 -4.33355 0.65395 137 130 126
0.85655 -4.33741 0.63746 135 127 118
0.84482 -4.34908 0.64518 133 129 121
0.85234 -4.34615 0.66150 129 124 120
0.83361 -4.36168 0.65273 134 129 119
0.55452 -4.62843 0.85556 103 95 95
0.55925 -4.62064 0.83140 112 106 100
0.54495 -4.64468 0.86271 119 118 110
0.52623 -4.66019 0.85395 120 122 116
0.52039 -4.66555 0.87841 123 115 104
0.51340 -4.66941 0.86195 128 124 113
0.50831 -4.67642 0.88620 115 112 93
0.50358 -4.68421 0.91036 105 109 97
0.49660 -4.68806 0.89391 111 111 98
0.48961 -4.69192 0.87745 116 114 105
2.07749 -1.53167 -0.36420 46 39 42
2.09186 -1.51976 -0.35748 43 39 30
2.08112 -1.52568 -0.38275 60 53 62
2.08286 -1.52870 -0.35156 34 26 28
2.07386 -1.53765 -0.34565 26 21 18
2.08805 -1.54889 -0.36768 31 26 23
2.08440 -1.55491 -0.34903 24 18 19
2.07901 -1.55788 -0.36173 24 19 21
1.94458 -1.70672 -0.27145 21 15 25
1.94824 -1.70069 -0.29015 14 11 13
1.96773 -1.74508 -0.27900 45 31 48
1.98194 -1.76581 -0.28399 56 41 52
2.68039 -2.36874 -0.58117 9 8 16
2.68502 -2.36112 -0.60481 7 7 8
2.67356 -2.37251 -0.59727 8 7 11
2.66209 -2.38391 -0.58973 9 7 16
2.66173 -2.37611 -0.57029 9 9 30
2.65123 -2.38802 -0.56321 12 11 42
2.63599 -2.39724 -0.55392 17 12 57
2.63137 -2.40485 -0.53033 22 18 82
2.61891 -2.40539 -0.54380 20 15 74
2.61430 -2.41298 -0.52024 22 18 80
2.58852 -2.47803 -0.51852 48 32 53
2.58167 -2.48182 -0.53466 46 41 82
2.56131 -2.49835 -0.50147 69 42 35
2.55446 -2.50213 -0.51760 52 32 45
2.54617 -2.50755 -0.49224 79 53 34
2.53144 -2.51696 -0.48321 86 60 29
2.50864 -2.52138 -0.47050 87 57 40
2.47685 -2.52012 -0.45370 135 104 94
2.48022 -2.54064 -0.45293 156 136 140
2.46880 -2.55199 -0.44543 170 152 125
2.45255 -2.56028 -0.43572 179 155 109
2.45820 -2.58251 -0.43596 142 109 38
2.43717 -2.58773 -0.42409 144 103 52
2.41870 -2.59453 -0.41339 143 77 55
2.39613 -2.59859 -0.40085 137 90 44
2.37657 -2.60452 -0.38967 129 99 63
2.31668 -2.62103 -0.35567 113 87 74
2.30057 -2.62897 -0.34609 84 58 115
2.30751 -2.65256 -0.34684 102 82 161
2.31283 -2.67522 -0.34685 124 97 166
2.28960 -2.67832 -0.33407 167 133 194
2.26675 -2.68158 -0.32148 164 139 200
2.25546 -2.69280 -0.31405 163 137 202
2.23787 -2.69960 -0.30383 152 109 212
2.21986 -2.71452 -0.31225 220 225 234
2.23702 -2.71822 -0.30105 212 220 230
2.20885 -2.71740 -0.28612 199 185 213
2.20459 -2.73363 -0.28183 118 115 156
2.28542 -2.81165 -0.31519 49 36 121
2.28465 -2.83101 -0.31236 42 48 145
2.26616 -2.84633 -0.32101 117 75 88
2.28788 -2.91429 -0.30368 67 89 61
2.28274 -2.93094 -0.29886 42 49 76
2.28904 -2.95637 -0.29904 26 26 59
2.27019 -2.97199 -0.30786 17 15 29
2.29043 -2.97823 -0.29705 19 16 39
2.28316 -3.01455 -0.28863 23 23 25
2.27842 -3.03198 -0.28393 30 22 33
2.27276 -3.04876 -0.27881 43 35 39
2.26411 -3.06324 -0.27239 57 57 52
2.30402 -3.11657 -0.28701 89 92 86
2.29174 -3.12847 -0.27898 112 113 102
2.27241 -3.14449 -0.28802 119 123 110
2.28256 -3.14288 -0.27228 118 119 112
2.26322 -3.15891 -0.28133 123 122 119
2.23050 -3.23258 -0.23331 131 127 119
2.23542 -3.22448 -0.25843 132 126 117
2.22324 -3.23659 -0.25042 128 125 116
2.21105 -3.24870 -0.24241 128 127 125
2.11167 -3.31037 -0.16022 130 127 127
2.11656 -3.30232 -0.18519 128 127 118
2.09233 -3.32640 -0.16926 138 135 138
1.64358 -3.60627 0.12639 144 141 139
1.66246 -3.59063 0.13522 150 151 143
1.65541 -3.59452 0.11861 148 147 144
1.65064 -3.60238 0.14299 152 154 141
1.63288 -3.61928 0.13372 146 144 146
1.62106 -3.63103 0.14149 147 146 149
1.54304 -3.71895 0.19408 150 152 149
1.54782 -3.71107 0.16966 145 140 134
1.53598 -3.72285 0.17745 143 144 144
1.53119 -3.73072 0.20187 146 149 141
1.52413 -3.73462 0.18524 146 144 142
1.49202 -3.73558 0.22337 124 134 148
1.51083 -3.71999 0.23218 133 137 140
1.50380 -3.72387 0.21562 136 138 141
1.48499 -3.73946 0.20682 127 132 140
1.48726 -3.74341 0.24768 139 147 152
1.48023 -3.74729 0.23112 139 149 151
1.30814 -3.63811 0.30926 130 139 147
1.32618 -3.62316 0.31771 138 146 155
1.31944 -3.62688 0.30183 139 147 155
1.29345 -3.64509 0.31797 124 135 136
1.27542 -3.66003 0.30953 108 112 121
1.27845 -3.65161 0.32679 117 121 124
1.26044 -3.66653 0.31836 108 111 114
1.26490 -3.65992 0.33505 115 117 108
1.25220 -3.66928 0.34299 117 119 116
1.23422 -3.68418 0.33458 129 131 129
1.23976 -3.67896 0.35083 129 133 120
1.21806 -3.67656 0.36210 102 110 111
1.20384 -3.68377 0.37059 76 84 110
1.19529 -3.69841 0.37698 78 88 116
1.17939 -3.70333 0.38607 80 90 116
1.12833 -3.71299 0.41451 76 90 106
1.11208 -3.71704 0.42368 77 86 101
1.08658 -3.76106 0.44278 74 88 103
1.07454 -3.77087 0.45043 82 92 104
1.06190 -3.77980 0.45829 86 97 109
1.04402 -3.89048 0.48165 117 130 133
1.02209 -3.88598 0.49278 121 128 129
1.00415 -3.90085 0.48438 128 135 127
1.01948 -3.90999 0.49717 115 126 126
1.00148 -3.92491 0.48875 132 136 126
0.99342 -3.89905 0.50971 118 128 120
0.97552 -3.91389 0.50133 127 132 128
0.96212 -3.87987 0.52401 116 120 118
0.94435 -3.89459 0.51569 133 133 126
0.95523 -3.89738 0.52987 121 126 125
0.93744 -3.91213 0.52154 138 137 130
0.87113 -4.33072 0.62885 133 129 121
0.85238 -4.34626 0.62008 133 130 119
0.53384 -4.60292 0.84274 108 103 102
0.53854 -4.59518 0.81874 113 104 95
0.52690 -4.60675 0.82639 111 105 98
0.51526 -4.61832 0.83404 117 109 103
0.52735 -4.62562 0.84904 117 114 110
0.49988 -4.67708 0.87012 125 120 105
0.50461 -4.66929 0.84597 125 127 119
0.49290 -4.68093 0.85367 129 127 113
1.93964 -1.70993 -0.28441 15 13 22
1.94330 -1.70390 -0.30312 14 12 12
1.93423 -1.71292 -0.29715 13 12 16
1.96844 -1.75116 -0.29483 35 25 46
1.98246 -1.77186 -0.29983 47 33 52
1.96769 -1.78410 -0.30674 53 40 46
2.00246 -1.79573 -0.30765 60 45 51
2.83896 -2.33779 -0.69021 47 34 32
2.84368 -2.33002 -0.71432 57 43 36
2.64347 -2.39126 -0.57885 8 8 22
2.64809 -2.38365 -0.60245 8 8 12
2.63665 -2.39503 -0.59493 8 8 13
2.62520 -2.40640 -0.58740 10 7 17
2.62913 -2.40099 -0.56997 10 8 32
2.61087 -2.41612 -0.57852 11 7 20
2.61259 -2.40943 -0.56007 13 9 45
2.61183 -2.42695 -0.55753 18 12 55
2.59266 -2.43384 -0.54641 20 18 65
2.58805 -2.44145 -0.52283 25 20 79
2.57878 -2.44377 -0.53775 28 22 74
2.58219 -2.46390 -0.53713 46 30 79
2.56840 -2.49218 -0.52628 46 35 58
2.53785 -2.51042 -0.50768 61 43 37
2.52068 -2.51833 -0.49751 68 46 33
2.50716 -2.52844 -0.48902 64 38 29
2.48627 -2.53394 -0.47714 64 38 37
2.47510 -2.54546 -0.46975 86 70 80
2.45560 -2.55172 -0.45853 123 106 106
2.43115 -2.55475 -0.44505 150 116 122
2.44475 -2.58204 -0.44902 116 66 73
2.41294 -2.58026 -0.43217 179 166 117
2.36507 -2.56786 -0.40801 204 158 86
2.38022 -2.59636 -0.41266 152 115 87
2.34901 -2.59455 -0.39614 109 78 73
2.34138 -2.60821 -0.39038 118 100 79
2.30403 -2.62075 -0.36882 91 72 106
2.28605 -2.63565 -0.37723 75 72 146
2.28206 -2.62469 -0.35656 59 38 125
2.28065 -2.64256 -0.35363 44 40 150
2.30275 -2.67669 -0.36132 126 95 184
2.25476 -2.66260 -0.33730 206 185 237
2.24351 -2.67378 -0.32990 203 195 238
2.23443 -2.68649 -0.32348 199 176 235
2.22177 -2.69668 -0.31545 179 152 233
2.19479 -2.71584 -0.29864 169 159 200
2.22897 -2.75981 -0.31161 100 98 156
2.21081 -2.77486 -0.32011 50 37 125
2.26085 -2.80259 -0.32350 49 38 131
2.25975 -2.82164 -0.32059 69 51 125
2.27667 -2.89456 -0.32077 82 97 54
2.29532 -2.87910 -0.31204 122 78 78
2.28835 -2.88294 -0.32846 110 89 51
2.28139 -2.88679 -0.34487 97 107 37
2.27322 -2.91238 -0.31675 47 64 72
2.27812 -2.93662 -0.31642 26 26 67
2.25934 -2.95218 -0.32521 15 13 23
2.27798 -2.95719 -0.31384 17 15 38
2.27593 -2.99732 -0.30785 22 21 25
2.27413 -3.01696 -0.30449 28 26 32
2.26354 -3.02980 -0.29725 39 28 45
2.25902 -3.04746 -0.29267 71 62 66
2.29373 -3.09644 -0.30532 94 93 87
2.28692 -3.11264 -0.29969 113 115 112
2.26764 -3.12862 -0.30871 121 125 117
2.27951 -3.12841 -0.29379 119 123 112
2.26021 -3.14441 -0.30283 117 120 110
2.08634 -3.29816 -0.16950 133 133 130
2.06710 -3.31410 -0.17850 146 141 135
1.96570 -3.37112 -0.09590 148 145 131
1.97768 -3.35922 -0.10377 151 149 133
1.97054 -3.36316 -0.12059 147 144 135
1.95856 -3.37506 -0.11272 154 153 132
1.94630 -3.37595 -0.08491 133 131 135
1.92723 -3.39176 -0.09383 144 143 138
1.64440 -3.59403 0.10360 151 145 144
1.66325 -3.57841 0.11242 151 153 152
1.65621 -3.58230 0.09583 159 159 155
1.63507 -3.60853 0.11037 138 133 134
1.61620 -3.62416 0.10154 131 127 122
1.62375 -3.62083 0.11794 136 137 138
1.61042 -3.63087 0.12631 141 144 145
1.60565 -3.63873 0.15067 145 142 141
1.59860 -3.64261 0.13408 147 144 142
1.55993 -3.67409 0.15866 140 134 124
1.57877 -3.65847 0.16747 138 138 136
1.57174 -3.66236 0.15090 137 136 127
1.54813 -3.68582 0.16642 145 143 130
1.33857 -3.66278 0.27601 143 149 157
1.35677 -3.64770 0.28452 136 145 146
1.34997 -3.65145 0.26851 134 146 156
1.34317 -3.65520 0.25249 132 144 156
1.30297 -3.64381 0.29278 124 128 135
1.28711 -3.64931 0.30196 116 121 129
1.25239 -3.68189 0.32456 114 115 125
1.22538 -3.69855 0.34107 113 116 120
1.20841 -3.70225 0.35063 84 83 105
1.18840 -3.70183 0.36130 69 68 99
1.16724 -3.69971 0.37239 65 65 102
1.15081 -3.70375 0.38170 69 73 105
1.14113 -3.71683 0.38848 74 87 103
1.12429 -3.72019 0.39792 74 91 103
1.10957 -3.72634 0.40657 80 93 108
1.10347 -3.74433 0.41204 84 97 114
1.10761 -3.77666 0.41376 90 105 118
1.11088 -3.80808 0.41583 94 113 126
1.11038 -3.86176 0.42265 109 126 137
1.10252 -3.87806 0.42884 114 130 138
1.08437 -3.89311 0.42035 136 141 137
1.07951 -3.87259 0.44052 120 132 137
1.06144 -3.88757 0.43206 136 138 133
1.07122 -3.88823 0.44688 118 127 138
1.06350 -3.90479 0.45303 124 130 141
1.04296 -3.90254 0.46377 135 141 131
1.02217 -3.89973 0.47458 134 137 125
0.98362 -4.07037 0.51606 149 148 143
0.89048 -4.31616 0.59597 146 144 128
0.90224 -4.30447 0.58824 151 149 136
0.87170 -4.33172 0.58719 136 133 123
0.48460 -4.70021 0.86047 124 121 107
0.47761 -4.70407 0.84400 134 134 119
0.47987 -4.70801 0.88465 118 117 109
0.47287 -4.71187 0.86818 119 120 111
1.97101 -1.75818 -0.31161 28 23 36
2.84473 -2.34840 -0.71270 50 37 33
2.84946 -2.34061 -0.73687 58 43 45
2.83191 -2.35946 -0.70447 37 29 26
2.61314 -2.43545 -0.57744 11 7 24
2.61777 -2.42782 -0.60111 11 7 10
2.60629 -2.43922 -0.59356 10 8 11
2.59482 -2.45063 -0.58602 10 7 15
2.59048 -2.44032 -0.56465 12 9 33
2.58446 -2.45489 -0.55967 13 13 41
2.57908 -2.46989 -0.55498 24 17 64
2.57274 -2.48437 -0.54984 30 28 79
2.55640 -2.49287 -0.54002 33 32 67
2.55122 -2.50810 -0.53541 37 24 55
2.53493 -2.51659 -0.52562 42 31 40
2.51660 -2.53178 -0.53419 23 19 37
2.51610 -2.52348 -0.51464 44 31 28
2.49780 -2.53865 -0.52320 25 16 36
2.49466 -2.52869 -0.50246 43 23 30
2.47640 -2.54382 -0.51100 30 18 23
2.47745 -2.53645 -0.49226 40 21 22
2.45948 -2.54368 -0.48170 58 40 23
2.43443 -2.54637 -0.46787 70 51 35
2.40565 -2.54655 -0.45233 68 41 64
2.39124 -2.55581 -0.44346 58 35 61
2.39241 -2.57511 -0.44179 131 111 90
2.36398 -2.57525 -0.42645 164 127 91
2.36398 -2.59388 -0.42423 100 75 98
2.32176 -2.58471 -0.40255 76 44 79
2.31032 -2.59574 -0.39507 85 76 93
2.28780 -2.61803 -0.38027 83 71 138
2.26943 -2.64317 -0.36737 64 60 156
2.27496 -2.66592 -0.36765 112 109 184
2.25769 -2.67300 -0.35750 151 157 218
2.25314 -2.68892 -0.35315 115 114 214
2.24376 -2.70150 -0.34660 106 98 214
2.22264 -2.70576 -0.33470 132 115 213
2.21813 -2.72180 -0.33036 206 211 234
2.20471 -2.73150 -0.32197 138 125 187
2.24324 -2.77882 -0.33713 68 63 143
2.23368 -2.81133 -0.32811 102 61 93
2.24091 -2.83657 -0.32900 117 90 51
2.25060 -2.88407 -0.32859 60 79 65
2.24247 -2.89827 -0.32251 29 36 71
2.24862 -2.92338 -0.32285 16 15 50
2.22996 -2.93885 -0.33158 17 14 25
2.25622 -2.97053 -0.32134 21 18 24
2.25809 -2.99286 -0.31970 29 27 31
2.25539 -3.01176 -0.31599 35 33 41
2.25377 -3.03161 -0.31276 55 50 48
2.26842 -3.06447 -0.31675 97 92 91
2.27537 -3.09148 -0.31729 120 115 113
2.25617 -3.10740 -0.32628 131 125 128
2.27432 -3.11227 -0.31425 129 124 126
2.25506 -3.12822 -0.32326 125 120 121
2.08504 -3.26202 -0.19437 130 125 122
2.09704 -3.25010 -0.20226 141 134 135
2.08989 -3.25405 -0.21911 143 131 130
2.09220 -3.25808 -0.17752 128 126 117
2.06589 -3.27789 -0.20333 142 136 126
2.07399 -3.27478 -0.18689 129 127 123
2.05483 -3.29066 -0.19585 141 135 129
1.93696 -3.37776 -0.10075 143 144 136
1.94178 -3.36983 -0.12537 149 148 138
1.92984 -3.38169 -0.11752 147 150 148
1.79119 -3.49348 -0.00837 148 146 146
1.81017 -3.47775 0.00051 140 144 139
1.80308 -3.48166 -0.01619 145 148 139
1.79828 -3.48957 0.00833 141 136 136
1.77930 -3.50530 -0.00055 149 149 151
1.76416 -3.51373 0.00861 144 147 147
1.77125 -3.50982 0.02530 143 142 149
1.75708 -3.51764 -0.00807 139 137 118
1.75937 -3.52163 0.03311 142 143 139
1.75228 -3.52554 0.01643 139 138 133
1.72226 -3.54248 0.03463 135 134 129
1.73412 -3.53070 0.02683 133 135 134
1.71041 -3.55427 0.04243 148 148 138
1.70333 -3.55817 0.02577 151 147 139
1.64848 -3.58543 0.07953 155 153 143
1.66029 -3.57369 0.07177 154 149 142
1.65324 -3.57758 0.05519 141 140 140
1.64144 -3.58931 0.06295 142 140 137
1.62963 -3.60104 0.07071 147 142 136
1.63720 -3.59774 0.08708 150 146 138
1.62636 -3.61057 0.09444 138 133 124
1.59998 -3.63092 0.11109 134 134 132
1.59295 -3.63480 0.09452 138 138 128
1.58454 -3.63849 0.12032 146 143 137
1.57275 -3.65021 0.12807 147 144 140
1.56572 -3.65409 0.11152 138 141 136
1.55079 -3.65014 0.13991 138 139 131
1.54378 -3.65401 0.12341 138 139 136
1.53203 -3.66569 0.13114 145 147 134
1.53628 -3.65861 0.14874 142 133 117
1.51754 -3.67414 0.13997 147 153 145
1.45828 -3.71944 0.19804 138 144 144
1.46999 -3.70780 0.19034 144 149 151
1.46301 -3.71166 0.17389 146 148 147
1.44657 -3.73108 0.20574 130 139 153
1.33348 -3.66867 0.25932 141 148 153
1.33808 -3.66109 0.23579 133 145 156
1.32667 -3.67243 0.24329 136 147 155
1.30413 -3.65747 0.27381 124 129 133
1.28572 -3.65979 0.28402 118 124 130
1.27229 -3.66833 0.29228 112 118 127
1.26089 -3.67944 0.29975 114 118 128
1.25109 -3.69264 0.30660 118 126 131
1.24211 -3.70691 0.31314 119 127 130
1.21217 -3.69375 0.32773 81 85 98
1.19126 -3.69218 0.33882 46 47 77
1.18793 -3.71378 0.34318 40 50 88
1.16700 -3.71199 0.35426 53 67 107
1.15369 -3.72027 0.36242 72 87 124
1.13673 -3.74992 0.37510 97 117 132
1.13214 -3.77020 0.37998 104 122 139
1.11628 -3.77496 0.38910 114 127 143
1.10903 -3.79166 0.39499 121 131 137
1.10347 -3.81081 0.40027 121 134 138
1.08549 -3.82571 0.39186 156 157 156
1.10315 -3.83749 0.40361 125 141 143
1.09951 -3.85967 0.40821 133 142 140
1.09274 -3.87749 0.41398 137 140 140
1.05872 -3.91144 0.43637 143 143 140
1.06330 -3.90389 0.41295 135 139 137
1.04059 -3.92646 0.42788 149 152 144
1.03759 -3.90829 0.44739 146 149 137
1.01952 -3.92326 0.43894 160 159 150
1.02184 -3.91294 0.45644 150 152 139
1.00597 -3.91733 0.46551 143 144 131
0.99469 -3.92854 0.47293 132 135 128
0.98797 -3.93225 0.45709 137 138 130
0.98101 -4.08085 0.49841 145 144 143
0.98566 -4.07319 0.47467 136 136 123
0.97414 -4.08464 0.48224 140 136 130
0.96263 -4.09609 0.48981 144 142 136
0.97576 -4.10224 0.50379 147 148 145
0.97110 -4.10992 0.52759 150 148 141
0.96425 -4.11377 0.51137 140 134 133
0.95959 -4.12144 0.53517 143 142 139
0.94582 -4.12904 0.50274 133 129 116
0.89258 -4.30378 0.57261 145 141 129
0.91133 -4.28824 0.58138 146 142 129
0.90433 -4.29210 0.56488 141 137 125
0.89732 -4.29597 0.54838 138 131 116
0.87382 -4.31932 0.56383 135 129 122
0.70543 -4.25922 0.66825 122 117 113
0.71001 -4.25167 0.64484 130 130 118
0.69866 -4.26295 0.65231 135 131 118
0.68730 -4.27424 0.65977 135 130 120
0.68457 -4.38418 0.69435 130 132 121
0.70298 -4.36893 0.70297 133 132 119
0.69610 -4.37272 0.68677 132 133 119
0.48799 -4.65181 0.83219 116 116 103
0.49964 -4.64022 0.82453 118 111 105
0.48104 -4.65565 0.81582 111 110 93
0.48013 -4.67186 0.83881 126 128 115
0.45818 -4.69826 0.85379 122 124 118
0.45121 -4.70211 0.83738 123 127 121
0.45346 -4.70603 0.87788 115 115 108
1.97063 -1.77754 -0.32543 35 28 29
1.95586 -1.78978 -0.33234 41 31 33
1.98244 -1.79738 -0.32954 46 35 39
1.96759 -1.80968 -0.33650 52 40 43
2.83504 -2.35082 -0.72787 51 39 36
2.83977 -2.34303 -0.75203 57 43 46
2.82267 -2.36211 -0.71985 40 31 27
2.80943 -2.37293 -0.71141 25 19 19
2.79136 -2.38110 -0.70067 13 10 12
2.78664 -2.38888 -0.67656 8 7 7
2.77966 -2.39273 -0.69298 9 7 6
2.77269 -2.39657 -0.70940 9 7 11
2.58036 -2.46028 -0.57706 7 7 17
2.58499 -2.45265 -0.60071 9 7 15
2.57352 -2.46405 -0.59317 8 5 12
2.56206 -2.47545 -0.58563 9 4 19
2.57340 -2.47436 -0.57165 9 6 36
2.55507 -2.48955 -0.58023 9 5 27
2.57280 -2.49229 -0.56925 13 9 51
2.55227 -2.49828 -0.55742 16 14 55
2.54901 -2.51470 -0.55375 19 13 56
2.52669 -2.51952 -0.54109 21 17 48
2.50836 -2.53470 -0.54966 13 13 47
2.44502 -2.54260 -0.49412 42 24 25
2.44962 -2.53504 -0.51758 17 14 51
2.43824 -2.54635 -0.51010 22 14 46
2.42686 -2.55766 -0.50262 25 13 37
2.42753 -2.55003 -0.48377 44 22 21
2.40939 -2.56506 -0.49226 28 15 36
2.39862 -2.55009 -0.46808 37 14 32
2.38452 -2.55954 -0.45935 41 25 46
2.36700 -2.56674 -0.44901 60 33 57
2.34708 -2.57231 -0.43756 56 36 70
2.32436 -2.57597 -0.42482 34 23 65
2.30647 -2.58271 -0.41433 38 25 74
2.29187 -2.59158 -0.40538 36 37 93
2.28155 -2.60331 -0.39843 36 33 115
2.27064 -2.61465 -0.39120 41 39 132
2.26243 -2.62783 -0.38522 54 49 136
2.26044 -2.64531 -0.38211 67 56 151
2.24250 -2.66018 -0.39051 136 149 165
2.26352 -2.66639 -0.38134 126 142 183
2.26145 -2.68402 -0.37818 94 97 175
2.24774 -2.69357 -0.36963 61 61 177
2.23554 -2.70417 -0.36179 76 65 175
2.23609 -2.72383 -0.35981 90 84 184
2.18988 -2.71010 -0.33634 148 148 203
2.20134 -2.73764 -0.33937 86 78 159
2.18331 -2.75258 -0.34781 52 29 96
2.20690 -2.76112 -0.33966 36 28 121
2.21317 -2.78529 -0.34026 71 43 102
2.21159 -2.80387 -0.33726 112 79 68
2.21512 -2.82633 -0.33657 112 113 49
2.22187 -2.85136 -0.33733 82 105 52
2.22735 -2.87562 -0.33749 37 50 71
2.23502 -2.90172 -0.33863 16 19 58
2.21644 -2.91711 -0.34732 15 12 25
2.23462 -2.92186 -0.33608 13 11 31
2.24093 -2.96801 -0.33415 26 19 30
2.24082 -2.98879 -0.33169 41 34 36
2.24420 -3.01243 -0.33079 48 52 55
2.25660 -3.04336 -0.33393 83 83 68
2.25907 -3.06665 -0.33257 113 107 100
2.25747 -3.08685 -0.32937 125 119 118
2.23833 -3.10272 -0.33833 128 125 124
2.06911 -3.25817 -0.20736 142 135 127
2.05000 -3.27400 -0.21630 151 143 129
1.77202 -3.46098 -0.02274 148 149 144
1.79087 -3.44536 -0.01392 148 150 142
1.78383 -3.44924 -0.03050 153 149 142
1.77679 -3.45313 -0.04709 155 153 147
1.76398 -3.47661 -0.01657 151 154 155
1.75254 -3.48875 -0.00895 147 143 143
1.73366 -3.50439 -0.01779 134 135 134
1.73065 -3.51410 0.00585 151 149 129
1.71177 -3.52975 -0.00298 154 157 146
1.61289 -3.60724 0.08051 147 143 127
1.61765 -3.59941 0.05620 149 144 141
1.60586 -3.61112 0.06395 144 145 134
1.60046 -3.61823 0.08852 145 140 125
1.56630 -3.62953 0.10836 136 142 131
1.55929 -3.63339 0.09186 134 132 124
1.54754 -3.64507 0.09959 135 131 126
1.43791 -3.70698 0.18696 141 148 138
1.42336 -3.71502 0.19579 122 139 150
1.41865 -3.72277 0.21981 131 144 159
1.41171 -3.72660 0.20345 128 145 160
1.30755 -3.67404 0.25385 130 138 144
1.31214 -3.66647 0.23039 133 143 152
1.30076 -3.67778 0.23787 130 141 148
1.28938 -3.68909 0.24535 127 137 150
1.28785 -3.67478 0.26463 127 133 143
1.26973 -3.68979 0.25615 122 133 149
1.27512 -3.68430 0.27263 126 134 144
1.25701 -3.69930 0.26416 119 129 144
1.26264 -3.69411 0.28053 122 132 139
1.24994 -3.70361 0.28852 119 126 134
1.24118 -3.71823 0.29497 101 107 134
1.22077 -3.71758 0.30596 86 95 113
1.22434 -3.74852 0.30761 88 102 107
1.22289 -3.77304 0.31124 97 113 120
1.20193 -3.77155 0.32243 106 121 133
1.17676 -3.76418 0.33523 113 127 144
1.15624 -3.76288 0.34621 119 135 146
1.12272 -3.77014 0.36523 134 141 142
1.10650 -3.77436 0.37452 143 149 149
1.08860 -3.78919 0.36614 164 161 150
1.09903 -3.79074 0.38046 156 156 145
1.08111 -3.80559 0.37208 156 158 150
1.09388 -3.81046 0.38554 156 156 149
1.07592 -3.82534 0.37714 151 151 151
1.08969 -3.85902 0.39344 159 161 151
1.08293 -3.86274 0.37753 153 154 153
1.08406 -3.87849 0.39875 161 164 151
1.07204 -3.88880 0.40646 140 141 136
1.05393 -3.90381 0.39798 134 132 129
1.05168 -3.91479 0.42051 143 145 143
0.99982 -3.92190 0.44946 144 143 134
0.99309 -3.92561 0.43362 148 151 134
0.98181 -3.93683 0.44104 138 142 133
0.95620 -4.11570 0.49557 142 138 127
0.96086 -4.10803 0.47177 143 145 137
0.94932 -4.11950 0.47936 143 144 132
0.93778 -4.13097 0.48695 139 140 121
0.88403 -4.30499 0.55663 136 130 119
0.87703 -4.30885 0.54014 129 120 112
0.68443 -4.36740 0.67212 127 128 119
0.70280 -4.35218 0.68071 123 124 111
0.69594 -4.35597 0.66455 129 132 116
0.68908 -4.35975 0.64839 135 133 120
0.66606 -4.38263 0.66352 126 120 106
0.67600 -4.38474 0.67870 125 123 115
0.65991 -4.42118 0.69165 128 128 114
0.64146 -4.43647 0.68301 135 130 119
2.82060 -2.36861 -0.73868 43 33 26
2.80961 -2.38067 -0.73133 29 22 20
2.79100 -2.38857 -0.72029 15 11 17
2.77231 -2.40406 -0.72904 8 7 12
2.54370 -2.50102 -0.57273 10 5 35
2.54834 -2.49339 -0.59641 9 6 29
2.53685 -2.50480 -0.58886 10 6 32
2.52537 -2.51621 -0.58131 9 6 34
2.54421 -2.51975 -0.57090 10 6 38
2.52583 -2.53498 -0.57950 10 7 40
2.51959 -2.52314 -0.55709 11 9 45
2.50127 -2.53832 -0.56566 9 8 38
2.37789 -2.56333 -0.47527 31 17 48
2.38246 -2.55582 -0.49858 18 14 40
2.36148 -2.57124 -0.46543 35 14 59
2.34327 -2.57793 -0.45475 30 11 59
2.31783 -2.57977 -0.44066 29 19 64
2.29461 -2.58296 -0.42764 46 41 99
2.28519 -2.59527 -0.42111 27 28 101
2.26936 -2.60328 -0.41158 30 23 110
2.26297 -2.61767 -0.40647 34 42 125
2.26172 -2.63561 -0.40376 65 70 140
2.25448 -2.64952 -0.39825 70 45 139
2.24187 -2.67877 -0.38807 59 46 139
2.23036 -2.68980 -0.38055 41 39 148
2.22807 -2.70737 -0.37732 86 88 159
2.21522 -2.71748 -0.36917 87 85 162
2.20596 -2.73017 -0.36269 90 74 161
2.19936 -2.74480 -0.35744 57 51 133
2.19480 -2.78055 -0.35092 97 62 76
2.17666 -2.79558 -0.35941 108 126 27
2.19157 -2.79786 -0.34721 112 108 44
2.18995 -2.81646 -0.34423 101 122 52
2.19391 -2.83934 -0.34381 57 75 65
2.21974 -2.87889 -0.35343 22 25 62
2.20126 -2.89421 -0.36208 17 15 30
2.21778 -2.89772 -0.35024 12 12 40
2.21673 -2.93787 -0.34514 22 19 31
2.22346 -2.96377 -0.34589 35 25 39
2.23053 -2.99013 -0.34677 59 50 57
2.23858 -3.01746 -0.34808 83 86 85
2.24147 -3.04092 -0.34701 109 109 103
2.22248 -3.05665 -0.35589 124 120 119
2.23980 -3.06090 -0.34384 124 115 110
2.22076 -3.07668 -0.35275 126 125 124
2.23347 -3.07725 -0.33855 127 120 117
2.21441 -3.09305 -0.34747 126 129 129
1.79834 -3.38064 -0.06702 144 141 138
1.79361 -3.38843 -0.04285 142 137 125
1.78662 -3.39229 -0.05931 126 123 129
1.75100 -3.45047 -0.03332 162 163 155
1.74169 -3.46471 -0.02664 162 165 161
1.73221 -3.47879 -0.01988 146 145 144
1.71341 -3.49437 -0.02868 143 138 140
1.58531 -3.61290 0.07536 144 149 133
1.57830 -3.61677 0.05885 147 153 140
1.56778 -3.61800 0.08550 138 141 129
1.54905 -3.63353 0.07673 141 137 127
1.47464 -3.66095 0.14114 139 138 138
1.47935 -3.65321 0.11712 133 132 122
1.48159 -3.65712 0.15750 148 149 139
1.46770 -3.66479 0.12478 137 128 117
1.46994 -3.66870 0.16516 141 148 144
1.45890 -3.66763 0.15048 149 152 145
1.45421 -3.67536 0.17446 148 155 148
1.44727 -3.67919 0.15813 153 160 148
1.43174 -3.68603 0.16736 152 160 147
1.40644 -3.70658 0.18348 117 126 132
1.38790 -3.72194 0.17481 131 139 151
1.39282 -3.71563 0.19193 125 140 151
1.38122 -3.72717 0.19956 132 143 150
1.37430 -3.73098 0.18326 132 139 143
1.25102 -3.71753 0.26948 122 129 138
1.24043 -3.72984 0.27665 117 125 129
1.23944 -3.75483 0.28001 118 122 125
1.22395 -3.76075 0.28912 126 131 129
1.20826 -3.76632 0.29830 131 137 134
1.19178 -3.77074 0.30779 138 145 146
1.17365 -3.78577 0.29931 148 146 141
1.15886 -3.75277 0.32372 146 150 149
1.13919 -3.75248 0.33441 152 151 145
1.12126 -3.76734 0.32602 158 157 162
1.12584 -3.76074 0.34262 154 152 145
1.10793 -3.77559 0.33424 155 158 155
1.11313 -3.76982 0.35058 154 152 146
1.09522 -3.78466 0.34221 157 166 156
1.09798 -3.77549 0.35948 161 160 152
1.07590 -3.88021 0.38334 153 161 150
1.08048 -3.87267 0.35994 154 157 143
1.05779 -3.89522 0.37486 137 141 136
1.06829 -3.89692 0.38937 137 139 137
1.05015 -3.91195 0.38089 138 144 135
1.04108 -3.91286 0.40601 132 132 128
1.02297 -3.92787 0.39754 138 135 138
1.02004 -3.90971 0.41713 140 147 139
1.00425 -3.91422 0.42625 149 154 140
0.98624 -3.92914 0.41782 144 145 130
0.67778 -4.37158 0.65589 123 122 112
0.65940 -4.38681 0.64729 130 122 100
0.65744 -4.39966 0.67014 127 123 115
0.65057 -4.40345 0.65396 129 123 125
0.63905 -4.41491 0.66154 128 122 118
0.53054 -4.48973 0.74951 112 114 95
0.54884 -4.47457 0.75807 117 119 108
0.53738 -4.48596 0.76561 119 118 103
0.52371 -4.49351 0.73342 102 104 96
0.51225 -4.50490 0.74095 104 99 94
0.51960 -4.50222 0.75689 114 107 94
0.50814 -4.51361 0.76443 119 112 106
2.81727 -2.37445 -0.75695 46 35 26
2.82201 -2.36665 -0.78115 55 43 33
2.80596 -2.38635 -0.74944 33 24 20
2.78776 -2.39447 -0.73857 17 12 18
2.76905 -2.40998 -0.74732 11 7 11
2.36719 -2.56449 -0.48926 16 14 48
2.37175 -2.55698 -0.51255 13 10 36
2.34738 -2.57014 -0.47777 62 55 92
2.34463 -2.58695 -0.47442 90 78 122
2.32597 -2.59329 -0.46349 85 68 123
2.31339 -2.60363 -0.45546 123 115 168
2.31941 -2.62645 -0.45626 85 70 143
2.29585 -2.62941 -0.44301 94 76 131
2.28657 -2.64199 -0.43655 101 115 156
2.27425 -2.65250 -0.42863 91 93 154
2.24996 -2.65473 -0.41507 72 53 144
2.24822 -2.67253 -0.41216 140 164 165
2.23793 -2.68442 -0.40521 69 59 131
2.23201 -2.69942 -0.40032 74 75 148
2.21937 -2.70969 -0.39226 78 84 138
2.21261 -2.72415 -0.38696 66 57 143
2.20458 -2.73775 -0.38107 59 53 138
2.18652 -2.75272 -0.38952 50 48 108
2.19428 -2.74973 -0.37411 54 53 121
2.17757 -2.75703 -0.36414 89 52 75
2.18278 -2.78043 -0.36443 107 85 55
2.16583 -2.80728 -0.35219 68 97 46
2.19392 -2.84826 -0.36310 32 39 55
2.17558 -2.86345 -0.37168 17 15 21
2.20173 -2.87429 -0.36452 15 14 38
2.19844 -2.91244 -0.35853 22 20 32
2.19152 -2.91626 -0.37483 28 26 36
2.19983 -2.93403 -0.35693 24 24 37
2.20501 -2.95871 -0.35706 46 38 44
2.21986 -2.99115 -0.36164 83 77 87
2.22850 -3.01897 -0.36333 112 110 113
2.20960 -3.03464 -0.37217 118 114 113
2.22291 -3.03571 -0.35843 121 119 118
1.81740 -3.34064 -0.10257 145 133 137
1.80037 -3.34700 -0.09254 165 166 156
1.79007 -3.35997 -0.08547 161 155 150
1.77144 -3.37542 -0.09419 149 142 146
1.76071 -3.37714 -0.06748 139 132 132
1.74211 -3.39256 -0.07619 159 156 152
1.74301 -3.45334 -0.04941 163 160 157
1.73756 -3.47158 -0.04442 164 160 158
1.72399 -3.48140 -0.03590 153 146 140
1.70519 -3.49698 -0.04469 144 143 135
1.55437 -3.61453 0.07173 144 146 141
1.54739 -3.61838 0.05528 144 146 141
1.43829 -3.65504 0.13983 147 142 140
1.43139 -3.65885 0.12357 136 135 138
1.42613 -3.66585 0.14769 151 160 152
1.40765 -3.68117 0.13904 132 134 146
1.41488 -3.67775 0.15517 145 152 145
1.40173 -3.68734 0.16343 144 135 128
1.38325 -3.70265 0.15478 133 133 141
1.39120 -3.70014 0.17061 131 132 137
1.37272 -3.71546 0.16196 134 137 144
1.28674 -3.69814 0.22768 133 137 144
1.29813 -3.68681 0.22019 133 138 144
1.26854 -3.71321 0.21917 152 156 159
1.26804 -3.70007 0.23814 130 130 144
1.24990 -3.71511 0.22965 155 159 156
1.25371 -3.70752 0.24682 132 139 145
1.23558 -3.72254 0.23834 159 159 157
1.24127 -3.71739 0.25473 147 153 151
1.22315 -3.73241 0.24625 151 153 153
1.24057 -3.74268 0.25788 148 150 147
1.22504 -3.74853 0.26705 151 155 155
1.19781 -3.73870 0.28090 160 166 158
1.17915 -3.74008 0.29128 160 165 152
1.16113 -3.75501 0.28286 146 146 142
1.17238 -3.75741 0.29690 152 152 142
1.12896 -3.75133 0.32005 154 154 156
1.11105 -3.76617 0.31167 163 159 158
1.08295 -3.79433 0.34999 156 162 151
1.07674 -3.81257 0.35540 149 155 145
1.06550 -3.82374 0.36279 148 150 134
1.06384 -3.87626 0.36946 151 152 143
1.06841 -3.86874 0.34612 156 157 145
1.04577 -3.89124 0.36101 136 130 131
0.67068 -4.34159 0.63615 139 135 122
0.65240 -4.35674 0.62759 127 121 110
0.66644 -4.36680 0.64124 123 119 102
0.64811 -4.38200 0.63265 131 122 108
0.52628 -4.46358 0.72872 116 112 99
0.54450 -4.44848 0.73725 120 120 112
0.53770 -4.45223 0.72122 122 120 107
0.53089 -4.45599 0.70519 116 114 103
0.51948 -4.46733 0.71269 112 101 93
2.80995 -2.37814 -0.77327 48 36 30
2.81469 -2.37034 -0.79747 55 44 39
2.79815 -2.38977 -0.76552 34 25 23
2.78241 -2.39923 -0.75584 18 12 21
2.76369 -2.41474 -0.76459 14 8 10
2.36252 -2.56955 -0.50612 9 11 37
2.36708 -2.56204 -0.52942 12 11 43
2.35304 -2.58197 -0.49957 45 50 103
2.33859 -2.59112 -0.49062 103 91 157
2.32349 -2.59983 -0.48137 98 73 159
2.29232 -2.59773 -0.46440 153 136 203
2.28109 -2.60889 -0.45702 157 146 182
2.28310 -2.62903 -0.45598 139 119 162
2.27410 -2.64178 -0.44965 116 114 174
2.26621 -2.65532 -0.44386 92 91 158
2.25004 -2.66314 -0.43411 78 63 146
2.24412 -2.67807 -0.42925 147 190 182
2.23748 -2.69255 -0.42404 122 129 155
2.22866 -2.70553 -0.41779 119 114 161
2.20814 -2.71019 -0.40598 75 81 143
2.20661 -2.72841 -0.40319 51 41 132
2.18856 -2.74337 -0.41164 73 45 99
2.20389 -2.74585 -0.39983 49 47 125
2.17859 -2.76644 -0.38368 94 69 71
2.17425 -2.78286 -0.37954 103 107 55
2.16423 -2.79512 -0.37271 89 111 35
2.17575 -2.82354 -0.37603 35 51 37
2.15753 -2.83864 -0.38456 17 16 25
2.18419 -2.84987 -0.37787 17 17 39
2.18736 -2.89267 -0.37506 23 22 25
2.18047 -2.89647 -0.39129 28 27 26
2.16892 -2.90796 -0.38369 28 24 31
2.18009 -2.92794 -0.36728 22 25 33
2.18224 -2.95022 -0.36609 54 47 41
2.21051 -2.99319 -0.37709 99 95 95
2.21180 -3.01524 -0.37545 117 113 115
2.19295 -3.03086 -0.38428 121 117 105
2.03694 -3.17124 -0.26239 136 133 130
2.03219 -3.17907 -0.23810 137 134 132
2.02516 -3.18295 -0.25464 134 136 134
2.01814 -3.18682 -0.27118 137 139 136
1.79827 -3.33256 -0.11356 142 140 145
1.77967 -3.34797 -0.12226 153 152 145
1.74974 -3.37692 -0.08207 158 155 147
1.74280 -3.38075 -0.09842 145 136 144
1.70994 -3.47789 -0.04934 151 151 136
1.63667 -3.47216 -0.00956 156 152 144
1.63199 -3.47988 0.01439 144 153 141
1.61173 -3.46930 0.00390 152 151 141
1.60706 -3.47699 0.02774 143 142 140
1.60016 -3.48080 0.01150 142 144 132
1.41145 -3.66022 0.13471 134 137 145
1.41611 -3.65254 0.11089 139 128 134
1.38846 -3.68332 0.14985 147 148 133
1.27790 -3.69927 0.21252 158 157 155
1.21262 -3.74478 0.25337 147 150 158
1.21720 -3.73723 0.22996 147 146 141
1.20584 -3.74852 0.23743 143 147 139
1.19449 -3.75981 0.24489 145 145 139
1.18801 -3.73835 0.26626 154 158 161
1.16997 -3.75330 0.25781 150 148 143
1.17297 -3.74454 0.27521 149 153 152
1.15495 -3.75947 0.26678 156 157 147
1.13519 -3.74621 0.29622 148 149 142
1.12850 -3.74990 0.28046 153 157 146
1.11727 -3.76106 0.28784 145 153 146
1.10162 -3.77982 0.31832 160 157 154
1.08506 -3.78348 0.32784 150 153 151
1.07712 -3.79923 0.33390 149 153 146
1.05921 -3.81407 0.32552 146 146 146
1.06700 -3.81195 0.34084 139 143 130
1.04909 -3.82679 0.33246 146 147 147
1.06158 -3.83142 0.34591 144 145 120
0.66217 -4.34216 0.62065 132 131 113
0.64391 -4.35729 0.61210 124 120 113
0.50737 -4.47720 0.72042 106 106 107
0.50056 -4.48096 0.70440 119 121 112
0.49596 -4.48854 0.72792 107 103 102
0.49108 -4.51390 0.73332 116 115 109
0.48646 -4.52151 0.75692 116 116 111
0.47964 -4.52528 0.74084 118 117 109
2.78528 -2.37240 -0.78095 48 39 40
2.78999 -2.36463 -0.80505 55 45 43
2.78713 -2.39143 -0.78000 33 25 28
2.78330 -2.40744 -0.77622 17 10 21
2.76455 -2.42298 -0.78500 13 9 10
2.35970 -2.57582 -0.52390 14 12 47
2.34165 -2.59078 -0.53235 38 58 101
2.34765 -2.58657 -0.51610 29 38 91
2.33994 -2.60020 -0.51041 45 38 110
2.33733 -2.61725 -0.50720 39 28 106
2.29951 -2.61075 -0.48690 90 83 163
2.27381 -2.61218 -0.47250 150 150 185
2.27943 -2.63481 -0.47327 126 116 169
2.26791 -2.64586 -0.46574 109 97 162
2.26176 -2.66060 -0.46081 96 84 151
2.25416 -2.67439 -0.45516 88 92 158
2.24282 -2.68558 -0.44771 114 128 174
2.22662 -2.69336 -0.43792 94 103 159
2.21302 -2.70293 -0.42939 77 78 150
2.20788 -2.71853 -0.42493 66 64 146
2.20121 -2.73310 -0.41972 60 41 120
2.18448 -2.75988 -0.40766 76 52 71
2.17632 -2.77347 -0.40173 92 87 68
2.17066 -2.78894 -0.39699 90 110 64
2.16776 -2.80654 -0.39356 53 70 38
2.14960 -2.82160 -0.40206 14 16 16
2.17585 -2.83249 -0.39535 20 24 20
2.15759 -2.84762 -0.40390 19 20 21
2.18169 -2.93839 -0.38762 24 25 25
2.18881 -2.96464 -0.38885 62 62 51
2.19555 -2.99080 -0.38987 107 104 101
2.17680 -3.00634 -0.39864 126 120 116
2.19372 -3.01035 -0.38683 121 119 116
2.17492 -3.02593 -0.39562 129 125 108
2.15459 -3.08511 -0.35738 125 121 121
2.17349 -3.06945 -0.34854 121 123 133
2.16643 -3.07335 -0.36517 118 115 120
2.16165 -3.08122 -0.34076 128 126 129
2.14753 -3.08901 -0.37401 123 120 117
2.14981 -3.09298 -0.33298 134 131 130
2.04167 -3.14151 -0.28893 142 138 134
2.06041 -3.12598 -0.28016 135 128 131
2.05341 -3.12984 -0.29665 133 125 130
2.04641 -3.13370 -0.31314 139 139 129
2.02292 -3.15704 -0.29770 149 151 147
1.75433 -3.34589 -0.10842 153 152 139
1.74741 -3.34971 -0.12472 161 162 146
1.74770 -3.36241 -0.10303 148 141 132
1.71920 -3.38014 -0.08539 147 142 141
1.70765 -3.39173 -0.07779 147 146 153
1.69605 -3.40326 -0.07016 156 161 154
1.69676 -3.42759 -0.06804 156 157 150
1.67396 -3.47517 -0.05046 141 147 142
1.66700 -3.47901 -0.06688 148 147 147
1.65531 -3.49063 -0.05919 161 157 149
1.61979 -3.46527 -0.02145 152 154 152
1.60131 -3.48059 -0.03010 159 165 165
1.59647 -3.46406 -0.00865 153 158 154
1.57806 -3.47932 -0.01726 158 160 155
1.58277 -3.47316 -0.00011 143 152 145
1.57811 -3.48082 0.02366 145 147 135
1.57124 -3.48461 0.00747 147 159 147
1.56363 -3.50040 0.01333 151 155 142
1.57051 -3.49660 0.02954 147 143 130
1.55897 -3.50807 0.03712 140 136 130
1.55209 -3.51187 0.02091 150 141 141
1.46846 -3.61386 0.07786 144 152 139
1.48694 -3.59855 0.08650 135 140 127
1.48004 -3.60236 0.07025 146 152 145
1.47313 -3.60616 0.05399 145 142 146
1.46156 -3.61767 0.06160 147 145 141
1.46379 -3.62155 0.10172 138 141 136
1.45421 -3.62219 0.08662 138 133 117
1.44954 -3.62988 0.11046 147 142 143
1.43575 -3.63749 0.07798 143 138 125
1.43907 -3.62941 0.09576 147 136 118
1.42752 -3.64089 0.10336 150 139 140
1.42063 -3.64469 0.08714 140 142 137
1.39678 -3.65455 0.12182 137 133 148
1.37839 -3.66979 0.11321 161 162 146
1.38546 -3.66625 0.12931 155 149 149
1.36707 -3.68149 0.12070 156 157 148
1.36994 -3.67276 0.13859 157 161 144
1.35475 -3.67962 0.14772 136 136 140
1.33641 -3.69482 0.13914 154 149 146
1.32499 -3.69391 0.16570 141 149 145
1.24822 -3.69943 0.20884 140 143 148
1.23011 -3.71443 0.20037 141 135 130
1.23168 -3.70392 0.21848 141 147 145
1.10332 -3.76841 0.29634 144 149 143
1.10784 -3.76096 0.27322 156 156 146
1.09663 -3.77210 0.28059 161 160 149
1.09160 -3.77886 0.30392 136 136 137
1.07370 -3.79369 0.29554 135 136 131
1.07840 -3.78720 0.31210 131 133 137
1.06568 -3.79618 0.32008 144 149 142
1.04229 -3.84436 0.33805 146 140 147
1.03105 -3.85553 0.34544 145 139 140
0.98819 -3.90338 0.37416 148 144 133
1.00615 -3.88849 0.38256 144 145 135
0.99944 -3.89219 0.36676 146 143 132
0.99490 -3.89967 0.38996 144 142 144
0.98365 -3.91085 0.39736 139 137 131
0.97023 -3.91826 0.36576 138 146 134
0.93991 -3.97170 0.40801 142 142 133
0.95119 -3.96048 0.40059 138 139 132
0.94446 -3.96419 0.38474 140 140 129
0.93318 -3.97541 0.39216 142 140 129
0.93535 -3.97920 0.43128 140 132 127
0.92863 -3.98291 0.41543 143 136 126
0.49478 -4.43345 0.70268 115 105 98
0.50609 -4.42220 0.69524 113 116 110
0.47671 -4.44842 0.69423 122 125 107
0.47362 -4.53079 0.72450 109 110 104
0.45534 -4.54593 0.71595 110 107 94
0.46285 -4.54365 0.73181 113 113 99
0.44456 -4.55880 0.72325 109 99 90
2.76728 -2.37023 -0.79183 48 41 40
2.77199 -2.36248 -0.81587 56 44 40
2.77125 -2.39040 -0.79201 33 26 27
2.76832 -2.40689 -0.78872 17 11 19
2.74960 -2.42240 -0.79747 12 10 14
2.36750 -2.57040 -0.54881 15 15 57
2.38557 -2.55543 -0.54036 12 10 37
2.37882 -2.55915 -0.55625 13 13 52
2.37207 -2.56288 -0.57215 15 15 66
2.36075 -2.57413 -0.56471 19 17 69
2.35913 -2.58359 -0.54282 18 15 73
2.33155 -2.60283 -0.52550 15 23 80
2.32861 -2.61968 -0.52217 14 11 69
2.31831 -2.63165 -0.51523 62 71 110
2.28910 -2.63079 -0.49903 102 106 150
2.27880 -2.64269 -0.49209 103 114 154
2.27422 -2.65853 -0.48794 87 82 130
2.25221 -2.68144 -0.47336 81 93 157
2.23108 -2.68579 -0.46115 63 54 147
2.21307 -2.70072 -0.46958 60 41 108
2.22095 -2.69782 -0.45429 47 43 137
2.20293 -2.71276 -0.46272 77 50 91
2.21858 -2.71540 -0.45120 40 41 129
2.20978 -2.72845 -0.44498 67 41 118
2.20313 -2.74308 -0.43980 95 53 86
2.18504 -2.75808 -0.44827 110 110 34
2.19716 -2.75825 -0.43495 108 73 62
2.19186 -2.77398 -0.43041 101 92 46
2.18065 -2.78539 -0.42302 88 100 52
2.16568 -2.79402 -0.41380 56 74 46
2.16552 -2.81369 -0.41173 23 31 29
2.14733 -2.82876 -0.42024 20 14 22
2.16758 -2.91607 -0.40258 26 21 29
2.17916 -2.90457 -0.41019 27 23 32
2.17166 -2.93979 -0.40247 47 41 44
2.17514 -2.96321 -0.40205 87 90 86
2.15651 -2.97865 -0.41077 128 119 109
2.17529 -2.98417 -0.40003 117 112 107
2.15660 -2.99965 -0.40877 128 119 108
2.11549 -3.08398 -0.35665 126 123 129
2.12024 -3.07615 -0.38093 133 124 121
2.11073 -3.09181 -0.33237 135 133 132
2.10371 -3.09568 -0.34891 132 133 131
2.09669 -3.09956 -0.36544 133 132 127
2.01403 -3.12750 -0.29571 138 141 138
2.01875 -3.11974 -0.31978 137 131 126
2.00707 -3.13135 -0.31211 133 129 132
1.72608 -3.35144 -0.11265 167 165 148
1.73075 -3.34375 -0.13650 162 159 141
1.71919 -3.35525 -0.12890 159 159 156
1.70762 -3.36674 -0.12129 155 157 154
1.71299 -3.36139 -0.10435 154 155 145
1.69453 -3.37668 -0.11299 155 162 154
1.70347 -3.37497 -0.09768 147 148 150
1.68501 -3.39028 -0.10632 166 161 149
1.68680 -3.40466 -0.08540 158 160 161
1.67555 -3.41654 -0.07793 158 168 166
1.65704 -3.43187 -0.08659 151 154 139
1.67712 -3.44188 -0.07626 153 149 149
1.65854 -3.45728 -0.08495 153 153 152
