ply
format ascii 1.0
element face 0
property list uchar int vertex_indices
element vertex 1336
property float x
property float y
property float z
property uchar diffuse_red
property uchar diffuse_green
property uchar diffuse_blue
end_header
2.47529 -2.85701 0.85603 149 123 86
2.45852 -2.86814 0.84062 107 86 55
2.44935 -2.87745 0.85984 95 79 62
2.44823 -2.88023 0.84212 91 77 60
2.43256 -2.88860 0.84442 92 81 69
2.43386 -2.88595 0.86212 91 75 70
2.41235 -2.89022 0.86527 107 86 77
2.40692 -2.90579 0.86608 136 110 83
2.25280 -2.97155 0.88869 161 131 100
2.26732 -2.96597 0.86871 156 123 90
2.21274 -2.96157 0.89454 184 166 149
2.20102 -2.97278 0.89627 211 203 194
2.18435 -2.98385 0.88095 224 216 196
2.19551 -2.98873 0.89709 215 205 184
2.19034 -3.00504 0.89786 202 192 180
2.21305 -3.04291 0.89458 190 178 176
2.19614 -3.05414 0.87905 172 153 156
2.18713 -3.04349 0.89838 182 168 171
2.17026 -3.05469 0.88288 175 157 154
2.15142 -3.05700 0.90361 186 172 164
2.13490 -3.06478 0.90604 179 159 144
2.10447 -3.06150 0.91048 143 126 97
2.08992 -3.06709 0.93051 87 81 64
2.08880 -3.06987 0.91279 91 76 60
2.08768 -3.07264 0.89506 111 99 85
1.12168 -2.94442 1.05409 196 202 230
1.10682 -2.95429 1.04044 224 225 241
1.11220 -2.95625 1.05549 212 203 231
1.10284 -2.96826 1.05687 220 220 235
1.09162 -2.97842 1.05852 219 237 250
1.07754 -2.98570 1.06059 207 226 246
1.07602 -3.00594 1.06083 182 201 232
1.06520 -3.01668 1.06243 159 171 208
1.05771 -3.03096 1.06354 137 140 190
1.04394 -3.03871 1.06556 125 129 182
1.03315 -3.04962 1.06715 129 129 160
1.02409 -3.06242 1.06849 125 78 117
1.00953 -3.06939 1.07063 135 120 138
0.99806 -3.07970 1.07231 137 116 144
0.98476 -3.08803 1.07427 139 121 143
0.97121 -3.09612 1.07626 137 89 132
0.96069 -3.10755 1.07781 141 111 137
0.95597 -3.12550 1.07852 146 131 143
0.95172 -3.14411 1.07916 151 148 152
0.93653 -3.15420 1.06521 163 173 182
0.93717 -3.15127 1.08130 156 164 170
0.91248 -3.17058 1.08493 161 171 182
0.90376 -3.18447 1.08622 153 160 180
0.92407 -3.23210 1.08330 134 139 168
0.96576 -3.30525 1.07729 105 105 153
0.97529 -3.34151 1.07593 73 73 131
0.96682 -3.35685 1.07719 51 51 111
0.94684 -3.38419 1.08014 48 51 100
0.93094 -3.39475 1.06553 93 104 120
0.94083 -3.40279 1.08104 64 71 104
0.92412 -3.40853 1.08349 82 97 123
0.91505 -3.44997 1.08486 97 103 121
0.91167 -3.47239 1.08538 94 102 130
0.91430 -3.50256 1.08503 99 111 140
0.91124 -3.52586 1.08550 109 118 146
0.89497 -3.53667 1.07056 112 119 143
0.91073 -3.55262 1.08561 115 125 154
0.88802 -3.60704 1.08899 128 138 159
0.90230 -3.60155 1.06934 121 136 168
0.87134 -3.64202 1.09146 141 147 171
0.87246 -3.67228 1.09133 124 131 156
0.86667 -3.69361 1.09220 108 110 130
0.85349 -3.70517 1.09414 76 79 91
0.85546 -3.73735 1.09389 47 36 64
0.81800 -3.77587 1.09941 24 34 90
0.83263 -3.77025 1.07929 32 35 64
0.82681 -3.81861 1.09817 94 110 155
0.82069 -3.84084 1.09909 158 174 197
0.80362 -3.85217 1.08341 165 173 186
0.77706 -3.87238 1.10550 162 174 174
0.79187 -3.86668 1.08512 162 171 187
0.78546 -3.91626 1.10432 105 104 109
0.80389 -3.97537 1.10169 52 42 38
0.78644 -3.98695 1.08567 58 53 62
0.93310 -4.41192 1.08327 52 52 65
0.95207 -4.39933 1.10070 46 50 57
0.94954 -4.40560 1.06065 57 58 64
0.92308 -4.43334 1.08476 67 75 64
0.90407 -4.44596 1.06730 80 83 82
0.91080 -4.45140 1.08658 79 77 62
0.88826 -4.49114 1.08992 72 78 67
0.87977 -4.51573 1.09119 76 89 83
0.85060 -4.62453 1.09557 74 67 62
0.86748 -4.61804 1.07235 83 88 89
0.81256 -4.72279 1.10124 57 53 52
0.80441 -4.75034 1.10247 56 50 54
0.79637 -4.77836 1.10367 72 79 95
0.78361 -4.79839 1.10556 115 120 123
0.76372 -4.81160 1.08729 132 129 130
0.76951 -4.81622 1.10764 129 135 117
0.74919 -4.82306 1.11062 127 120 134
0.72928 -4.83628 1.09234 135 142 139
0.73066 -4.83308 1.11334 131 139 139
0.65319 -4.86690 1.12471 137 146 144
0.63331 -4.88010 1.10644 123 121 131
0.63637 -4.88008 1.12718 129 134 133
0.61491 -4.88451 1.13033 128 131 121
0.59503 -4.89771 1.11207 133 139 133
0.59777 -4.89713 1.13285 128 135 128
0.57789 -4.91033 1.11458 134 137 139
-0.38444 -5.02422 1.27663 174 156 134
-0.36824 -5.01799 1.25434 178 163 148
-0.40812 -5.01407 1.28009 145 125 101
-0.43795 -4.98402 1.28442 93 78 54
-0.54145 -5.32372 1.29993 17 15 18
-0.52211 -5.31088 1.31769 18 18 14
-0.52340 -5.31408 1.29728 16 15 16
-0.55991 -5.33189 1.30263 24 22 32
-0.57793 -5.34163 1.30528 40 44 47
-0.59584 -5.35176 1.30791 65 76 56
-0.61518 -5.36460 1.29015 95 96 88
-0.61170 -5.36968 1.31025 86 93 80
-0.63106 -5.38254 1.29246 95 94 88
-0.62595 -5.39403 1.31236 93 91 84
-0.64536 -5.40692 1.29453 100 99 95
-0.63975 -5.42051 1.31441 98 102 91
-0.65922 -5.43344 1.29652 103 103 104
-0.66457 -5.48612 1.31811 101 102 95
-0.66587 -5.48937 1.29739 105 104 103
2.55389 -2.76318 0.82673 112 85 81
2.56828 -2.75765 0.80693 115 95 62
2.57507 -2.79556 0.82353 163 140 118
2.55749 -2.82134 0.82608 184 151 111
2.54178 -2.82969 0.82839 174 144 98
2.52499 -2.84083 0.81296 149 123 84
2.52371 -2.83644 0.83104 161 137 86
2.50693 -2.84758 0.81563 149 122 86
2.50793 -2.84472 0.83336 153 127 90
2.49115 -2.85586 0.81795 152 122 89
2.49160 -2.85263 0.83576 153 122 95
2.47482 -2.86377 0.82035 148 121 86
2.47788 -2.86233 0.83777 140 115 82
2.41236 -2.89378 0.84740 97 82 73
2.42689 -2.88820 0.82739 97 83 63
2.41124 -2.89656 0.82969 97 81 72
2.40471 -2.90780 0.84850 122 104 83
2.39786 -2.92247 0.84948 147 120 84
2.38327 -2.92808 0.86956 154 119 86
2.38215 -2.93086 0.85179 153 119 84
2.38103 -2.93364 0.83402 148 120 87
2.25736 -2.97856 0.87015 156 124 86
2.27190 -2.97297 0.85014 155 122 87
2.25624 -2.98133 0.85244 157 124 81
2.24748 -2.99127 0.87159 170 143 116
2.21593 -2.98765 0.87626 207 191 176
2.20812 -3.02229 0.87735 206 193 178
2.21538 -3.04837 0.87622 183 166 164
2.13928 -3.07191 0.88743 182 166 146
2.11646 -3.07469 0.89080 167 150 120
1.11785 -2.94404 1.03883 229 220 234
1.10238 -2.97126 1.04106 213 227 237
1.09062 -2.98088 1.04278 184 203 227
1.07036 -2.98181 1.04577 160 172 217
1.07822 -3.01172 1.04455 133 144 192
1.06323 -3.02167 1.03078 130 114 144
1.06777 -3.02288 1.04607 125 122 164
1.05576 -3.03245 1.04783 129 118 159
1.04814 -3.04668 1.04893 129 120 153
1.03444 -3.05454 1.05094 134 108 137
1.02140 -3.06311 1.05285 131 84 124
1.00705 -3.07029 1.05495 138 112 118
0.99549 -3.08049 1.05664 138 106 136
0.98719 -3.09428 1.05784 143 124 148
0.98009 -3.10947 1.05886 147 130 149
0.98247 -3.13526 1.05846 154 149 167
0.96726 -3.14535 1.04449 164 172 190
0.96919 -3.14385 1.06040 160 167 180
0.95596 -3.15252 1.06234 166 174 179
0.92938 -3.16976 1.06624 154 165 182
0.92774 -3.19174 1.06643 139 145 168
0.97337 -3.26841 1.05952 110 111 154
0.98982 -3.31217 1.05700 77 74 135
0.97666 -3.32182 1.05892 54 51 115
0.97307 -3.34276 1.05941 43 40 101
0.96714 -3.36111 1.06025 51 43 102
0.95128 -3.37163 1.04568 95 107 131
0.96302 -3.38176 1.06081 67 69 109
0.95227 -3.39462 1.06238 81 95 116
0.93055 -3.42029 1.06554 88 89 120
0.93347 -3.45015 1.06504 67 63 104
0.91740 -3.46082 1.05028 42 44 85
0.92296 -3.46372 1.06657 50 42 86
0.91175 -3.47649 1.06820 56 51 95
0.89910 -3.48752 1.07005 86 94 121
0.91472 -3.53432 1.06764 110 123 144
0.90168 -3.57284 1.06949 119 124 152
0.90059 -3.57555 1.05219 126 134 155
0.88687 -3.60970 1.07160 121 133 160
0.87969 -3.62865 1.07262 130 139 162
0.87180 -3.64682 1.07375 125 138 164
0.87135 -3.67503 1.07376 119 130 155
0.86527 -3.69598 1.07462 116 119 147
0.85379 -3.70985 1.07629 110 108 128
0.83292 -3.71104 1.07937 68 77 86
0.85155 -3.76618 1.07650 32 35 47
0.82772 -3.79373 1.07997 22 26 83
0.82659 -3.79653 1.06209 24 32 77
0.81263 -3.80316 1.08218 72 74 123
0.82495 -3.85127 1.08026 153 173 191
0.80784 -3.86262 1.06455 164 173 188
0.78373 -3.88647 1.08628 166 177 173
0.79859 -3.88076 1.06583 164 169 182
0.78438 -3.91922 1.08611 123 127 113
0.81492 -3.99612 1.08143 61 53 48
0.79740 -4.00775 1.06534 71 74 72
0.93773 -4.42417 1.06236 55 59 65
0.95420 -4.41783 1.03970 50 40 52
0.92797 -4.44608 1.06376 63 68 73
0.90349 -4.48264 1.06730 79 78 75
0.88437 -4.49533 1.04974 60 59 59
0.89277 -4.50354 1.06885 70 67 72
0.87360 -4.51626 1.05124 54 60 67
0.88257 -4.52547 1.07031 65 64 71
0.87282 -4.54834 1.07170 63 63 73
0.86425 -4.57334 1.07292 72 75 83
0.84698 -4.62388 1.07537 79 81 83
0.83687 -4.64708 1.07682 65 70 67
0.83223 -4.67972 1.07743 55 59 63
0.82207 -4.70333 1.07889 61 62 59
0.81166 -4.72677 1.08038 78 85 73
0.80871 -4.76334 1.08074 102 112 103
0.78890 -4.77649 1.06254 130 134 126
0.79343 -4.77882 1.08297 113 127 121
0.77359 -4.79199 1.06474 128 133 131
0.77976 -4.79725 1.08495 126 131 130
0.75989 -4.81044 1.06670 134 136 137
0.74381 -4.81910 1.09022 131 136 135
0.74249 -4.82239 1.06924 133 133 132
0.72393 -4.83230 1.07196 132 130 129
0.70453 -4.83496 1.09600 133 142 147
0.70321 -4.83825 1.07503 125 129 126
0.68765 -4.84792 1.09847 143 147 154
0.66524 -4.85067 1.10178 148 155 159
0.64335 -4.85427 1.10501 124 128 139
0.60751 -4.87626 1.11027 134 138 132
0.60619 -4.87954 1.08933 138 142 146
0.58768 -4.88942 1.09205 133 132 137
-0.38289 -5.03594 1.25647 173 156 136
-0.40187 -5.04058 1.25927 142 121 97
-0.43282 -5.00723 1.26392 91 75 49
-0.42904 -5.08402 1.26320 47 43 33
-0.43824 -5.12044 1.26448 34 25 34
-0.50831 -5.30180 1.27447 18 15 15
-0.49028 -5.29217 1.27182 15 15 14
-0.50702 -5.29861 1.29486 17 15 14
-0.52612 -5.31220 1.27708 21 19 28
-0.54281 -5.32665 1.27952 30 25 40
-0.56236 -5.33086 1.28240 53 57 56
-0.58182 -5.33522 1.28527 79 81 75
-0.60112 -5.34804 1.26754 99 101 89
-0.59928 -5.34692 1.28783 96 99 84
-0.61859 -5.35974 1.27010 94 90 90
2.55221 -2.76555 0.80929 133 107 77
2.53561 -2.77658 0.79404 171 149 97
2.58212 -2.80370 0.80461 163 144 110
2.56796 -2.81305 0.80668 174 150 117
2.55608 -2.82392 0.80840 168 135 101
2.53929 -2.83507 0.79298 150 122 83
2.53944 -2.83164 0.81085 157 126 89
2.52265 -2.84279 0.79543 151 124 78
2.45834 -2.87156 0.82278 123 102 69
2.47287 -2.86597 0.80277 153 122 87
2.44471 -2.88134 0.82476 102 86 59
2.42793 -2.89248 0.80935 96 82 55
2.38926 -2.90044 0.83296 106 90 79
2.40377 -2.89486 0.81299 92 78 72
2.37878 -2.91246 0.83447 130 110 86
2.25130 -2.99777 0.85309 159 127 90
2.26588 -2.99216 0.83303 155 125 86
2.24474 -3.01307 0.85399 184 159 145
2.24030 -3.03008 0.85457 221 210 200
2.22870 -3.04170 0.85624 218 208 195
2.22180 -3.05699 0.85720 197 183 176
2.19936 -3.06031 0.86054 192 178 165
2.17625 -3.06303 0.86398 194 172 152
2.15935 -3.07425 0.84846 216 203 181
2.16510 -3.07508 0.86559 198 182 159
2.14818 -3.08631 0.85005 217 205 187
2.14815 -3.08260 0.86808 202 187 159
2.12357 -3.08403 0.87175 196 181 149
2.10162 -3.08748 0.87502 154 140 116
2.08702 -3.09309 0.89512 88 80 78
2.08589 -3.09588 0.87733 93 70 73
1.11563 -2.86161 1.02379 205 223 243
1.12827 -2.85675 1.00639 164 153 194
1.11465 -2.86402 1.00839 195 203 220
1.10677 -2.87356 1.02505 232 244 251
1.10471 -2.89229 1.02526 240 247 248
1.08186 -2.89049 1.02869 238 243 246
1.11312 -2.94275 1.02373 221 229 237
1.10515 -2.95607 1.02485 187 204 225
1.08874 -2.96088 1.02729 160 174 209
1.08489 -2.97851 1.02777 133 150 187
1.08079 -2.99602 1.02829 125 140 180
1.07064 -3.00739 1.02975 124 119 157
1.05663 -3.03689 1.03169 138 129 157
1.04624 -3.04822 1.03318 139 133 149
1.03320 -3.05677 1.03509 138 93 121
1.01887 -3.06397 1.03720 139 105 130
1.00604 -3.07277 1.03907 144 114 117
1.00004 -3.08900 1.03988 145 122 143
0.99704 -3.10863 1.04023 150 139 161
0.98189 -3.11868 1.02632 164 174 189
0.99661 -3.13126 1.04017 159 161 178
0.98249 -3.13892 1.04224 165 173 188
0.95568 -3.15586 1.04617 159 166 182
0.94956 -3.17258 1.04699 145 153 171
0.98080 -3.23195 1.04200 113 126 151
0.99631 -3.27402 1.03946 83 88 127
0.98067 -3.28440 1.02510 42 47 101
0.99477 -3.29689 1.03957 57 57 116
0.99004 -3.31625 1.04017 45 42 111
0.97967 -3.32917 1.04166 45 43 102
0.97337 -3.34696 1.04251 53 59 103
0.97260 -3.37146 1.04249 75 87 125
0.95599 -3.40302 1.04481 84 87 110
0.94003 -3.41361 1.03015 54 50 87
0.95396 -3.42656 1.04499 61 60 98
0.93793 -3.43720 1.03027 53 59 85
0.95008 -3.44808 1.04545 48 51 94
0.93400 -3.45876 1.03068 50 60 88
0.94030 -3.46253 1.04684 42 46 87
0.91689 -3.48691 1.05022 53 52 94
0.90026 -3.49300 1.05267 87 92 121
0.92293 -3.54877 1.04898 121 132 151
0.91015 -3.56007 1.05084 129 136 154
0.89294 -3.59360 1.05324 122 130 153
0.88390 -3.60999 1.05450 112 122 144
0.88068 -3.63413 1.05486 100 108 138
0.88056 -3.66259 1.05472 75 76 127
0.87012 -3.67761 1.05621 76 78 132
0.86034 -3.69363 1.05759 87 90 135
0.85575 -3.71676 1.05815 102 114 147
0.84295 -3.72895 1.06000 105 115 135
0.82205 -3.73010 1.06312 63 73 87
0.84819 -3.79608 1.05886 36 33 61
0.83122 -3.80734 1.04327 28 29 76
0.82128 -3.81966 1.06276 25 39 101
0.82979 -3.86254 1.06126 132 159 189
0.79061 -3.90089 1.06692 166 172 175
0.80551 -3.89517 1.04642 160 169 183
0.78947 -3.90374 1.04878 162 171 179
0.78771 -3.92859 1.06721 149 144 145
0.82576 -4.01662 1.06105 76 70 69
0.93787 -4.42949 1.04208 42 42 42
0.93660 -4.43263 1.02201 48 51 51
0.91885 -4.44211 1.02462 49 56 61
0.93174 -4.45710 1.04285 51 57 62
0.91266 -4.46977 1.02532 57 59 68
0.92094 -4.47763 1.04436 65 68 72
0.90181 -4.49033 1.02679 64 62 64
0.90811 -4.49513 1.04619 65 62 53
0.88895 -4.50785 1.02858 65 65 74
0.87666 -4.55984 1.05055 50 58 69
0.89339 -4.55341 1.02752 60 65 70
0.87537 -4.56303 1.03017 53 57 53
0.86672 -4.58269 1.05192 65 69 79
0.85780 -4.60744 1.05312 83 84 86
0.84557 -4.62691 1.05485 81 78 82
0.83496 -4.64927 1.05632 70 68 69
0.82756 -4.67727 1.05728 71 78 78
0.82255 -4.70964 1.05785 100 106 107
0.80288 -4.72270 1.03979 130 134 128
0.81155 -4.73209 1.05938 126 124 116
0.79183 -4.74518 1.04127 132 135 127
0.80153 -4.75646 1.06075 131 132 122
0.78176 -4.76959 1.04259 133 137 126
0.67549 -4.83127 1.07922 149 157 153
0.69265 -4.82468 1.05561 122 131 141
0.65569 -4.84442 1.06103 122 121 127
0.63303 -4.84072 1.08552 103 101 118
0.61327 -4.85384 1.06737 125 135 148
0.61855 -4.85805 1.08760 119 126 142
0.59877 -4.87118 1.06942 141 147 144
-0.34502 -5.03295 1.23089 153 152 142
-0.32876 -5.02670 1.20850 96 91 97
-0.34627 -5.03606 1.21108 102 99 114
-0.36429 -5.03696 1.23375 171 165 149
-0.38360 -5.04070 1.23662 171 158 135
-0.39649 -5.06442 1.23842 141 121 93
-0.42232 -5.04748 1.24238 90 76 42
-0.41550 -5.13458 1.24089 47 41 29
-0.42432 -5.17283 1.24201 32 26 30
-0.44338 -5.18548 1.22450 17 17 16
-0.43437 -5.20777 1.24333 24 21 22
-0.45096 -5.21415 1.26617 23 22 30
-0.45352 -5.22049 1.22574 16 13 16
-0.43806 -5.26450 1.24358 17 18 18
-0.45609 -5.27413 1.24623 13 16 14
-0.48963 -5.30207 1.25110 21 16 23
-0.47028 -5.28922 1.26887 19 18 15
-0.47157 -5.29242 1.24845 15 15 14
-0.50958 -5.30504 1.25407 31 22 36
-0.52588 -5.32083 1.25643 43 45 46
-0.54663 -5.32075 1.25953 62 71 66
-0.56594 -5.33357 1.24180 92 94 99
-0.56899 -5.31457 1.26291 89 93 100
-0.58824 -5.32735 1.24523 92 94 98
-0.58527 -5.33040 1.26527 94 102 98
-0.60455 -5.34320 1.24756 100 94 94
2.58272 -2.77051 0.78696 174 146 89
2.59827 -2.76220 0.78467 148 121 82
2.59716 -2.76495 0.76708 183 154 113
2.57531 -2.78415 0.78796 170 142 85
2.56829 -2.81678 0.78875 161 133 96
2.55151 -2.82792 0.77333 146 119 91
2.55540 -2.82700 0.79061 151 121 90
2.53861 -2.83814 0.77519 148 124 82
2.45113 -2.87013 0.80603 143 117 82
2.46565 -2.86455 0.78605 152 123 85
2.43770 -2.88001 0.80798 116 97 50
2.38917 -2.90394 0.81512 90 74 75
2.40369 -2.89836 0.79514 88 74 67
2.37241 -2.91506 0.79973 110 86 81
2.37382 -2.91250 0.81737 113 92 84
2.35706 -2.92362 0.80198 137 110 87
2.26077 -3.00852 0.83367 153 123 86
2.27538 -3.00291 0.81356 154 124 92
2.25964 -3.01131 0.81587 155 125 86
2.24858 -3.01962 0.83542 165 133 113
2.24811 -3.03969 0.83532 203 182 169
2.23727 -3.05194 0.83686 216 210 198
2.22031 -3.06319 0.82128 209 199 187
2.22593 -3.06386 0.83847 202 194 188
2.20896 -3.07512 0.82288 214 201 176
2.20943 -3.07180 0.84090 210 200 180
2.19462 -3.08107 0.84306 214 202 171
2.12981 -3.09269 0.85278 218 206 176
2.13000 -3.11391 0.85257 190 174 145
1.11232 -2.88239 1.00858 216 219 244
1.12501 -2.87751 0.99112 176 174 195
1.11134 -2.88481 0.99313 169 167 216
1.10866 -2.89959 1.00899 222 227 247
1.10367 -2.91560 1.00961 196 210 233
1.10770 -2.94076 1.00879 160 174 207
1.10020 -2.95453 1.00980 131 150 188
1.09288 -2.96855 1.01079 123 142 182
1.08501 -2.98211 1.01187 131 146 176
1.07840 -2.99705 1.01274 134 141 165
1.06768 -3.00783 1.01427 133 103 135
1.06597 -3.02805 1.01436 140 135 159
1.06492 -3.04914 1.01434 149 160 180
1.04985 -3.05914 1.00050 153 154 172
1.05067 -3.05645 1.01644 150 159 173
1.03524 -3.06251 1.01872 149 132 156
1.03072 -3.08023 1.01925 151 140 159
1.02406 -3.09578 1.02013 155 143 150
1.00892 -3.10583 1.00622 163 176 185
1.01982 -3.11408 1.02062 162 165 171
1.00805 -3.12428 1.02231 165 173 183
0.98148 -3.14143 1.02619 159 171 189
0.96972 -3.15174 1.02788 147 155 180
0.99160 -3.19989 1.02416 118 128 158
1.01057 -3.24530 1.02090 90 97 141
1.01653 -3.27641 1.01974 61 71 116
1.00086 -3.28681 1.00534 50 49 96
1.01027 -3.29382 1.02053 45 54 101
0.99004 -3.32007 1.02337 49 47 105
0.98243 -3.33625 1.02439 67 66 112
0.98089 -3.35969 1.02442 91 102 128
0.97645 -3.37991 1.02492 96 108 134
0.96569 -3.39275 1.02644 80 85 109
0.96342 -3.41588 1.02659 62 56 89
0.94741 -3.42651 1.01189 47 50 76
0.93146 -3.48223 1.03086 43 52 93
0.94546 -3.47685 1.01160 53 61 89
0.92359 -3.49927 1.03191 58 65 103
0.93415 -3.53962 1.02997 100 112 129
0.92581 -3.55650 1.03109 128 138 158
0.91248 -3.56714 1.03301 130 136 159
0.89990 -3.57877 1.03482 118 132 149
0.89901 -3.60559 1.03473 95 102 116
0.88254 -3.61652 1.01960 40 35 77
0.89553 -3.62930 1.03505 60 52 88
0.87900 -3.64027 1.01986 43 44 74
0.88373 -3.64231 1.03673 41 38 89
0.86718 -3.65330 1.02152 44 47 68
0.87684 -3.66188 1.03761 32 35 79
0.86023 -3.67290 1.02235 45 46 62
0.87168 -3.68393 1.03820 30 35 82
0.85502 -3.69499 1.02289 42 44 56
0.86609 -3.70560 1.03886 30 38 78
0.85478 -3.71974 1.04045 41 57 99
0.85041 -3.74341 1.04091 84 102 139
0.83748 -3.75556 1.04277 106 106 117
0.85116 -3.80455 1.04028 52 41 65
0.82347 -3.82714 1.04428 16 29 93
0.83613 -3.87596 1.04195 121 144 182
0.82438 -3.89062 1.04360 162 176 193
0.80717 -3.90205 1.02780 164 168 184
0.78351 -3.92700 1.04948 157 160 159
0.79846 -3.92125 1.02891 161 171 181
0.83270 -4.03144 1.04115 75 69 75
0.82615 -4.05490 1.04194 60 63 69
0.80963 -4.06373 1.04436 66 67 74
0.86499 -4.58517 1.03155 58 57 63
0.85501 -4.60817 1.03287 74 67 81
0.84332 -4.62854 1.03447 83 77 77
0.83506 -4.65485 1.03549 90 93 86
0.82441 -4.67739 1.03691 105 113 113
0.80484 -4.69038 1.01894 125 129 133
0.81582 -4.70364 1.03799 124 128 124
0.79618 -4.71668 1.01996 128 130 131
-0.36188 -5.05124 1.21331 133 138 140
-0.34560 -5.04498 1.19090 92 95 100
-0.36314 -5.05435 1.19348 92 101 102
-0.38067 -5.06372 1.19605 122 123 105
-0.37948 -5.06042 1.21589 158 153 139
-0.39545 -5.07470 1.21819 137 119 90
-0.41031 -5.09261 1.22029 85 73 36
-0.40974 -5.16024 1.21963 38 38 23
-0.41715 -5.20341 1.22038 21 24 22
-0.45053 -5.30041 1.22461 16 14 20
-0.46748 -5.31401 1.22706 22 19 30
-0.48904 -5.31177 1.23034 35 28 51
-0.50819 -5.31764 1.23319 58 54 69
-0.53350 -5.30153 1.23716 81 88 84
-0.55276 -5.31432 1.21947 94 102 93
-0.55294 -5.30586 1.24007 91 97 91
-0.57219 -5.31863 1.22239 95 96 93
2.58465 -2.77525 0.76888 197 167 113
2.59910 -2.76969 0.74899 198 173 131
2.58354 -2.77800 0.75127 205 176 121
2.57223 -2.78562 0.77066 189 161 104
2.57650 -2.80702 0.76975 179 154 106
2.56756 -2.81982 0.77097 155 124 95
2.45511 -2.87642 0.78752 155 123 85
2.46964 -2.87083 0.76752 151 122 82
2.45399 -2.87919 0.76982 153 121 86
2.43861 -2.88419 0.78996 129 107 60
2.42349 -2.89292 0.79217 98 82 56
2.39068 -2.90858 0.79701 88 74 75
2.25848 -3.03078 0.81582 157 123 82
2.27315 -3.02514 0.79564 156 123 88
2.25736 -3.03358 0.79796 156 122 75
2.25300 -3.04708 0.81647 178 150 121
2.24455 -3.06120 0.81760 203 194 179
2.19668 -3.08637 0.82463 207 196 173
2.16247 -3.10132 0.82969 197 183 179
2.14550 -3.11259 0.81410 186 173 145
2.14536 -3.10878 0.83222 200 189 163
2.14525 -3.12985 0.83199 198 182 147
2.12091 -3.13153 0.83570 161 143 106
1.11281 -2.90710 0.99264 166 169 215
1.12556 -2.90220 0.97510 148 159 190
1.11183 -2.90953 0.97711 128 138 173
1.09810 -2.91687 0.97913 134 157 196
1.11176 -2.92708 0.99257 142 157 204
1.09699 -2.93688 0.97900 135 153 183
1.10964 -2.94615 0.99267 122 145 184
1.10060 -2.95838 0.99391 126 140 177
1.09179 -2.97091 0.99511 133 135 169
1.08234 -2.98286 0.99642 136 136 168
1.07687 -2.99897 0.99707 139 130 156
1.06055 -3.00394 0.99951 139 102 113
1.06304 -3.02852 0.99884 145 143 162
1.06146 -3.04904 0.99884 152 158 177
1.04275 -3.07407 1.00141 155 150 166
1.02765 -3.08409 0.98754 166 173 182
1.04018 -3.09396 1.00157 161 164 176
1.03247 -3.10847 1.00259 165 174 182
1.00964 -3.12965 1.00583 161 170 183
0.99720 -3.13917 1.00763 150 159 180
1.00110 -3.16685 1.00671 123 134 171
1.02859 -3.22118 1.00186 93 98 147
1.03394 -3.25123 1.00069 63 74 119
1.01832 -3.26160 0.98635 44 53 96
1.02556 -3.26604 1.00180 46 58 108
1.00992 -3.27642 0.98743 45 52 96
1.01749 -3.28128 1.00286 45 51 101
0.99919 -3.30961 1.00533 54 52 101
0.99761 -3.33272 1.00530 66 78 112
1.00176 -3.36276 1.00432 93 109 131
0.98801 -3.37198 1.00631 100 108 137
0.97482 -3.38187 1.00822 77 83 121
0.97661 -3.40974 1.00762 60 58 87
0.96061 -3.42036 0.99292 48 48 76
0.96655 -3.42359 1.00899 52 48 72
0.95052 -3.43423 0.99427 46 52 79
0.93700 -3.49312 1.01270 54 59 97
0.95103 -3.48772 0.99340 52 56 90
0.93870 -3.52219 1.01210 75 80 116
0.93965 -3.55061 1.01163 116 126 147
0.92534 -3.55999 1.01371 127 138 161
0.91184 -3.57042 1.01565 112 116 144
0.91596 -3.60354 1.01463 72 73 109
0.89947 -3.61448 0.99949 37 39 73
0.91204 -3.62661 1.01496 43 42 77
0.89549 -3.63759 0.99976 41 46 74
0.86137 -3.73293 1.02148 31 41 66
0.87592 -3.72734 1.00146 44 46 64
0.86025 -3.73571 1.00376 42 44 57
0.85535 -3.75444 1.02215 41 51 85
0.84566 -3.77112 1.02344 96 115 117
0.83821 -3.79102 1.02434 72 85 93
0.84829 -3.83551 1.02228 28 34 61
0.83235 -3.84402 1.02462 13 27 83
0.83339 -3.87653 1.02408 102 119 155
0.82995 -3.90305 1.02430 161 170 195
0.81271 -3.91450 1.00846 165 167 185
0.78943 -3.94016 1.03007 164 168 168
0.80441 -3.93440 1.00944 161 167 180
0.83235 -4.03557 1.02238 82 76 97
0.83676 -4.07529 1.02124 57 47 59
0.92316 -4.49148 1.00315 54 61 73
0.93977 -4.48510 0.98030 48 53 54
0.90528 -4.50104 1.00578 64 66 73
0.89871 -4.52870 1.00646 65 66 70
0.88076 -4.53829 1.00910 59 61 66
0.87292 -4.56433 1.00999 52 55 61
0.86369 -4.58836 1.01112 59 63 69
0.85276 -4.60979 1.01255 82 85 82
0.83594 -4.62162 1.01498 102 104 99
0.81653 -4.63451 0.99715 118 117 119
0.82611 -4.64522 1.01621 116 120 120
0.80664 -4.65815 0.99833 122 118 116
0.81498 -4.66685 1.01766 122 130 128
0.79547 -4.67981 0.99974 124 124 118
-0.39224 -5.09182 1.19749 119 105 81
-0.37590 -5.08554 1.17501 95 94 94
-0.40761 -5.10826 1.19966 76 56 26
-0.40846 -5.17159 1.19904 34 31 33
-0.41505 -5.21758 1.19952 17 23 28
-0.42986 -5.23739 1.20155 19 19 23
-0.43817 -5.27911 1.20234 20 17 29
-0.45125 -5.30558 1.20403 25 22 41
-0.47234 -5.30503 1.20726 44 48 54
-0.50038 -5.28013 1.21185 65 78 77
-0.51962 -5.29290 1.19417 98 99 99
-0.51912 -5.28699 1.21463 91 96 88
-0.53835 -5.29976 1.19697 96 98 99
-0.53663 -5.29814 1.21719 95 99 94
-0.55587 -5.31091 1.19951 93 97 90
2.55984 -2.78098 0.75490 201 174 116
2.57427 -2.77543 0.73505 204 178 121
2.56170 -2.80076 0.75432 185 159 112
2.58179 -2.83278 0.75073 139 107 99
2.56755 -2.84216 0.75280 133 106 94
2.55183 -2.85055 0.75510 145 120 88
2.43431 -2.88475 0.77278 142 115 82
2.44883 -2.87916 0.75280 151 121 88
2.42437 -2.89710 0.77414 117 92 67
2.40652 -2.90391 0.77680 104 81 64
2.38975 -2.91505 0.76140 132 108 82
2.38220 -2.90612 0.78053 108 88 80
2.36547 -2.91723 0.76516 127 103 78
2.37453 -2.92014 0.78151 121 98 83
2.35888 -2.92850 0.78381 134 108 81
2.35932 -2.94849 0.78344 145 116 85
2.36044 -2.94571 0.80121 148 121 92
2.34474 -2.95410 0.80351 150 122 89
2.34361 -2.95688 0.78575 151 121 87
2.25257 -3.05042 0.79845 161 131 93
2.26727 -3.04477 0.77822 155 120 81
2.25031 -3.06931 0.79852 188 170 152
2.24443 -3.08553 0.79919 219 209 187
2.22738 -3.09686 0.78352 228 218 195
2.21804 -3.08588 0.80327 222 209 175
2.19702 -3.09033 0.80645 202 185 162
2.17429 -3.09339 0.80993 185 163 148
2.15560 -3.14190 0.81210 197 179 144
2.13825 -3.14928 0.81467 193 170 131
2.08901 -3.13070 0.82257 125 99 80
2.05688 -3.12579 0.82762 91 83 59
2.04000 -3.13699 0.81212 81 85 74
2.04000 -3.13327 0.83012 78 78 82
1.10328 -2.96455 0.97762 134 121 166
1.11616 -2.95960 0.95989 143 155 182
1.09402 -2.97666 0.97887 138 114 147
1.08385 -2.98788 0.98028 137 110 147
1.07602 -3.00159 0.98128 141 121 137
1.05924 -3.00607 0.98382 142 108 92
1.05611 -3.02479 0.98402 143 127 130
1.06027 -3.05134 0.98298 151 142 157
1.05079 -3.06368 0.98427 157 152 170
1.03571 -3.07369 0.97042 165 176 185
1.04425 -3.07924 0.98505 161 165 173
1.02864 -3.10793 0.98704 163 173 193
1.01984 -3.12133 0.98820 150 165 187
1.02255 -3.14743 0.98739 130 137 168
1.02188 -3.17004 0.98716 105 108 153
1.04020 -3.21396 0.98367 70 73 134
1.02469 -3.22425 0.96942 50 49 97
1.04106 -3.23884 0.98317 51 54 107
1.02547 -3.24919 0.96885 47 55 94
1.03635 -3.25770 0.98361 44 50 92
1.02072 -3.26808 0.96925 43 54 96
1.01038 -3.30155 0.98698 59 50 92
1.00759 -3.32315 0.98709 84 77 101
1.01118 -3.35238 0.98610 97 107 125
0.99821 -3.36246 0.98796 94 103 127
0.99466 -3.38372 0.98819 77 81 116
0.99167 -3.40583 0.98833 56 60 97
0.97566 -3.41645 0.97362 51 50 75
0.98628 -3.42525 0.98887 47 48 78
0.97022 -3.43591 0.97412 50 51 79
0.94609 -3.50843 0.99385 60 62 99
0.96017 -3.50301 0.97448 48 55 94
0.95161 -3.54238 0.99249 86 88 121
0.93526 -3.55324 0.97747 120 137 153
0.93981 -3.55490 0.99413 117 126 150
0.92497 -3.56361 0.99630 112 122 147
0.93091 -3.59890 0.99486 74 76 98
0.91442 -3.60984 0.97971 31 39 66
0.93005 -3.62581 0.99459 37 41 62
0.91348 -3.63681 0.97937 36 46 67
0.85910 -3.76388 1.00352 40 45 63
0.86283 -3.79906 1.00242 87 91 127
0.84699 -3.80753 1.00474 99 105 121
0.86211 -3.85920 1.00163 34 38 61
0.84609 -3.86776 1.00399 12 30 83
0.84127 -3.89216 1.00437 79 83 139
0.84186 -3.92453 1.00380 154 171 193
0.82454 -3.93603 0.98788 162 171 185
0.79903 -3.95872 1.00992 165 170 174
0.81407 -3.95294 0.98922 161 167 182
0.80539 -4.00055 1.00831 119 108 97
0.84713 -4.09536 1.00044 60 40 35
0.92307 -4.34888 0.98491 68 62 71
0.92431 -4.34579 1.00468 59 56 58
0.90684 -4.35512 1.00724 50 50 44
0.93774 -4.40777 0.98176 58 55 55
0.92134 -4.41407 1.00434 41 53 47
0.92008 -4.41720 0.98436 48 55 49
0.92127 -4.49368 0.98304 48 53 61
0.93787 -4.48730 0.96019 42 44 50
0.91999 -4.49685 0.96281 44 44 52
0.90891 -4.51201 0.98468 49 53 62
0.89641 -4.53025 0.98634 52 54 62
0.88422 -4.54913 0.98795 62 61 64
0.87194 -4.56802 0.98956 72 72 73
0.85970 -4.58713 0.99117 82 85 87
0.84001 -4.59404 0.99412 97 103 95
0.82815 -4.61398 0.99566 110 116 109
0.67572 -4.76193 1.01705 132 137 141
0.69268 -4.75541 0.99371 136 132 141
0.67442 -4.76517 0.99640 134 134 150
0.65615 -4.77492 0.99908 127 142 146
-0.39150 -5.10121 1.17719 93 87 79
-0.37514 -5.09492 1.15468 96 99 99
-0.40321 -5.12938 1.17858 76 66 52
-0.41043 -5.17249 1.17906 52 39 43
-0.41592 -5.22210 1.17917 37 28 46
-0.42871 -5.24857 1.18076 36 26 45
-0.44135 -5.27599 1.18231 38 38 47
-0.46753 -5.25807 1.18662 55 66 69
-0.48801 -5.25894 1.18978 92 92 89
-0.50721 -5.27168 1.17215 101 104 100
-0.50432 -5.27408 1.19208 102 103 104
-0.52353 -5.28684 1.17443 97 99 95
2.55678 -2.78245 0.73766 203 173 119
2.55567 -2.78520 0.72009 176 147 105
2.54014 -2.79349 0.72237 163 131 104
2.56168 -2.80424 0.73650 182 149 110
2.54496 -2.81533 0.72115 134 103 77
2.58416 -2.83789 0.73237 127 97 85
2.56731 -2.84908 0.71689 102 72 66
2.60386 -2.86998 0.72871 114 84 83
2.58688 -2.88125 0.71311 116 93 74
2.56972 -2.86613 0.73412 135 110 92
2.55506 -2.87177 0.75429 149 123 81
2.55394 -2.87456 0.73644 148 121 85
2.44180 -2.89352 0.75364 153 121 85
2.45635 -2.88793 0.73362 148 122 88
2.44068 -2.89630 0.73592 150 121 82
2.42501 -2.90467 0.73822 152 121 74
2.42916 -2.90402 0.75543 141 111 77
2.41236 -2.91517 0.74000 147 117 67
2.41015 -2.91004 0.75830 133 108 72
2.37342 -2.94253 0.76346 125 101 76
2.38800 -2.93693 0.74339 120 96 69
2.37229 -2.94532 0.74570 117 96 69
2.35659 -2.95370 0.74800 132 107 71
2.36275 -2.95457 0.76491 137 109 79
2.34591 -2.96575 0.74944 148 116 77
2.26414 -3.06295 0.77838 156 122 83
2.27888 -3.05728 0.75809 153 119 79
2.26301 -3.06576 0.76043 155 120 81
2.25651 -3.07777 0.77931 171 144 117
2.25604 -3.09822 0.77901 210 194 172
2.20869 -3.10318 0.78633 217 200 175
2.17808 -3.10008 0.79118 198 180 147
2.17395 -3.11785 0.79150 200 185 159
2.16135 -3.12898 0.79327 202 190 165
2.16857 -3.15607 0.79165 203 192 167
2.15040 -3.16284 0.79438 204 188 153
2.12296 -3.16206 0.79868 169 146 108
2.05469 -3.12771 0.80999 107 90 58
1.10598 -2.97074 0.96128 139 110 152
1.11888 -2.96579 0.94354 150 162 182
1.10499 -2.97320 0.94558 146 134 165
1.09352 -2.97961 0.96307 142 118 135
1.08084 -2.98829 0.96490 140 105 134
1.07424 -3.00324 0.96566 146 126 134
1.06655 -3.01718 0.96661 151 149 146
1.06330 -3.03584 0.96678 151 142 145
1.06238 -3.05711 0.96655 158 154 171
1.05285 -3.06943 0.96781 163 169 184
1.04182 -3.10291 0.96893 158 167 180
1.03765 -3.12129 0.96925 139 144 176
1.05582 -3.16416 0.96564 110 116 161
1.06224 -3.19461 0.96408 75 76 139
1.04676 -3.20489 0.94986 52 53 103
1.05784 -3.21343 0.96443 57 52 123
1.04231 -3.22374 0.95017 53 53 100
1.05302 -3.23193 0.96485 51 44 107
1.03744 -3.24227 0.95054 50 54 97
1.01827 -3.28975 0.96924 51 54 101
1.01670 -3.31263 0.96908 73 74 107
1.01279 -3.35812 0.96887 93 97 111
0.99690 -3.36867 0.95427 83 91 107
1.00344 -3.37248 0.97007 87 90 110
1.00484 -3.39967 0.96936 72 77 102
0.99960 -3.41919 0.96983 55 56 84
0.98355 -3.42985 0.95508 56 60 81
0.95680 -3.52576 0.97460 63 65 104
0.95555 -3.55138 0.97433 102 105 132
0.93035 -3.57454 0.97786 86 95 121
0.94481 -3.62081 0.97476 40 44 77
0.92824 -3.63181 0.95954 41 44 76
0.86596 -3.74774 0.98480 45 44 69
0.88167 -3.73935 0.98250 40 48 76
0.85404 -3.76128 0.98643 57 57 75
0.83719 -3.77247 0.97095 93 107 124
0.87542 -3.82075 0.98200 90 104 126
0.86161 -3.83218 0.98396 101 105 118
0.87867 -3.88677 0.98030 39 43 75
0.86141 -3.89823 0.96445 34 35 71
0.86201 -3.89460 0.98277 21 31 82
0.85893 -3.92168 0.98276 51 53 111
0.85425 -3.94675 0.98304 143 168 178
0.81179 -3.98193 0.98905 163 170 179
0.82690 -3.97612 0.96825 162 167 179
0.80998 -4.01193 0.98879 131 127 118
0.85347 -4.10948 0.98022 56 43 43
0.89091 -4.26917 0.97148 67 64 71
0.90462 -4.32566 0.96831 71 68 59
0.91976 -4.38511 0.96487 58 54 55
0.90094 -4.39760 0.94758 37 36 47
0.92749 -4.43382 0.96278 45 45 51
0.90851 -4.44642 0.94535 39 38 49
0.90475 -4.51060 0.96495 41 46 54
0.89214 -4.52864 0.96660 47 53 69
0.87958 -4.54689 0.96823 68 71 80
0.86411 -4.56055 0.97041 86 88 90
0.84494 -4.56818 0.97327 96 98 106
0.83095 -4.58437 0.97517 106 112 112
0.80394 -4.61868 0.97877 124 128 128
0.78589 -4.62832 0.98142 127 127 134
0.78460 -4.63152 0.96101 130 126 140
-0.39305 -5.10340 1.15733 99 99 92
-0.37670 -5.09711 1.13482 97 105 101
-0.39431 -5.10652 1.13741 102 107 102
-0.40956 -5.11633 1.15968 93 94 83
-0.42250 -5.14085 1.16126 74 74 72
-0.43006 -5.18329 1.16167 63 54 72
-0.45156 -5.18050 1.16509 69 67 82
-0.45848 -5.22620 1.16535 82 87 89
-0.47761 -5.23891 1.14777 111 113 109
-0.47237 -5.24919 1.16710 97 96 98
-0.49155 -5.26193 1.14948 102 106 97
-0.48950 -5.26138 1.16957 102 106 97
-0.50870 -5.27412 1.15194 99 104 94
2.57858 -2.76332 0.71693 191 166 129
2.59519 -2.75229 0.73219 209 191 160
2.59409 -2.75504 0.71466 207 179 144
2.59298 -2.75778 0.69712 193 168 127
2.57969 -2.76057 0.73447 199 172 132
2.57301 -2.77809 0.71750 186 160 111
2.57538 -2.89266 0.71469 141 115 82
2.57425 -2.89547 0.69675 126 101 75
2.56066 -2.89832 0.73496 151 122 83
2.55952 -2.90113 0.71702 151 121 84
2.26384 -3.08712 0.75984 159 126 89
2.27864 -3.08143 0.73947 154 121 81
2.26153 -3.10620 0.75980 184 162 140
2.21913 -3.09413 0.76676 218 209 201
2.21857 -3.11465 0.76642 224 211 192
2.20751 -3.12703 0.76790 215 200 176
2.19041 -3.13839 0.75219 227 215 199
2.19869 -3.14124 0.76899 218 205 184
2.18932 -3.15507 0.77018 217 205 186
2.18684 -3.17452 0.77016 207 197 184
2.16521 -3.17860 0.77350 206 194 171
2.13263 -3.17369 0.77876 193 175 148
2.08112 -3.15310 0.78734 135 121 91
2.05121 -3.14996 0.79214 100 84 62
1.09140 -2.98093 0.94756 148 131 146
1.10430 -2.97597 0.92981 153 152 180
1.08052 -2.99144 0.94906 149 128 148
1.08694 -3.01987 0.94744 155 152 169
1.07195 -3.02983 0.93367 166 175 193
1.08378 -3.03862 0.94754 161 171 187
1.06874 -3.04860 0.93372 168 175 191
1.07650 -3.05320 0.94838 164 175 183
1.06808 -3.06668 0.94943 169 175 188
1.05881 -3.07932 0.95063 168 176 186
1.05007 -3.09261 0.95173 154 163 177
1.09198 -3.16049 0.94365 118 127 149
1.08726 -3.17865 0.94401 85 83 130
1.07565 -3.18945 0.94562 61 63 111
1.06954 -3.20632 0.94623 51 55 103
1.02991 -3.28230 0.95088 43 52 95
1.04455 -3.27448 0.94873 47 53 95
1.04351 -3.27707 0.93217 48 48 90
1.03080 -3.30788 0.95020 65 74 104
1.01503 -3.31835 0.93572 91 96 116
1.03152 -3.33352 0.94954 85 102 119
1.01567 -3.34404 0.93499 82 88 107
1.02290 -3.34858 0.95058 81 97 112
1.00780 -3.40708 0.95173 69 78 101
1.00701 -3.43196 0.95133 55 63 88
0.99091 -3.44265 0.93654 55 58 83
0.97960 -3.53105 0.95355 44 52 96
0.99595 -3.52020 0.96857 49 55 88
0.99486 -3.52290 0.95131 47 55 87
0.99377 -3.52560 0.93405 47 56 82
0.96844 -3.54430 0.95504 61 67 112
0.95756 -3.55797 0.95647 111 119 144
0.94078 -3.56429 0.95899 106 125 150
0.95532 -3.61039 0.95571 54 62 104
0.93877 -3.62138 0.94051 38 40 79
0.94538 -3.62569 0.95696 42 38 77
0.92880 -3.63669 0.94173 38 44 74
0.87807 -3.70943 0.96582 42 39 64
0.89479 -3.69833 0.98119 42 42 74
0.89368 -3.70110 0.96353 41 41 65
0.87918 -3.70667 0.98348 41 46 77
0.87698 -3.73734 0.96540 49 47 78
0.87300 -3.76160 0.96552 65 66 94
0.85613 -3.77280 0.95002 113 117 132
0.89989 -3.82831 0.95985 84 104 120
0.87490 -3.85502 0.96323 95 101 114
0.88954 -3.90644 0.95982 40 46 69
0.85760 -3.92430 0.96450 13 24 86
0.86576 -3.96774 0.96228 124 148 178
0.85081 -3.97842 0.96442 161 173 183
0.83333 -3.99003 0.94836 160 165 178
0.82296 -4.00285 0.96831 162 167 177
0.82179 -4.00575 0.94982 159 164 177
0.81621 -4.02574 0.96889 143 144 147
0.85433 -4.11548 0.96095 55 46 68
0.84647 -4.13766 0.96172 49 61 78
0.87391 -4.24823 0.95503 65 61 72
0.90189 -4.32645 0.94894 55 45 56
0.88328 -4.33881 0.93185 36 38 37
0.90511 -4.36753 0.94756 43 39 49
0.90636 -4.48048 0.94496 47 44 56
0.89625 -4.50225 0.94610 56 61 59
0.88275 -4.51879 0.94788 69 77 73
0.86812 -4.53359 0.94988 84 89 91
0.84915 -4.54141 0.95272 96 100 105
0.83454 -4.55635 0.95471 105 109 117
0.82281 -4.57618 0.95614 114 118 125
0.80358 -4.58895 0.93848 127 132 130
0.81059 -4.59535 0.95767 121 128 126
0.79132 -4.60814 0.93997 125 132 131
-0.40021 -5.15326 1.13735 102 104 100
-0.38375 -5.14693 1.11468 110 110 114
-0.40148 -5.15641 1.11729 109 111 108
-0.41922 -5.16588 1.11989 107 105 95
-0.41930 -5.15838 1.14026 98 98 89
-0.43829 -5.17099 1.12282 104 105 95
-0.43435 -5.17657 1.14225 98 97 84
-0.45337 -5.18919 1.12478 102 107 97
-0.44693 -5.20315 1.14368 97 97 94
-0.46601 -5.21582 1.12615 105 106 105
-0.45622 -5.24121 1.14434 103 103 106
-0.47539 -5.25395 1.12672 103 111 103
2.58819 -2.77303 0.69752 168 142 108
2.60262 -2.76748 0.67766 156 132 93
2.57154 -2.78408 0.68223 135 111 87
2.58287 -2.78801 0.69800 150 122 91
2.56618 -2.79909 0.68268 137 114 87
2.59076 -2.81178 0.69616 145 118 86
2.57399 -2.82291 0.68076 146 122 85
2.56803 -2.81545 0.69970 149 124 92
2.57543 -2.83914 0.69794 142 112 83
2.60208 -2.87592 0.69278 110 87 60
2.58510 -2.88719 0.67719 100 72 64
2.59482 -2.89018 0.69359 100 76 55
2.57781 -2.90147 0.67797 107 81 64
2.28076 -3.10388 0.73859 153 120 87
2.29562 -3.09816 0.71814 151 120 85
2.27962 -3.10671 0.72049 152 119 92
2.26854 -3.11536 0.74026 162 136 121
2.22171 -3.09985 0.74813 198 183 176
2.21313 -3.11410 0.74915 225 216 200
2.19607 -3.12543 0.73347 228 217 203
2.20885 -3.13182 0.74940 228 215 197
2.19174 -3.14318 0.73368 227 214 200
2.19150 -3.16057 0.75147 225 213 199
2.19036 -3.16341 0.73334 226 214 201
2.17433 -3.17197 0.73570 225 215 199
2.19292 -3.18320 0.75069 217 205 191
2.17270 -3.18845 0.75380 213 198 176
2.14976 -3.19144 0.75739 207 191 173
2.10002 -3.17235 0.76581 181 165 130
2.05739 -3.15880 0.77296 127 105 64
1.09058 -2.98357 0.93182 154 142 155
1.10348 -2.97861 0.91407 161 172 187
1.09957 -3.01450 0.92963 158 161 166
1.08458 -3.02445 0.91586 168 178 189
1.09593 -3.03269 0.92976 163 175 184
1.08089 -3.04268 0.91595 170 177 194
1.06732 -3.06943 0.93344 170 175 189
1.05757 -3.08158 0.93470 151 152 178
1.10786 -3.15804 0.92479 109 115 143
1.09242 -3.16828 0.91062 59 61 100
1.10079 -3.17364 0.92554 69 74 98
1.08635 -3.18134 0.92766 55 51 93
1.07088 -3.19161 0.91346 72 77 107
1.07651 -3.19408 0.92893 60 60 100
1.06766 -3.20796 0.93000 64 70 100
1.06207 -3.22554 0.93047 61 67 97
1.04755 -3.23330 0.93260 54 58 97
1.03540 -3.29233 0.93310 60 63 95
1.01969 -3.30276 0.91866 90 93 124
1.04629 -3.32944 0.93045 84 93 119
1.03044 -3.33996 0.91589 88 89 116
1.02119 -3.37567 0.93333 83 95 109
1.02731 -3.43413 0.93093 61 69 95
1.01813 -3.44919 0.93203 44 51 83
0.98243 -3.53860 0.93555 47 52 86
0.99662 -3.53315 0.91602 52 58 84
0.98134 -3.54131 0.91827 54 54 87
0.97521 -3.55680 0.93626 62 72 109
0.95813 -3.56278 0.93884 98 114 140
0.94634 -3.57541 0.94042 86 98 124
0.95984 -3.62028 0.93717 40 41 74
0.94326 -3.63129 0.92194 34 43 77
0.90725 -3.66553 0.94447 39 40 67
0.92388 -3.65449 0.95975 39 44 70
0.92277 -3.65724 0.94219 36 43 70
0.90835 -3.66278 0.96202 36 42 65
0.89283 -3.67107 0.96430 39 41 64
0.89609 -3.67958 0.94591 45 42 67
0.89065 -3.70132 0.94625 51 55 78
0.92389 -3.77505 0.93913 68 80 97
0.90691 -3.78632 0.92353 113 121 138
0.92228 -3.80272 0.93871 103 115 127
0.90521 -3.81405 0.92304 104 113 133
0.91333 -3.82072 0.93970 110 112 128
0.89623 -3.83207 0.92399 106 110 131
0.89585 -3.85770 0.94160 100 108 133
0.88522 -3.87379 0.94290 91 95 114
0.90262 -3.92922 0.93877 40 42 71
0.88776 -3.93988 0.94088 34 35 62
0.87150 -3.94856 0.94327 13 17 79
0.88909 -4.00570 0.93906 107 128 165
0.85937 -3.99534 0.94406 155 170 183
0.84183 -4.00698 0.92795 159 165 177
0.81360 -4.02651 0.95062 153 158 157
0.82882 -4.02066 0.92968 158 164 175
0.85811 -4.12584 0.94108 70 65 85
0.85364 -4.15317 0.94112 49 51 71
0.87332 -4.25223 0.93556 57 55 60
0.85499 -4.26440 0.91872 43 44 43
0.88840 -4.31074 0.93172 49 45 45
0.86987 -4.32305 0.91469 42 45 36
0.90465 -4.40844 0.92673 34 35 42
0.90322 -4.44324 0.92611 44 47 50
0.89633 -4.46978 0.92656 56 57 64
0.88520 -4.48983 0.92785 69 71 72
0.87124 -4.50549 0.92970 84 88 84
0.85526 -4.51799 0.93195 97 101 100
0.83824 -4.52883 0.93441 105 112 111
0.82095 -4.53924 0.93692 118 126 127
0.80184 -4.55193 0.91936 135 137 127
0.80394 -4.55014 0.93937 129 135 135
0.78482 -4.56283 0.92181 129 131 125
2.57148 -2.84004 0.68069 146 118 84
2.58606 -2.83444 0.66064 140 119 83
2.57036 -2.84282 0.66294 146 122 87
2.42112 -2.96787 0.70146 129 103 71
2.43807 -2.95661 0.71703 134 105 73
2.43581 -2.96222 0.68123 143 114 78
2.42225 -2.96506 0.71936 126 99 69
2.40642 -2.97352 0.72168 120 96 71
2.40529 -2.97632 0.70378 117 97 74
2.27953 -3.12763 0.71992 153 121 103
2.29444 -3.12189 0.69940 151 120 93
2.27375 -3.14424 0.72040 173 153 141
2.22378 -3.12620 0.72897 213 206 191
2.17988 -3.19806 0.73408 224 211 191
2.16262 -3.20952 0.71822 226 215 201
2.15427 -3.19890 0.73820 223 206 190
2.13193 -3.20234 0.74171 215 199 165
2.05170 -3.15783 0.75590 161 150 111
1.10703 -3.00386 0.91280 164 176 183
1.12000 -2.99887 0.89495 164 174 188
1.10603 -3.00633 0.89700 167 177 191
1.09207 -3.01379 0.89906 170 177 191
1.10362 -3.02218 0.91285 166 178 184
1.08860 -3.03214 0.89906 170 178 191
1.08333 -3.06747 0.91487 172 179 192
1.09643 -3.06243 0.89684 171 178 197
1.07208 -3.07802 0.91640 153 157 185
1.11937 -3.15092 0.90674 98 91 143
1.11265 -3.16682 0.90739 59 62 111
1.08448 -3.18299 0.91150 72 71 105
1.08345 -3.18555 0.89517 73 76 112
1.06676 -3.21068 0.91359 69 74 108
1.06427 -3.23171 0.91342 60 65 99
1.04870 -3.24205 0.89911 49 50 92
1.06112 -3.25217 0.91336 52 56 92
1.04757 -3.25738 0.93201 49 52 93
1.04653 -3.25997 0.91550 45 49 85
1.04623 -3.28392 0.91489 53 54 88
1.05699 -3.32070 0.91214 78 83 109
1.04115 -3.33121 0.89759 90 92 116
1.02648 -3.36045 0.91597 91 97 113
1.01645 -3.37401 0.91721 96 108 117
1.01250 -3.39482 0.91728 97 104 114
1.03625 -3.44869 0.91195 71 68 93
1.01492 -3.47550 0.91466 46 49 79
1.00085 -3.48091 0.93401 59 59 87
0.99977 -3.48359 0.91688 50 53 87
0.99869 -3.48628 0.89975 44 52 88
0.97794 -3.56428 0.91818 58 64 96
0.99218 -3.55881 0.89858 54 58 91
0.96846 -3.57984 0.91928 65 82 108
0.96353 -3.60124 0.91949 56 66 100
0.95995 -3.62457 0.91942 37 43 76
0.94336 -3.63558 0.90419 29 37 74
0.91874 -3.65619 0.92521 35 44 52
0.93425 -3.64791 0.92293 34 41 66
0.90836 -3.67120 0.92647 56 71 61
0.94016 -3.74202 0.91938 73 89 106
0.92325 -3.75324 0.90385 105 109 129
0.93948 -3.77055 0.91870 106 111 121
0.92249 -3.78183 0.90309 108 117 134
0.93147 -3.78953 0.91947 117 124 129
0.91443 -3.80084 0.90382 107 117 135
0.90264 -3.87150 0.92187 100 109 126
0.91758 -3.86576 0.90131 110 115 132
0.89634 -3.89369 0.92227 93 101 113
0.90832 -3.94172 0.91901 38 44 80
0.89343 -3.95240 0.92112 34 39 70
0.87713 -3.96110 0.92351 17 20 72
0.89177 -4.01415 0.91968 87 96 130
0.86614 -4.00970 0.92395 147 163 180
0.84855 -4.02137 0.90779 158 163 173
0.81942 -4.03974 0.93067 160 162 162
0.83467 -4.03388 0.90967 157 162 174
0.85908 -4.13204 0.92171 94 93 106
0.85787 -4.16428 0.92102 53 46 54
0.83983 -4.17626 0.90445 30 35 42
0.86395 -4.20793 0.91883 43 44 55
0.84577 -4.21999 0.90213 37 42 50
0.86859 -4.24991 0.91692 43 45 52
0.85028 -4.26207 0.90010 43 45 50
0.89083 -4.39197 0.90940 44 45 45
0.90710 -4.38572 0.88701 49 48 51
0.89023 -4.42794 0.90850 49 53 58
0.88509 -4.45711 0.90853 60 62 75
0.87532 -4.47923 0.90950 76 77 87
0.86088 -4.49402 0.91142 94 97 99
0.84229 -4.50217 0.91420 109 113 108
0.82400 -4.51078 0.91692 117 121 114
0.80498 -4.52341 0.89945 126 128 123
0.81143 -4.52880 0.91845 127 130 122
0.79237 -4.54145 0.90095 131 131 127
0.27606 -4.85780 0.99587 142 142 137
0.29525 -4.84507 1.01350 142 145 140
0.29397 -4.84824 0.99325 143 146 135
0.27734 -4.85463 1.01613 142 143 140
0.25816 -4.86737 0.99850 131 131 135
0.25688 -4.87054 0.97825 128 127 137
2.42802 -2.97644 0.68207 135 108 78
2.44274 -2.97078 0.66181 146 115 78
2.42689 -2.97925 0.66414 140 109 84
2.42019 -2.99071 0.68291 124 101 79
2.40544 -2.99638 0.70320 111 92 73
2.40430 -2.99919 0.68524 116 97 78
2.40317 -3.00201 0.66728 128 102 78
2.29021 -3.13967 0.69954 150 120 95
2.30516 -3.13392 0.67896 150 120 89
2.28906 -3.14253 0.68133 152 122 87
2.27973 -3.15268 0.70085 158 134 114
2.28743 -3.18006 0.69875 194 179 162
2.22119 -3.14907 0.71052 223 213 196
2.21282 -3.16373 0.71144 222 209 190
2.20789 -3.18125 0.71170 219 208 187
2.20641 -3.20165 0.71132 218 209 191
2.17893 -3.20107 0.71582 222 211 198
2.12528 -3.20065 0.72460 229 219 188
2.09751 -3.19949 0.72917 205 191 158
2.04761 -3.17977 0.73792 135 116 99
2.03207 -3.18851 0.74019 83 71 84
1.99855 -3.18207 0.74586 117 101 110
1.08981 -3.07784 0.89745 176 181 194
1.10294 -3.07279 0.87938 170 179 192
1.13773 -3.15106 0.88737 117 117 159
1.12820 -3.16397 0.88853 53 58 97
1.11273 -3.17424 0.87432 55 54 91
1.11320 -3.17108 0.89076 48 52 92
1.09950 -3.17958 0.89274 63 67 104
1.07499 -3.19980 0.89612 68 64 106
1.05950 -3.21008 0.88188 53 50 95
1.07055 -3.21856 0.89626 58 50 103
1.05501 -3.22888 0.88199 50 50 94
1.07114 -3.24305 0.89541 51 48 98
1.05553 -3.25342 0.88107 49 47 91
1.06081 -3.27979 0.89597 46 49 90
1.06436 -3.30824 0.89451 73 76 102
1.04856 -3.31873 0.88000 92 94 108
1.06623 -3.33506 0.89338 91 95 111
1.05035 -3.34561 0.87879 90 93 105
1.04160 -3.35670 0.89674 91 92 118
1.03322 -3.37215 0.89763 97 102 124
1.01728 -3.38274 0.88299 105 115 138
1.02427 -3.38706 0.89863 102 111 126
1.01795 -3.40515 0.89911 105 109 122
1.03641 -3.45283 0.89462 81 75 101
1.02928 -3.47046 0.89524 49 46 82
0.97975 -3.57063 0.90025 54 56 94
0.96330 -3.58155 0.88514 92 107 119
0.97535 -3.59260 0.90029 47 56 95
0.96653 -3.60918 0.90122 46 53 89
0.95774 -3.62591 0.90214 35 42 76
0.94116 -3.63692 0.88691 27 41 69
0.93397 -3.65172 0.90523 41 47 75
0.95954 -3.71355 0.89915 74 93 101
0.95473 -3.73629 0.89923 108 123 119
0.94213 -3.74892 0.90090 105 115 124
0.90826 -3.88370 0.90228 101 107 124
0.90202 -3.90607 0.90261 86 96 110
0.91656 -3.95780 0.89864 38 41 80
0.89905 -3.96942 0.88256 37 41 73
0.90182 -3.96878 0.90071 33 42 73
0.88430 -3.98041 0.88462 37 36 65
0.88514 -3.97705 0.90318 24 26 65
0.87532 -3.99515 0.90423 61 61 107
0.87081 -4.02105 0.90417 137 158 173
0.82595 -4.05406 0.91047 160 164 166
0.84125 -4.04818 0.88942 156 160 174
0.83844 -4.10602 0.90684 115 114 111
0.87541 -4.19542 0.89805 52 42 41
0.85726 -4.20747 0.88137 36 39 40
0.87910 -4.37871 0.89180 50 50 52
0.89531 -4.37247 0.86949 49 46 51
0.87905 -4.41543 0.89068 56 58 65
0.87506 -4.44635 0.89038 67 68 87
0.86795 -4.47261 0.89073 87 86 102
0.85036 -4.48226 0.89330 106 107 110
0.83014 -4.48763 0.89644 117 122 118
0.81118 -4.50021 0.87903 128 133 129
0.81374 -4.49920 0.89876 122 127 121
0.79478 -4.51179 0.88134 128 131 130
-0.53717 -5.19751 1.09784 109 106 98
-0.51954 -5.18809 1.09525 116 120 112
-0.52080 -5.19122 1.07530 110 116 114
-0.53591 -5.19439 1.11778 102 109 92
-0.55355 -5.20381 1.12037 94 95 92
-0.55424 -5.20893 1.10027 107 103 93
-0.57062 -5.21523 1.12282 96 101 90
-0.57188 -5.21835 1.10286 101 98 96
2.42804 -3.00002 0.66324 135 108 83
2.44281 -2.99434 0.64290 144 118 92
2.41099 -3.01134 0.64758 134 107 75
2.26912 -3.14812 0.68443 153 124 92
2.28406 -3.14238 0.66387 151 120 81
2.27201 -3.17168 0.68315 172 148 122
2.24118 -3.16868 0.68834 205 194 169
2.22418 -3.17657 0.69087 210 201 180
2.22462 -3.19846 0.69006 209 196 171
2.21345 -3.21113 0.69147 207 196 178
2.17870 -3.20467 0.69742 211 199 192
2.14340 -3.19757 0.70349 218 206 198
2.12268 -3.20229 0.70675 229 216 195
2.09035 -3.19733 0.71225 226 212 184
2.04590 -3.18209 0.72010 167 155 133
2.01643 -3.17914 0.72506 102 88 92
2.01078 -3.19615 0.72542 83 72 96
1.09803 -3.09006 0.87960 176 181 189
1.11120 -3.08499 0.86148 171 179 192
1.13353 -3.15026 0.87170 99 104 145
1.13141 -3.17105 0.87135 57 56 96
1.11592 -3.18133 0.85712 48 49 89
1.10213 -3.18610 0.87567 59 60 94
1.10110 -3.18867 0.85931 51 54 86
1.08664 -3.19639 0.86144 50 53 89
1.08703 -3.19313 0.87792 59 59 99
1.07155 -3.20341 0.86369 50 54 90
1.07719 -3.20590 0.87911 56 53 97
1.06168 -3.21619 0.86486 49 51 91
1.07542 -3.30001 0.87620 57 57 96
1.08158 -3.33157 0.87411 83 90 113
1.04786 -3.36780 0.87845 93 102 114
1.03861 -3.38231 0.87948 100 111 132
1.02462 -3.41693 0.88061 112 115 132
1.02354 -3.41959 0.86366 114 117 140
1.02493 -3.44314 0.87967 98 101 125
1.04822 -3.49713 0.87399 67 67 95
1.02700 -3.49805 0.87747 50 47 69
1.01417 -3.50908 0.87921 44 51 75
1.00003 -3.51452 0.89866 48 55 90
0.99894 -3.51721 0.88144 45 53 85
0.99568 -3.54009 0.88120 49 50 89
0.99677 -3.53738 0.89849 50 57 88
0.97930 -3.55097 0.86616 85 100 123
0.98655 -3.55590 0.88217 62 63 105
0.97972 -3.57468 0.88266 82 95 120
0.96181 -3.60733 0.88451 80 88 98
0.94529 -3.61830 0.86933 37 40 81
0.95966 -3.63251 0.88401 46 60 77
0.94306 -3.64353 0.86876 34 40 73
0.93830 -3.66153 0.88654 43 54 72
0.93719 -3.66428 0.86897 37 40 68
0.95933 -3.71753 0.88117 89 105 114
0.95043 -3.73491 0.88205 100 111 134
0.94112 -3.75187 0.88301 95 101 123
0.94031 -3.78029 0.88218 96 107 123
0.93828 -3.80737 0.88159 100 115 131
0.93344 -3.83092 0.88159 98 113 131
0.91858 -3.83663 0.90204 103 113 133
0.92669 -3.85208 0.88199 101 113 130
0.92028 -3.87390 0.88230 102 114 132
0.91564 -3.89837 0.88224 95 106 124
0.92086 -3.93680 0.88007 68 81 108
0.92048 -3.96784 0.87908 43 37 77
0.90295 -3.97948 0.86297 37 44 70
0.87372 -3.99743 0.88579 27 33 85
0.88893 -3.99159 0.86486 40 41 65
0.87571 -4.03276 0.88426 122 145 167
0.86166 -4.04511 0.88616 156 163 171
0.84398 -4.05684 0.86992 155 162 176
0.83106 -4.06627 0.89049 161 164 167
0.83573 -4.10670 0.88835 135 133 126
0.88178 -4.20981 0.87725 60 46 44
