ply
format ascii 1.0
element face 0
property list uchar int vertex_indices
element vertex 1325
property float x
property float y
property float z
property uchar diffuse_red
property uchar diffuse_green
property uchar diffuse_blue
end_header
-0.35694 -4.83842 0.87360 110 113 109
-0.34313 -4.83303 0.85478 101 105 95
-0.35841 -4.84000 0.85677 97 110 111
-0.37368 -4.84696 0.85876 90 100 106
-0.37135 -4.85602 0.87360 96 92 103
-0.38813 -4.86458 0.85872 95 101 104
2.56670 -2.91619 0.57872 124 100 71
2.57892 -2.91142 0.56207 126 104 74
2.56540 -2.91758 0.56383 126 106 70
2.56407 -2.93219 0.57650 107 82 57
2.56957 -2.95569 0.57128 72 51 37
2.55761 -2.96344 0.57244 67 47 28
2.55436 -2.97923 0.57038 96 75 59
2.55303 -2.99690 0.56760 122 100 82
2.54061 -3.00175 0.58451 129 103 78
2.53929 -3.00317 0.56938 128 102 79
2.53797 -3.00458 0.55425 126 101 84
2.47024 -3.11332 0.56474 110 96 60
2.48286 -3.10838 0.54753 123 98 57
2.46889 -3.11476 0.54935 118 99 64
2.45814 -3.12155 0.56584 102 85 61
2.44282 -3.12937 0.55226 88 79 62
2.44232 -3.14649 0.56483 112 95 75
2.35435 -3.24486 0.56617 105 105 115
2.35842 -3.27091 0.56081 135 139 131
2.42873 -3.36860 0.52921 165 167 168
2.41264 -3.37680 0.51495 183 186 200
2.41870 -3.38033 0.52927 178 177 179
2.40259 -3.38855 0.51499 182 186 198
2.40986 -3.39343 0.52885 179 183 190
2.41508 -3.42207 0.52280 178 180 178
2.36956 -3.39486 0.53702 130 133 120
2.42154 -3.47578 0.51215 63 57 68
2.39705 -3.47197 0.51793 36 31 45
1.77294 -3.01308 0.72779 68 68 79
1.78444 -3.00858 0.71213 93 95 90
1.75946 -3.01795 0.72977 74 65 86
1.73531 -3.00967 0.73625 121 114 109
1.72391 -3.01700 0.73736 147 135 122
1.71246 -3.02148 0.75296 149 130 123
1.71124 -3.02278 0.73900 148 132 127
1.71002 -3.02408 0.72505 151 133 127
1.61624 -3.41895 0.69025 157 140 139
1.62864 -3.41410 0.67336 158 140 140
1.61492 -3.42036 0.67514 157 140 135
1.59617 -3.41584 0.69498 162 153 158
1.57258 -3.40734 0.70139 186 190 202
1.55764 -3.41496 0.68815 189 191 201
1.12213 -3.14101 0.84162 152 157 170
1.13317 -3.13669 0.82658 148 158 182
1.12379 -3.17036 0.83619 77 77 112
1.11597 -3.18373 0.83551 45 46 76
1.10244 -3.19063 0.82353 45 46 83
1.10848 -3.33840 0.81030 48 54 94
1.12250 -3.33125 0.82272 44 49 88
1.12126 -3.33257 0.80863 43 49 86
1.09446 -3.34555 0.79787 60 64 93
1.08001 -3.40441 0.80481 59 66 92
1.06582 -3.41164 0.79223 77 86 107
1.07563 -3.42656 0.80189 72 79 103
1.06139 -3.46115 0.79888 61 76 99
1.05222 -3.47476 0.79844 66 79 102
1.04693 -3.49613 0.79584 62 68 98
1.03751 -3.50960 0.79548 50 49 90
1.02304 -3.51698 0.78265 41 44 77
1.00535 -3.64430 0.77887 55 56 86
1.01892 -3.63811 0.77711 47 53 86
1.00902 -3.68690 0.77073 72 72 95
1.00369 -3.71101 0.76767 72 77 99
0.99663 -3.73172 0.76556 59 57 87
0.98930 -3.75210 0.76356 52 54 77
0.97677 -3.75700 0.78063 45 49 66
0.97544 -3.75842 0.76536 48 53 73
0.97410 -3.75985 0.75009 48 56 76
0.97779 -3.83839 0.75102 53 54 81
0.97643 -3.83984 0.73548 60 57 85
0.96632 -3.88945 0.74458 52 59 83
0.95071 -3.89741 0.73074 40 46 80
0.95770 -3.90891 0.74301 45 51 81
0.94204 -3.91689 0.72913 40 47 82
0.92023 -3.98220 0.73814 50 45 76
0.93608 -3.97412 0.75219 44 47 73
0.93469 -3.97560 0.73627 45 47 78
0.91149 -4.00264 0.73643 49 52 94
0.90408 -4.02661 0.73383 88 102 125
0.90277 -4.06606 0.72727 125 141 155
0.88667 -4.07427 0.71301 130 145 164
0.88410 -4.15094 0.71647 128 140 154
0.89758 -4.14568 0.69811 133 145 161
0.87989 -4.18534 0.71140 120 132 142
0.87481 -4.26478 0.69870 131 138 146
0.86871 -4.29610 0.69455 135 142 147
0.86013 -4.32126 0.69199 132 135 129
0.84475 -4.32828 0.69399 127 128 130
0.84327 -4.32986 0.67704 127 131 126
0.78422 -4.35925 0.70127 144 147 151
0.80110 -4.35064 0.71623 140 140 140
0.79962 -4.35223 0.69927 139 141 147
0.78274 -4.36083 0.68431 143 153 153
0.73442 -4.36967 0.70987 152 157 157
0.74830 -4.36424 0.69096 136 138 153
0.73294 -4.37125 0.69295 142 144 156
0.71758 -4.37825 0.69495 140 140 146
0.61701 -4.44351 0.72162 125 132 144
0.63392 -4.43489 0.73660 135 145 150
0.63095 -4.43806 0.70263 134 139 140
0.61553 -4.44510 0.70463 127 134 144
0.60174 -4.45101 0.72351 138 157 154
0.58965 -4.46918 0.72289 131 143 147
0.57270 -4.47782 0.70787 128 127 130
0.51827 -4.46383 0.73873 123 127 130
0.50145 -4.47240 0.72382 107 113 119
0.50045 -4.46202 0.74277 118 116 128
0.48477 -4.46767 0.74507 120 122 135
0.46946 -4.47466 0.74706 130 137 142
0.37282 -4.49755 0.76328 111 116 113
0.38954 -4.48903 0.77810 121 123 125
0.37135 -4.49912 0.74649 105 109 117
0.35705 -4.50239 0.76574 108 112 113
0.34116 -4.50668 0.76832 114 124 127
0.32740 -4.51206 0.78708 116 125 116
0.32593 -4.51363 0.77030 116 128 130
0.26409 -4.53738 0.77910 120 131 127
0.28078 -4.52888 0.79389 121 127 121
0.27931 -4.53044 0.77713 125 133 125
0.26556 -4.53582 0.79587 122 129 129
0.25034 -4.54276 0.79785 129 133 132
0.24741 -4.54589 0.76432 116 119 120
0.23730 -4.56806 0.77939 118 121 124
0.22056 -4.57659 0.76455 118 120 116
0.21964 -4.56386 0.78381 115 116 114
0.20293 -4.57237 0.76900 120 124 112
0.13268 -4.54369 0.80547 108 112 113
0.14774 -4.53682 0.80351 122 122 120
0.14629 -4.53837 0.78692 120 124 124
0.11617 -4.55210 0.79084 104 105 118
0.12015 -4.56370 0.80462 106 107 112
0.10565 -4.57376 0.80591 113 118 122
0.09054 -4.58066 0.80787 117 119 122
0.08908 -4.58221 0.79123 120 122 132
-0.12914 -4.73643 0.82680 120 121 133
-0.43639 -4.85147 0.87108 99 103 108
-0.41972 -4.84297 0.88585 105 107 98
-0.42118 -4.84454 0.86910 106 109 110
-0.45159 -4.85840 0.87305 94 98 97
-0.45305 -4.85997 0.85631 102 96 83
-1.01162 -5.06046 0.95508 58 74 88
-0.99512 -5.05205 0.96970 75 75 82
-0.99657 -5.05360 0.95312 76 79 81
-1.01307 -5.06200 0.93851 76 72 68
-1.02521 -5.06577 0.97361 80 88 102
-1.02811 -5.06887 0.94046 77 82 81
2.56603 -2.93653 0.56035 121 98 62
2.57830 -2.93174 0.54364 128 105 81
2.56980 -2.95849 0.55569 99 74 42
2.56416 -2.97204 0.55448 64 46 31
2.54917 -2.97968 0.54120 64 50 34
2.55494 -2.98238 0.55460 66 57 55
2.55558 -3.00191 0.55102 104 87 75
2.45335 -3.16038 0.54457 97 86 78
2.46608 -3.15540 0.52722 98 86 63
2.45199 -3.16182 0.52905 100 80 71
2.45169 -3.17937 0.54157 118 98 75
2.43891 -3.18436 0.55898 129 102 75
2.43755 -3.18582 0.54340 124 99 76
2.43619 -3.18727 0.52783 115 97 76
2.41618 -3.24836 0.53687 100 90 89
2.43185 -3.24037 0.55076 123 106 84
2.43047 -3.24184 0.53501 112 99 87
2.41755 -3.24689 0.55262 115 102 80
2.39787 -3.25067 0.54031 102 97 108
2.41053 -3.28569 0.53147 133 127 130
2.43390 -3.33247 0.51830 159 164 155
2.42702 -3.34737 0.51711 178 183 173
2.41101 -3.35553 0.50292 186 188 195
2.42712 -3.36989 0.51312 182 187 194
2.41152 -3.42125 0.50734 182 185 196
2.41009 -3.42277 0.49103 182 183 198
2.40808 -3.44059 0.50465 166 165 167
2.42579 -3.48368 0.49332 95 96 97
2.40250 -3.48124 0.49865 46 44 39
2.39469 -3.49616 0.49766 34 31 36
2.37968 -3.50301 0.49961 33 31 32
2.37824 -3.50455 0.48308 36 31 36
1.78384 -3.02914 0.70862 81 77 84
1.79539 -3.02463 0.69288 95 98 93
1.78261 -3.03046 0.69454 89 88 83
1.77052 -3.03432 0.71051 57 57 79
1.75893 -3.04160 0.71167 96 96 110
1.72714 -3.02383 0.72149 142 130 130
1.71323 -3.03092 0.70917 152 135 127
1.60573 -3.43332 0.67478 158 146 151
1.61816 -3.42846 0.65786 157 141 134
1.58897 -3.43510 0.67800 182 184 197
1.57392 -3.44278 0.66466 188 191 208
1.12934 -3.15654 0.82388 154 162 177
1.14043 -3.15221 0.80877 148 158 181
1.13937 -3.20040 0.81403 94 98 126
1.13186 -3.21455 0.81311 54 47 81
1.11822 -3.22151 0.80102 44 45 82
1.12346 -3.34006 0.79274 47 51 87
1.13750 -3.33290 0.80518 42 51 86
1.13627 -3.33421 0.79107 43 50 86
1.13504 -3.33553 0.77696 44 47 87
1.10941 -3.34722 0.78029 63 69 95
1.11238 -3.34906 0.79348 53 62 95
1.09047 -3.39752 0.78954 58 61 90
1.10341 -3.39162 0.78786 57 58 87
1.10217 -3.39295 0.77361 54 51 82
1.08467 -3.41685 0.78735 68 75 98
1.07301 -3.45613 0.78287 70 80 107
1.06621 -3.47425 0.78110 56 70 97
1.05811 -3.49007 0.78002 57 68 92
1.04966 -3.50535 0.77910 53 59 90
1.03960 -3.51762 0.77905 47 44 87
1.01165 -3.62712 0.76561 50 54 81
1.02647 -3.61957 0.77874 43 50 87
1.02516 -3.62096 0.76385 46 52 81
1.02386 -3.62235 0.74897 46 50 72
1.01577 -3.67026 0.75713 63 66 92
1.02474 -3.72437 0.74570 86 94 117
1.01021 -3.72917 0.74791 83 89 106
1.00204 -3.74766 0.74636 68 67 94
0.99226 -3.76287 0.74574 55 60 83
0.97703 -3.77064 0.73224 49 53 80
0.96896 -3.86127 0.73328 54 62 91
0.98175 -3.85627 0.71584 59 54 80
0.96129 -3.88257 0.73113 47 52 81
0.94572 -3.89051 0.71732 37 43 77
0.93052 -3.97048 0.72210 49 47 85
0.94495 -3.96390 0.72022 43 47 80
0.92569 -4.00012 0.71788 63 62 99
0.91181 -4.00829 0.71936 69 79 114
0.89986 -4.02120 0.71960 99 115 129
0.90924 -4.08709 0.70600 122 139 154
0.88897 -4.16859 0.69588 137 142 157
0.88228 -4.19680 0.69231 130 137 141
0.87986 -4.23664 0.68579 126 134 132
0.86325 -4.24511 0.67106 137 143 147
0.87427 -4.26879 0.68129 134 143 151
0.85755 -4.27731 0.66648 145 154 153
0.86934 -4.30327 0.67625 140 151 151
0.85651 -4.31707 0.67651 135 141 127
0.82703 -4.33454 0.67963 126 135 141
0.81313 -4.33997 0.69857 132 144 151
0.81165 -4.34155 0.68163 129 139 147
0.79198 -4.33643 0.68667 136 147 148
0.79050 -4.33801 0.66978 141 150 150
0.75918 -4.34429 0.69219 142 149 154
0.74239 -4.35285 0.67731 133 136 146
0.66750 -4.38685 0.70397 123 132 128
0.68429 -4.37828 0.71886 145 146 146
0.68281 -4.37986 0.70198 145 153 140
0.68134 -4.38143 0.68511 145 156 137
0.66602 -4.38842 0.68710 123 130 128
0.65365 -4.39226 0.72284 134 141 139
0.59624 -4.43935 0.70971 124 139 152
0.61014 -4.43392 0.69077 139 143 137
0.57938 -4.44795 0.69477 115 124 146
0.58242 -4.45156 0.71046 117 128 145
0.56554 -4.46017 0.69550 132 130 138
0.51209 -4.44884 0.72574 122 125 126
0.48016 -4.45788 0.73087 118 126 125
0.47869 -4.45945 0.71404 121 133 125
0.46453 -4.46355 0.73315 123 129 138
0.45073 -4.46894 0.75196 132 135 134
0.44994 -4.47304 0.73455 124 130 139
0.43319 -4.48158 0.71971 113 124 122
0.43437 -4.47893 0.73679 124 129 131
0.42057 -4.48433 0.75560 116 109 129
0.41910 -4.48590 0.73877 112 113 131
0.41763 -4.48747 0.72195 106 117 116
0.38790 -4.49726 0.74333 107 115 125
0.40463 -4.48873 0.75816 119 122 135
0.40316 -4.49030 0.74135 116 122 134
0.40169 -4.49187 0.72453 112 120 123
0.37116 -4.50579 0.72850 104 109 113
0.35565 -4.50422 0.74889 108 114 113
0.33894 -4.51274 0.73408 116 118 118
0.33986 -4.50893 0.75138 112 122 127
0.32316 -4.51745 0.73658 111 111 118
0.25903 -4.52291 0.76593 111 115 113
0.27273 -4.51755 0.74725 119 117 117
0.25757 -4.52447 0.74922 115 112 116
0.12792 -4.52833 0.79256 110 117 118
0.09950 -4.55041 0.79465 114 114 128
0.09805 -4.55196 0.77809 120 125 127
0.08302 -4.55881 0.78004 121 121 129
-0.11717 -4.71765 0.81073 107 110 107
-0.10193 -4.71070 0.80875 103 109 112
-0.10340 -4.71227 0.79197 117 118 113
-0.11863 -4.71922 0.79395 117 122 108
-0.13216 -4.72640 0.81234 116 123 130
-0.14801 -4.72867 0.81528 123 140 132
-0.16471 -4.73718 0.80049 105 106 126
-0.16335 -4.73472 0.81744 108 111 121
-0.24540 -4.71566 0.83807 107 109 98
-0.23035 -4.70879 0.83611 111 126 122
-0.23180 -4.71034 0.81953 110 119 122
-0.25973 -4.72935 0.83867 107 107 116
-0.27336 -4.73467 0.85724 113 109 114
-0.27481 -4.73622 0.84063 118 125 124
-0.27626 -4.73777 0.82402 119 117 118
-0.34801 -4.79563 0.84555 106 105 107
-0.33285 -4.78872 0.84358 121 121 119
-0.33431 -4.79028 0.82689 115 114 121
-0.36462 -4.80410 0.83083 103 102 84
-0.43903 -4.83577 0.85762 98 100 99
-0.42533 -4.83042 0.83897 88 94 102
-0.44048 -4.83733 0.84093 94 98 100
-0.80290 -5.04831 0.89670 89 90 94
-0.78614 -5.03977 0.91155 95 94 98
-0.78908 -5.04291 0.87787 87 89 78
-0.80143 -5.04674 0.91354 94 96 92
-0.80437 -5.04988 0.87985 86 88 75
-0.81819 -5.05528 0.89868 90 90 91
2.57174 -2.94428 0.54278 126 101 67
2.58403 -2.93947 0.52603 128 104 81
2.56859 -2.95999 0.54062 111 91 47
2.56995 -2.97996 0.53674 80 65 26
2.55736 -3.00619 0.53470 75 67 65
2.55716 -3.02513 0.53133 118 101 78
2.54467 -3.03002 0.54835 130 100 76
2.54334 -3.03144 0.53313 132 106 68
2.46131 -3.19194 0.52166 104 86 77
2.44576 -3.19987 0.50788 109 92 90
2.43786 -3.25241 0.51576 108 95 100
2.45358 -3.24440 0.52969 121 104 82
2.45220 -3.24587 0.51390 107 93 90
2.42757 -3.26318 0.51601 119 116 130
2.47579 -3.33555 0.49278 149 150 155
2.42717 -3.32829 0.50439 185 192 190
2.42629 -3.34959 0.50075 186 192 197
2.41745 -3.38507 0.49624 184 187 196
2.41041 -3.40016 0.49502 184 185 195
2.40440 -3.43963 0.48920 185 190 187
2.39563 -3.45318 0.48862 142 138 138
2.42178 -3.50605 0.47358 77 75 78
2.40740 -3.51370 0.47525 44 35 45
2.32924 -3.52048 0.49060 48 46 44
2.31569 -3.52577 0.50906 57 59 63
2.31280 -3.52885 0.47604 59 57 62
1.76352 -3.02855 0.69893 63 59 60
1.77504 -3.02404 0.68323 95 99 98
1.77560 -3.06502 0.68982 82 80 77
1.73744 -3.03946 0.70250 130 124 118
1.61390 -3.44877 0.65511 154 142 148
1.62637 -3.44389 0.63811 156 141 129
1.60389 -3.46072 0.65508 176 172 193
1.14123 -3.18007 0.80359 154 163 178
1.15240 -3.17570 0.78838 149 159 179
1.14110 -3.20671 0.79883 115 119 135
1.14068 -3.23319 0.79416 62 50 82
1.12696 -3.24018 0.78200 41 47 78
1.12563 -3.34753 0.77680 54 56 90
1.13723 -3.34300 0.76099 41 46 86
1.11156 -3.35470 0.76433 72 74 93
1.09369 -3.40718 0.77284 63 64 95
1.10541 -3.40260 0.75687 54 49 76
1.08947 -3.42959 0.76971 75 83 107
1.08279 -3.44760 0.76789 77 85 106
1.07829 -3.47003 0.76481 69 75 100
1.06389 -3.47737 0.75205 51 58 80
1.07067 -3.48669 0.76343 56 63 89
1.06335 -3.50411 0.76185 50 56 76
1.05320 -3.51619 0.76183 48 58 78
1.04269 -3.52764 0.76200 53 58 90
1.03091 -3.53667 0.76287 45 52 79
1.01892 -3.54136 0.77922 42 46 73
1.01764 -3.54272 0.76460 44 49 69
1.01636 -3.54408 0.74998 44 50 70
1.01359 -3.63525 0.74882 51 52 72
1.02582 -3.63046 0.73215 41 47 67
1.02299 -3.68958 0.73706 68 72 93
1.02771 -3.73490 0.72792 83 104 123
1.01100 -3.73513 0.73142 85 93 106
1.00300 -3.75404 0.72971 74 76 97
0.99528 -3.77381 0.72780 58 54 84
0.96812 -3.86392 0.71736 49 50 76
0.96676 -3.86537 0.70176 41 47 68
0.95260 -3.87183 0.70360 40 41 75
0.96101 -3.88652 0.71480 45 46 76
0.94485 -3.92814 0.71074 39 45 80
0.93959 -3.95603 0.70684 43 44 80
0.93580 -3.98784 0.70193 67 71 103
0.92702 -4.00818 0.70014 80 88 117
0.91159 -4.01263 0.70261 71 79 111
0.89939 -4.02499 0.70297 87 98 117
0.91473 -4.10576 0.68520 115 132 147
0.90540 -4.12624 0.68350 130 145 159
0.89570 -4.14610 0.68198 141 150 165
0.87936 -4.15444 0.66750 156 161 165
0.89120 -4.17951 0.67693 152 155 166
0.88577 -4.21112 0.67240 151 155 147
0.88008 -4.24259 0.66795 140 145 136
0.86345 -4.25107 0.65320 138 143 154
0.85382 -4.31537 0.66043 145 152 141
0.86770 -4.30995 0.64152 140 152 157
0.85234 -4.31695 0.64352 143 152 149
0.83699 -4.32395 0.64551 140 144 147
0.83732 -4.31923 0.66323 138 142 136
0.82050 -4.32781 0.64833 140 149 153
0.82003 -4.32087 0.66660 137 142 145
0.80323 -4.32944 0.65171 141 149 150
0.80061 -4.31641 0.67152 137 144 148
0.76772 -4.32372 0.67718 139 149 148
0.75196 -4.32924 0.67953 129 137 147
0.59046 -4.42674 0.69623 123 130 138
0.57366 -4.43531 0.68134 111 117 140
0.52445 -4.43836 0.70813 122 129 123
0.53826 -4.43296 0.68932 121 126 123
0.52298 -4.43993 0.69131 117 124 116
0.50771 -4.44689 0.69329 118 127 125
0.49162 -4.44411 0.71406 106 116 120
0.47491 -4.45264 0.69924 125 137 131
0.46100 -4.45756 0.71813 114 114 117
0.44429 -4.46608 0.70332 108 100 117
0.44698 -4.46906 0.71903 105 111 125
0.38548 -4.49510 0.72739 107 107 111
0.39927 -4.48971 0.70860 118 122 123
0.35422 -4.50595 0.73206 114 122 114
0.35275 -4.50751 0.71527 111 124 118
0.33751 -4.51447 0.71725 115 120 119
0.15459 -4.50681 0.77422 127 128 128
0.17101 -4.49844 0.78877 117 123 119
0.16957 -4.49998 0.77227 124 124 119
0.15603 -4.50527 0.79071 119 121 126
0.13878 -4.50942 0.77710 130 128 124
0.12371 -4.51569 0.77917 120 121 120
0.10731 -4.52405 0.76464 110 120 127
0.10929 -4.52531 0.78050 113 117 123
0.09288 -4.53368 0.76595 106 117 129
-0.13607 -4.70961 0.79937 113 119 116
-0.12235 -4.70424 0.78067 118 114 102
-0.13754 -4.71117 0.78265 112 108 106
-0.15272 -4.71809 0.78462 114 109 109
-0.15207 -4.71025 0.80265 116 115 122
-0.16870 -4.71872 0.78792 99 104 119
-0.24785 -4.70814 0.82333 109 117 104
-0.23427 -4.70283 0.80482 112 116 123
-0.24930 -4.70968 0.80678 113 125 117
-0.26432 -4.71654 0.80873 113 120 120
-0.26151 -4.72783 0.82268 105 108 115
-0.35137 -4.77533 0.83319 110 108 103
-0.33773 -4.77000 0.81461 112 115 111
-0.36791 -4.78376 0.81853 102 107 91
-0.39749 -4.78482 0.84126 92 92 85
-0.38099 -4.77640 0.85589 97 100 101
-0.38244 -4.77795 0.83931 103 99 89
-0.39604 -4.78327 0.85784 102 108 91
-0.41110 -4.79013 0.85980 98 107 95
-0.41254 -4.79168 0.84322 92 93 95
-1.01433 -5.05957 0.92261 80 84 75
-0.99929 -5.05271 0.92066 83 83 79
-1.01577 -5.06111 0.90605 82 94 92
-1.03081 -5.06797 0.90801 84 92 87
2.58376 -2.95774 0.52274 129 101 70
2.59610 -2.95292 0.50593 126 102 80
2.58244 -2.95915 0.50770 128 102 76
2.57834 -2.97147 0.52139 124 99 52
2.57579 -2.98792 0.51892 106 82 40
2.57469 -3.00585 0.51587 74 59 45
2.55958 -3.01355 0.50248 68 52 54
2.56712 -3.01790 0.51528 63 60 58
2.56570 -3.03577 0.51232 95 82 71
2.56664 -3.05600 0.50841 125 106 73
2.55406 -3.06092 0.52556 128 103 68
2.55272 -3.06235 0.51022 128 104 69
2.55138 -3.06379 0.49488 126 102 67
2.48380 -3.19666 0.50035 111 93 70
2.49803 -3.19017 0.49850 112 93 68
2.49666 -3.19163 0.48282 121 97 74
2.48243 -3.19812 0.48467 111 97 84
2.45543 -3.25210 0.49625 108 107 104
2.51038 -3.33069 0.47014 139 137 131
2.47083 -3.31135 0.48212 166 171 177
2.45487 -3.31949 0.46798 193 195 200
2.46158 -3.32358 0.48185 186 187 189
2.45248 -3.33604 0.48152 191 194 198
2.42296 -3.34903 0.48544 191 193 207
2.43114 -3.38031 0.47797 186 188 179
2.42551 -3.39688 0.47614 183 175 143
2.41529 -3.40858 0.47618 185 180 162
2.41653 -3.43295 0.47145 185 187 196
2.40557 -3.44403 0.47176 196 199 199
2.40993 -3.47228 0.46566 161 158 175
2.43462 -3.52366 0.45098 107 106 111
2.40724 -3.51672 0.45810 54 50 41
2.40617 -3.53956 0.45415 38 34 42
2.37001 -3.54662 0.46057 41 34 38
2.36856 -3.54817 0.44392 42 38 46
1.79221 -3.06657 0.67178 75 70 75
1.80386 -3.06202 0.65589 102 103 101
1.77806 -3.07378 0.65925 58 58 73
1.77600 -3.06838 0.67491 72 64 73
1.75619 -3.06564 0.67964 115 111 111
1.72975 -3.05447 0.68733 147 136 127
1.71820 -3.05898 0.70307 152 132 125
1.71697 -3.06029 0.68899 151 134 125
1.71574 -3.06161 0.67491 149 135 131
1.61643 -3.45591 0.63803 154 140 135
1.62893 -3.45103 0.62101 155 139 131
1.60569 -3.46682 0.63833 167 161 172
1.59392 -3.47624 0.63912 187 191 205
1.58140 -3.48113 0.65618 178 180 199
1.14718 -3.19351 0.78623 153 162 179
1.15838 -3.18913 0.77096 150 160 179
1.15095 -3.22697 0.77930 131 135 147
1.15321 -3.25828 0.77309 66 59 84
1.12907 -3.35729 0.76012 61 64 90
1.11294 -3.38668 0.75818 64 60 82
1.09876 -3.39391 0.74561 50 47 72
1.09882 -3.42046 0.75501 59 63 93
1.09366 -3.44120 0.75231 67 74 104
1.07933 -3.44850 0.73962 53 56 86
1.08770 -3.46069 0.75002 64 70 97
1.07332 -3.46802 0.73727 51 54 81
1.08113 -3.47925 0.74802 57 64 85
1.06652 -3.51416 0.74475 54 59 76
1.05854 -3.53060 0.74344 63 77 83
1.04754 -3.54121 0.74385 68 80 94
1.03684 -3.55249 0.74407 49 55 79
1.02223 -3.55994 0.73113 45 49 67
1.01353 -3.63923 0.73317 48 49 67
1.02577 -3.63444 0.71648 40 45 70
1.02647 -3.70108 0.71908 70 72 94
1.02596 -3.73546 0.71290 85 103 125
1.01077 -3.74320 0.69944 88 93 122
1.01307 -3.74383 0.71412 90 97 117
0.99787 -3.75158 0.70065 85 92 118
1.00137 -3.75483 0.71460 83 88 110
0.99657 -3.78097 0.71084 69 66 90
0.98594 -3.79465 0.71061 59 63 89
0.97330 -3.79959 0.72782 53 60 84
0.98101 -3.82116 0.70681 55 62 85
0.96561 -3.82902 0.69316 44 42 78
0.97216 -3.83924 0.70539 50 47 77
0.95493 -3.91645 0.69493 38 47 80
0.95508 -3.95673 0.68753 61 72 92
0.94540 -3.97449 0.68634 61 62 94
0.94039 -4.00359 0.68208 79 88 121
0.92909 -4.01802 0.68185 71 71 110
0.91563 -4.02736 0.68302 59 62 103
0.90311 -4.03908 0.68354 90 104 124
0.92121 -4.12690 0.66361 120 135 148
0.91021 -4.14342 0.66293 134 146 157
0.89385 -4.15176 0.64844 150 158 161
0.90158 -4.16617 0.66061 147 155 167
0.88516 -4.17453 0.64606 150 155 159
0.88830 -4.22300 0.65304 160 165 154
0.88685 -4.22455 0.63638 155 157 157
0.88051 -4.24908 0.64993 150 154 150
0.77778 -4.30778 0.66111 140 146 146
0.79154 -4.30240 0.64236 141 152 151
0.76238 -4.31421 0.66322 128 135 140
0.74819 -4.32415 0.66443 114 127 141
0.73439 -4.33531 0.66533 130 143 147
0.72061 -4.34070 0.68411 139 145 148
0.71914 -4.34227 0.66731 144 151 145
0.71767 -4.34383 0.65052 145 147 146
0.65605 -4.36358 0.67688 130 130 136
0.67128 -4.35663 0.67490 145 150 142
0.59902 -4.40402 0.68165 132 134 132
0.61576 -4.39548 0.69649 140 145 139
0.61282 -4.39862 0.66285 136 140 135
0.58228 -4.41255 0.66682 123 124 132
0.58346 -4.41003 0.68387 122 126 133
0.56673 -4.41857 0.66904 114 119 132
0.45684 -4.44921 0.70373 119 121 114
0.47059 -4.44384 0.68499 129 140 130
0.42850 -4.47096 0.70579 113 121 121
0.41326 -4.47791 0.70778 112 121 119
0.41180 -4.47948 0.69099 116 118 121
0.38244 -4.49045 0.71206 114 112 109
0.39621 -4.48507 0.69330 124 122 126
0.36574 -4.49897 0.69726 105 116 120
0.36709 -4.49691 0.71415 104 113 113
0.35039 -4.50543 0.69935 111 120 119
0.15189 -4.50209 0.75914 135 137 137
0.16540 -4.49681 0.74073 116 126 136
0.15045 -4.50363 0.74267 126 136 137
0.13664 -4.50744 0.76142 139 137 131
0.12038 -4.50752 0.76487 124 127 124
0.10401 -4.51586 0.75037 114 121 121
-0.18744 -4.69650 0.79598 107 115 117
-0.20106 -4.70183 0.81455 136 134 128
-0.20251 -4.70338 0.79794 125 132 121
-0.21925 -4.69587 0.80289 115 114 119
-0.21781 -4.69433 0.81944 118 120 116
-0.38603 -4.75281 0.82807 109 108 96
-0.38747 -4.75435 0.81158 107 109 107
-0.40157 -4.75231 0.83148 85 78 101
-0.41795 -4.76066 0.81695 99 103 115
-0.41759 -4.74457 0.83631 87 95 106
-0.43249 -4.75136 0.83825 94 102 96
-0.43393 -4.75290 0.82183 97 98 101
2.58939 -2.98416 0.50155 126 102 64
2.60181 -2.97931 0.48463 128 102 74
2.58807 -2.98557 0.48642 127 104 66
2.58438 -2.99844 0.49996 115 93 57
2.58514 -3.01813 0.49613 90 73 54
2.58691 -3.05826 0.48827 70 60 70
2.59558 -3.08591 0.48126 110 93 74
2.49181 -3.22856 0.47698 108 94 91
2.48116 -3.23885 0.47735 106 100 108
2.53707 -3.31755 0.45067 126 127 139
2.53601 -3.33830 0.44703 153 156 155
2.51161 -3.33495 0.45290 181 182 186
2.49552 -3.34315 0.43864 193 195 205
2.44691 -3.33312 0.46715 192 194 203
2.44012 -3.34810 0.46582 194 192 194
2.44077 -3.37118 0.46138 192 177 151
2.43440 -3.38687 0.45982 179 164 99
2.42065 -3.39466 0.46132 179 154 78
2.41111 -3.40707 0.46107 187 171 88
2.42823 -3.44896 0.44958 189 187 181
2.41189 -3.45729 0.43509 194 197 199
2.41366 -3.45614 0.45137 197 197 198
2.41877 -3.48531 0.44484 170 171 174
2.42297 -3.51375 0.43864 146 134 105
2.38976 -3.50012 0.44831 84 82 63
2.40307 -3.53925 0.43816 51 47 54
2.40161 -3.56185 0.43426 44 39 47
2.35500 -3.58151 0.44062 65 64 59
2.28354 -3.57141 0.45786 85 87 89
2.26992 -3.57674 0.47642 92 94 94
2.26847 -3.57829 0.45982 93 96 95
2.26702 -3.57984 0.44321 93 95 99
1.81887 -3.10218 0.64519 88 86 85
1.83065 -3.09757 0.62913 105 102 104
1.81761 -3.10352 0.63082 98 95 95
1.78547 -3.10496 0.65185 89 89 101
1.74733 -3.07936 0.66482 139 131 130
1.73321 -3.08656 0.65231 147 136 132
1.61790 -3.46147 0.62143 156 138 132
1.63040 -3.45658 0.60439 155 136 135
1.61656 -3.46289 0.60619 156 136 136
1.60534 -3.46971 0.62260 160 149 158
1.59731 -3.48478 0.62151 185 188 200
1.58210 -3.49253 0.60803 192 192 204
1.58336 -3.49100 0.62335 190 190 202
1.15563 -3.21126 0.76743 151 160 181
1.16690 -3.20685 0.75208 150 159 181
1.15443 -3.21254 0.75370 151 158 182
1.14330 -3.21716 0.76898 144 149 157
1.16025 -3.27390 0.75476 71 72 88
1.15398 -3.29085 0.75295 40 49 81
1.14250 -3.29533 0.76859 43 51 81
1.14128 -3.29664 0.75460 44 51 82
1.14006 -3.29794 0.74061 45 49 84
1.13718 -3.34645 0.74620 44 47 80
1.15126 -3.33927 0.75868 42 50 83
1.15003 -3.34059 0.74453 43 50 80
1.14879 -3.34191 0.73038 42 50 81
1.13509 -3.37175 0.74193 63 69 90
1.12093 -3.37897 0.72939 71 81 99
1.13351 -3.39833 0.73732 74 80 96
1.12099 -3.40513 0.73875 63 60 79
1.10581 -3.43721 0.73603 49 51 84
1.09820 -3.45349 0.73463 53 55 89
1.07813 -3.50878 0.72864 55 59 87
1.07445 -3.53353 0.72482 70 78 103
1.06796 -3.55307 0.72258 83 94 105
1.05490 -3.55977 0.72414 68 73 92
1.04024 -3.56725 0.71115 46 48 79
1.04483 -3.57251 0.72393 47 50 75
1.03015 -3.57999 0.71092 47 49 72
1.01650 -3.64954 0.71566 48 51 75
1.03328 -3.71961 0.69900 73 78 98
1.02397 -3.73549 0.69804 84 95 122
1.00879 -3.74323 0.68458 83 90 119
0.99255 -3.77656 0.69714 76 86 97
0.98637 -3.80001 0.69410 64 75 90
0.98202 -3.82786 0.68985 52 54 81
0.96116 -3.85721 0.68886 39 44 75
0.95526 -3.88251 0.68541 46 53 95
0.97374 -3.96468 0.66613 67 86 107
0.96946 -3.99508 0.66138 101 117 114
0.95162 -3.99395 0.66543 82 86 107
0.94193 -4.01210 0.66413 63 62 110
0.93188 -4.02964 0.66302 65 64 111
0.91747 -4.03677 0.66479 86 100 126
0.93891 -4.13211 0.64242 125 137 151
0.92710 -4.14664 0.64225 132 139 159
0.91072 -4.15499 0.62773 146 157 167
0.91285 -4.15521 0.64371 141 151 162
0.87770 -4.24711 0.63414 155 157 156
0.87624 -4.24867 0.61743 161 168 164
0.86868 -4.27035 0.63175 147 151 153
0.85344 -4.27730 0.63373 138 147 152
0.77002 -4.29151 0.64902 140 147 142
0.75339 -4.29998 0.63428 129 135 128
0.75641 -4.30289 0.64982 126 131 132
0.74313 -4.31532 0.65036 120 129 133
0.73026 -4.32908 0.65056 135 143 143
0.71358 -4.33759 0.63577 146 142 144
0.66724 -4.35029 0.66016 144 144 150
0.68390 -4.34179 0.67492 136 141 135
0.68244 -4.34336 0.65818 143 149 147
0.68098 -4.34492 0.64144 141 148 156
0.65058 -4.35878 0.64539 133 119 132
0.64987 -4.35046 0.66386 133 126 134
0.63505 -4.35850 0.66555 136 140 134
0.61987 -4.36542 0.66752 135 147 143
0.61840 -4.36698 0.65080 137 146 139
0.59170 -4.38644 0.66966 126 134 133
0.60544 -4.38106 0.65093 135 140 135
0.59023 -4.38800 0.65291 135 148 140
0.45214 -4.43883 0.68989 129 131 124
0.45068 -4.44039 0.67318 135 136 139
0.43551 -4.44731 0.67515 124 128 133
0.43901 -4.45339 0.69000 121 118 127
0.42235 -4.46188 0.67524 124 136 136
0.42478 -4.46397 0.69109 122 127 130
0.38029 -4.48930 0.69593 118 119 124
0.39405 -4.48392 0.67718 126 123 123
0.36360 -4.49781 0.68114 99 110 119
0.13426 -4.50422 0.74604 133 138 129
0.11789 -4.51256 0.73153 124 127 132
0.11823 -4.50542 0.74926 120 124 119
0.10188 -4.51375 0.73477 125 130 130
-0.17261 -4.70080 0.77537 110 107 119
-0.15751 -4.69392 0.77341 116 115 112
-0.15896 -4.69547 0.75677 125 124 111
-0.17406 -4.70236 0.75873 119 109 119
-0.19036 -4.68601 0.78194 120 128 117
-0.22200 -4.68621 0.78871 109 102 114
-0.23843 -4.69459 0.77414 118 119 126
-0.31510 -4.69448 0.80718 106 115 111
-0.29877 -4.68616 0.82164 106 105 110
-0.30021 -4.68769 0.80524 102 105 117
-0.30164 -4.68922 0.78884 102 107 109
-0.31366 -4.69295 0.82358 97 107 106
-0.33142 -4.70280 0.79271 116 118 119
-0.32963 -4.70507 0.80833 119 122 119
-0.35846 -4.72994 0.80989 111 115 113
-0.37484 -4.73828 0.79538 115 116 118
-0.37401 -4.72940 0.81333 103 109 108
-0.40582 -4.71715 0.82245 99 103 110
-0.40725 -4.71867 0.80612 99 101 107
-0.42208 -4.72544 0.80804 101 99 101
-0.46549 -4.73900 0.83121 101 115 111
-0.44925 -4.73072 0.84561 98 106 97
-0.46406 -4.73747 0.84753 105 112 111
-0.46692 -4.74052 0.81489 98 109 110
-0.47888 -4.74423 0.84946 108 111 107
-0.48173 -4.74728 0.81681 90 99 111
2.59748 -2.84808 0.51045 124 101 80
2.61211 -2.84063 0.52341 114 94 67
2.60954 -2.84337 0.49402 123 100 84
2.59620 -2.84945 0.49576 131 106 100
2.58543 -2.85279 0.52688 122 100 79
2.58414 -2.85417 0.51219 125 104 82
2.59921 -3.01469 0.47848 124 102 60
2.61172 -3.00980 0.46144 125 104 67
2.59788 -3.01611 0.46324 124 104 71
2.59714 -3.03188 0.47567 111 85 57
2.60992 -3.06300 0.46700 79 56 54
2.61296 -3.08532 0.46211 66 52 52
2.60847 -3.10076 0.46016 86 70 58
2.63550 -3.14616 0.44569 118 102 74
2.62259 -3.15121 0.46328 126 101 66
2.62122 -3.15267 0.44755 126 102 78
2.61984 -3.15414 0.43182 126 101 78
2.57929 -3.23506 0.44100 117 101 73
2.59515 -3.22697 0.45506 128 101 71
2.59376 -3.22846 0.43912 126 104 74
2.58068 -3.23357 0.45694 127 99 63
2.56621 -3.24017 0.45882 122 97 65
2.55662 -3.23350 0.44621 100 89 62
2.53195 -3.22983 0.45224 98 86 86
2.51130 -3.23008 0.45667 105 95 98
2.50592 -3.24575 0.45486 114 113 123
2.54213 -3.30401 0.43597 141 142 138
2.55259 -3.33647 0.42755 171 175 177
2.53643 -3.34470 0.41323 194 197 209
2.53215 -3.33729 0.43182 188 189 198
2.51602 -3.34552 0.41753 193 196 205
2.51133 -3.33764 0.43626 193 195 206
2.47117 -3.33966 0.44457 194 195 197
2.45638 -3.34617 0.44654 194 187 159
2.48345 -3.39740 0.43096 189 174 100
2.45727 -3.39195 0.43766 189 161 72
2.44107 -3.40021 0.42331 182 152 54
2.44401 -3.40033 0.43894 174 136 63
2.43081 -3.40879 0.44020 181 161 72
2.42124 -3.42126 0.43990 191 170 61
2.43551 -3.46011 0.42945 192 185 161
2.41402 -3.48315 0.42973 185 188 181
2.42594 -3.52029 0.42011 160 156 139
2.43519 -3.55480 0.41156 128 128 116
2.40663 -3.54652 0.41931 75 66 55
2.39926 -3.56240 0.41789 52 40 51
2.38184 -3.56677 0.42084 42 36 54
2.37682 -3.58554 0.41837 41 42 65
2.31077 -3.58225 0.43329 82 77 86
2.29417 -3.59071 0.41858 86 84 91
1.80861 -3.11447 0.63069 62 65 81
1.82042 -3.10986 0.61461 103 102 107
1.80099 -3.12720 0.62993 72 76 93
1.75591 -3.09302 0.64617 125 121 123
1.60678 -3.47526 0.60596 154 139 150
1.61931 -3.47037 0.58889 158 136 141
1.60052 -3.49305 0.60394 182 181 190
1.56967 -3.50109 0.60910 184 186 199
1.55711 -3.50599 0.62620 140 153 186
1.55578 -3.50742 0.61090 161 169 188
1.55444 -3.50885 0.59560 156 157 176
1.14932 -3.23089 0.75132 153 159 166
1.16063 -3.22647 0.73591 151 158 184
1.14524 -3.25124 0.74835 82 86 108
1.15774 -3.30089 0.73623 44 48 85
1.14379 -3.30801 0.72386 46 46 82
1.13971 -3.35452 0.72996 45 47 78
1.15134 -3.34997 0.71411 42 49 83
1.13807 -3.38073 0.72534 61 68 92
1.12524 -3.41659 0.72132 59 61 82
1.11441 -3.42664 0.72176 48 46 73
1.10482 -3.43907 0.72148 50 49 80
1.09862 -3.45802 0.71923 52 53 83
1.09123 -3.47494 0.71762 52 59 87
1.09089 -3.50562 0.71187 63 69 98
1.09310 -3.54166 0.70456 83 90 114
1.08413 -3.55636 0.70371 91 105 121
1.06803 -3.55713 0.70705 77 86 106
1.05337 -3.56461 0.69406 48 52 83
1.06044 -3.57477 0.70535 51 52 87
1.04573 -3.58226 0.69232 46 50 81
1.02792 -3.64298 0.69945 45 46 80
1.04280 -3.63539 0.71264 43 47 62
1.04150 -3.63678 0.69769 44 47 71
1.04019 -3.63818 0.68273 43 47 78
1.02848 -3.67867 0.69256 54 58 90
1.03246 -3.72211 0.68346 75 86 108
1.01731 -3.72984 0.67004 76 84 109
1.02320 -3.73810 0.68244 81 88 114
0.99923 -3.75884 0.68369 79 88 116
0.99432 -3.78479 0.67983 71 78 101
0.97902 -3.79259 0.66628 47 44 89
0.98995 -3.81232 0.67556 58 61 87
0.98010 -3.82804 0.67471 47 46 76
0.96926 -3.84171 0.67446 41 42 82
0.96500 -3.87050 0.66993 58 61 99
0.94947 -3.87842 0.65616 111 127 137
0.98938 -3.96545 0.64664 83 103 133
0.98207 -3.98869 0.64382 107 124 131
0.97071 -4.00280 0.64360 110 111 117
0.95217 -4.00005 0.64814 84 89 110
0.93885 -4.00960 0.64921 75 86 114
0.94693 -4.07086 0.63584 104 118 130
0.95219 -4.12634 0.62418 119 133 140
0.93583 -4.13468 0.60969 144 150 157
0.94241 -4.14581 0.62261 147 150 157
0.92601 -4.15417 0.60807 145 152 154
0.92956 -4.15788 0.62310 138 142 161
0.91314 -4.16625 0.60855 148 154 157
0.86570 -4.26790 0.61606 158 163 151
0.87945 -4.26252 0.59732 157 168 164
0.86423 -4.26946 0.59929 155 163 158
0.85581 -4.28915 0.61417 147 149 141
0.84201 -4.29454 0.63298 138 145 149
0.84054 -4.29611 0.61615 137 138 143
0.78069 -4.27765 0.63261 138 145 150
0.79728 -4.26919 0.64731 140 148 154
0.79582 -4.27074 0.63064 138 146 155
0.76410 -4.28611 0.61791 128 131 136
0.76207 -4.27468 0.63720 137 141 137
0.73441 -4.29580 0.63919 131 138 134
0.71783 -4.30426 0.62449 148 149 153
0.72048 -4.30623 0.64022 150 148 142
0.70389 -4.31469 0.62552 144 142 147
0.66240 -4.34145 0.64612 143 141 151
0.67610 -4.33609 0.62744 141 147 153
0.63117 -4.35243 0.65080 136 142 141
0.62971 -4.35398 0.63410 135 137 144
0.61455 -4.36090 0.63607 139 141 140
0.50278 -4.38271 0.67284 114 115 125
0.51930 -4.37429 0.68748 123 130 134
0.51640 -4.37739 0.65428 127 126 137
0.50423 -4.38116 0.68944 113 121 126
0.48916 -4.38804 0.69140 118 131 128
0.48771 -4.38959 0.67480 117 124 128
0.47420 -4.40207 0.67536 122 125 127
0.47566 -4.40051 0.69198 123 134 131
0.46161 -4.41802 0.67506 128 138 133
0.34567 -4.49368 0.68581 113 123 118
0.33194 -4.49905 0.70451 114 119 116
0.33048 -4.50061 0.68778 119 121 118
0.14751 -4.49774 0.72793 119 130 137
0.16100 -4.49246 0.70954 113 119 126
0.13209 -4.50207 0.73045 126 131 135
0.11574 -4.51041 0.71595 122 125 134
-0.31795 -4.68120 0.79389 110 116 116
-0.30453 -4.67596 0.77561 117 115 109
-0.31938 -4.68273 0.77754 117 118 114
-0.34704 -4.70144 0.79635 113 110 123
-0.36333 -4.70975 0.78191 104 97 96
-0.36144 -4.71354 0.79717 110 115 112
-0.37776 -4.72186 0.78272 104 104 112
-0.45406 -4.70444 0.81895 93 94 106
-0.43933 -4.69773 0.81703 99 98 102
-0.44075 -4.69924 0.80081 98 95 108
-0.47020 -4.71268 0.80464 106 111 113
-0.91313 -5.00499 0.86132 91 86 91
-0.89669 -4.99660 0.87589 94 100 99
-0.89813 -4.99815 0.85937 97 95 99
-0.89958 -4.99969 0.84285 91 94 103
-0.92669 -5.01029 0.87979 83 80 87
-0.92813 -5.01183 0.86327 82 82 85
2.58286 -2.85554 0.49749 130 107 94
2.59492 -2.85083 0.48106 124 99 92
2.57080 -2.86025 0.51392 123 104 80
2.56823 -2.86299 0.48453 121 100 65
2.61699 -3.05289 0.45198 117 99 69
2.62962 -3.04796 0.43476 122 104 75
2.61385 -3.06935 0.44948 90 77 53
2.62988 -3.10389 0.43933 65 51 30
2.61438 -3.11179 0.42558 60 46 24
2.62023 -3.11457 0.43937 62 56 38
2.66173 -3.17379 0.41890 103 87 67
2.62453 -3.24066 0.41411 125 102 61
2.64048 -3.23253 0.42824 126 100 62
2.63908 -3.23402 0.41222 126 100 59
2.63768 -3.23552 0.39619 114 97 55
2.62593 -3.23916 0.43013 127 102 64
2.61538 -3.25260 0.41380 108 92 61
2.62887 -3.28704 0.40421 71 56 36
2.61306 -3.29261 0.40658 40 31 44
2.55977 -3.26060 0.42437 63 64 76
2.55237 -3.27440 0.42332 123 126 128
2.57569 -3.31951 0.40954 158 166 158
2.56885 -3.33426 0.40818 182 185 191
2.55268 -3.34251 0.39385 194 197 208
2.55036 -3.33715 0.41166 193 197 201
2.53421 -3.34539 0.39734 193 196 210
2.49367 -3.34421 0.42265 194 191 189
2.49958 -3.37264 0.41588 194 175 130
2.50363 -3.39937 0.40984 194 168 61
2.48734 -3.40767 0.39541 195 171 22
2.49052 -3.40801 0.41103 184 164 48
2.46360 -3.40181 0.41809 189 162 44
2.44736 -3.41009 0.40370 172 153 38
2.43493 -3.41636 0.42153 177 149 76
2.42394 -3.42731 0.42181 188 168 68
2.44785 -3.47687 0.40704 193 182 140
2.43495 -3.48607 0.40808 193 193 195
2.41875 -3.49161 0.41054 184 184 179
2.42490 -3.52230 0.40328 156 147 154
2.41349 -3.53340 0.40362 153 151 144
2.42128 -3.56648 0.39555 113 106 97
2.39996 -3.56646 0.40020 82 68 67
2.39409 -3.58421 0.39805 68 66 63
2.38366 -3.59679 0.39790 58 52 58
2.36910 -3.60461 0.39956 67 56 69
2.35085 -3.60808 0.40287 88 78 79
1.82229 -3.13433 0.60948 78 75 97
1.83417 -3.12968 0.59330 106 103 104
1.82103 -3.13568 0.59501 88 88 96
1.80789 -3.14167 0.59671 60 57 85
1.80621 -3.13664 0.61254 65 63 92
1.79036 -3.13919 0.61550 108 106 111
1.77018 -3.13623 0.62047 146 135 125
1.75837 -3.14085 0.63656 147 133 125
1.75711 -3.14220 0.62217 149 133 124
1.75585 -3.14354 0.60777 148 134 122
1.61098 -3.48497 0.58789 154 137 146
1.62353 -3.48006 0.57077 158 137 139
1.60063 -3.49666 0.58789 174 170 174
1.58532 -3.50088 0.59041 188 194 204
1.57099 -3.50659 0.59243 184 184 196
1.15522 -3.24444 0.73363 156 162 174
1.16657 -3.24000 0.71816 151 159 183
1.14458 -3.25348 0.73420 98 102 131
1.16343 -3.31432 0.71835 56 49 88
1.14943 -3.32146 0.70594 47 45 77
1.14346 -3.36481 0.71297 45 47 84
1.15512 -3.36026 0.69708 45 49 79
1.14127 -3.39012 0.70856 61 68 97
1.15249 -3.44029 0.69644 76 88 101
1.13734 -3.44257 0.69930 69 76 92
1.12168 -3.44385 0.70247 62 64 92
1.11540 -3.46264 0.70021 64 70 97
1.11598 -3.49463 0.69391 68 76 101
1.12244 -3.53831 0.68407 77 89 109
1.10953 -3.54534 0.68553 95 110 121
1.09651 -3.55218 0.68705 109 121 127
1.08395 -3.55993 0.68829 91 98 112
1.07488 -3.57460 0.68744 59 63 91
1.06015 -3.58211 0.67439 49 55 80
1.03112 -3.65370 0.68172 51 51 89
1.03669 -3.69998 0.67157 62 70 103
1.02161 -3.70767 0.65821 70 80 107
1.03165 -3.72462 0.66792 72 84 114
1.01241 -3.75529 0.66620 76 86 112
1.00264 -3.77055 0.66538 68 76 106
0.98737 -3.77833 0.65186 42 47 83
0.99687 -3.79477 0.66197 56 57 94
0.98254 -3.83796 0.65676 45 48 87
0.97435 -3.85769 0.65474 64 74 109
0.99917 -3.95281 0.63097 98 108 134
0.98425 -3.99850 0.62541 107 108 122
0.97385 -4.01494 0.62451 102 100 130
0.96809 -4.04256 0.62043 99 113 133
0.97240 -4.09469 0.60944 122 140 146
0.95612 -4.10299 0.59501 137 155 160
0.96058 -4.10877 0.60930 131 148 140
0.94427 -4.11708 0.59485 129 144 160
0.95108 -4.12868 0.60753 125 138 146
0.93472 -4.13701 0.59303 138 149 159
0.88483 -4.22998 0.60242 150 160 152
0.90142 -4.22152 0.61712 145 151 149
0.89996 -4.22308 0.60045 146 147 140
0.88337 -4.23154 0.58575 150 156 151
0.85065 -4.28080 0.60007 148 156 148
0.83394 -4.28931 0.58526 139 147 150
0.83225 -4.27918 0.60439 136 144 146
0.81851 -4.28455 0.62312 138 141 149
0.81705 -4.28611 0.60636 134 143 154
0.81558 -4.28768 0.58961 134 144 152
0.79705 -4.27975 0.61195 138 147 152
0.78043 -4.28822 0.59722 131 130 132
0.77717 -4.27342 0.61750 131 134 138
0.74235 -4.27400 0.62498 128 139 138
0.74090 -4.27555 0.60839 132 146 150
0.72583 -4.28242 0.61034 136 147 146
0.72640 -4.27832 0.62763 133 143 145
0.65462 -4.32352 0.63455 144 147 154
0.66826 -4.31819 0.61596 142 148 147
0.64008 -4.33216 0.63605 135 130 148
0.62353 -4.34060 0.62138 132 132 143
0.49803 -4.37271 0.65919 119 128 125
0.49659 -4.37426 0.64263 121 142 135
0.48319 -4.38023 0.66097 119 126 131
0.46865 -4.38888 0.66247 106 106 111
0.45613 -4.40490 0.66211 119 131 128
0.43961 -4.41332 0.64747 112 125 122
0.44310 -4.41934 0.66217 127 134 136
0.42655 -4.42777 0.64750 114 122 122
0.33939 -4.47555 0.67393 127 132 127
0.31990 -4.46426 0.68035 122 123 126
0.30628 -4.46958 0.69890 115 113 125
0.30484 -4.47113 0.68231 114 114 124
0.30339 -4.47268 0.66572 112 118 124
0.14564 -4.49709 0.71200 111 118 125
0.14420 -4.49862 0.69557 108 113 121
-0.33488 -4.68238 0.78099 114 121 107
-0.35112 -4.69067 0.76659 117 110 114
-0.34955 -4.69083 0.78255 112 105 109
2.64619 -3.08261 0.42433 122 102 74
2.65894 -3.07762 0.40696 124 101 74
2.64483 -3.08406 0.40879 124 100 74
2.64277 -3.09898 0.42187 109 90 57
2.62726 -3.10689 0.40812 103 82 36
2.65539 -3.13052 0.41291 78 65 31
2.65997 -3.29940 0.37877 47 42 29
2.64160 -3.30256 0.38218 28 27 16
2.62011 -3.30257 0.38689 31 26 33
2.60426 -3.30816 0.38927 38 40 70
2.58451 -3.30979 0.39329 136 147 167
2.58372 -3.33062 0.38937 188 194 193
2.56754 -3.33887 0.37504 196 200 209
2.57066 -3.33909 0.39058 194 198 205
2.55448 -3.34734 0.37623 195 195 215
2.52723 -3.36019 0.39597 194 195 194
2.54057 -3.35497 0.37778 194 195 217
2.52223 -3.37719 0.39373 196 175 132
2.53130 -3.40917 0.38546 195 165 57
2.51495 -3.41751 0.37097 194 171 30
2.50689 -3.40589 0.39146 196 170 30
2.46951 -3.41124 0.39862 190 167 20
2.46809 -3.41277 0.38227 183 151 14
2.45324 -3.41954 0.38420 183 160 24
2.43884 -3.42370 0.40290 153 133 72
2.43741 -3.42523 0.38656 161 136 55
2.43591 -3.44356 0.39965 179 162 85
2.45958 -3.49299 0.38476 196 190 165
2.44305 -3.50141 0.37011 170 161 174
2.44567 -3.50116 0.38621 182 170 185
2.42800 -3.50513 0.38930 187 186 183
2.42067 -3.52073 0.38785 164 162 165
2.41042 -3.53313 0.38767 159 156 154
2.41511 -3.56268 0.38084 143 140 128
2.39843 -3.57119 0.36605 133 125 135
2.42095 -3.59386 0.37344 132 125 119
2.39765 -3.59160 0.37900 138 141 132
2.39606 -3.61455 0.37484 126 129 106
2.36790 -3.60650 0.38260 98 93 72
2.35615 -3.61765 0.38300 91 85 65
2.32714 -3.60832 0.39119 92 91 77
2.31191 -3.61527 0.39317 87 88 76
1.80417 -3.15950 0.59403 89 83 108
1.81608 -3.15484 0.57779 66 70 89
1.80290 -3.16085 0.57951 74 75 94
1.78229 -3.15450 0.59981 137 127 128
1.61642 -3.49655 0.56910 156 136 143
1.62902 -3.49163 0.55194 156 135 134
1.61508 -3.49799 0.55375 155 137 135
1.60262 -3.50312 0.57084 164 159 162
1.58747 -3.50762 0.57328 186 194 202
1.57676 -3.51892 0.57341 183 181 194
1.34965 -3.40916 0.64479 131 155 190
1.33762 -3.41386 0.66119 145 161 180
1.33634 -3.41523 0.64652 144 162 181
1.33506 -3.41660 0.63186 143 159 184
1.16970 -3.27281 0.71104 156 163 176
1.18115 -3.26834 0.69545 151 159 180
1.15210 -3.26998 0.71546 120 124 141
1.16992 -3.32918 0.69993 69 56 89
1.14655 -3.37393 0.69628 50 47 84
1.15823 -3.36936 0.68035 46 50 76
1.14943 -3.40853 0.68886 69 72 99
1.16460 -3.46612 0.67423 92 102 109
1.15444 -3.47783 0.67416 95 103 111
1.14742 -3.49548 0.67224 87 93 110
1.13372 -3.53202 0.66807 97 111 133
1.12316 -3.54351 0.66814 111 123 143
1.11130 -3.55261 0.66895 115 127 135
1.09571 -3.55449 0.67200 98 107 113
1.08876 -3.57326 0.66985 75 73 93
1.07895 -3.58660 0.66938 55 54 81
1.06418 -3.59413 0.65629 48 52 74
1.03947 -3.64078 0.66741 52 52 77
1.05436 -3.63319 0.68061 44 49 77
1.05305 -3.63459 0.66565 47 50 72
1.03862 -3.67336 0.66121 65 68 98
1.02363 -3.68100 0.64792 76 85 110
1.03805 -3.70700 0.65473 70 81 105
1.02013 -3.74009 0.65217 69 76 102
1.01246 -3.75971 0.65001 67 77 99
0.99722 -3.76748 0.63650 50 52 90
1.00439 -3.77871 0.64805 57 63 92
0.98374 -3.80745 0.64694 44 50 97
0.99261 -3.86494 0.63371 69 83 117
0.97706 -3.87287 0.61993 113 119 127
1.00067 -3.92162 0.62082 106 123 140
0.98493 -3.92965 0.60687 96 106 123
1.00108 -3.96183 0.61284 111 124 133
0.98589 -3.96683 0.61520 98 105 115
0.98115 -3.99607 0.61050 104 111 123
0.98127 -4.03717 0.60241 115 126 146
0.97654 -4.06745 0.59750 114 128 143
0.97309 -4.10130 0.59162 132 154 157
0.95680 -4.10961 0.57718 137 150 157
0.90446 -4.19435 0.58842 148 155 157
0.91951 -4.18749 0.58647 142 149 152
0.90591 -4.19280 0.60500 151 148 149
0.88796 -4.20276 0.57380 158 170 162
0.89308 -4.21067 0.58772 152 160 152
0.86881 -4.23995 0.58730 149 161 162
0.85726 -4.25639 0.58661 149 162 161
0.84571 -4.27304 0.58588 148 155 150
0.82904 -4.28154 0.57110 139 147 149
0.79411 -4.27719 0.59638 135 139 140
0.80780 -4.27184 0.57773 131 144 142
0.79265 -4.27875 0.57970 132 139 136
0.70089 -4.26025 0.62017 139 143 143
0.69945 -4.26179 0.60368 135 141 138
0.68448 -4.26862 0.60562 126 132 124
0.68651 -4.26881 0.62164 133 136 136
0.67298 -4.27410 0.64008 140 144 150
0.64761 -4.30791 0.62251 144 148 148
0.66120 -4.30259 0.60399 140 148 144
0.63178 -4.31228 0.62513 136 141 147
0.61530 -4.32068 0.61052 128 130 133
0.47931 -4.37312 0.64665 122 136 140
0.46529 -4.38353 0.64768 109 112 107
0.45167 -4.39547 0.64833 114 120 121
0.43519 -4.40387 0.63372 115 124 123
0.34363 -4.43213 0.66484 124 128 129
0.35719 -4.42683 0.64638 119 123 126
0.34219 -4.43367 0.64833 121 130 129
0.12786 -4.49821 0.69923 109 118 126
0.14132 -4.49295 0.68089 113 116 129
0.11152 -4.50654 0.68476 122 130 142
-0.32237 -4.66777 0.76477 122 126 109
-0.30758 -4.66102 0.76285 127 123 112
-0.30901 -4.66254 0.74655 121 120 116
-0.33685 -4.67793 0.76595 112 108 111
-0.36719 -4.68287 0.77164 112 111 112
-0.36861 -4.68439 0.75537 109 110 114
-0.38339 -4.69112 0.75729 109 116 110
-0.50144 -4.72122 0.79358 111 114 111
-0.48673 -4.71452 0.79167 112 115 114
-0.51473 -4.72642 0.81169 97 92 111
-0.51615 -4.72793 0.79549 100 103 113
-0.51757 -4.72944 0.77929 98 98 104
-0.54398 -4.77476 0.79241 98 97 96
-0.52917 -4.76801 0.79049 105 106 108
-0.53060 -4.76953 0.77417 104 103 109
-0.54256 -4.77324 0.80872 96 101 112
-0.55879 -4.78151 0.79433 93 97 96
-0.56022 -4.78304 0.77802 97 95 93
-0.91524 -4.97996 0.83362 92 91 101
-0.90176 -4.97469 0.81525 88 91 99
-0.93159 -4.98830 0.81913 80 78 79
-0.93015 -4.98676 0.83556 85 84 87
-0.94651 -4.99510 0.82107 83 86 87
2.66696 -3.12426 0.39588 120 97 58
2.67984 -3.11922 0.37833 124 99 80
2.70665 -3.20161 0.37168 71 53 23
2.69075 -3.20694 0.37413 62 53 32
2.69531 -3.29448 0.35566 72 53 25
2.71011 -3.28773 0.35374 102 85 48
2.67908 -3.30275 0.34128 34 25 18
2.68331 -3.30397 0.35642 48 30 21
2.66707 -3.31225 0.34203 33 30 23
2.64594 -3.30980 0.36351 32 30 27
2.62974 -3.31806 0.34915 41 36 43
2.62381 -3.30920 0.36852 36 30 43
2.60896 -3.31581 0.37048 30 31 56
2.55972 -3.28766 0.38698 106 114 146
2.58359 -3.33346 0.37257 183 198 208
2.53362 -3.36986 0.37635 195 195 198
2.54700 -3.36463 0.35812 193 195 215
2.51394 -3.37150 0.38037 196 182 141
2.53259 -3.41359 0.36785 195 169 35
2.50137 -3.42576 0.37232 187 162 27
2.49993 -3.42729 0.35588 177 153 48
2.48501 -3.43410 0.35782 181 152 32
2.44425 -3.45583 0.37894 162 141 68
2.46294 -3.49986 0.36603 190 187 165
2.43281 -3.51371 0.36992 174 171 179
2.43136 -3.51526 0.35329 161 160 168
2.41877 -3.52178 0.37142 174 177 181
2.40685 -3.53228 0.37195 170 163 154
2.40932 -3.55930 0.36602 148 145 149
2.39280 -3.58926 0.36369 145 144 141
2.37853 -3.59739 0.36522 163 162 149
2.36604 -3.63267 0.36094 117 111 94
2.32444 -3.60842 0.37497 105 98 91
2.29194 -3.59465 0.38490 98 95 83
2.26911 -3.59228 0.39042 91 91 89
2.25546 -3.59761 0.40902 94 98 105
2.25400 -3.59917 0.39238 92 95 99
2.25255 -3.60072 0.37574 92 94 89
1.79533 -3.17399 0.57856 122 117 118
1.77897 -3.17600 0.58177 146 134 123
1.76704 -3.18066 0.59803 146 132 122
1.76577 -3.18202 0.58349 148 131 123
1.76450 -3.18338 0.56895 148 131 123
1.60610 -3.51183 0.55297 157 147 148
1.61872 -3.50690 0.53577 154 139 129
1.59357 -3.52039 0.55403 183 189 194
1.57817 -3.52456 0.55660 187 186 196
1.54485 -3.50102 0.56866 110 106 157
1.51320 -3.47961 0.57992 98 89 137
1.50078 -3.48447 0.59685 158 172 191
1.45003 -3.46343 0.59711 125 146 187
1.45134 -3.46203 0.61210 121 148 189
1.43774 -3.46824 0.61387 165 178 203
1.42328 -3.44851 0.60600 159 170 200
1.40845 -3.45607 0.59286 175 180 198
1.37454 -3.42545 0.62137 168 177 197
1.35226 -3.41692 0.62799 141 160 192
1.33764 -3.42437 0.61504 143 156 181
1.18010 -3.29418 0.69052 155 161 177
1.19161 -3.28968 0.67484 152 160 181
1.17887 -3.29549 0.67649 154 160 181
1.16638 -3.29828 0.69273 136 139 150
1.17614 -3.34360 0.68154 75 68 94
1.16615 -3.35458 0.68155 45 48 77
1.15201 -3.36179 0.66902 45 49 71
1.15326 -3.38961 0.67741 52 48 83
1.15403 -3.42052 0.67107 73 73 99
1.16918 -3.47821 0.65622 100 106 120
1.16111 -3.49387 0.65488 109 118 129
1.15067 -3.50529 0.65491 105 113 120
1.14275 -3.52152 0.65342 104 111 121
1.12225 -3.54563 0.65314 108 116 140
1.10983 -3.55364 0.65428 91 97 120
1.10292 -3.57243 0.65206 68 72 91
1.08816 -3.57995 0.63898 47 48 71
1.09472 -3.58890 0.65059 59 59 82
1.07992 -3.59645 0.63747 46 50 67
1.08194 -3.59649 0.65190 52 52 75
1.06714 -3.60404 0.63878 47 49 73
1.04967 -3.63176 0.65199 56 56 74
1.06454 -3.62418 0.66517 46 53 77
1.06324 -3.62557 0.65023 48 51 73
1.04470 -3.65562 0.64833 69 73 85
1.02976 -3.66324 0.63509 83 89 115
1.04240 -3.68533 0.64291 81 88 114
1.02746 -3.72424 0.63845 68 80 106
1.01817 -3.74019 0.63732 60 65 94
1.01096 -3.76079 0.63480 56 58 87
0.98936 -3.78707 0.63433 48 61 97
0.97407 -3.79486 0.62078 110 128 139
1.01605 -3.88346 0.60920 73 98 120
1.01242 -3.91377 0.60396 108 126 143
0.98675 -3.97349 0.59772 105 113 128
0.98906 -4.01922 0.58808 119 132 147
0.97301 -4.02740 0.57386 139 145 152
0.98722 -4.05596 0.58116 128 142 147
0.97767 -4.07503 0.57946 123 129 133
0.96146 -4.08330 0.56509 145 154 151
0.97204 -4.10373 0.57498 133 151 151
0.95574 -4.11204 0.56054 145 145 148
0.91272 -4.17555 0.57376 135 146 152
0.92916 -4.16717 0.58834 147 153 149
0.92772 -4.16871 0.57181 136 145 143
0.92627 -4.17025 0.55529 135 147 144
0.89627 -4.18394 0.55919 148 160 168
0.89961 -4.18722 0.57433 146 164 169
0.87667 -4.21943 0.57297 152 158 153
0.86014 -4.22786 0.55832 136 147 142
0.86294 -4.22988 0.57392 140 150 154
0.84639 -4.23831 0.55925 136 147 145
0.85177 -4.24721 0.57293 142 151 154
0.83803 -4.25786 0.57384 144 147 150
0.76600 -4.25327 0.59067 140 144 144
0.77959 -4.24796 0.57216 137 148 142
0.76456 -4.25482 0.57411 139 144 152
0.62460 -4.29588 0.61342 128 128 126
0.48985 -4.35721 0.63096 118 126 124
0.50482 -4.35038 0.62901 123 130 125
0.47657 -4.37006 0.63133 116 125 139
0.46263 -4.38069 0.63228 116 114 118
0.44855 -4.39090 0.63336 120 120 122
0.43210 -4.39929 0.61877 126 129 130
0.31882 -4.40612 0.65899 119 124 131
0.33227 -4.40086 0.64066 120 129 126
0.31739 -4.40765 0.64260 122 125 129
0.23106 -4.45373 0.66888 125 128 125
0.24596 -4.44693 0.66694 128 136 127
0.24453 -4.44846 0.65053 132 140 132
