ply
format ascii 1.0
element face 0
property list uchar int vertex_indices
element vertex 1337
property float x
property float y
property float z
property uchar diffuse_red
property uchar diffuse_green
property uchar diffuse_blue
end_header
0.87232 -3.68772 1.01788 38 42 67
0.86959 -3.68872 1.00334 39 42 68
0.85037 -3.71290 1.00641 46 46 73
0.83538 -3.72172 0.99468 86 88 106
0.85598 -3.75028 1.00035 66 61 87
0.84086 -3.75918 0.98851 84 90 105
0.87038 -3.80280 0.98984 81 90 108
0.85714 -3.80958 0.99310 91 94 100
0.88122 -3.87963 0.97759 39 43 60
0.85575 -3.89590 0.98350 14 19 69
0.86279 -3.93843 0.97640 83 104 136
0.85646 -3.95809 0.97605 133 149 166
0.84068 -3.96739 0.96370 142 148 165
0.81960 -3.98611 0.98407 146 149 158
0.82963 -3.97891 0.96572 143 146 160
0.82940 -4.03556 0.97532 119 116 116
0.85763 -4.11946 0.95694 54 42 41
0.84798 -4.13474 0.95811 23 21 25
0.83166 -4.14436 0.94533 24 30 35
0.90663 -4.41915 0.90711 37 39 42
0.92080 -4.41009 0.90383 31 34 41
0.91764 -4.41125 0.88697 33 32 41
0.90285 -4.44844 0.90486 47 47 47
0.89043 -4.46112 0.90719 60 56 63
0.87972 -4.47726 0.90859 73 71 75
0.86131 -4.47813 0.91412 85 93 88
0.85091 -4.49501 0.91534 96 101 108
0.83344 -4.50530 0.90166 114 116 111
0.79449 -4.69358 0.90952 110 118 114
0.78552 -4.71553 0.90972 94 97 106
0.77210 -4.72789 0.91238 106 109 117
0.64898 -4.74683 0.94785 129 133 135
0.63572 -4.75935 0.95045 111 103 116
0.61878 -4.76305 0.95521 111 115 124
0.60093 -4.77357 0.94123 118 125 116
0.50054 -4.74010 0.99405 130 134 123
0.51808 -4.72977 1.00778 119 124 124
0.51487 -4.73094 0.99073 131 132 127
0.50374 -4.73893 1.01110 127 129 123
0.48941 -4.74809 1.01442 130 132 129
0.49298 -4.76686 0.99325 125 132 123
0.47537 -4.77723 0.97946 112 106 105
0.44607 -4.88141 0.99429 117 116 111
0.45742 -4.87327 0.97352 124 119 128
0.44281 -4.88260 0.97691 126 122 124
0.42820 -4.89194 0.98029 123 118 114
0.31917 -4.87391 1.03398 128 128 123
0.30158 -4.88427 1.02021 127 128 134
0.28682 -4.88142 1.04301 115 117 113
0.26927 -4.89175 1.02926 124 126 116
0.27102 -4.88615 1.04729 121 116 100
0.23642 -4.88584 1.05791 121 113 105
0.23323 -4.88701 1.04093 118 115 109
0.21895 -4.89613 1.04424 117 112 110
0.13652 -4.94978 1.08104 116 117 107
0.13333 -4.95095 1.06406 105 101 96
0.10052 -4.94198 1.09296 113 115 117
0.09735 -4.94315 1.07608 115 111 115
0.08633 -4.95105 1.09625 96 95 109
-0.00888 -5.03073 1.11612 123 115 106
0.00855 -5.02047 1.12976 124 118 115
0.00537 -5.02163 1.11282 124 121 109
-0.01206 -5.03190 1.09917 124 123 118
-0.01994 -5.03867 1.13636 119 110 103
-0.02312 -5.03983 1.11942 117 113 96
-0.08264 -5.06565 1.13463 104 101 87
-0.07160 -5.05773 1.11443 102 104 100
-0.10003 -5.07589 1.12101 112 113 106
-0.09544 -5.08071 1.13679 115 112 106
-0.11285 -5.09097 1.12316 106 100 95
-0.32998 -5.02177 1.21540 91 94 97
-0.31935 -5.01414 1.19594 95 93 78
-0.33304 -5.02289 1.19911 87 89 83
-0.34548 -5.02085 1.22024 115 116 124
-0.35911 -5.02971 1.22339 140 134 142
-0.36972 -5.03732 1.24281 155 139 128
-0.37278 -5.03844 1.22655 152 138 134
-0.40033 -5.05455 1.23311 154 140 119
-0.38362 -5.04471 1.24619 155 138 120
-0.38667 -5.04582 1.22995 153 137 124
-0.38973 -5.04694 1.21370 149 138 126
-0.40338 -5.05567 1.21686 151 135 112
-0.41142 -5.07834 1.23374 133 114 101
-0.40984 -5.17856 1.22161 96 81 65
-0.42692 -5.18862 1.20823 53 42 49
-0.49277 -5.34310 1.22785 30 27 34
-0.51649 -5.28553 1.24180 43 39 44
-0.53256 -5.28010 1.24735 56 58 52
-0.54800 -5.27863 1.25224 65 71 58
-0.56512 -5.28872 1.23884 79 80 74
-0.56026 -5.30063 1.25344 73 76 67
-0.57743 -5.31074 1.24000 79 80 76
2.57693 -2.93741 0.55197 130 103 78
2.58711 -2.93011 0.53335 131 101 82
2.57400 -2.93848 0.53638 130 103 79
2.57092 -2.95072 0.55223 119 92 67
2.57180 -2.96892 0.54978 97 67 53
2.56330 -2.98063 0.55100 93 63 51
2.56093 -2.99674 0.54981 118 94 65
2.47910 -3.11955 0.56034 108 90 61
2.46057 -3.14307 0.56324 110 85 63
2.45757 -3.14417 0.54725 103 83 55
2.44747 -3.15192 0.56622 127 103 63
2.43702 -3.15941 0.58533 134 102 74
2.43402 -3.16051 0.56933 132 104 71
2.43102 -3.16161 0.55334 125 99 72
2.38250 -3.25541 0.57386 121 98 94
2.39914 -3.24561 0.58690 132 102 80
2.39610 -3.24672 0.57071 123 97 88
2.36182 -3.25829 0.57989 107 99 100
2.34197 -3.26177 0.58559 115 109 116
2.34609 -3.28517 0.58152 138 125 136
2.34148 -3.30143 0.58100 151 143 159
2.40956 -3.42096 0.54575 98 80 44
2.42345 -3.45407 0.53752 58 40 45
2.35421 -3.41535 0.56347 105 106 119
2.34023 -3.42428 0.56671 137 141 134
2.33711 -3.42542 0.55009 75 67 89
1.13592 -2.90242 0.99999 186 196 224
1.14417 -2.89650 0.98489 157 150 176
1.13355 -2.90328 0.98735 143 148 184
1.11704 -2.90007 1.00609 205 222 243
1.11280 -2.91391 1.00574 218 232 246
1.10399 -2.92272 1.00740 191 195 230
1.10431 -2.94188 1.00501 138 143 197
1.10423 -2.96077 1.00278 105 120 172
1.09959 -2.97460 1.00256 106 120 166
1.09209 -2.98523 1.00360 115 126 157
1.08465 -2.99597 1.00461 119 125 151
1.07529 -3.00453 1.00647 117 101 134
1.06671 -3.01403 1.00797 117 83 129
1.06379 -3.03030 1.00693 127 137 164
1.05976 -3.04539 1.00637 132 145 167
1.04925 -3.05276 1.00872 134 138 159
1.03743 -3.07881 1.00925 139 138 155
1.03476 -3.09596 1.00802 144 151 166
1.01374 -3.11108 1.01269 148 155 167
1.00336 -3.11883 1.01497 138 143 166
1.00376 -3.14028 1.01228 110 116 146
1.01920 -3.18119 1.00264 77 83 121
1.03661 -3.24705 0.98941 48 46 95
1.02271 -3.25523 0.97853 40 46 85
1.01643 -3.30986 0.98812 50 46 83
1.00238 -3.31814 0.97712 74 86 106
1.02849 -3.34897 0.97973 72 78 102
1.00795 -3.36745 0.98385 81 88 108
1.00535 -3.36840 0.97003 77 79 107
0.99758 -3.37661 0.98595 72 80 96
0.99438 -3.39576 0.98465 59 56 90
0.98011 -3.40417 0.97347 51 50 81
0.98375 -3.40467 0.98685 47 45 80
0.96497 -3.52473 0.97830 50 54 88
0.97426 -3.51807 0.96130 48 49 85
0.96575 -3.55122 0.97489 77 84 106
0.95694 -3.56370 0.97611 105 113 124
0.94439 -3.57063 0.97915 88 93 115
0.94711 -3.60070 0.97472 55 59 87
0.93228 -3.60943 0.96311 39 43 70
0.93451 -3.60772 0.97776 39 43 66
0.91968 -3.61645 0.96615 38 44 67
0.86609 -3.66108 0.99246 34 35 67
0.88095 -3.65233 1.00410 38 41 59
0.87824 -3.65332 0.98965 38 36 63
0.86880 -3.66008 1.00691 34 41 59
0.86704 -3.69001 0.98871 46 50 82
0.86278 -3.71079 0.98754 60 58 88
0.89464 -3.79115 0.96813 76 79 98
0.86858 -3.83458 0.97097 82 86 95
0.89206 -3.90392 0.95545 40 42 58
0.87638 -3.91316 0.94317 33 32 58
0.87925 -3.91211 0.95842 32 33 54
0.86892 -3.95516 0.95646 74 91 133
0.86612 -3.98117 0.95421 129 146 168
0.85025 -3.99052 0.94179 140 149 164
0.82715 -4.00596 0.96325 144 148 155
0.83723 -3.99874 0.94481 141 145 160
0.82732 -4.03814 0.95936 125 124 123
0.86079 -4.13179 0.93786 61 52 45
0.85034 -4.14571 0.93942 27 26 28
0.83398 -4.15535 0.92660 30 32 40
0.89475 -4.40348 0.89494 44 41 53
0.89043 -4.43159 0.89292 57 56 60
0.87522 -4.43863 0.89676 72 73 72
0.86192 -4.44943 0.89956 82 83 87
0.84576 -4.45452 0.90394 94 100 95
0.83888 -4.47831 0.90321 113 113 105
0.82148 -4.48855 0.88959 118 119 117
0.79583 -4.66367 0.89433 120 120 112
0.81373 -4.65312 0.90834 114 113 104
0.81046 -4.65432 0.89094 120 123 112
0.80719 -4.65552 0.87354 122 120 111
0.78951 -4.69108 0.89300 117 119 117
0.77834 -4.70820 0.89440 108 109 114
0.76034 -4.71880 0.88030 119 124 120
0.76800 -4.72731 0.89530 114 111 120
0.74996 -4.73794 0.88117 126 126 128
0.75508 -4.74081 0.89766 118 116 122
0.74032 -4.75024 0.90108 114 118 119
0.73702 -4.75144 0.88353 119 121 120
0.65492 -4.72600 0.93028 120 121 129
0.67273 -4.71552 0.94423 129 130 132
0.66947 -4.71671 0.92691 125 129 130
0.63711 -4.73649 0.91634 120 129 130
0.64084 -4.73644 0.93337 123 129 129
0.62583 -4.74466 0.93701 117 107 109
0.60704 -4.74370 0.94292 118 118 114
0.51249 -4.73419 0.97317 119 121 127
0.52683 -4.72503 0.96985 133 131 131
0.52362 -4.72620 0.95279 128 126 125
0.50928 -4.73536 0.95611 121 122 122
0.49494 -4.74453 0.95944 118 119 116
0.49355 -4.73152 0.97933 112 113 114
0.47605 -4.74183 0.96562 121 120 113
0.48825 -4.76409 0.97707 115 113 109
0.31231 -4.86427 1.01929 122 124 125
0.32345 -4.85628 0.99890 110 108 106
0.29476 -4.87461 1.00555 125 123 127
0.28034 -4.87266 1.02813 126 133 131
0.24958 -4.88435 1.03621 122 121 127
0.24639 -4.88552 1.01921 117 109 107
0.23209 -4.89465 1.02252 118 115 111
-0.02820 -5.03350 1.10395 116 107 89
-0.04242 -5.04258 1.10725 100 96 77
-0.08924 -5.05249 1.12048 107 107 101
-0.07823 -5.04460 1.10034 104 112 108
-0.14261 -5.10339 1.13084 103 105 99
-0.12522 -5.09314 1.14446 98 99 100
-0.12840 -5.09431 1.12755 101 104 100
-0.13943 -5.10222 1.14775 99 100 97
-0.15365 -5.11131 1.15104 95 93 96
-0.15925 -5.10154 1.13619 98 95 97
-0.17026 -5.10944 1.15634 96 94 99
-0.17343 -5.11060 1.13947 97 96 96
-0.17660 -5.11176 1.12260 102 100 93
-0.34372 -5.04786 1.19942 92 94 96
-0.33305 -5.04021 1.17989 92 93 88
-0.34679 -5.04899 1.18308 91 91 82
-0.36169 -5.03343 1.20668 114 116 118
-0.37841 -5.04328 1.19358 108 111 115
-0.37649 -5.03583 1.21095 139 134 132
-0.41224 -5.09267 1.21517 122 105 77
-0.40589 -5.22220 1.19774 81 73 55
-0.42312 -5.23235 1.18425 47 36 44
-0.52251 -5.26636 1.22838 64 69 63
-0.53965 -5.27645 1.21497 83 85 77
-0.53801 -5.26453 1.23338 74 81 69
-0.55511 -5.27460 1.21999 86 85 78
-0.55140 -5.27775 1.23592 79 83 72
-0.56852 -5.28783 1.22252 83 86 76
2.57306 -2.95532 0.53461 126 100 70
2.58326 -2.94800 0.51593 129 101 69
2.57012 -2.95640 0.51897 130 101 67
2.56996 -2.97076 0.53367 108 82 61
2.57295 -2.99060 0.53031 88 58 53
2.55676 -3.00014 0.51763 92 56 59
2.56812 -3.00503 0.53004 103 70 63
2.55729 -3.01525 0.53214 125 99 76
2.54698 -3.02265 0.55101 131 103 72
2.54402 -3.02373 0.53522 132 102 77
2.51441 -3.14975 0.52893 118 96 74
2.52494 -3.14220 0.50967 131 97 74
2.51139 -3.15086 0.51281 123 94 73
2.49784 -3.15952 0.51595 109 90 68
2.49684 -3.15533 0.53370 105 86 65
2.48028 -3.16509 0.52073 106 85 66
2.46887 -3.17194 0.54033 115 96 59
2.42863 -3.25686 0.54239 113 97 89
2.44538 -3.24700 0.55550 129 101 72
2.44232 -3.24812 0.53922 121 97 86
2.43169 -3.25574 0.55867 124 100 82
2.40558 -3.25800 0.54940 115 98 100
2.38073 -3.25757 0.55716 125 110 117
2.35155 -3.25344 0.56671 136 131 135
2.36425 -3.28385 0.55904 153 154 153
2.43849 -3.36591 0.52595 173 169 172
2.42138 -3.37599 0.51256 190 186 191
2.44194 -3.38949 0.52199 180 178 186
2.42475 -3.39962 0.50853 187 186 192
2.43409 -3.40372 0.52268 182 181 185
2.39306 -3.41067 0.53455 142 136 106
2.41725 -3.45261 0.52190 68 51 48
2.40639 -3.46455 0.52380 59 44 72
1.12483 -2.91219 0.98896 140 141 193
1.13309 -2.90627 0.97384 148 141 168
1.12739 -2.93370 0.98553 135 138 190
1.11881 -2.94291 0.98706 111 129 180
1.11127 -2.95333 0.98812 102 118 170
1.10421 -2.96435 0.98895 111 120 153
1.09844 -2.97692 0.98920 115 111 139
1.08528 -2.98467 0.97889 121 99 118
1.09024 -2.98675 0.99054 118 102 123
1.08171 -2.99624 0.99202 121 108 121
1.07399 -3.00672 0.99312 121 110 102
1.06576 -3.01664 0.99446 118 89 67
1.05749 -3.02657 0.99581 124 112 121
1.05417 -3.04247 0.99488 131 122 135
1.05178 -3.05964 0.99352 138 131 155
1.03845 -3.06750 0.98308 150 154 172
1.04430 -3.07076 0.99447 144 141 168
1.03827 -3.08372 0.99475 146 151 172
1.03089 -3.09510 0.99564 148 154 171
1.02548 -3.12976 0.99307 116 124 149
1.03960 -3.16859 0.98392 92 90 133
1.04942 -3.20241 0.97673 54 59 107
1.03565 -3.21053 0.96594 38 43 93
1.05183 -3.22712 0.97295 41 44 99
1.03797 -3.23528 0.96210 39 45 86
1.05111 -3.24807 0.97060 44 46 85
1.03719 -3.25627 0.95970 38 45 90
1.03113 -3.31116 0.96906 57 48 97
1.04265 -3.30381 0.96639 43 42 86
1.01705 -3.31946 0.95803 76 84 108
1.04010 -3.34598 0.96201 69 81 110
1.02588 -3.35435 0.95088 68 76 91
1.02303 -3.36923 0.96444 77 79 106
1.02043 -3.37018 0.95058 73 79 100
1.00201 -3.38727 0.96875 69 76 94
0.99655 -3.40336 0.96847 58 60 86
0.98224 -3.41179 0.95726 47 48 80
0.97222 -3.54029 0.95921 55 57 92
0.98154 -3.53360 0.94214 45 48 85
0.97002 -3.56251 0.95717 88 98 121
0.95770 -3.56984 0.96009 105 113 131
0.94711 -3.57976 0.96215 71 71 99
0.94800 -3.60715 0.95852 42 44 74
0.93314 -3.61590 0.94688 37 43 62
0.90123 -3.64102 0.96886 39 42 65
0.91339 -3.63325 0.96604 39 43 66
0.90395 -3.64002 0.98332 40 40 61
0.89180 -3.64779 0.98613 36 40 59
0.88847 -3.64782 0.97198 36 43 66
0.87528 -3.65392 0.97533 48 54 74
0.88360 -3.69454 0.96776 55 64 96
0.91462 -3.77247 0.94858 81 89 110
0.89931 -3.78149 0.93659 97 103 123
0.91574 -3.80273 0.94452 88 95 113
0.90033 -3.81181 0.93245 93 97 116
0.90683 -3.81684 0.94555 91 94 112
0.89139 -3.82593 0.93346 93 98 120
0.89866 -3.83228 0.94619 97 100 119
0.89173 -3.84993 0.94617 87 89 106
0.88175 -3.86259 0.94771 73 82 96
0.90106 -3.92515 0.93405 43 36 60
0.88529 -3.93443 0.92170 34 34 58
0.88681 -3.99247 0.93021 63 76 115
0.87489 -4.00277 0.93264 123 142 164
0.85893 -4.01217 0.92014 138 146 162
0.83371 -4.02410 0.94279 142 145 155
0.84383 -4.01683 0.92427 141 143 161
0.83080 -4.02516 0.92729 140 144 158
0.82026 -4.03166 0.94604 132 131 128
0.86319 -4.14277 0.91909 68 60 50
0.85285 -4.15699 0.92055 32 29 33
0.83645 -4.16665 0.90770 35 34 39
0.87937 -4.34505 0.88925 40 40 46
0.88468 -4.39123 0.88194 49 47 65
0.87566 -4.41010 0.88242 63 63 76
0.86107 -4.41815 0.88596 79 85 84
0.85625 -4.44561 0.88408 91 96 96
0.84664 -4.46379 0.88483 103 109 103
0.84132 -4.49084 0.88316 120 121 107
0.82388 -4.50112 0.86950 118 121 120
0.78608 -4.65085 0.88066 128 131 124
0.79740 -4.64272 0.85993 123 119 110
0.76824 -4.66135 0.86669 124 130 131
0.78134 -4.68163 0.87835 124 130 132
0.76932 -4.69679 0.88022 120 113 121
0.75137 -4.70736 0.86616 116 112 114
0.66150 -4.70687 0.91241 118 120 119
0.67926 -4.69641 0.92632 122 124 130
0.67602 -4.69760 0.90905 119 123 127
0.67277 -4.69878 0.89178 128 125 125
0.65825 -4.70806 0.89514 125 120 117
0.61324 -4.72340 0.92535 122 118 110
0.61000 -4.72459 0.90812 124 121 124
0.59532 -4.72432 0.93079 127 128 116
0.57763 -4.73474 0.91694 135 136 130
0.57920 -4.72948 0.93516 129 132 118
0.56799 -4.73753 0.95568 120 126 125
0.56476 -4.73871 0.93850 123 130 123
0.27353 -4.86285 1.01357 125 123 125
0.28463 -4.85490 0.99327 129 127 124
0.25832 -4.86912 1.01752 122 113 111
0.24086 -4.87940 1.00385 115 113 104
0.02375 -4.99170 1.07521 121 116 112
0.03795 -4.98263 1.07192 104 101 102
0.02058 -4.99286 1.05832 120 114 108
0.00955 -5.00077 1.07850 120 117 109
-0.03444 -5.02253 1.08947 123 120 96
-0.05110 -5.02164 1.09475 116 108 96
-0.06526 -5.03068 1.09803 110 108 106
-0.09545 -5.04088 1.10614 113 118 112
-0.08448 -5.03300 1.08605 101 98 106
-0.10845 -5.05471 1.10847 114 117 108
-0.12260 -5.06375 1.11175 107 99 92
-0.12576 -5.06491 1.09492 105 105 101
-0.35920 -5.06503 1.18496 90 87 82
-0.36228 -5.06616 1.16859 78 78 72
-0.39323 -5.04546 1.19791 136 135 120
-0.40662 -5.05569 1.20081 142 129 100
-0.39831 -5.19448 1.18120 109 94 57
-0.40714 -5.23481 1.17899 70 60 45
-0.42441 -5.24498 1.16546 47 35 44
-0.49304 -5.28081 1.19998 59 61 64
-0.51028 -5.29096 1.18648 88 88 83
-0.50951 -5.27333 1.20600 73 76 76
-0.52669 -5.28345 1.19255 86 87 81
-0.52633 -5.26261 1.21254 80 83 76
-0.54345 -5.27269 1.19913 86 85 83
2.57440 -2.97703 0.51504 123 95 69
2.58466 -2.96967 0.49627 129 100 73
2.57145 -2.97811 0.49933 130 99 71
2.57885 -2.99794 0.51101 104 74 61
2.57077 -3.02811 0.50974 110 78 68
2.55446 -3.03772 0.49696 118 88 61
2.56366 -3.04112 0.51032 129 98 71
2.55329 -3.04855 0.52930 132 101 74
2.55031 -3.04965 0.51341 132 100 74
2.49425 -3.19508 0.51259 102 88 73
2.50484 -3.18748 0.49321 115 88 73
2.48249 -3.20526 0.51498 115 93 84
2.47189 -3.21286 0.53438 127 100 79
2.46885 -3.21398 0.51814 118 97 88
2.46273 -3.24828 0.51573 113 97 100
2.47952 -3.23839 0.52888 125 101 83
2.47645 -3.23951 0.51255 112 97 90
2.46579 -3.24716 0.53206 126 99 86
2.44738 -3.25575 0.51958 115 100 106
2.43219 -3.26332 0.52337 119 110 115
2.41606 -3.27012 0.52755 133 132 129
2.38774 -3.26691 0.53679 160 155 145
2.46857 -3.35350 0.50066 179 175 177
2.45144 -3.36359 0.48724 192 190 196
2.47549 -3.37980 0.49518 184 184 188
2.45829 -3.38621 0.49975 188 187 195
2.42320 -3.41926 0.50654 188 185 190
2.42005 -3.42041 0.48976 188 185 197
2.40879 -3.42800 0.50994 183 173 169
2.42398 -3.46232 0.50087 123 104 108
2.41378 -3.47489 0.50247 69 53 56
2.40888 -3.49216 0.50183 39 29 64
2.39780 -3.50010 0.52210 73 63 86
2.39555 -3.50210 0.50473 24 20 51
2.38447 -3.51005 0.52502 67 58 86
2.38128 -3.51122 0.50804 32 26 64
2.37809 -3.51238 0.49106 43 33 45
1.72707 -2.98449 0.77858 140 129 127
1.74154 -2.97597 0.78991 120 113 122
1.73890 -2.97694 0.77585 86 86 83
1.73626 -2.97791 0.76178 58 60 65
1.71789 -2.99108 0.79539 158 134 123
1.71525 -2.99204 0.78132 155 134 124
1.13968 -2.93217 0.96853 124 116 158
1.14800 -2.92620 0.95330 154 146 163
1.13729 -2.93304 0.95578 129 132 137
1.12658 -2.93989 0.95826 111 131 136
1.13147 -2.94180 0.96988 107 112 161
1.11835 -2.94953 0.95960 122 147 167
1.11984 -2.94764 0.97277 118 139 175
1.11123 -2.95688 0.97429 119 127 162
1.10786 -2.97214 0.97342 118 110 138
1.09470 -2.97989 0.96311 124 98 120
1.10201 -2.98466 0.97368 118 98 118
1.08265 -3.00102 0.97766 124 97 116
1.07180 -3.00786 0.98018 128 118 120
1.06518 -3.01969 0.98076 129 122 126
1.05978 -3.03306 0.98076 130 118 141
1.06051 -3.05390 0.97791 137 134 159
1.05275 -3.06464 0.97898 144 148 168
1.03904 -3.08855 0.98025 142 151 176
1.03680 -3.10632 0.97871 123 125 161
1.06913 -3.16734 0.96093 95 96 135
1.05542 -3.17541 0.95020 43 45 89
1.07286 -3.19324 0.95650 57 65 105
1.05906 -3.20137 0.94570 51 52 91
1.06320 -3.20249 0.95835 48 48 96
1.04939 -3.21063 0.94754 48 52 86
1.05433 -3.21278 0.95983 45 41 85
1.04051 -3.22093 0.94900 43 49 90
1.03985 -3.30445 0.95280 53 45 84
1.05136 -3.29710 0.95013 40 41 82
1.02576 -3.31275 0.94177 75 83 105
1.04296 -3.33130 0.94845 73 73 103
1.02879 -3.33965 0.93735 76 77 103
1.01396 -3.38475 0.95077 80 83 105
1.01096 -3.40422 0.94925 59 59 85
1.00306 -3.41705 0.95010 47 48 71
0.98870 -3.42551 0.93885 41 44 76
0.97613 -3.55100 0.94164 53 60 92
0.98549 -3.54429 0.92452 46 51 85
0.97344 -3.55198 0.92731 50 55 83
0.97024 -3.56783 0.94136 79 93 116
0.95786 -3.57510 0.94431 82 90 108
0.95675 -3.59936 0.94160 50 51 74
0.94190 -3.60811 0.92997 38 38 63
0.94826 -3.61266 0.94257 34 39 65
0.91276 -3.63750 0.95052 45 45 72
0.92493 -3.62973 0.94771 40 41 67
0.90025 -3.64472 0.95352 54 56 80
0.89247 -3.65944 0.95410 60 64 89
0.93837 -3.75991 0.92712 80 88 100
0.92305 -3.76893 0.91512 94 102 115
0.93569 -3.78376 0.92495 89 98 113
0.92030 -3.79282 0.91289 95 102 119
0.92345 -3.79234 0.92769 99 105 121
0.90805 -3.80141 0.91564 93 98 120
0.89475 -3.86077 0.92803 87 92 106
0.89715 -3.89444 0.92304 65 77 95
0.91058 -3.94734 0.91218 43 33 61
0.89472 -3.95668 0.89976 32 36 59
0.88819 -3.97004 0.91631 20 26 61
0.88529 -3.97110 0.90087 29 29 57
0.89822 -4.01857 0.90707 52 58 94
0.88234 -4.02209 0.91159 116 132 157
0.82578 -4.04811 0.92596 137 136 134
0.83594 -4.04082 0.90736 139 143 158
0.85128 -4.12746 0.90801 75 69 55
0.86515 -4.18646 0.89625 35 31 30
0.84862 -4.19620 0.88331 36 38 43
0.87438 -4.30715 0.87817 41 43 40
0.88513 -4.29944 0.85850 40 43 44
0.87725 -4.34811 0.87211 47 48 52
0.87738 -4.38432 0.86751 57 56 72
0.86624 -4.39897 0.86915 69 71 86
0.85914 -4.42172 0.86850 85 90 94
0.85115 -4.44290 0.86832 98 104 101
0.83749 -4.45293 0.87132 108 113 110
0.83001 -4.47552 0.87081 117 117 116
0.81263 -4.48576 0.85721 124 127 126
0.78059 -4.64722 0.86461 125 126 126
0.79190 -4.63911 0.84391 120 130 118
0.76277 -4.65772 0.85066 121 123 123
0.58356 -4.70477 0.91887 133 131 127
0.58035 -4.70594 0.90175 118 117 127
0.55332 -4.71951 0.92645 121 122 126
0.55011 -4.72069 0.90935 118 118 120
0.54216 -4.72752 0.94688 126 130 128
0.53894 -4.72869 0.92978 122 120 129
0.26762 -4.85573 0.99847 127 125 125
0.27870 -4.84779 0.97821 121 121 121
0.25018 -4.86601 0.98482 117 110 105
0.25405 -4.86693 1.00130 120 114 109
0.00159 -4.98369 1.06540 117 116 109
0.01258 -4.97581 1.04529 119 119 120
-0.00914 -5.00594 1.06595 116 115 113
-0.02649 -5.01617 1.05236 104 100 100
-0.02599 -5.00455 1.07138 106 98 95
-0.03840 -5.02054 1.07324 121 116 108
-0.05574 -5.03076 1.05966 116 115 111
-0.09862 -5.04197 1.08934 115 117 115
-0.11591 -5.05215 1.07580 112 104 103
-0.11163 -5.05579 1.09166 114 116 107
-0.12894 -5.06599 1.07811 109 106 98
-0.17182 -5.07562 1.10795 107 103 102
-0.17497 -5.07677 1.09118 101 97 102
-0.18906 -5.08578 1.09445 97 98 104
-0.37135 -5.10127 1.16700 81 87 89
-0.37444 -5.10241 1.15055 83 86 85
-0.39579 -5.13776 1.17004 121 109 89
-0.39679 -5.22323 1.15958 90 78 51
-0.40554 -5.26471 1.15709 61 52 41
-0.46690 -5.27115 1.17543 54 44 67
-0.48175 -5.27524 1.17955 71 71 76
-0.49900 -5.28540 1.16605 90 90 92
-0.49820 -5.26823 1.18557 85 87 81
-0.51539 -5.27836 1.17210 90 89 88
2.58276 -3.00389 0.49244 121 91 58
2.59309 -2.99649 0.47355 129 97 76
2.57749 -3.01810 0.49226 99 67 46
2.57692 -3.03575 0.49016 95 57 49
2.56057 -3.04538 0.47736 99 66 63
2.59043 -3.21445 0.46283 126 96 65
2.60427 -3.20560 0.45963 132 99 80
2.57658 -3.22330 0.46604 116 93 63
2.50763 -3.20895 0.48956 112 96 84
2.48969 -3.21439 0.49449 110 99 94
2.47764 -3.22442 0.49698 110 98 103
2.47204 -3.23957 0.49679 106 102 107
2.47716 -3.26337 0.49210 119 113 122
2.49351 -3.29639 0.48270 135 131 141
2.46689 -3.29498 0.49125 158 155 168
2.47636 -3.32282 0.48468 178 176 179
2.45930 -3.33287 0.47132 196 193 197
2.48099 -3.34695 0.48010 192 190 181
2.46620 -3.35526 0.48368 194 192 193
2.44741 -3.38088 0.48627 190 187 192
2.44519 -3.39981 0.48453 189 184 175
2.43516 -3.41226 0.48607 189 183 178
2.41595 -3.43801 0.48878 196 188 188
2.44017 -3.48024 0.47571 151 146 147
2.42820 -3.49138 0.47803 106 101 90
2.41388 -3.50051 0.48135 61 50 62
2.40379 -3.51335 0.48287 43 35 50
2.38627 -3.52367 0.46915 51 40 48
1.72956 -2.99010 0.76231 117 111 117
1.73875 -2.98351 0.74548 50 47 57
1.72691 -2.99107 0.74823 84 82 92
1.71771 -2.99767 0.76506 147 132 122
1.70852 -3.00427 0.78189 156 132 125
1.70587 -3.00523 0.76780 154 132 127
1.70323 -3.00620 0.75371 152 133 121
1.11609 -2.96599 0.95819 125 127 158
1.12445 -2.96000 0.94289 125 134 151
1.11369 -2.96687 0.94538 129 137 161
1.11094 -2.97928 0.95809 123 104 137
1.09000 -2.99381 0.96279 125 106 128
1.07977 -3.00136 0.96503 128 108 136
1.08264 -3.02434 0.96116 136 134 156
1.06936 -3.03217 0.95076 145 156 171
1.07761 -3.03818 0.96095 142 152 167
1.06429 -3.04603 0.95052 147 156 172
1.07109 -3.05035 0.96143 144 152 166
1.06412 -3.06205 0.96211 146 153 171
1.05557 -3.07191 0.96352 146 154 175
1.04777 -3.08273 0.96457 137 146 164
1.07145 -3.13231 0.95073 106 113 141
1.05785 -3.14032 0.94008 52 49 97
1.09328 -3.18023 0.93768 63 74 108
1.08323 -3.18897 0.93971 49 54 103
1.06942 -3.19710 0.92890 53 58 92
1.04956 -3.29905 0.93607 51 44 85
1.06108 -3.29169 0.93340 41 44 85
1.04941 -3.32147 0.93322 65 76 101
1.03525 -3.32981 0.92213 76 80 99
1.03443 -3.37040 0.93160 75 77 93
1.04350 -3.36390 0.91501 79 79 103
1.02724 -3.38400 0.93210 81 87 102
1.01845 -3.39547 0.93338 87 90 103
1.01458 -3.41383 0.93223 56 57 78
1.00020 -3.42230 0.92097 42 43 63
1.00592 -3.42567 0.93342 41 44 67
0.99152 -3.43415 0.92214 41 43 70
0.96993 -3.57237 0.92578 60 65 89
0.96482 -3.59056 0.92503 58 57 86
0.95825 -3.60671 0.92501 45 39 71
0.94337 -3.61548 0.91336 40 37 62
0.93793 -3.62841 0.92859 40 43 58
0.93164 -3.64532 0.92839 47 53 74
0.95887 -3.71466 0.91087 65 75 95
0.95134 -3.73033 0.91121 84 89 107
0.94760 -3.75214 0.90957 83 91 111
0.94834 -3.78135 0.90557 90 98 111
0.91017 -3.86292 0.90702 88 95 117
0.92292 -3.85478 0.90407 91 97 118
0.90451 -3.88297 0.90621 84 92 101
0.91836 -3.93623 0.89498 54 62 94
0.91785 -3.96575 0.89132 39 36 64
0.90192 -3.97514 0.87884 29 34 63
0.88784 -4.00660 0.89548 38 43 80
0.89800 -3.99931 0.87688 32 31 59
0.89001 -4.04189 0.89024 106 124 153
0.87321 -4.04386 0.89526 137 144 162
0.86006 -4.05226 0.89831 140 142 159
0.85712 -4.05334 0.88266 139 143 158
0.83261 -4.06701 0.90503 141 144 137
0.84283 -4.05968 0.88634 137 144 158
0.85491 -4.14072 0.88850 80 79 65
0.86890 -4.20015 0.87643 39 38 39
0.85232 -4.20992 0.86344 36 35 41
0.86852 -4.30300 0.86326 44 47 46
0.87925 -4.29530 0.84362 38 41 45
0.86829 -4.33800 0.85881 54 55 58
0.86728 -4.37195 0.85474 66 67 76
0.85793 -4.38999 0.85535 82 84 92
0.85375 -4.41843 0.85299 101 106 106
0.83651 -4.42859 0.83949 116 120 124
0.84482 -4.43776 0.85330 109 114 113
0.82754 -4.44794 0.83976 120 124 120
0.83064 -4.44667 0.85660 115 116 118
0.81335 -4.45685 0.84307 127 132 123
0.81890 -4.46056 0.85850 123 123 125
0.80160 -4.47076 0.84494 123 126 126
0.75158 -4.59255 0.86260 119 121 120
0.76274 -4.58455 0.84216 112 122 113
0.58965 -4.68449 0.90160 124 124 127
0.55706 -4.69322 0.91071 121 118 123
0.55386 -4.69439 0.89368 117 116 112
0.53955 -4.70354 0.89700 114 115 112
0.43110 -4.68910 0.95083 127 126 123
0.44834 -4.67894 0.96433 127 126 122
0.44519 -4.68010 0.94756 132 133 124
0.43425 -4.68795 0.96759 125 121 123
0.42015 -4.69695 0.97086 121 118 123
0.41385 -4.69926 0.93732 123 126 123
-0.38122 -5.15178 1.14630 94 87 88
-0.37039 -5.14401 1.12647 87 91 81
-0.38434 -5.15292 1.12970 92 89 80
-0.39829 -5.16184 1.13293 92 87 75
-0.38890 -5.19746 1.14281 96 87 74
-0.40102 -5.21799 1.14396 77 70 59
-0.41404 -5.23346 1.14606 61 58 50
-0.42867 -5.23928 1.14990 57 53 51
-0.44366 -5.24264 1.15418 61 63 58
-0.45661 -5.25892 1.15614 69 70 69
-0.47043 -5.26979 1.15908 77 77 81
-0.48770 -5.27995 1.14557 89 90 85
-0.98252 -5.50441 1.28968 73 72 72
-0.96556 -5.49441 1.30297 87 82 81
-0.97943 -5.50327 1.30618 82 79 83
-0.98562 -5.50554 1.27318 66 62 52
-0.99329 -5.51213 1.30939 84 82 85
2.60451 -3.02249 0.46650 128 97 64
2.61490 -3.01504 0.44748 129 94 72
2.60152 -3.02358 0.45058 130 97 67
2.58814 -3.03213 0.45368 127 96 62
2.60983 -3.04437 0.46191 119 84 57
2.63150 -3.22969 0.43052 126 101 70
2.64858 -3.21963 0.44389 130 98 80
2.64546 -3.22077 0.42729 129 101 70
2.60873 -3.23189 0.43743 118 95 56
2.57903 -3.22869 0.44725 103 86 52
2.55224 -3.22757 0.45587 98 79 69
2.52911 -3.22916 0.46298 108 96 94
2.50578 -3.23049 0.47018 107 103 106
2.50436 -3.24901 0.46817 118 113 123
2.55605 -3.30979 0.44378 131 133 137
2.53304 -3.31160 0.45082 155 157 158
2.53591 -3.33412 0.44693 176 177 178
2.51869 -3.34426 0.43345 195 192 209
2.51904 -3.34085 0.45137 190 188 202
2.50097 -3.34657 0.45633 195 193 202
2.46946 -3.36169 0.46429 196 191 185
2.45222 -3.36799 0.46891 194 187 169
2.44617 -3.38362 0.46875 188 176 139
2.45340 -3.41054 0.46290 189 168 104
2.43479 -3.41577 0.46810 190 172 117
2.43449 -3.43660 0.46543 191 186 193
2.41963 -3.44505 0.46901 199 195 192
2.42238 -3.46876 0.46500 167 166 164
2.43979 -3.50545 0.45464 135 129 119
2.43699 -3.52477 0.45297 86 81 73
2.41029 -3.52310 0.46163 56 44 53
2.39273 -3.53345 0.44788 60 51 57
1.72688 -3.00944 0.74580 133 127 114
1.73611 -3.00282 0.72891 62 60 77
1.10851 -2.98014 0.94526 129 115 138
1.11689 -2.97413 0.92993 133 147 174
1.10610 -2.98103 0.93243 137 141 165
1.09904 -2.98856 0.94714 129 94 121
1.08933 -2.99671 0.94913 132 117 147
1.08858 -3.01537 0.94690 136 138 167
1.07531 -3.02319 0.93651 147 156 178
1.08587 -3.03188 0.94557 142 152 172
1.07255 -3.03973 0.93515 150 157 173
1.06325 -3.06484 0.94836 146 156 174
1.05347 -3.07323 0.95034 133 139 168
1.08771 -3.13544 0.93128 96 103 129
1.09690 -3.16761 0.92411 55 64 99
1.08343 -3.19330 0.92497 56 57 96
1.08091 -3.19422 0.91153 67 71 102
1.06207 -3.29729 0.91795 50 42 84
1.07618 -3.28898 0.92900 41 47 84
1.07360 -3.28992 0.91528 40 45 82
1.07102 -3.29087 0.90156 43 37 82
1.05927 -3.31617 0.91634 64 65 100
1.04511 -3.32451 0.90525 74 82 102
1.03723 -3.37870 0.91503 84 87 102
1.02292 -3.38714 0.90382 91 98 115
1.03060 -3.39312 0.91522 88 94 109
1.02342 -3.40688 0.91567 91 96 106
1.01859 -3.42401 0.91493 59 58 75
0.98768 -3.55243 0.90770 50 52 88
1.00245 -3.54373 0.91926 46 52 83
0.99975 -3.54471 0.90490 49 52 83
0.97291 -3.56113 0.89613 69 75 106
0.98287 -3.57088 0.90677 54 57 96
0.97165 -3.57994 0.90912 60 67 101
0.96387 -3.59420 0.90969 57 67 97
0.95579 -3.60810 0.91041 47 50 80
0.94091 -3.61687 0.89876 36 36 65
0.94009 -3.63690 0.91156 39 43 54
0.94164 -3.66603 0.90722 54 67 81
0.94996 -3.76135 0.89196 83 92 108
0.94899 -3.78792 0.88875 83 93 112
0.93949 -3.80101 0.89002 85 96 110
0.93242 -3.81814 0.88999 86 94 110
0.91691 -3.82727 0.87785 79 83 104
0.93140 -3.84535 0.88671 87 93 113
0.92500 -3.86397 0.88627 86 94 110
0.91925 -3.88386 0.88545 82 90 105
0.91532 -3.90700 0.88363 71 82 88
0.92593 -3.95503 0.87391 47 48 86
0.91001 -3.96441 0.86145 35 36 70
0.91780 -3.97170 0.87428 35 38 66
0.90184 -3.98110 0.86178 31 33 65
0.89476 -4.02493 0.87451 23 30 72
0.90497 -4.01761 0.85583 34 31 59
0.90494 -4.07456 0.86472 96 114 146
0.87941 -4.06123 0.87456 134 142 161
0.86325 -4.07075 0.86191 137 144 160
0.83845 -4.08415 0.88448 141 148 143
0.84871 -4.07679 0.86572 135 144 160
0.85448 -4.14655 0.87115 86 88 81
0.88054 -4.22858 0.85204 44 38 42
0.86384 -4.23841 0.83897 35 32 35
0.86345 -4.30034 0.84795 46 47 47
0.86677 -4.34219 0.84136 63 65 65
0.86419 -4.37316 0.83807 77 81 87
0.85595 -4.39340 0.83800 93 97 101
0.83878 -4.40352 0.82455 115 119 120
0.84621 -4.41089 0.83876 111 117 117
0.82900 -4.42102 0.82529 114 116 126
0.72562 -4.54432 0.85923 112 114 107
0.72244 -4.54548 0.84233 106 112 112
0.71080 -4.55207 0.86289 117 123 129
0.69659 -4.56114 0.86619 129 127 124
0.69342 -4.56230 0.84929 122 125 130
0.58767 -4.64508 0.88952 126 127 125
0.60191 -4.63598 0.88622 123 124 115
0.59873 -4.63714 0.86928 125 129 122
0.57578 -4.65986 0.89133 129 133 140
0.56166 -4.66932 0.89454 119 121 123
0.50318 -4.70217 0.90868 120 118 118
0.51744 -4.69307 0.90538 115 110 112
0.50637 -4.70101 0.92564 123 123 126
0.49212 -4.71011 0.92894 123 127 123
0.48893 -4.71128 0.91198 123 126 119
0.48575 -4.71244 0.89503 121 122 124
0.42991 -4.69546 0.93275 117 117 119
0.44087 -4.68760 0.91269 121 116 117
0.42676 -4.69661 0.91596 118 118 116
0.41265 -4.70563 0.91923 115 118 119
0.40021 -4.70948 0.94028 117 115 117
0.39706 -4.71064 0.92351 112 113 116
-0.00819 -4.97272 1.03460 121 115 101
0.00276 -4.96486 1.01455 119 113 124
-0.20274 -5.03815 1.08746 99 102 102
-0.18879 -5.02924 1.08423 99 100 95
-0.19191 -5.03038 1.06763 107 112 98
-0.21358 -5.04592 1.10730 100 100 99
-0.21915 -5.03551 1.09300 107 105 98
-0.22996 -5.04327 1.11279 101 101 97
-0.23307 -5.04441 1.09623 101 101 97
-0.40554 -5.21088 1.12873 83 82 73
-0.40869 -5.21203 1.11200 90 87 84
-0.42275 -5.22101 1.11526 86 86 86
-0.41951 -5.22048 1.13188 77 78 75
-0.43366 -5.22895 1.13523 76 73 73
-0.45087 -5.23909 1.12176 85 84 84
-0.44620 -5.24763 1.13673 82 79 72
-0.46344 -5.25779 1.12322 87 88 88
-0.45946 -5.26207 1.13901 87 87 80
-0.47672 -5.27224 1.12549 93 93 91
-0.47340 -5.27218 1.14208 89 91 87
-0.49066 -5.28235 1.12856 90 89 82
-0.97281 -5.47485 1.27320 83 80 71
-0.95592 -5.46489 1.28643 87 83 86
-0.95900 -5.46602 1.27000 90 83 86
-0.96209 -5.46715 1.25357 92 87 92
2.68377 -3.23355 0.39591 128 98 56
2.70097 -3.22342 0.40938 129 97 74
2.69783 -3.22456 0.39266 129 98 68
2.68691 -3.23240 0.41264 130 97 63
2.67172 -3.24404 0.39832 121 98 53
2.65640 -3.25208 0.40211 104 88 55
2.66546 -3.27870 0.39562 86 66 45
2.65547 -3.29093 0.39714 61 47 40
2.63931 -3.29843 0.40126 54 44 47
2.55312 -3.25138 0.43509 100 93 103
2.57154 -3.28559 0.42458 130 132 131
2.58303 -3.31465 0.41698 157 157 153
2.57183 -3.32597 0.41901 178 175 174
2.55457 -3.33614 0.40549 196 196 204
2.55744 -3.33476 0.42240 189 187 195
2.54017 -3.34493 0.40888 196 194 207
2.54210 -3.34279 0.42619 193 194 204
2.49463 -3.34509 0.44100 196 192 194
2.48241 -3.35555 0.44347 198 188 175
2.47236 -3.36783 0.44500 199 182 138
2.47423 -3.39007 0.44139 195 170 91
2.45696 -3.40024 0.42786 178 157 54
2.47285 -3.40977 0.43915 181 159 75
2.45521 -3.41589 0.44394 187 155 60
2.43868 -3.42291 0.44825 191 162 90
2.44103 -3.44606 0.44436 194 183 163
2.42710 -3.45538 0.44753 200 194 196
2.42361 -3.47375 0.44615 190 191 187
2.43428 -3.50462 0.43856 149 140 144
2.42721 -3.52018 0.43870 127 119 117
2.42479 -3.53995 0.43679 76 62 59
1.09653 -2.98932 0.93435 138 135 162
1.10491 -2.98331 0.91901 142 154 171
1.08332 -2.99710 0.92401 147 156 172
1.09357 -3.00533 0.93312 141 147 168
1.08032 -3.01313 0.92275 150 155 174
1.09080 -3.02170 0.93178 145 154 176
1.07750 -3.02953 0.92137 151 156 176
1.07407 -3.06154 0.93170 149 156 175
1.08257 -3.05544 0.91615 153 158 173
1.06588 -3.07185 0.93291 133 136 169
1.09680 -3.12973 0.91522 83 75 127
1.10160 -3.15640 0.91007 47 53 96
1.09550 -3.16991 0.91018 48 49 92
1.08929 -3.18338 0.91033 60 62 100
1.07736 -3.21121 0.91035 56 58 91
1.06856 -3.21753 0.92646 58 59 97
1.06349 -3.21938 0.89949 42 45 88
1.07584 -3.23093 0.90816 49 50 94
1.06191 -3.23914 0.89725 42 42 81
1.07078 -3.31301 0.89863 60 55 91
1.05660 -3.32137 0.88753 77 83 108
1.06597 -3.32936 0.89795 72 82 112
1.05175 -3.33774 0.88681 77 82 100
1.04331 -3.36812 0.89990 83 85 111
1.05239 -3.36161 0.88329 81 85 104
1.02901 -3.37654 0.88871 91 95 117
1.04080 -3.38806 0.89800 88 93 114
1.02644 -3.39652 0.88676 94 99 118
1.02767 -3.41733 0.89821 97 101 114
1.02504 -3.41829 0.88418 102 104 119
1.01791 -3.42768 0.89991 72 74 93
1.01211 -3.44364 0.89959 50 46 63
1.00420 -3.45674 0.90033 45 40 62
0.99499 -3.46334 0.91718 42 45 79
0.99235 -3.46431 0.90308 41 44 73
0.99219 -3.53862 0.89305 57 54 91
1.00693 -3.52994 0.90459 45 52 84
1.00424 -3.53092 0.89026 45 49 83
0.98802 -3.55788 0.89176 65 66 99
0.97161 -3.58492 0.89332 68 75 106
0.96539 -3.60155 0.89304 57 66 97
0.95599 -3.61352 0.89441 44 47 82
0.94109 -3.62230 0.88274 36 37 69
0.94381 -3.64783 0.89363 36 41 59
0.94107 -3.64883 0.87906 37 41 64
0.94323 -3.67377 0.89030 46 56 75
0.96007 -3.72727 0.87768 59 68 86
0.95226 -3.74262 0.87808 59 62 85
0.96200 -3.78598 0.86910 54 58 85
0.97006 -3.82724 0.86094 55 58 92
0.96202 -3.84303 0.86135 60 66 95
0.94490 -3.84414 0.86665 69 77 103
0.93605 -3.88805 0.86351 78 76 102
0.93610 -3.91783 0.85946 70 72 94
0.93606 -3.94782 0.85540 56 63 84
0.92764 -3.96394 0.85590 42 43 80
0.91168 -3.97334 0.84340 37 35 69
0.89321 -4.02844 0.85811 16 21 67
0.90343 -4.02111 0.83941 36 33 60
0.89436 -4.06217 0.85317 86 106 137
0.88547 -4.07840 0.85379 130 142 159
0.86923 -4.08797 0.84108 137 144 160
0.84470 -4.10209 0.86356 138 147 147
0.85500 -4.09470 0.84471 134 143 159
0.85261 -4.14971 0.85458 94 94 90
0.88990 -4.25284 0.82872 50 39 38
0.87310 -4.26273 0.81557 34 31 24
0.86992 -4.28457 0.83077 37 39 46
0.86115 -4.30297 0.83107 48 49 50
0.86626 -4.34836 0.82328 71 76 73
0.85686 -4.36612 0.82387 94 99 99
0.83977 -4.37618 0.81049 115 116 110
0.84972 -4.38848 0.82311 107 110 109
0.83258 -4.39858 0.80968 120 117 116
0.72092 -4.50247 0.84865 116 121 113
0.73816 -4.49231 0.86215 105 109 111
0.73187 -4.49462 0.82861 126 129 121
0.69357 -4.52236 0.85466 112 115 129
0.69042 -4.52351 0.83788 117 114 118
0.57791 -4.63047 0.87681 120 129 131
0.56684 -4.64709 0.87808 135 143 135
0.54944 -4.65734 0.86446 122 134 125
0.55251 -4.65590 0.88145 121 129 120
0.53893 -4.66657 0.88432 114 122 114
0.52579 -4.67834 0.88691 110 110 113
0.51154 -4.68738 0.89022 114 107 114
0.49413 -4.69763 0.87659 121 119 128
0.49694 -4.69555 0.89376 117 119 121
0.47954 -4.70580 0.88013 123 121 121
0.33486 -4.73024 0.94065 118 113 118
0.35205 -4.72012 0.95411 115 117 116
0.34891 -4.72126 0.93740 121 123 120
0.34577 -4.72241 0.92069 117 114 116
0.33800 -4.72909 0.95736 119 118 117
0.32395 -4.73807 0.96062 121 117 117
0.32365 -4.74737 0.94190 115 112 115
0.31272 -4.75521 0.96190 117 118 113
0.30958 -4.75636 0.94516 111 107 113
0.30644 -4.75751 0.92841 108 109 113
-0.01081 -4.97593 1.01736 126 119 122
-0.02807 -4.98610 1.00385 100 104 103
-0.20710 -5.03354 1.07204 115 119 104
-0.19628 -5.02578 1.05223 102 100 89
-0.21021 -5.03468 1.05546 112 113 102
-0.22415 -5.04358 1.05869 116 109 113
-0.22388 -5.02900 1.07800 122 117 110
-0.25406 -5.03514 1.08677 102 97 98
-0.26483 -5.04286 1.10648 93 95 86
-0.26793 -5.04399 1.08999 94 95 91
-0.43894 -5.21671 1.12100 85 86 85
-0.42805 -5.20890 1.10106 90 89 90
-0.44208 -5.21786 1.10431 88 87 91
-0.45610 -5.22682 1.10756 83 89 88
-0.77784 -5.40628 1.20317 91 85 83
-0.76077 -5.39622 1.21654 88 85 86
-0.76389 -5.39736 1.19994 87 86 87
-0.77473 -5.40514 1.21978 94 87 85
-0.78868 -5.41405 1.22301 89 83 83
-0.79492 -5.41634 1.18980 79 71 61
-0.79440 -5.38450 1.21140 85 83 83
-0.80517 -5.39223 1.23111 85 83 77
-0.81137 -5.39450 1.19811 69 66 82
-0.97590 -5.47598 1.25677 84 79 77
-0.96517 -5.46828 1.23714 85 84 87
-0.97898 -5.47710 1.24034 80 81 85
-0.98889 -5.50291 1.25725 76 71 66
-1.00584 -5.51290 1.24397 78 74 56
2.72183 -3.24590 0.36443 121 95 53
2.73914 -3.23570 0.37799 129 97 71
2.73598 -3.23686 0.36115 126 97 61
2.70860 -3.25565 0.36732 109 87 44
2.72069 -3.28448 0.35944 87 69 36
2.70598 -3.29324 0.36293 58 45 25
2.68855 -3.30352 0.34928 28 21 17
2.68275 -3.29549 0.37007 35 22 22
2.66535 -3.30573 0.35645 31 25 33
2.66494 -3.30181 0.37489 26 19 33
2.64486 -3.30634 0.38070 28 26 39
2.58399 -3.27900 0.40400 87 80 104
2.60602 -3.31624 0.39177 163 169 175
2.58709 -3.32150 0.39710 192 193 191
2.56981 -3.33168 0.38357 197 197 203
2.57324 -3.33075 0.40026 196 194 197
2.55595 -3.34093 0.38672 196 195 206
2.52168 -3.35039 0.41405 197 190 189
2.49850 -3.35197 0.42126 198 181 132
2.51886 -3.38927 0.40956 199 172 93
2.51926 -3.41042 0.40649 200 165 66
2.50183 -3.42068 0.39284 194 161 45
2.49160 -3.40833 0.41564 195 160 60
2.47423 -3.41856 0.40204 193 159 41
2.45799 -3.42207 0.42450 179 156 55
2.45483 -3.42323 0.40764 168 140 65
2.43834 -3.42647 0.43019 190 166 67
2.43914 -3.44832 0.42690 196 177 120
2.44171 -3.47187 0.42280 197 191 193
2.42510 -3.47897 0.42714 198 194 197
2.42718 -3.50238 0.42322 162 163 162
2.42207 -3.51965 0.42246 156 146 125
2.43810 -3.55578 0.41230 107 98 91
2.41529 -3.55761 0.41936 76 66 63
2.40406 -3.56567 0.43990 58 52 55
2.40084 -3.56685 0.42270 70 60 65
2.39761 -3.56803 0.40551 94 84 76
1.08089 -3.07354 0.91417 145 149 164
1.10443 -3.12227 0.89986 92 94 131
1.11229 -3.15252 0.89314 46 41 87
1.09853 -3.16063 0.88237 43 45 86
1.10270 -3.16174 0.89493 42 44 88
1.08893 -3.16985 0.88415 43 46 85
1.09610 -3.17467 0.89525 50 51 87
1.08880 -3.18683 0.89590 56 72 88
1.08220 -3.19993 0.89619 55 58 95
1.06836 -3.20809 0.88535 45 41 80
1.08088 -3.21978 0.89386 47 46 86
1.06698 -3.22798 0.88297 43 42 82
1.08398 -3.31202 0.88006 51 42 80
1.09819 -3.30365 0.89118 40 45 84
1.09560 -3.30460 0.87736 37 42 73
1.09300 -3.30555 0.86355 36 43 76
1.07905 -3.32819 0.87939 75 77 100
1.04810 -3.37907 0.88224 86 90 112
1.02384 -3.44059 0.88147 95 100 116
1.03304 -3.43399 0.86463 98 103 123
1.02120 -3.44156 0.86737 98 105 124
1.01831 -3.45702 0.88096 85 84 100
1.00967 -3.46919 0.88203 68 64 78
1.00253 -3.48358 0.88232 48 52 77
0.99327 -3.49022 0.89927 40 48 77
0.99061 -3.49119 0.88509 41 50 80
0.98795 -3.49217 0.87090 41 50 82
0.99604 -3.52393 0.87880 49 55 91
0.99262 -3.54416 0.87708 66 69 106
0.98660 -3.56075 0.87671 71 74 104
0.97181 -3.56947 0.86512 54 56 85
0.98337 -3.58162 0.87484 62 64 96
0.96852 -3.59038 0.86321 52 60 88
0.97595 -3.59643 0.87517 53 57 92
0.96839 -3.61116 0.87554 46 50 86
0.96156 -3.62709 0.87552 38 40 78
0.94660 -3.63590 0.86381 39 39 68
0.94761 -3.68588 0.87182 39 45 66
0.95721 -3.67899 0.85426 39 42 64
0.94485 -3.68689 0.85712 38 44 63
0.93250 -3.69478 0.85998 39 43 60
0.95160 -3.71939 0.86589 42 45 66
0.93637 -3.72836 0.85396 38 44 58
0.95888 -3.75850 0.85812 41 43 66
0.94351 -3.76756 0.84609 40 45 63
0.96890 -3.80250 0.84880 41 43 69
0.95337 -3.81165 0.83664 41 44 64
0.97098 -3.83435 0.84371 41 43 71
0.95535 -3.84356 0.83147 41 43 67
0.96779 -3.85804 0.84144 44 46 76
0.96447 -3.88176 0.83921 59 58 90
0.95033 -3.88796 0.84288 80 85 105
0.94362 -3.90644 0.84246 76 77 97
0.93690 -3.92507 0.84203 63 70 87
0.93509 -3.95216 0.83884 46 50 82
0.91916 -3.96155 0.82637 36 38 68
0.92583 -3.96689 0.83977 40 41 74
0.90987 -3.97629 0.82727 36 35 64
0.89345 -4.03510 0.84067 18 22 67
0.90368 -4.02776 0.82194 37 37 61
0.88927 -4.05947 0.83862 78 95 128
0.89097 -4.09465 0.83319 127 142 158
0.87467 -4.10425 0.82043 136 144 160
0.84975 -4.11788 0.84317 136 145 148
0.86009 -4.11046 0.82425 134 142 159
0.84950 -4.15059 0.83871 102 102 99
0.89271 -4.26495 0.80898 55 45 36
0.86718 -4.28635 0.81418 41 37 40
0.85796 -4.30391 0.81470 57 55 51
0.86430 -4.35173 0.80602 83 90 78
0.85285 -4.36552 0.80778 106 110 104
0.83577 -4.37558 0.79440 115 113 107
0.70992 -4.48668 0.83675 126 131 126
0.72083 -4.47885 0.81679 119 117 129
0.69546 -4.49472 0.84027 121 125 122
0.67014 -4.51879 0.84503 125 134 131
0.65630 -4.52825 0.84815 132 132 130
0.64538 -4.53608 0.86814 127 132 124
0.64224 -4.53723 0.85141 126 132 129
0.63910 -4.53838 0.83469 121 119 128
0.59542 -4.59533 0.85834 126 122 116
0.61270 -4.58515 0.87188 125 125 125
0.60955 -4.58631 0.85507 128 129 124
0.59857 -4.59418 0.87516 129 132 127
0.57813 -4.60552 0.84481 108 112 104
0.58368 -4.61008 0.86006 117 116 107
0.56637 -4.62027 0.84650 107 111 106
0.57121 -4.62316 0.86224 113 114 112
0.55822 -4.63504 0.86475 116 118 115
0.53220 -4.65891 0.86977 123 119 114
0.51787 -4.66766 0.87314 124 124 124
0.50051 -4.67788 0.85955 127 125 130
0.50352 -4.67632 0.87654 127 126 133
0.48616 -4.68654 0.86295 125 124 131
0.39258 -4.70818 0.90766 116 122 118
0.40667 -4.69918 0.90440 119 126 121
0.40352 -4.70033 0.88764 119 125 122
0.37849 -4.71718 0.91093 118 119 117
0.32581 -4.71459 0.92817 108 102 110
0.33668 -4.70679 0.90828 119 123 120
0.30951 -4.71691 0.93307 102 99 108
0.02037 -4.92034 0.99746 118 113 123
0.03752 -4.91024 1.01089 110 102 111
0.03439 -4.91138 0.99421 114 104 119
0.03126 -4.91253 0.97753 118 113 117
0.02350 -4.91919 1.01414 115 115 116
0.00634 -4.92930 1.00071 119 122 115
-0.00625 -4.94370 1.00274 116 114 111
-0.02342 -4.95382 0.98929 109 105 107
-0.01902 -4.95755 1.00491 111 104 109
-0.03622 -4.96768 0.99145 106 105 109
-0.24329 -5.02744 1.06707 110 102 105
-0.23252 -5.01972 1.04736 116 118 112
-0.24639 -5.02857 1.05057 110 110 105
-0.25837 -5.03034 1.07150 112 105 93
-0.27355 -5.03259 1.07604 98 94 89
-0.28428 -5.04029 1.09570 93 96 92
-0.28737 -5.04142 1.07925 92 89 87
2.72928 -3.23539 0.34583 107 89 57
2.74342 -3.22636 0.34255 97 76 70
2.74770 -3.26869 0.33516 96 72 43
2.75386 -3.29312 0.32969 70 49 45
2.74166 -3.30388 0.33210 38 31 31
2.72313 -3.30986 0.33723 29 20 23
2.70560 -3.32018 0.32350 31 26 23
2.65412 -3.31714 0.35845 27 23 36
2.66517 -3.30921 0.33822 35 28 32
2.65094 -3.31830 0.34152 34 29 37
2.63345 -3.32120 0.36454 50 37 75
2.61013 -3.32311 0.37179 148 156 174
2.59171 -3.32881 0.37691 195 198 206
2.57439 -3.33901 0.36335 197 197 206
2.55020 -3.35672 0.38633 197 195 208
2.56120 -3.34883 0.36621 197 196 206
2.54703 -3.35788 0.36949 197 194 206
2.52862 -3.35974 0.39286 197 188 165
2.54812 -3.39629 0.38138 199 168 58
2.53402 -3.40553 0.38461 201 167 50
2.51977 -3.41465 0.38791 200 168 35
2.50232 -3.42493 0.37425 189 157 36
2.44847 -3.43894 0.40745 176 151 74
2.45950 -3.43103 0.38726 174 146 46
2.45400 -3.46495 0.40197 198 177 124
2.44933 -3.48237 0.40100 195 188 189
2.43657 -3.49288 0.40362 192 189 190
2.42832 -3.50735 0.40423 168 163 162
2.41845 -3.52047 0.40554 156 137 137
2.41628 -3.54047 0.40340 145 138 134
2.43353 -3.57798 0.39251 103 93 92
1.10031 -3.08040 0.89320 153 157 175
1.11135 -3.07335 0.89064 153 156 176
1.10889 -3.07425 0.87751 154 156 177
1.09283 -3.09172 0.89400 141 143 158
1.10914 -3.13189 0.88303 66 65 110
1.11800 -3.16346 0.87569 43 39 77
1.10419 -3.17159 0.86488 39 44 84
1.09332 -3.19652 0.87895 46 50 84
1.10212 -3.19021 0.86284 40 44 83
1.09079 -3.19745 0.86547 42 46 81
1.07946 -3.20469 0.86809 44 44 81
1.08951 -3.21320 0.87780 46 45 86
1.07561 -3.22139 0.86691 43 43 79
1.08807 -3.32167 0.86285 54 58 82
1.08089 -3.33497 0.86327 69 78 96
1.07077 -3.34447 0.86519 70 75 96
1.06443 -3.35905 0.86516 70 73 96
1.05983 -3.37606 0.86422 77 84 106
1.05367 -3.39111 0.86407 85 92 111
1.04815 -3.40714 0.86357 92 97 115
1.03635 -3.41468 0.86631 94 99 121
1.01663 -3.45936 0.86632 101 106 116
1.00846 -3.47221 0.86713 86 89 96
1.00514 -3.49208 0.86537 54 60 81
0.99052 -3.50069 0.85392 40 48 76
0.99633 -3.52922 0.86293 48 59 89
0.99024 -3.54561 0.86257 55 65 96
0.97548 -3.55430 0.85101 50 57 88
0.98676 -3.56595 0.86080 57 59 90
0.97194 -3.57468 0.84919 55 60 84
0.97072 -3.61977 0.85832 46 53 85
0.95576 -3.62858 0.84661 43 43 73
0.96644 -3.63966 0.85687 41 40 76
0.95143 -3.64851 0.84512 41 42 65
0.96443 -3.88747 0.82230 53 49 81
0.97445 -3.88027 0.80395 43 46 66
0.95772 -3.90593 0.82184 75 85 96
0.94689 -3.91773 0.82365 70 79 90
0.94066 -3.93727 0.82288 55 63 85
0.92475 -3.94664 0.81043 34 39 75
0.93367 -3.95574 0.82251 35 43 79
0.91773 -3.96514 0.81002 35 36 70
0.89108 -4.03719 0.82467 20 25 71
0.90131 -4.02984 0.80594 37 36 66
0.89685 -4.07929 0.81682 70 80 120
0.89349 -4.10558 0.81417 122 136 156
0.87715 -4.11521 0.80137 136 144 163
0.85230 -4.12913 0.82410 135 142 150
0.86267 -4.12170 0.80513 133 140 160
0.84867 -4.15570 0.82150 107 109 106
0.89592 -4.27783 0.78890 59 51 37
0.88273 -4.28783 0.79173 41 35 24
0.87082 -4.30027 0.79381 56 55 56
0.86744 -4.32919 0.79078 74 79 81
0.85931 -4.34923 0.79056 97 105 96
0.84226 -4.35927 0.77721 119 122 119
0.84797 -4.36321 0.79223 113 115 106
0.83090 -4.37327 0.77886 118 118 113
0.70030 -4.47378 0.82413 129 129 142
0.68318 -4.48386 0.81073 141 140 140
0.68665 -4.48349 0.82715 138 139 137
0.67456 -4.49663 0.82919 121 117 128
0.65742 -4.50672 0.81577 133 141 146
0.66045 -4.50536 0.83249 128 136 140
0.64804 -4.51790 0.83471 136 141 137
0.60234 -4.57800 0.84091 125 129 122
0.61960 -4.56784 0.85442 132 135 127
0.61330 -4.57015 0.82087 118 125 124
0.59920 -4.57916 0.82413 119 126 121
0.58509 -4.58817 0.82740 118 114 118
0.58955 -4.59010 0.84331 119 118 115
0.55164 -4.62791 0.85017 101 107 112
0.53840 -4.63916 0.85284 118 128 129
0.52534 -4.65092 0.85538 128 138 128
0.50801 -4.66113 0.84181 131 139 139
0.51060 -4.65852 0.85905 130 130 116
0.37445 -4.71586 0.89481 125 127 124
0.36351 -4.72370 0.91482 119 119 118
0.36036 -4.72485 0.89807 124 124 122
0.30640 -4.71806 0.91644 125 129 115
-0.21990 -5.00506 1.04538 115 119 104
-0.20915 -4.99734 1.02570 115 109 106
-0.26452 -5.01649 1.05814 113 110 93
-0.25380 -5.00880 1.03852 104 103 102
-0.26760 -5.01762 1.04172 103 99 95
-0.28140 -5.02643 1.04492 102 99 96
-0.27916 -5.02110 1.06221 105 100 91
-0.29603 -5.03103 1.04900 104 100 98
-0.76698 -5.43487 1.16071 85 85 84
-0.75607 -5.42704 1.14073 85 83 85
-0.77012 -5.43602 1.14399 82 81 84
2.75574 -3.23890 0.31905 102 80 59
2.77311 -3.22867 0.33265 97 80 63
2.76676 -3.23099 0.29887 118 96 62
2.76063 -3.26212 0.31408 88 67 50
2.77327 -3.29130 0.30574 70 53 44
2.76031 -3.30153 0.30846 55 45 36
2.75028 -3.31399 0.30990 46 37 28
2.73268 -3.32073 0.31464 38 27 28
2.71509 -3.33109 0.30087 32 25 27
2.64300 -3.33231 0.34206 26 25 45
2.65407 -3.32437 0.32180 38 30 28
2.61802 -3.33297 0.35007 81 85 94
2.59564 -3.33558 0.35696 175 185 203
2.54726 -3.37863 0.36640 197 193 181
2.55830 -3.37071 0.34620 196 194 206
2.54603 -3.39835 0.36393 198 177 95
2.53265 -3.40819 0.36684 199 167 35
2.52207 -3.42037 0.36850 194 163 21
2.50460 -3.43066 0.35482 181 153 36
2.45857 -3.45143 0.38460 155 126 81
2.45539 -3.45260 0.36764 155 116 74
2.46309 -3.47667 0.37946 189 174 137
2.44882 -3.48587 0.38276 190 178 177
2.43129 -3.49620 0.36903 161 163 150
2.43916 -3.49909 0.38397 176 170 162
2.42819 -3.51122 0.38577 182 182 174
2.41791 -3.52400 0.38724 163 151 147
2.40496 -3.53445 0.38993 162 155 148
2.42042 -3.57034 0.37969 133 127 125
2.41812 -3.59060 0.37750 135 134 125
2.40682 -3.59870 0.39818 92 85 76
2.41375 -3.60913 0.37622 134 131 114
2.40242 -3.61726 0.39696 87 79 76
2.39916 -3.61845 0.37960 122 112 90
1.61564 -3.44070 0.65975 161 139 133
1.63134 -3.43145 0.67204 160 137 132
1.62847 -3.43250 0.65678 163 138 132
1.62561 -3.43355 0.64151 157 137 130
1.61851 -3.43965 0.67501 161 144 137
1.60568 -3.44785 0.67799 168 156 156
1.60450 -3.45078 0.66190 167 152 146
1.59453 -3.45793 0.68015 163 154 169
1.59166 -3.45898 0.66487 167 159 157
1.58879 -3.46003 0.64960 169 158 150
1.11897 -3.10651 0.86954 155 156 177
1.12762 -3.10030 0.85371 153 156 177
1.11648 -3.10742 0.85629 153 157 181
1.10783 -3.11363 0.87213 145 147 156
1.09554 -3.11936 0.87528 78 78 103
1.11985 -3.16972 0.86007 39 33 75
1.09756 -3.31576 0.84607 44 44 78
1.11181 -3.30737 0.85723 44 42 80
1.10921 -3.30832 0.84337 43 41 77
