ply
format ascii 1.0
element face 0
property list uchar int vertex_indices
element vertex 1328
property float x
property float y
property float z
property uchar diffuse_red
property uchar diffuse_green
property uchar diffuse_blue
end_header
2.67914 -2.74035 0.81881 113 101 77
2.65808 -2.75997 0.85205 112 94 79
2.64541 -2.77230 0.85965 114 96 76
2.62583 -2.78829 0.84968 121 109 78
2.63098 -2.78368 0.86755 115 101 79
2.62108 -2.79751 0.87466 119 102 81
2.60348 -2.80713 0.88310 123 106 90
2.58392 -2.82310 0.87314 133 113 83
2.58904 -2.81846 0.89099 124 109 91
2.55826 -2.82067 0.90163 140 126 105
2.49467 -2.80432 0.91773 180 189 184
2.48885 -2.82020 0.92410 194 194 195
2.47502 -2.83158 0.93180 183 176 188
2.42243 -2.82071 0.94587 161 148 168
2.44105 -2.85065 0.94823 163 140 150
2.43334 -2.86552 0.95493 164 143 129
2.41407 -2.88125 0.94512 180 152 109
2.43178 -2.88405 0.96065 164 138 127
2.41248 -2.89981 0.95081 179 151 111
2.42801 -2.90135 0.96675 172 142 127
2.40867 -2.91715 0.95689 180 151 103
2.41407 -2.91268 0.97447 178 148 116
2.37332 -2.94724 0.99747 149 141 99
2.35031 -2.95297 1.00657 53 66 44
2.33088 -2.96081 1.01510 18 19 28
2.31163 -2.97652 1.00530 22 19 18
1.38300 -2.79576 1.27723 166 154 130
1.38752 -2.78839 1.25631 158 138 120
1.36669 -2.80908 1.26892 177 176 168
1.19029 -2.86596 1.35972 154 169 175
1.17430 -2.87902 1.35158 139 149 156
1.17121 -2.86899 1.36679 137 149 160
1.15572 -2.87482 1.37347 144 151 162
1.13722 -2.87814 1.38043 154 167 181
1.12134 -2.89111 1.37234 162 176 183
1.11902 -2.88162 1.38733 161 171 181
1.10318 -2.89455 1.37926 165 178 183
1.10767 -3.02221 1.43060 165 177 181
1.11216 -3.01489 1.40984 162 177 184
1.10182 -3.02515 1.41610 164 177 183
1.09918 -3.03408 1.43671 156 164 164
1.09139 -3.04660 1.44276 137 143 144
1.06123 -3.09784 1.46701 127 138 146
1.06574 -3.09049 1.44615 131 145 155
1.07033 -3.12584 1.47192 106 106 105
1.07403 -3.14913 1.47728 87 84 79
1.05760 -3.16255 1.46890 81 83 79
1.11170 -3.37112 1.52749 86 83 78
1.09528 -3.39820 1.54046 82 81 81
1.08611 -3.41084 1.54701 89 86 86
1.07791 -3.42448 1.55352 102 100 88
1.06929 -3.43774 1.56005 117 121 112
1.06038 -3.45072 1.56661 134 126 121
1.04688 -3.45908 1.57336 134 145 136
1.04869 -3.48307 1.57952 168 182 170
1.04672 -3.50333 1.58587 196 208 200
1.02941 -3.51746 1.57705 206 214 221
1.03846 -3.51720 1.59246 205 214 211
1.02114 -3.53134 1.58364 208 216 223
1.02920 -3.53007 1.59909 212 219 215
1.01187 -3.54422 1.59027 211 219 226
1.01936 -3.54235 1.60576 216 222 221
1.01147 -3.55672 1.61237 224 231 235
0.99106 -3.58061 1.62574 234 239 239
0.98479 -3.58377 1.61018 233 240 242
0.98209 -3.59391 1.63240 225 226 207
1.00857 -3.64580 1.63839 175 159 129
0.99176 -3.65084 1.64528 116 94 82
0.97722 -3.65830 1.65211 103 93 91
0.96580 -3.66917 1.65889 112 109 95
0.96093 -3.67710 1.68137 124 113 101
0.95460 -3.68029 1.66566 119 111 98
0.73087 -4.33690 1.92332 110 94 78
0.74955 -4.32165 1.93283 111 95 80
0.74280 -4.32505 1.91610 109 93 81
0.73605 -4.32845 1.89936 109 93 84
0.72134 -4.35221 1.93073 95 80 55
0.75738 -4.43362 1.94191 28 25 16
0.75594 -4.46130 1.95017 14 14 17
0.76459 -4.50402 1.95938 12 14 12
0.75926 -4.51271 1.98402 8 8 16
0.75232 -4.51621 1.96680 13 16 20
0.74538 -4.51971 1.94959 22 28 39
0.39586 -4.76647 2.15329 16 20 34
0.41480 -4.75100 2.16294 17 24 22
0.40795 -4.75445 2.14597 18 23 16
0.40111 -4.75790 2.12900 20 26 21
0.39356 -4.79608 2.16237 51 51 58
0.37077 -4.78888 2.16776 111 116 107
0.35184 -4.80434 2.15812 133 127 113
-0.00582 -4.41069 2.18391 137 117 101
-0.00112 -4.40303 2.16220 142 133 119
-0.01219 -4.43017 2.19147 66 44 48
-0.02916 -4.44403 2.18283 46 38 27
-0.02303 -4.44094 2.19803 45 46 51
-0.03213 -4.45517 2.20500 91 94 88
-0.03851 -4.47491 2.21263 125 122 108
-0.05105 -4.48233 2.21880 136 130 114
-0.05577 -4.49002 2.24061 143 134 121
-0.06191 -4.49312 2.22538 140 133 121
-0.06805 -4.49622 2.21014 138 128 117
3.38221 -2.04525 0.39427 150 137 128
3.38765 -2.03639 0.36914 185 188 186
3.36262 -2.06125 0.38429 167 162 148
3.35985 -2.05435 0.40415 114 91 89
3.34735 -2.06676 0.41171 112 97 96
3.32779 -2.08274 0.40175 180 181 178
3.33678 -2.07984 0.41883 154 152 147
3.31722 -2.09582 0.40886 184 187 193
3.14476 -2.17884 0.50946 177 186 178
3.15174 -2.17532 0.52678 140 142 143
3.22154 -2.24207 0.50187 214 214 203
2.89662 -2.35334 0.63957 113 117 123
2.90193 -2.34468 0.61503 139 142 157
2.89929 -2.37190 0.64386 60 53 63
2.93854 -2.49595 0.66554 65 60 64
2.91380 -2.50284 0.67558 68 77 88
2.87472 -2.50305 0.68847 123 138 142
2.88837 -2.52748 0.69080 106 118 113
2.86880 -2.54347 0.68083 116 107 108
2.88471 -2.54403 0.69661 105 95 95
2.87559 -2.55807 0.70352 141 145 160
2.83050 -2.55509 0.71750 175 174 184
2.81750 -2.60401 0.73539 182 184 197
2.81043 -2.60758 0.71784 182 177 188
2.81807 -2.62283 0.74045 189 189 198
2.80148 -2.65196 0.75402 187 187 191
2.79348 -2.66673 0.76076 182 179 187
2.77379 -2.68281 0.75073 176 170 178
2.76440 -2.70864 0.78199 182 186 181
2.76987 -2.69972 0.75668 175 173 178
2.75727 -2.71223 0.76431 175 175 178
2.75593 -2.72329 0.78885 167 171 164
2.72777 -2.72774 0.79934 120 104 99
2.67153 -2.75538 0.82550 121 102 84
2.65409 -2.76519 0.83396 121 102 84
2.64040 -2.77698 0.84174 125 106 81
2.61700 -2.80271 0.85660 129 110 83
2.59950 -2.81239 0.86504 134 117 87
2.57993 -2.82837 0.85507 154 125 85
2.55631 -2.82706 0.88331 139 115 84
2.52012 -2.82606 0.89492 154 137 124
2.50072 -2.84190 0.88504 158 135 95
2.49563 -2.83151 0.90447 151 134 116
2.48438 -2.84441 0.91176 138 121 110
2.47995 -2.86125 0.91791 121 96 92
2.45209 -2.86458 0.92799 155 130 103
2.42889 -2.87050 0.93725 178 148 111
2.39310 -2.92749 0.96488 180 156 103
2.37857 -2.93844 0.97270 145 134 104
2.35967 -2.94670 0.98121 55 65 40
2.34127 -2.95521 0.98963 12 15 9
2.32569 -2.96541 0.99758 12 11 16
2.30644 -2.98113 0.98778 38 18 14
1.39101 -2.80897 1.26090 163 149 136
1.39555 -2.80156 1.23991 161 139 123
1.21942 -2.87834 1.33658 161 173 178
1.23552 -2.86519 1.34478 161 173 178
1.22971 -2.86812 1.33035 162 175 180
1.22389 -2.87105 1.31592 161 176 182
1.20331 -2.89149 1.32837 139 149 160
1.20047 -2.88163 1.34372 146 158 170
1.16584 -2.89058 1.35758 152 164 169
1.14984 -2.90364 1.34943 163 179 184
1.14478 -2.89189 1.36486 159 176 186
1.12884 -2.90491 1.35674 163 178 184
1.09735 -3.04054 1.42185 163 174 175
1.10185 -3.03321 1.40106 163 178 185
1.09150 -3.04350 1.40733 162 177 182
1.09152 -3.05481 1.42774 151 156 156
1.08236 -3.06618 1.43392 138 144 151
1.07786 -3.07353 1.45475 132 142 156
1.07199 -3.07649 1.44020 133 144 153
1.06612 -3.07944 1.42565 133 144 150
1.06475 -3.10930 1.45172 128 140 145
1.06928 -3.10192 1.43080 131 144 152
1.07991 -3.14290 1.45610 104 107 104
1.09378 -3.17564 1.46067 82 82 75
1.10312 -3.37190 1.51229 84 84 85
1.10786 -3.36416 1.49035 81 96 119
1.09768 -3.38813 1.51860 86 89 89
1.06408 -3.39826 1.53245 109 122 129
1.06620 -3.42211 1.53840 127 147 144
1.06531 -3.44311 1.54455 155 180 177
1.06053 -3.46030 1.55091 178 199 197
1.05463 -3.47644 1.55734 198 211 214
1.04774 -3.49163 1.56384 207 221 224
1.04010 -3.50610 1.57038 208 221 224
1.00351 -3.55808 1.59688 219 226 233
1.00832 -3.55024 1.57464 210 217 227
0.99464 -3.57144 1.60351 229 236 240
0.97729 -3.58561 1.59467 233 239 242
0.97347 -3.59454 1.61690 234 238 231
0.97323 -3.61738 1.62334 208 205 178
0.98550 -3.65412 1.62955 142 123 104
0.96262 -3.65235 1.63657 97 77 77
0.95293 -3.66509 1.64330 100 96 91
0.93325 -3.66665 1.65020 111 107 95
0.92841 -3.67454 1.67257 122 111 99
0.92211 -3.67772 1.65694 118 110 99
0.73617 -4.35757 1.90744 109 92 80
0.74137 -4.34909 1.88338 108 92 86
0.72408 -4.36932 1.91468 93 79 58
0.74438 -4.42816 1.92441 31 32 24
0.72541 -4.44365 1.91475 26 36 43
0.74143 -4.45361 1.93247 21 30 30
0.72240 -4.46915 1.92278 27 33 39
0.74791 -4.49316 1.94136 22 28 32
0.72876 -4.50879 1.93161 24 31 39
0.38834 -4.76871 2.13621 13 18 33
0.39360 -4.76015 2.11193 21 28 15
0.38731 -4.80065 2.14545 62 67 79
0.36870 -4.80097 2.15165 118 120 114
0.34973 -4.81646 2.14199 132 124 114
-0.01194 -4.41377 2.16874 143 129 100
-0.00724 -4.40612 2.14702 144 134 117
-0.01504 -4.43971 2.17699 89 68 39
-0.03814 -4.45851 2.18981 59 71 66
-0.04994 -4.46737 2.19615 105 112 101
-0.06786 -4.46375 2.20103 132 125 111
3.61528 -2.30712 0.36843 160 163 168
3.59436 -2.32420 0.35777 133 141 156
3.22945 -2.23409 0.47606 226 237 235
3.20975 -2.25018 0.46602 228 234 237
2.92238 -2.38838 0.62031 75 81 80
2.90851 -2.39996 0.62809 52 44 47
2.90315 -2.40868 0.65284 54 51 55
2.89618 -2.41220 0.63555 54 50 47
2.95595 -2.49246 0.63790 67 61 58
2.97561 -2.47640 0.64792 60 57 56
2.96851 -2.47998 0.63030 63 56 58
2.94059 -2.52188 0.65110 65 69 80
2.91731 -2.52946 0.66090 102 110 115
2.88671 -2.53356 0.67216 119 133 134
2.88136 -2.56770 0.68335 127 129 146
2.84946 -2.57100 0.69483 135 137 160
2.83027 -2.58024 0.70373 147 148 166
2.81473 -2.59118 0.71190 180 183 194
2.79517 -2.60715 0.70193 179 173 180
2.81792 -2.62980 0.72149 184 186 190
2.80910 -2.64414 0.72836 188 190 194
2.78942 -2.66021 0.71833 177 176 180
2.80305 -2.65987 0.73471 185 189 189
2.79449 -2.67439 0.74155 180 179 176
2.75020 -2.72761 0.77089 171 176 170
2.74445 -2.74371 0.77724 152 146 133
2.71099 -2.74534 0.78877 110 99 78
2.68078 -2.74852 0.79965 106 102 90
2.66020 -2.75668 0.80872 114 111 96
2.64768 -2.76911 0.81629 113 117 101
2.62893 -2.77817 0.82500 109 112 98
2.62306 -2.79419 0.83136 100 90 80
2.61058 -2.80664 0.83893 133 112 85
2.59099 -2.82264 0.82895 154 126 89
2.59274 -2.81613 0.84745 151 126 95
2.55100 -2.83158 0.86554 155 126 85
2.54396 -2.83513 0.84807 159 129 88
2.53150 -2.84750 0.85560 159 134 98
2.52503 -2.83632 0.87545 161 135 98
2.50559 -2.85220 0.86554 157 138 106
2.48175 -2.85044 0.89367 153 129 88
2.47475 -2.85396 0.87632 157 143 102
2.46238 -2.86625 0.88381 162 146 105
2.46016 -2.85741 0.90274 137 114 87
2.44590 -2.86856 0.91054 152 132 106
2.42193 -2.87401 0.91998 168 151 107
2.41840 -2.89142 0.92595 173 155 120
2.41377 -2.90824 0.93213 170 157 120
2.39747 -2.91816 0.94026 171 147 106
2.38286 -2.92905 0.94810 161 137 104
2.36660 -2.93892 0.95621 83 87 73
2.35604 -2.95225 0.96339 49 35 27
2.33584 -2.95966 0.97212 39 14 6
2.32059 -2.97006 0.98004 33 11 7
2.30133 -2.98579 0.97023 105 83 41
1.39809 -2.82155 1.24458 163 147 133
1.40265 -2.81411 1.22350 160 140 122
1.34736 -2.80206 1.25600 174 172 162
1.34285 -2.80941 1.27684 168 174 174
1.33698 -2.81237 1.26228 179 185 180
1.29407 -2.79816 1.27257 169 173 169
1.29989 -2.79523 1.28699 151 157 159
1.28961 -2.80544 1.29322 148 157 157
1.26873 -2.79694 1.28063 159 166 162
1.26428 -2.80419 1.30118 149 158 162
1.25037 -2.80090 1.28780 158 161 160
1.23439 -2.81396 1.27966 165 177 179
1.23705 -2.80865 1.29435 162 174 177
1.23262 -2.81588 1.31484 160 172 179
1.22685 -2.81879 1.30053 163 175 179
1.22108 -2.82170 1.28621 164 176 182
1.22417 -2.88969 1.32097 151 165 173
1.18940 -2.89878 1.33499 146 158 164
1.17136 -2.90267 1.34204 159 175 176
1.15530 -2.91578 1.33386 165 179 185
1.08964 -3.06128 1.41285 159 171 174
1.09416 -3.05393 1.39200 161 177 185
1.08336 -3.07523 1.41878 145 155 159
1.06354 -3.11651 1.43672 131 142 147
1.06808 -3.10912 1.41578 134 144 153
1.09505 -3.16511 1.43970 104 109 108
1.10184 -3.19155 1.44474 77 84 81
1.09582 -3.20636 1.45082 77 85 88
1.09120 -3.21389 1.47218 85 85 83
1.11011 -3.24012 1.45540 80 88 97
1.10545 -3.24771 1.47692 85 86 85
1.09332 -3.25382 1.44685 78 98 117
1.11004 -3.28158 1.46685 75 85 90
1.10535 -3.28922 1.48852 77 77 72
1.10541 -3.29814 1.47296 68 77 82
1.10071 -3.30579 1.49466 75 74 75
1.09460 -3.30888 1.47950 69 77 90
1.08693 -3.36526 1.49759 92 110 128
1.07398 -3.37406 1.50430 104 128 145
1.08042 -3.40201 1.50988 116 148 163
1.07354 -3.41693 1.51627 135 167 190
1.06752 -3.43276 1.52263 146 179 199
1.06079 -3.44794 1.52905 158 193 217
1.05395 -3.46308 1.53549 178 204 227
1.04730 -3.47846 1.54193 196 214 238
1.04102 -3.49428 1.54838 209 223 237
1.03329 -3.50868 1.55491 216 227 235
1.02505 -3.52257 1.56147 212 218 223
1.01399 -3.53356 1.56816 210 216 223
0.99440 -3.55821 1.58145 215 222 229
0.99920 -3.55037 1.55923 209 215 228
0.98530 -3.57131 1.58808 226 233 237
0.96797 -3.58547 1.57924 231 237 239
0.96388 -3.59409 1.60145 235 239 240
0.95761 -3.59725 1.58592 234 238 240
0.95288 -3.60517 1.60815 231 231 215
0.94481 -3.61948 1.61477 183 168 141
0.94836 -3.64673 1.62111 114 86 77
0.92668 -3.64602 1.62810 91 75 78
0.91384 -3.65509 1.63485 101 98 92
0.89455 -3.65683 1.64172 111 106 98
0.88974 -3.66467 1.66394 121 110 99
0.88348 -3.66783 1.64842 116 108 99
0.73010 -4.36202 1.89068 109 91 82
0.73531 -4.35353 1.86662 106 91 79
0.71882 -4.37493 1.89798 91 77 59
0.73957 -4.43460 1.90756 34 35 34
0.72059 -4.45010 1.89789 28 39 44
0.39469 -4.79583 2.12141 11 18 25
0.39997 -4.78722 2.09700 24 28 15
0.39046 -4.82223 2.13009 72 84 78
0.36861 -4.81674 2.13581 122 123 114
0.34959 -4.83227 2.12613 132 123 116
-0.01413 -4.42456 2.15439 145 132 105
-0.00943 -4.41688 2.13264 144 132 122
-0.02026 -4.42765 2.13919 145 132 123
-0.02170 -4.44178 2.16165 129 105 70
-0.02740 -4.46283 2.16935 73 45 28
-0.03810 -4.47399 2.17597 37 39 51
-0.05098 -4.48075 2.18210 63 84 99
-0.08288 -4.44868 2.18381 111 117 121
-0.10071 -4.44485 2.18866 134 125 116
-0.10537 -4.45244 2.21019 140 132 122
-0.11143 -4.45550 2.19515 139 128 116
3.63403 -2.30238 0.33857 172 179 183
3.61307 -2.31950 0.32789 146 146 157
3.22528 -2.22154 0.45302 159 155 206
3.20561 -2.23760 0.44300 192 210 226
3.21301 -2.23413 0.46055 218 234 240
2.91727 -2.41035 0.60743 60 44 47
2.92941 -2.43343 0.60967 57 48 55
2.92402 -2.44223 0.63462 60 53 58
2.94121 -2.45654 0.61204 67 54 65
2.94606 -2.47670 0.61592 73 60 68
2.92645 -2.49271 0.60593 82 76 69
2.95509 -2.49886 0.61896 77 69 66
2.93539 -2.51494 0.60893 85 79 76
2.95523 -2.51714 0.62390 82 74 76
2.93549 -2.53326 0.61385 91 81 80
2.95045 -2.53326 0.62990 83 75 85
2.93878 -2.54625 0.63734 93 81 96
2.90929 -2.55094 0.64847 115 128 135
2.90934 -2.56938 0.65349 99 102 111
2.88565 -2.57668 0.66339 78 68 89
2.86663 -2.58612 0.67232 77 72 91
2.85097 -2.59714 0.68056 102 86 102
2.82284 -2.60209 0.69131 169 185 178
2.80322 -2.61811 0.68131 176 178 184
2.82009 -2.63795 0.70201 168 169 174
2.81297 -2.64153 0.68436 172 168 170
2.81244 -2.65289 0.70865 173 173 174
2.79530 -2.68197 0.72231 174 171 177
2.78334 -2.69484 0.72982 171 170 178
2.77173 -2.70789 0.73726 170 173 180
2.75817 -2.71995 0.74508 164 172 180
2.74475 -2.73208 0.75287 154 170 177
2.73824 -2.74780 0.75934 144 156 144
2.71780 -2.75625 0.76847 91 78 63
2.69458 -2.76316 0.77811 71 59 61
2.70568 -2.78830 0.78127 74 71 68
2.68587 -2.80447 0.77118 46 21 28
2.68834 -2.79835 0.78980 64 65 62
2.67908 -2.81272 0.79682 32 34 39
2.66472 -2.82435 0.80479 49 38 49
2.60796 -2.81265 0.82055 129 115 91
2.57227 -2.83160 0.83765 158 126 81
2.56520 -2.83517 0.82012 158 139 100
2.44764 -2.87716 0.89171 162 147 102
2.43207 -2.88756 0.89975 158 138 101
2.41301 -2.89587 0.90838 151 120 99
2.39369 -2.91164 0.89854 126 96 55
2.39015 -2.90186 0.91765 133 109 80
2.37088 -2.91760 0.90783 127 100 62
2.38379 -2.91765 0.92409 123 97 67
2.36449 -2.93341 0.91426 126 99 62
2.37355 -2.93116 0.93119 125 98 72
2.35174 -2.93764 0.94025 135 110 70
2.32726 -2.94240 0.94972 138 118 73
2.30804 -2.95809 0.93993 132 111 73
2.30373 -2.94765 0.95901 132 105 61
2.28456 -2.96330 0.94925 135 111 68
2.27260 -2.94807 0.96952 118 95 50
1.41592 -2.84213 1.22672 160 143 126
1.42051 -2.83465 1.20551 160 141 122
1.35955 -2.81849 1.23909 171 168 153
1.33281 -2.81660 1.24751 185 190 178
1.30784 -2.81589 1.25565 175 179 175
1.29165 -2.82911 1.24741 160 169 184
1.27807 -2.81137 1.26436 160 167 175
1.25678 -2.81315 1.27196 161 168 172
1.24073 -2.82625 1.26378 165 178 183
1.23621 -2.88837 1.29936 157 171 178
1.25240 -2.87515 1.30761 163 175 183
1.24655 -2.87809 1.29310 163 176 182
1.22001 -2.90159 1.29111 142 148 165
1.22252 -2.89597 1.30601 141 151 169
1.20524 -2.90064 1.31306 140 152 160
1.19029 -2.90713 1.31982 154 168 179
1.17417 -2.92029 1.31161 165 182 186
1.17238 -2.91116 1.32690 162 178 181
1.15630 -2.92429 1.31871 169 182 188
1.08661 -3.06675 1.39802 161 176 181
1.09112 -3.05939 1.37715 160 175 187
1.08052 -3.08090 1.40392 148 162 166
1.08001 -3.10010 1.40933 136 147 153
1.06036 -3.12195 1.42186 135 144 151
1.09822 -3.17649 1.42410 104 116 121
1.10498 -3.20300 1.42908 73 91 101
1.08830 -3.21662 1.42058 68 94 120
1.10230 -3.22098 1.43488 71 91 109
1.08558 -3.23463 1.42636 74 96 124
1.11229 -3.25087 1.43970 76 95 116
1.09546 -3.26461 1.43113 76 97 127
1.11602 -3.29608 1.45080 74 97 116
1.11848 -3.31949 1.45637 68 96 119
1.11501 -3.33739 1.46242 74 102 128
1.11028 -3.34511 1.48430 70 84 106
1.10774 -3.35172 1.46875 83 110 138
1.08805 -3.35403 1.47596 92 120 148
1.08138 -3.36896 1.48226 103 133 161
1.07318 -3.38244 1.48868 115 148 175
1.07570 -3.40659 1.49443 126 164 200
1.06966 -3.42237 1.50076 138 177 212
1.06190 -3.43648 1.50720 151 188 226
1.05378 -3.45027 1.51368 166 200 228
1.04630 -3.46476 1.52013 186 211 233
1.03937 -3.47986 1.52657 204 223 241
1.02212 -3.49394 1.51779 225 235 242
1.03299 -3.49559 1.53299 217 230 241
1.01573 -3.50969 1.52420 231 238 243
1.02528 -3.51000 1.53950 226 235 239
1.01613 -3.52294 1.54609 222 227 228
1.00525 -3.53408 1.55277 214 217 223
0.98795 -3.54821 1.54396 209 216 223
0.98200 -3.55481 1.56619 211 217 228
0.97576 -3.55796 1.55070 209 215 224
0.97201 -3.56691 1.57283 222 228 234
0.93771 -3.59856 1.59292 235 238 233
0.94251 -3.59074 1.57075 231 237 240
0.93146 -3.60171 1.57743 233 238 240
0.90998 -3.59110 1.60015 216 211 185
0.92325 -3.62899 1.60606 147 123 103
0.90109 -3.62756 1.61307 86 62 65
0.89574 -3.64493 1.61960 87 84 83
0.88330 -3.65433 1.62632 101 98 91
0.87099 -3.66386 1.63303 108 103 93
0.86620 -3.67168 1.65520 118 108 93
0.85995 -3.67483 1.63971 113 105 91
0.82069 -4.21614 1.80060 96 87 80
0.83931 -4.20093 1.81008 107 94 81
0.83259 -4.20433 1.79340 101 90 78
0.82742 -4.21275 1.81728 105 93 79
0.81552 -4.22456 1.82448 104 91 77
0.80207 -4.23135 1.79111 75 66 75
0.80514 -4.22299 1.80766 92 83 78
0.79997 -4.23141 1.83151 103 91 76
0.76211 -4.30498 1.84441 88 83 77
0.78082 -4.28971 1.85394 101 92 83
0.77406 -4.29312 1.83718 90 86 85
0.76887 -4.30158 1.86117 103 90 80
0.75692 -4.31344 1.86840 105 91 83
0.75172 -4.31904 1.85172 91 83 76
0.74652 -4.32750 1.87572 106 92 86
0.74159 -4.33351 1.85905 99 89 80
0.72287 -4.34880 1.84951 99 89 70
0.72790 -4.37203 1.87414 108 90 75
0.71699 -4.38555 1.88147 86 72 55
0.70653 -4.39973 1.88884 34 35 31
0.68772 -4.41509 1.87926 34 44 47
0.28526 -4.42434 2.03625 34 41 48
0.30302 -4.40983 2.04530 23 30 24
0.29660 -4.41307 2.02939 28 33 31
0.28033 -4.43237 2.05903 78 94 84
0.27391 -4.43561 2.04312 77 86 82
0.26750 -4.43884 2.02721 71 79 75
0.38992 -4.80309 2.10469 17 17 18
0.39521 -4.79448 2.08027 27 25 16
0.39275 -4.84237 2.11447 86 91 70
0.37813 -4.85017 2.12148 128 123 114
0.35899 -4.86580 2.11173 132 123 110
-0.02908 -4.44242 2.14617 146 128 108
-0.02436 -4.43474 2.12440 144 131 126
-0.03512 -4.46281 2.15375 120 93 64
-0.04451 -4.47658 2.16065 62 38 31
-0.05664 -4.48485 2.16696 30 36 48
-0.07374 -4.48290 2.17214 61 80 87
-0.11379 -4.43344 2.17201 106 114 112
-0.13617 -4.41976 2.17575 130 126 116
-0.14078 -4.42729 2.19709 142 132 121
-0.15469 -4.41378 2.18031 139 130 116
-0.15929 -4.42128 2.20156 144 134 124
-0.16528 -4.42430 2.18671 145 133 119
3.66795 -2.30309 0.30498 177 182 190
3.68901 -2.28589 0.31571 180 184 193
3.68140 -2.28973 0.29684 180 184 192
3.67379 -2.29357 0.27796 180 182 189
3.66003 -2.31848 0.31180 165 171 176
3.63894 -2.33570 0.30106 138 127 134
3.19386 -2.25039 0.45041 220 231 238
3.19932 -2.24149 0.42518 154 151 167
3.19915 -2.26980 0.45387 220 228 232
3.20794 -2.29070 0.45656 215 224 229
3.22273 -2.31411 0.45790 212 219 226
3.21001 -2.32674 0.46560 209 214 222
3.20282 -2.33037 0.44775 203 210 221
2.97286 -2.42345 0.57159 139 141 137
2.94300 -2.44609 0.58777 69 54 55
2.95694 -2.47025 0.58960 77 72 71
2.93731 -2.48628 0.57960 86 78 75
2.94530 -2.48311 0.59699 85 73 79
2.94017 -2.55380 0.61782 89 77 76
2.94567 -2.54484 0.59241 92 80 71
2.93302 -2.55741 0.60007 87 72 67
2.93094 -2.56797 0.62475 92 94 98
2.91278 -2.57795 0.63357 99 109 118
2.89003 -2.58572 0.64333 69 62 70
2.86937 -2.59442 0.65264 65 63 61
2.85789 -2.60748 0.66003 76 68 83
2.84303 -2.61890 0.66812 147 153 169
2.81091 -2.65926 0.68984 169 173 176
2.80258 -2.67394 0.69661 165 174 184
2.79426 -2.68865 0.70339 151 167 167
2.78777 -2.70432 0.70981 142 154 156
2.80771 -2.73356 0.71099 131 132 156
2.73380 -2.71466 0.73078 108 101 134
2.71356 -2.72318 0.73990 83 76 90
2.69394 -2.73196 0.74887 46 44 64
2.72631 -2.76809 0.74773 32 14 23
2.70942 -2.77841 0.75621 47 20 22
2.70501 -2.79538 0.76228 45 32 31
2.67088 -2.81576 0.77928 57 42 30
2.65733 -2.82782 0.78710 90 64 34
2.60545 -2.81875 0.80213 143 126 95
2.58749 -2.82819 0.81073 155 133 94
2.55005 -2.84609 0.82817 156 133 89
2.52222 -2.84979 0.83854 153 131 99
2.49750 -2.85514 0.84831 149 124 98
2.48493 -2.86738 0.85585 132 117 92
2.45252 -2.86812 0.86697 117 103 76
2.42488 -2.87147 0.87718 107 95 71
2.40772 -2.88087 0.88550 115 100 78
2.39947 -2.89550 0.89223 121 96 74
2.38018 -2.91125 0.88241 128 99 60
2.33917 -2.93773 0.92395 127 102 55
2.34451 -2.92902 0.89927 125 100 57
2.33222 -2.94123 0.90671 123 101 52
2.31993 -2.95344 0.91415 130 106 58
2.31026 -2.93972 0.93422 131 109 68
2.29109 -2.95538 0.92446 132 106 62
2.24087 -2.95571 0.96191 137 111 64
2.23559 -2.96432 0.98632 86 70 44
2.22112 -2.96298 0.97053 137 113 68
2.21585 -2.97158 0.99489 73 65 51
2.18744 -2.96132 0.98142 151 135 92
2.18220 -2.96987 1.00567 71 66 56
2.18612 -2.98021 0.98697 169 169 131
2.18086 -2.98878 1.01128 58 41 58
2.17401 -2.99223 0.99430 165 162 128
2.16717 -2.99568 0.97732 155 148 133
1.42760 -2.85826 1.20949 159 142 123
1.43222 -2.85074 1.18817 160 140 122
1.37315 -2.83603 1.22183 172 167 147
1.33451 -2.82526 1.23193 185 191 176
1.31822 -2.83856 1.22364 171 180 185
1.31870 -2.83150 1.23894 172 179 183
1.30244 -2.84478 1.23066 166 176 184
1.24341 -2.88318 1.27826 161 175 179
1.25961 -2.86995 1.28652 164 174 183
1.25376 -2.87291 1.27200 163 175 183
1.24791 -2.87586 1.25748 162 176 184
1.22721 -2.89642 1.27001 142 156 165
1.23554 -2.89543 1.28422 148 162 172
1.20577 -2.90871 1.29784 152 164 167
1.18960 -2.92192 1.28960 165 182 190
1.18987 -2.91445 1.30474 160 178 187
1.17373 -2.92764 1.29652 168 184 191
1.08295 -3.07168 1.38323 160 174 183
1.07766 -3.08657 1.38903 151 163 170
1.07494 -3.10383 1.39461 143 155 159
1.06261 -3.11249 1.40110 141 153 161
1.05647 -3.12677 1.40703 144 155 160
1.06345 -3.15313 1.41180 108 126 133
1.10753 -3.29692 1.43580 76 99 129
1.11114 -3.32146 1.44121 76 102 134
1.10632 -3.33807 1.44732 83 110 146
1.09272 -3.34627 1.45412 94 123 159
1.07711 -3.37392 1.46684 123 155 187
1.07979 -3.39817 1.47249 136 170 196
1.07044 -3.41063 1.47901 147 184 219
1.06218 -3.42421 1.48546 158 195 224
1.05202 -3.43591 1.49204 173 205 244
1.04426 -3.45005 1.49847 190 215 239
1.03711 -3.46486 1.50488 204 223 239
1.01990 -3.47891 1.49612 228 237 243
1.03032 -3.48010 1.51129 218 232 241
1.01309 -3.49416 1.50251 229 237 244
1.00549 -3.52148 1.53083 230 237 239
1.01029 -3.51367 1.50868 232 238 244
0.99925 -3.52463 1.51535 233 239 243
0.99340 -3.53132 1.53756 219 222 229
0.93651 -3.56127 1.56481 227 233 237
0.91931 -3.57531 1.55605 228 234 240
0.89416 -3.58359 1.58510 230 233 220
0.89892 -3.57583 1.56312 231 237 240
0.90330 -3.61687 1.59102 180 170 149
0.89053 -3.62586 1.59774 103 82 74
0.87524 -3.63197 1.60454 76 66 65
0.87163 -3.65130 1.61098 89 88 83
0.86080 -3.66249 1.61765 99 96 85
0.85297 -3.67713 1.62424 106 101 87
0.84818 -3.68495 1.64641 116 107 89
0.84193 -3.68810 1.63092 112 104 86
0.89091 -4.18325 1.74819 104 92 78
0.90964 -4.16796 1.75774 114 99 87
0.90287 -4.17137 1.74096 109 96 86
0.89768 -4.17984 1.76497 114 98 83
0.88571 -4.19173 1.77221 111 97 81
0.87870 -4.19481 1.75543 100 89 71
0.87350 -4.20328 1.77945 107 95 79
0.85997 -4.21010 1.74589 83 79 66
0.80904 -4.21288 1.78377 84 73 74
0.77711 -4.22528 1.79787 74 71 78
0.77197 -4.23367 1.82165 91 85 81
0.76527 -4.23704 1.80504 81 79 84
0.75480 -4.27904 1.81991 81 83 87
0.77342 -4.26383 1.82940 91 86 85
0.76669 -4.26722 1.81271 86 83 92
0.75997 -4.27061 1.79603 87 90 97
0.75131 -4.30269 1.82748 68 72 68
0.73263 -4.31794 1.81796 70 67 60
0.74409 -4.32123 1.83491 73 69 61
0.73622 -4.33892 1.84234 87 84 72
0.71995 -4.37378 1.85724 103 88 65
0.70793 -4.38567 1.86450 81 72 51
0.69729 -4.39957 1.87184 39 42 33
0.67849 -4.41491 1.86227 40 46 48
0.28975 -4.44644 2.02176 40 45 55
0.40110 -4.83920 2.09036 34 33 26
0.39942 -4.87061 2.09941 97 101 84
0.38016 -4.88633 2.08960 132 125 108
0.38179 -4.87306 2.10601 130 125 111
0.36257 -4.88875 2.09622 131 123 106
-0.03249 -4.45093 2.13151 145 132 121
-0.02777 -4.44324 2.10970 144 132 122
-0.03863 -4.45403 2.11627 145 134 124
-0.04206 -4.46431 2.13834 144 124 101
-0.05052 -4.47997 2.14542 118 89 54
-0.06315 -4.48720 2.15163 65 38 21
-0.08372 -4.47809 2.15610 33 28 27
-0.10066 -4.49192 2.14747 48 39 25
-0.10655 -4.46399 2.15997 56 59 60
-0.12749 -4.45342 2.16417 94 99 97
-0.16361 -4.41064 2.16478 120 121 113
-0.18312 -4.40221 2.16907 131 130 122
-0.18769 -4.40966 2.19020 145 134 122
-0.19575 -4.40817 2.17494 136 134 126
-0.20031 -4.41561 2.19604 145 134 122
-0.20626 -4.41861 2.18130 142 136 125
3.93130 -2.25544 0.18032 98 109 139
3.93731 -2.24565 0.15256 85 77 89
3.89100 -2.26011 0.19525 139 149 171
3.85261 -2.26527 0.20967 168 174 186
3.83890 -2.27889 0.21797 176 182 187
3.69246 -2.31862 0.27832 177 181 186
3.69834 -2.30904 0.25116 177 181 187
3.67128 -2.33591 0.26753 163 158 156
3.65777 -2.32429 0.29162 163 162 165
3.18399 -2.25291 0.43344 194 212 227
3.18945 -2.24401 0.40822 133 111 132
3.17689 -2.25649 0.41582 151 154 173
3.18533 -2.27079 0.43776 208 219 228
3.18325 -2.28742 0.44292 207 215 222
3.18610 -2.30608 0.44693 205 210 220
3.16629 -2.32225 0.43684 200 207 218
2.99164 -2.43828 0.54832 149 152 153
2.99209 -2.45646 0.55302 114 109 102
2.95427 -2.45777 0.56622 85 67 60
2.95724 -2.47713 0.57038 84 78 74
2.94715 -2.50889 0.58230 71 68 70
2.94729 -2.52723 0.58715 79 73 69
2.92491 -2.57210 0.60675 76 69 66
2.90508 -2.58829 0.59665 132 132 117
2.92177 -2.58918 0.61238 109 118 100
2.88573 -2.59067 0.62502 67 64 59
2.86527 -2.59946 0.63432 37 23 28
2.84979 -2.61060 0.64255 40 23 44
2.84018 -2.62457 0.64955 107 84 100
2.82641 -2.63653 0.65743 171 179 180
2.81475 -2.64952 0.66486 176 170 169
2.81206 -2.66699 0.67044 153 151 167
2.82658 -2.69316 0.67251 116 103 139
2.80669 -2.70940 0.66237 45 31 23
2.82552 -2.71166 0.67781 72 78 75
2.78574 -2.71054 0.69102 49 40 71
2.72118 -2.71541 0.71425 40 23 50
2.70614 -2.72660 0.72234 43 20 35
2.70316 -2.74409 0.72803 42 31 20
2.69307 -2.75791 0.73516 79 64 35
2.68909 -2.77500 0.74107 122 110 71
2.67894 -2.78885 0.74822 130 120 86
2.67817 -2.80778 0.75355 118 70 21
2.62473 -2.79812 0.76911 140 117 53
2.61079 -2.80981 0.77697 144 116 56
2.59900 -2.82268 0.78442 152 132 72
2.58291 -2.83316 0.79268 146 116 84
2.56529 -2.84274 0.80123 134 108 82
2.54569 -2.85874 0.79125 124 96 63
2.55412 -2.85594 0.80855 125 99 68
2.53451 -2.87194 0.79856 124 99 67
2.52719 -2.86017 0.81883 124 100 71
2.50712 -2.86822 0.82779 127 102 70
2.47670 -2.87023 0.83866 87 74 55
2.44930 -2.87384 0.84893 63 47 26
2.43600 -2.88558 0.85659 44 38 27
2.41496 -2.89275 0.86565 85 70 58
2.39609 -2.90114 0.87430 117 98 70
2.37679 -2.91691 0.86447 124 98 66
2.25486 -2.95255 0.93601 135 106 52
2.23811 -2.96176 0.94416 138 103 45
2.19934 -2.97672 0.96132 134 104 70
2.18444 -2.98698 0.96913 145 134 125
1.43063 -2.86801 1.19333 158 142 120
1.43525 -2.86047 1.17196 158 139 126
1.40567 -2.86786 1.20176 169 162 141
1.34923 -2.84379 1.21450 181 186 173
1.33285 -2.85717 1.20615 172 185 187
1.24180 -2.88950 1.26320 155 169 176
1.21838 -2.90792 1.27608 147 162 171
1.20290 -2.91406 1.28298 161 176 185
1.18672 -2.92728 1.27473 169 183 191
1.08734 -3.04475 1.35716 161 177 190
1.10357 -3.03150 1.36543 161 178 186
1.09771 -3.03446 1.35089 162 179 189
1.09321 -3.04180 1.37170 161 177 187
1.08074 -3.05837 1.36304 159 175 188
1.07319 -3.07119 1.36904 156 172 183
1.06673 -3.08502 1.37493 152 167 178
1.06555 -3.10366 1.38031 147 161 177
1.05802 -3.11666 1.38634 143 157 178
1.05191 -3.13098 1.39224 141 149 168
1.09809 -3.19344 1.39326 101 112 135
1.10919 -3.22413 1.39769 67 89 117
1.11005 -3.24555 1.40312 70 95 123
1.09931 -3.25622 1.40963 78 100 128
1.10813 -3.28539 1.41442 81 101 130
1.10795 -3.30624 1.42006 85 105 134
1.10732 -3.32679 1.42577 93 116 144
1.07590 -3.33902 1.43971 127 157 188
1.08641 -3.37066 1.44460 151 171 206
1.07921 -3.38517 1.45092 164 187 215
1.06889 -3.39663 1.45749 175 200 222
1.05970 -3.40923 1.46398 186 209 233
1.05020 -3.42154 1.47049 195 218 236
1.03307 -3.43553 1.46176 229 237 242
1.04147 -3.43464 1.47696 210 226 245
1.02433 -3.44864 1.46823 232 238 243
1.03443 -3.44950 1.48332 218 230 243
1.01727 -3.46351 1.47458 233 238 242
1.02762 -3.46464 1.48968 224 233 242
1.01043 -3.47868 1.48093 235 240 244
0.97711 -3.52381 1.52265 223 230 235
0.98188 -3.51602 1.50058 234 240 244
0.96129 -3.52958 1.52957 214 220 223
0.90851 -3.54068 1.55046 221 226 234
0.91325 -3.53296 1.52856 218 222 229
0.89144 -3.55463 1.54176 228 234 241
0.86896 -3.56559 1.57055 233 237 234
0.87369 -3.55788 1.54870 230 237 241
0.85206 -3.56967 1.57738 215 211 192
0.84218 -3.58156 1.58392 148 130 109
0.86243 -3.62763 1.58935 75 59 56
0.85434 -3.64183 1.59590 78 76 74
0.85076 -3.66126 1.60231 91 89 79
0.84588 -3.67929 1.60878 98 94 81
0.82860 -3.69340 1.59998 94 90 78
0.84387 -3.70078 1.61521 104 98 82
0.83906 -3.70862 1.63743 115 106 87
0.83280 -3.71177 1.62191 110 102 82
0.82654 -3.71493 1.60638 100 95 79
0.91676 -3.98738 1.66707 114 102 89
0.93504 -3.97244 1.67638 119 108 94
0.92844 -3.97577 1.66000 115 104 92
0.92336 -3.98405 1.68345 118 106 93
0.91168 -3.99565 1.69052 118 107 94
0.90900 -4.00383 1.67410 112 100 91
0.90392 -4.01211 1.69758 117 106 90
0.89730 -4.01545 1.68118 111 101 89
0.90186 -4.07402 1.69529 108 95 89
0.92034 -4.05893 1.70470 118 104 89
0.91367 -4.06230 1.68814 113 102 90
0.90854 -4.07066 1.71184 116 103 89
0.89674 -4.08238 1.71898 113 103 89
0.88339 -4.08911 1.68587 84 77 88
0.90005 -4.09846 1.70243 101 92 86
0.89491 -4.10685 1.72621 113 103 91
0.90031 -4.12573 1.70964 104 99 89
0.89514 -4.13414 1.73350 114 101 91
0.88842 -4.13753 1.71683 110 103 92
0.89141 -4.16867 1.72414 108 98 86
0.88154 -4.18326 1.73139 99 89 71
0.86949 -4.19501 1.73862 91 81 60
0.79870 -4.21136 1.76703 82 75 71
0.80385 -4.20296 1.74322 82 83 74
0.78486 -4.22044 1.77416 77 70 74
0.76581 -4.22233 1.78114 75 73 76
0.75477 -4.23516 1.78832 82 81 83
0.74032 -4.27157 1.80295 82 85 87
0.74504 -4.30676 1.81076 68 67 61
0.72719 -4.33909 1.82546 76 71 67
0.70847 -4.35438 1.81593 83 72 58
0.71775 -4.35459 1.83281 89 82 63
0.70816 -4.36994 1.84017 97 85 49
0.69638 -4.38212 1.84743 77 69 45
0.68683 -4.39760 1.85481 47 46 48
0.66806 -4.41292 1.84525 43 46 55
0.30367 -4.48503 2.00831 52 59 72
0.44522 -4.90036 2.07126 20 21 28
0.46469 -4.88446 2.08118 22 21 18
0.45765 -4.88801 2.06373 21 23 21
0.45062 -4.89155 2.04629 21 24 26
0.41228 -4.87552 2.07581 51 48 53
0.39393 -4.87680 2.08238 109 109 100
0.37466 -4.89253 2.07256 131 124 107
-0.04473 -4.47442 2.12379 146 134 116
-0.04000 -4.46671 2.10194 143 133 121
-0.05088 -4.47752 2.10853 143 134 120
-0.05333 -4.48987 2.13084 145 126 96
-0.07155 -4.48571 2.13592 123 97 66
-0.09192 -4.47689 2.14048 73 52 25
-0.13865 -4.44578 2.14804 44 45 52
-0.15537 -4.45943 2.13952 48 42 38
-0.16046 -4.43290 2.15200 63 63 69
-0.17474 -4.43567 2.15759 77 71 84
-0.20733 -4.39909 2.15888 104 102 109
-0.22019 -4.40435 2.16465 134 133 126
-0.22474 -4.41177 2.18567 148 137 126
-0.23066 -4.41475 2.17099 147 138 125
-0.23659 -4.41774 2.15630 147 139 134
3.96376 -2.27309 0.15076 55 61 93
3.96980 -2.26324 0.12282 102 94 88
3.95589 -2.27706 0.13124 57 53 74
3.90269 -2.27072 0.17104 93 107 131
3.88989 -2.28478 0.17915 144 153 172
3.87035 -2.29650 0.18894 168 175 189
3.86436 -2.30627 0.21664 178 183 183
3.85656 -2.31020 0.19729 175 181 185
3.68975 -2.32428 0.25813 175 177 181
3.66856 -2.34159 0.24733 164 149 143
3.16265 -2.26830 0.42382 182 197 207
3.16811 -2.25941 0.39862 133 126 143
3.16090 -2.28503 0.42885 192 207 221
3.16238 -2.30311 0.43312 196 205 218
2.99393 -2.44597 0.52859 155 160 163
2.96595 -2.45166 0.53967 138 140 131
2.96437 -2.46898 0.54480 107 95 79
2.95424 -2.48254 0.55185 95 90 65
2.94394 -2.49605 0.55895 91 83 68
2.95252 -2.51817 0.56186 52 46 56
2.94233 -2.53183 0.56896 60 38 43
2.93984 -2.54906 0.57437 81 73 66
2.93140 -2.56360 0.58111 90 84 62
2.91157 -2.57979 0.57101 113 126 125
2.92080 -2.57715 0.58832 87 90 82
2.89184 -2.60060 0.60444 81 87 82
2.86625 -2.60696 0.61489 57 26 7
2.85715 -2.62121 0.62177 90 62 24
2.84437 -2.63370 0.62945 126 103 74
2.82459 -2.64986 0.61937 173 146 96
2.84360 -2.65209 0.63458 157 141 120
2.83096 -2.66469 0.64224 167 143 127
2.83543 -2.68583 0.64630 124 99 100
2.86697 -2.72072 0.64473 63 28 51
2.77616 -2.71291 0.67376 57 35 28
2.75748 -2.72238 0.68266 66 46 31
2.71128 -2.71754 0.69720 86 62 35
2.67538 -2.71781 0.70956 100 72 29
2.70868 -2.75433 0.70782 124 93 46
2.68464 -2.76080 0.71776 152 153 128
2.68134 -2.77826 0.72351 183 190 157
2.66873 -2.79079 0.73114 187 195 142
2.65652 -2.80353 0.73869 153 119 86
2.64000 -2.81391 0.74710 174 151 86
2.60948 -2.81657 0.75825 150 125 80
2.59383 -2.82732 0.76645 138 117 65
2.58349 -2.84101 0.77361 127 98 75
2.56384 -2.85705 0.76360 124 97 65
2.57128 -2.85367 0.78114 125 95 69
2.55163 -2.86971 0.77113 126 99 62
2.50435 -2.87423 0.80950 128 101 68
2.50977 -2.86540 0.78446 125 99 64
2.49729 -2.87779 0.79200 128 101 66
2.45484 -2.86517 0.82406 93 67 50
2.44338 -2.87800 0.83137 65 52 33
2.42401 -2.89382 0.82150 64 57 36
2.43170 -2.89070 0.83873 67 52 30
2.41888 -2.90273 0.84630 80 53 41
2.39377 -2.90743 0.85615 114 94 65
2.37444 -2.92321 0.84630 123 101 63
2.26655 -2.94790 0.91042 127 105 66
2.27874 -2.93579 0.90303 129 103 52
2.27185 -2.93927 0.88593 127 101 55
2.24239 -2.95252 0.91991 148 127 84
2.24351 -2.97299 0.92494 178 170 124
2.21886 -2.97719 0.93449 184 167 112
2.19642 -2.98270 0.94363 171 152 103
2.17876 -2.99120 0.95193 162 151 103
2.16449 -3.00184 0.95963 163 151 108
2.15923 -3.01042 0.98395 79 74 108
2.15238 -3.01388 0.96696 110 99 65
2.14553 -3.01733 0.94996 169 161 97
1.43150 -2.87619 1.17740 156 139 127
1.43613 -2.86864 1.15599 156 136 123
1.41867 -2.88516 1.18417 165 155 144
1.35429 -2.85508 1.19826 177 183 176
1.33785 -2.86850 1.18988 174 188 185
1.24871 -2.88406 1.24207 157 173 182
1.26494 -2.87080 1.25035 165 177 186
1.25908 -2.87376 1.23580 164 179 186
1.25321 -2.87671 1.22125 162 177 190
1.23933 -2.89515 1.24822 148 159 171
1.22775 -2.90448 1.25465 149 158 159
1.21303 -2.91128 1.26149 158 173 176
1.19681 -2.92452 1.25323 172 186 192
1.19763 -2.91748 1.26840 165 182 194
1.18144 -2.93070 1.26016 173 186 190
1.11579 -2.98134 1.31332 168 182 193
1.13194 -2.96815 1.32154 169 181 190
1.12610 -2.97109 1.30708 170 184 193
1.12162 -2.97840 1.32778 167 181 192
1.11131 -2.98864 1.33402 165 179 193
1.10884 -2.99445 1.31917 165 180 189
1.10435 -3.00176 1.33989 164 179 190
1.10102 -3.00686 1.32513 162 178 185
1.09653 -3.01417 1.34587 162 180 189
1.09591 -3.02165 1.33079 158 174 189
1.09030 -3.03607 1.33652 152 166 190
1.08506 -3.05086 1.34223 145 158 184
1.07946 -3.06540 1.34799 137 150 170
1.07688 -3.08269 1.35345 127 138 161
1.10403 -3.12675 1.35580 117 120 151
1.11138 -3.15338 1.36033 107 101 142
1.10831 -3.17075 1.36598 98 85 131
1.11741 -3.19937 1.37043 91 65 115
1.12046 -3.22265 1.37554 70 49 97
1.10973 -3.23331 1.38203 50 58 98
1.11271 -3.25677 1.38722 57 82 114
1.11052 -3.27556 1.39294 78 103 127
1.10794 -3.29408 1.39872 97 118 133
1.10818 -3.31540 1.40427 116 133 152
1.08877 -3.33923 1.41722 166 185 196
1.08046 -3.35253 1.42358 186 205 215
1.07599 -3.36961 1.42964 200 214 229
1.06652 -3.38186 1.43612 206 221 232
1.05804 -3.39511 1.44252 213 226 237
1.04095 -3.40906 1.43382 234 240 244
1.05065 -3.40947 1.44886 221 232 240
1.03354 -3.42345 1.44014 235 238 244
1.04294 -3.42358 1.45522 225 233 242
1.02581 -3.43756 1.44650 236 240 244
0.95162 -3.50647 1.50842 229 237 240
0.95637 -3.49873 1.48648 233 239 244
0.94544 -3.50958 1.49309 233 241 243
0.93452 -3.52044 1.49970 231 235 240
0.93531 -3.51156 1.51535 222 228 234
0.91824 -3.52550 1.50665 227 229 236
0.85776 -3.56307 1.55553 230 236 239
0.85362 -3.58140 1.56180 225 229 221
0.81501 -3.56090 1.56960 176 173 160
0.84273 -3.61542 1.57452 93 80 77
0.83703 -3.63226 1.58092 72 59 56
0.83357 -3.65176 1.58727 80 78 73
0.82489 -3.66532 1.59383 87 85 77
0.80769 -3.67936 1.58507 80 78 73
0.95241 -3.93895 1.62252 108 98 84
0.97067 -3.92404 1.63183 114 103 89
0.96408 -3.92736 1.61547 105 96 83
0.95748 -3.93069 1.59911 93 87 82
0.95901 -3.93562 1.63888 116 104 93
0.94735 -3.94721 1.64594 119 106 93
0.94518 -3.95589 1.62948 109 100 90
0.94011 -3.96416 1.65293 117 106 95
0.92999 -3.96321 1.63662 105 100 93
0.91172 -3.97813 1.62732 92 92 88
0.91408 -3.96960 1.64376 104 98 89
0.90774 -3.98773 1.65072 98 91 81
0.89983 -4.00399 1.65773 96 87 85
0.89619 -4.02567 1.66471 98 90 88
0.89388 -4.04915 1.67171 108 107 96
0.89512 -4.07730 1.67873 98 91 93
0.88894 -4.12314 1.69297 87 93 93
0.88338 -4.14311 1.70016 109 116 103
0.86578 -4.14747 1.70734 123 125 110
0.85857 -4.16538 1.71454 114 115 101
0.85283 -4.18533 1.72178 98 99 90
0.84107 -4.19737 1.72899 84 87 85
0.82190 -4.19947 1.73612 80 84 79
0.78771 -4.20892 1.75032 88 91 88
0.77078 -4.21373 1.75739 96 101 97
0.75317 -4.21750 1.76442 96 99 84
0.74308 -4.23160 1.77160 95 99 83
0.73603 -4.24997 1.77888 93 91 85
0.73174 -4.27232 1.78626 85 76 78
0.73047 -4.29910 1.79377 79 66 62
0.72349 -4.31792 1.80114 78 69 58
0.71253 -4.33116 1.80839 75 71 60
0.69516 -4.36428 1.82310 83 74 52
0.67645 -4.37956 1.81357 62 55 59
0.68708 -4.38183 1.83051 69 60 52
0.66835 -4.39713 1.82097 50 51 63
0.67702 -4.39653 1.83785 51 45 59
0.65827 -4.41184 1.82829 43 48 64
0.43626 -4.90043 2.05356 14 17 37
0.44166 -4.89163 2.02861 25 27 18
0.40817 -4.88426 2.05890 58 64 59
0.40294 -4.90959 2.06739 114 116 102
0.38355 -4.92542 2.05751 131 124 111
-0.05792 -4.49616 2.11587 144 132 116
-0.05319 -4.48844 2.09397 143 132 124
-0.06409 -4.49927 2.10057 146 133 126
-0.06769 -4.50933 2.12269 144 126 103
-0.08732 -4.50214 2.12751 127 105 64
-0.11945 -4.46858 2.12964 92 77 44
-0.18252 -4.43489 2.14233 41 44 54
-0.20491 -4.42003 2.14606 76 83 93
-0.23090 -4.39696 2.14886 126 126 126
3.95061 -2.29385 0.13746 68 74 98
3.95666 -2.28399 0.10948 80 65 67
3.94273 -2.29783 0.11791 59 54 71
3.89173 -2.29207 0.15732 112 122 141
3.89601 -2.31217 0.16110 152 159 175
3.88604 -2.32733 0.16851 171 176 182
3.88001 -2.33716 0.19638 177 181 181
3.87216 -2.34112 0.17691 177 179 181
3.75379 -2.33580 0.21639 174 180 181
3.77520 -2.31832 0.22729 178 181 185
3.76747 -2.32222 0.20811 177 179 183
3.75973 -2.32612 0.18893 175 178 179
3.13862 -2.26525 0.41032 151 175 170
3.12176 -2.27596 0.41895 161 179 168
3.13695 -2.29941 0.41984 176 186 198
3.15374 -2.32369 0.42039 189 200 218
3.14825 -2.33264 0.44577 203 211 217
3.15877 -2.34340 0.42381 195 209 218
3.15326 -2.35238 0.44928 206 211 219
3.07668 -2.43444 0.47597 132 144 179
3.03240 -2.45144 0.49571 157 166 180
3.01259 -2.46761 0.48562 159 169 170
3.00267 -2.45651 0.50730 159 168 172
2.98539 -2.46697 0.51600 153 161 161
2.97213 -2.47919 0.52378 129 120 116
2.94757 -2.48633 0.53412 110 101 84
2.94070 -2.50139 0.54044 102 91 76
2.93649 -2.51771 0.54616 83 73 51
2.92634 -2.53136 0.55324 66 46 32
2.92951 -2.55120 0.55733 79 77 78
2.93346 -2.57152 0.56128 111 121 108
2.90621 -2.59584 0.57706 120 122 117
2.88984 -2.60668 0.58554 72 64 61
2.85954 -2.61077 0.59707 71 39 16
2.85831 -2.62885 0.60223 141 118 59
2.85088 -2.64399 0.60876 167 142 94
2.82535 -2.66907 0.62413 174 145 96
2.82152 -2.68609 0.62991 142 113 81
2.83222 -2.71050 0.63260 119 80 46
2.80997 -2.71834 0.64233 118 90 43
2.79490 -2.72979 0.65053 130 100 51
2.78091 -2.74177 0.65850 138 105 49
2.75391 -2.74698 0.66918 147 117 65
2.74554 -2.76184 0.67596 155 127 71
2.70970 -2.76223 0.68844 159 135 91
2.70972 -2.78152 0.69347 189 195 180
2.69705 -2.79410 0.70114 195 196 179
2.66715 -2.79738 0.71232 188 167 138
2.65257 -2.80885 0.72036 169 136 103
2.64504 -2.82417 0.72697 182 155 95
2.61672 -2.82806 0.73776 159 130 89
2.59281 -2.83427 0.74764 136 119 74
2.57474 -2.84366 0.75634 125 100 73
2.55509 -2.85970 0.74633 122 100 64
2.47657 -2.88538 0.80115 108 84 56
2.48197 -2.87657 0.77615 125 101 62
2.43777 -2.88234 0.81375 62 45 40
2.41385 -2.90743 0.82857 68 57 37
2.39677 -2.91692 0.83695 108 96 60
2.25276 -2.94708 0.89456 127 104 66
2.25805 -2.93846 0.87011 125 100 55
2.24587 -2.95055 0.87748 127 102 58
2.24626 -2.96274 0.90090 135 112 86
2.23793 -2.97730 0.90759 181 180 159
2.22848 -2.99118 0.91448 198 200 173
2.21582 -3.00302 0.92195 205 201 169
2.21114 -3.02003 0.92801 204 197 158
1.42815 -2.88124 1.16204 154 136 125
1.43279 -2.87369 1.14061 154 134 121
1.41172 -2.88750 1.16935 160 148 140
1.35295 -2.86156 1.18285 174 177 169
1.33649 -2.87500 1.17447 174 188 186
1.23925 -2.90271 1.23288 148 158 168
1.22561 -2.91043 1.23960 156 172 174
1.20741 -2.91442 1.24693 169 183 194
1.16178 -2.95208 1.27254 172 186 198
1.17797 -2.93886 1.28079 171 183 195
1.17212 -2.94181 1.26628 174 186 194
1.16763 -2.94913 1.28705 172 184 198
1.15728 -2.95941 1.29331 171 186 200
1.13967 -2.97144 1.28524 166 185 201
1.13000 -2.98227 1.29141 158 179 194
1.11381 -2.99549 1.28316 102 70 122
1.11309 -2.98695 1.29847 153 167 187
1.09693 -3.00014 1.29024 81 50 93
1.10589 -2.99987 1.30434 142 159 172
1.08971 -3.01308 1.29610 70 33 79
1.11668 -3.02839 1.30808 133 144 159
1.14681 -3.07398 1.30960 124 115 146
1.13033 -3.08744 1.30121 69 23 48
1.15238 -3.09854 1.31410 108 98 141
1.12782 -3.11653 1.32729 81 55 90
1.12648 -3.13527 1.33265 67 37 75
1.11893 -3.14854 1.33873 57 23 58
1.11042 -3.16097 1.34492 54 21 49
1.10888 -3.17978 1.35038 63 28 48
1.11295 -3.20387 1.35527 74 36 56
1.11252 -3.22398 1.36068 65 35 63
1.10484 -3.23746 1.36686 33 22 58
1.08791 -3.24231 1.37398 27 40 79
1.10229 -3.27663 1.37799 76 100 126
1.11492 -3.30962 1.38226 139 158 165
1.08901 -3.30603 1.39027 179 192 197
1.08494 -3.32329 1.39619 206 218 220
1.07664 -3.33652 1.40252 222 231 232
1.05964 -3.35040 1.39386 236 241 244
1.07016 -3.35158 1.40869 227 235 236
1.05315 -3.36547 1.40002 234 239 243
1.06639 -3.36935 1.41464 229 236 240
1.04934 -3.38327 1.40596 234 238 243
1.05974 -3.38436 1.42087 229 235 240
1.04266 -3.39831 1.41217 234 240 245
1.04441 -3.39079 1.42784 231 238 244
1.02736 -3.40472 1.41916 235 240 245
0.84740 -3.51598 1.52861 225 229 239
0.85817 -3.50528 1.52210 227 236 242
0.84609 -3.53718 1.53461 218 218 235
0.83272 -3.54505 1.54129 212 211 233
0.82966 -3.56448 1.54743 208 212 231
0.79607 -3.54944 1.55509 189 196 200
0.78508 -3.55983 1.56160 130 117 115
0.82452 -3.62812 1.56585 73 51 49
0.82008 -3.64647 1.57219 66 62 61
0.81739 -3.66695 1.57848 74 71 70
0.80020 -3.68099 1.56972 67 60 69
0.94411 -3.94022 1.60622 91 83 77
0.94917 -3.93196 1.58281 85 90 85
0.92586 -3.95512 1.59692 84 88 77
0.93672 -3.95697 1.61315 94 92 86
0.92170 -3.96448 1.62030 87 89 83
0.90039 -3.99013 1.63437 81 79 78
0.89250 -4.00643 1.64136 82 76 86
0.88843 -4.02758 1.64830 93 95 99
0.87009 -4.04255 1.63896 114 117 131
0.87915 -4.04228 1.65535 108 120 130
0.88305 -4.07380 1.66225 101 101 105
0.88154 -4.09865 1.66927 82 82 86
0.87331 -4.11503 1.67640 77 84 91
0.86475 -4.13104 1.68354 110 121 122
0.84334 -4.13030 1.69074 144 153 145
0.83929 -4.15224 1.69788 129 136 125
0.83069 -4.16830 1.70505 100 106 102
0.81912 -4.18045 1.71222 91 99 102
0.80056 -4.19560 1.70277 89 98 95
0.80277 -4.18618 1.71937 89 98 91
0.78961 -4.19615 1.72652 80 79 71
0.77377 -4.20243 1.73363 76 73 79
0.75284 -4.20165 1.74065 89 95 92
0.73119 -4.19972 1.74762 104 110 93
0.71759 -4.20878 1.75469 110 114 98
0.69922 -4.22377 1.74533 135 144 140
0.70586 -4.22044 1.76179 112 114 98
0.70211 -4.24335 1.76908 107 106 92
0.69787 -4.26572 1.77639 101 98 93
0.69480 -4.28993 1.78378 98 98 90
0.67628 -4.30505 1.77435 98 100 98
0.69299 -4.31611 1.79126 96 96 68
0.69256 -4.34451 1.79884 93 81 42
0.68270 -4.35935 1.80613 82 67 56
0.30808 -4.49043 1.96976 21 23 44
0.31308 -4.48228 1.94664 30 33 32
0.30782 -4.52155 1.97799 65 74 71
0.41217 -4.87304 2.03393 13 17 26
0.41753 -4.86430 2.00914 22 28 16
0.40613 -4.89682 2.04223 67 76 68
0.40681 -4.93312 2.05150 119 121 105
0.38733 -4.94902 2.04158 131 123 107
-0.07560 -4.50887 2.10705 147 131 115
-0.07086 -4.50115 2.08517 144 132 121
-0.08176 -4.51198 2.09176 145 132 117
-0.09266 -4.52280 2.09836 145 132 112
-0.08865 -4.51522 2.11322 144 129 96
-0.10740 -4.50959 2.11822 133 117 85
-0.14603 -4.46179 2.11905 115 93 69
-0.17389 -4.43595 2.12191 84 70 50
-0.19043 -4.43380 2.12706 61 61 55
-0.21086 -4.42304 2.13130 82 82 88
-0.25238 -4.39906 2.13936 146 139 132
-0.25691 -4.40644 2.16028 151 138 125
-0.26280 -4.40941 2.14567 151 139 128
-0.26869 -4.41238 2.13106 149 138 127
3.91321 -2.30624 0.13036 85 92 110
3.91925 -2.29639 0.10246 56 50 61
3.90714 -2.32280 0.13676 130 137 155
3.89148 -2.33600 0.14563 162 165 176
3.83855 -2.33586 0.16402 174 175 180
3.81691 -2.35353 0.15299 168 175 180
3.75739 -2.34383 0.19433 169 175 176
3.14012 -2.25485 0.38617 127 124 151
3.12616 -2.26670 0.39410 153 175 170
3.10985 -2.27761 0.40260 157 172 156
3.09020 -2.28716 0.41191 147 159 174
3.07067 -2.30311 0.40196 143 146 161
3.07876 -2.31743 0.42372 154 161 178
3.05915 -2.32695 0.43301 143 148 156
3.10478 -2.38116 0.43116 98 108 143
3.08496 -2.39734 0.42106 49 43 55
3.09565 -2.39521 0.43797 75 90 127
3.07582 -2.41141 0.42787 44 43 55
3.03046 -2.40339 0.46278 62 71 109
3.01282 -2.41370 0.47159 51 63 103
3.00908 -2.42999 0.47711 68 86 120
3.01689 -2.45140 0.47993 140 161 172
2.98491 -2.47351 0.49678 156 160 172
2.97025 -2.48513 0.50489 148 146 162
2.96274 -2.49995 0.51134 142 140 147
2.94926 -2.51210 0.51918 135 136 125
2.93701 -2.52481 0.52673 128 133 102
2.91911 -2.53491 0.53557 87 92 69
2.91062 -2.54934 0.54226 75 80 77
2.90609 -2.56567 0.54806 84 92 103
2.89819 -2.58047 0.55464 79 72 89
2.88978 -2.59505 0.56135 67 46 62
2.87867 -2.60837 0.56866 66 41 53
2.86803 -2.62193 0.57587 122 84 66
2.85269 -2.63321 0.58413 174 152 100
2.83287 -2.64940 0.57403 185 160 119
2.84075 -2.64615 0.59163 183 157 110
2.82633 -2.65786 0.59968 183 157 107
2.80651 -2.67405 0.58959 186 158 111
2.81237 -2.66979 0.60763 183 155 102
2.79790 -2.68145 0.61569 174 141 103
2.77842 -2.69056 0.62483 169 136 94
2.76087 -2.70061 0.63353 169 140 93
2.74625 -2.71212 0.64160 171 141 100
2.72650 -2.72825 0.63154 183 162 123
2.73229 -2.72395 0.64952 175 145 93
2.71254 -2.74008 0.63946 186 164 125
2.70435 -2.72849 0.66042 181 149 99
2.67268 -2.75002 0.67702 182 156 115
2.66901 -2.76723 0.68275 187 170 145
2.65887 -2.78105 0.68985 186 167 140
2.65333 -2.79736 0.69601 179 154 128
2.65314 -2.81665 0.70106 170 151 118
2.64248 -2.83030 0.70830 174 160 120
2.61271 -2.83337 0.71946 159 136 98
2.57241 -2.83044 0.73273 101 88 73
2.56456 -2.84551 0.73936 112 95 75
2.48307 -2.89682 0.78101 126 100 63
2.48850 -2.88798 0.75594 124 99 56
2.43232 -2.88678 0.79607 80 66 41
2.42287 -2.90081 0.80300 68 53 34
2.40347 -2.91665 0.79311 55 48 32
2.41016 -2.91293 0.81056 53 47 30
2.40322 -2.92851 0.81700 89 72 59
2.39661 -2.94433 0.82340 117 99 70
2.39121 -2.95313 0.84834 126 98 52
2.38419 -2.95667 0.83092 124 99 56
2.37716 -2.96021 0.81349 125 99 53
2.24636 -2.97063 0.88251 127 100 70
2.25166 -2.96198 0.85798 127 102 58
2.24334 -2.98860 0.88821 161 151 140
2.22663 -2.99790 0.89643 176 170 162
2.21498 -3.01042 0.90372 189 188 171
2.20855 -3.02632 0.91008 196 198 171
2.19550 -3.03796 0.91763 201 202 174
2.18406 -3.05064 0.92489 199 193 154
2.16490 -3.06630 0.91513 111 110 107
2.09319 -3.01072 0.94619 90 101 88
2.08797 -3.01923 0.97033 112 120 95
2.08117 -3.02266 0.95347 104 119 96
1.42342 -2.88526 1.14687 151 134 122
1.42806 -2.87770 1.12543 150 131 118
1.41738 -2.88831 1.13189 145 130 117
1.41175 -2.89512 1.15348 154 143 134
1.35412 -2.86998 1.16703 170 172 164
1.23369 -2.90593 1.21826 162 174 181
1.22100 -2.91440 1.22487 164 182 192
