ply
format ascii 1.0
element face 0
property list uchar int vertex_indices
element vertex 1318
property float x
property float y
property float z
property uchar diffuse_red
property uchar diffuse_green
property uchar diffuse_blue
end_header
1.11863 -2.94310 1.88286 90 74 53
1.11345 -2.94587 1.87206 102 80 50
1.09855 -3.10959 1.94633 155 133 79
1.10072 -3.10408 1.92948 163 142 96
1.09323 -3.11244 1.93521 161 137 94
1.08573 -3.12080 1.94095 153 130 93
3.43231 -1.96707 0.76764 213 216 216
3.44870 -1.95273 0.77453 213 215 220
3.44189 -1.95637 0.76031 213 215 219
3.43509 -1.96002 0.74610 214 214 217
3.40556 -1.97068 0.77697 187 191 204
3.38923 -1.98496 0.77011 170 176 187
3.27760 -1.97502 0.81607 163 170 187
3.28695 -1.96459 0.80891 171 179 187
3.28031 -1.96815 0.79505 167 175 186
3.25086 -1.97798 0.82511 191 196 211
3.21908 -1.99301 0.84075 182 187 207
3.21458 -2.00547 0.84735 123 122 147
3.22961 -2.02662 0.85196 98 97 109
3.20376 -2.02968 0.86078 111 108 102
3.18539 -2.05056 0.87500 105 113 109
3.11756 -2.03419 0.88780 74 68 67
3.12771 -2.05333 0.89298 81 80 83
3.11194 -2.06713 0.88635 95 101 99
3.10864 -2.07362 0.90714 82 83 101
3.10240 -2.09999 0.92016 94 98 97
3.08658 -2.11383 0.91352 100 103 106
2.99976 -2.32039 1.04366 112 110 103
2.99308 -2.32396 1.02972 95 96 92
1.59600 -2.33245 1.45751 128 129 118
1.59808 -2.32717 1.44136 125 129 126
1.59661 -2.34709 1.46355 89 89 76
1.56516 -2.33438 1.46731 53 45 29
1.55296 -2.34505 1.46218 49 45 33
1.96341 -3.49237 1.84323 79 45 34
1.97952 -3.47827 1.85000 77 58 43
1.97283 -3.48186 1.83602 78 48 29
1.97010 -3.48878 1.85720 77 58 45
1.96068 -3.49929 1.86441 78 59 42
1.94885 -3.49702 1.84944 82 48 33
1.94613 -3.50393 1.87059 79 59 37
1.93945 -3.50751 1.85664 84 52 29
1.27333 -2.91208 1.79767 84 56 41
1.28615 -2.90086 1.80305 82 67 47
1.28082 -2.90371 1.79193 83 56 36
1.27865 -2.90922 1.80878 82 67 52
1.27116 -2.91758 1.81452 83 67 50
1.26545 -2.91997 1.80331 86 58 39
1.26328 -2.92548 1.82016 83 68 45
1.25435 -2.92386 1.80820 88 60 33
1.25218 -2.92936 1.82502 84 67 47
1.23985 -2.92345 1.81224 90 59 33
1.23769 -2.92893 1.82901 84 66 48
1.22318 -2.92020 1.81572 93 60 37
1.22103 -2.92566 1.83241 84 65 49
1.20499 -2.91488 1.81875 94 67 45
1.20285 -2.92031 1.83537 85 64 44
1.18803 -2.91094 1.82202 97 74 47
1.18589 -2.91635 1.83856 88 61 37
1.16832 -2.90334 1.82453 105 78 37
1.14885 -2.89584 1.82701 116 83 38
1.13226 -2.89187 1.83016 126 94 50
1.12413 -2.89880 1.83547 132 99 55
1.11440 -2.90359 1.84034 137 106 66
1.11460 -2.92148 1.84788 143 111 73
1.10219 -2.93234 1.84267 169 145 108
1.11005 -2.93318 1.85417 145 115 75
1.09763 -2.94405 1.84895 167 146 103
3.40407 -1.96191 0.75601 203 206 212
3.37799 -1.96570 0.76528 177 178 193
3.36174 -1.97992 0.75846 173 176 188
3.27188 -1.97897 0.80210 170 174 191
3.25589 -1.99297 0.79538 215 223 230
3.24696 -1.98270 0.81100 208 219 226
3.23758 -1.99306 0.81813 205 215 222
3.21261 -1.99660 0.82697 147 152 169
3.21556 -2.01235 0.83275 104 105 121
3.20562 -2.05164 0.85226 134 137 124
3.18460 -2.05676 0.86060 105 111 102
3.13710 -2.04964 0.87157 74 68 54
3.13608 -2.06375 0.87782 85 83 78
3.11729 -2.08427 0.89201 78 75 84
3.11072 -2.08779 0.87828 75 73 67
3.11792 -2.09927 0.89816 81 82 90
3.10206 -2.11316 0.89149 101 101 109
3.10818 -2.10940 0.90530 97 102 104
3.09232 -2.12329 0.89864 101 102 105
2.82366 -2.11436 0.99107 124 128 131
2.83249 -2.10451 0.98432 124 126 131
2.82622 -2.10787 0.97122 118 120 120
2.82110 -2.12085 1.01093 132 135 140
2.68521 -3.04775 1.42580 177 180 169
2.70221 -3.03287 1.43294 183 187 178
2.69515 -3.03666 1.41819 181 186 177
2.68809 -3.04044 1.40344 181 183 176
2.67527 -3.05884 1.43340 158 158 152
2.66605 -3.07051 1.44104 119 119 114
2.66316 -3.07782 1.46340 117 122 124
2.65610 -3.08161 1.44865 117 122 122
2.64904 -3.08540 1.43390 116 118 121
1.60107 -2.34380 1.44750 129 132 117
1.60316 -2.33850 1.43129 125 128 126
1.59841 -2.35572 1.45332 89 90 72
1.56791 -2.34380 1.45726 59 47 27
1.55567 -2.35451 1.45212 50 42 41
2.09378 -3.47857 1.78160 65 44 20
2.11022 -3.46418 1.78851 62 45 26
2.10340 -3.46784 1.77425 59 42 30
2.10061 -3.47491 1.79586 65 46 29
2.09099 -3.48563 1.80322 66 48 22
2.07615 -3.48057 1.78763 68 41 13
2.07336 -3.48762 1.80919 66 47 23
2.06076 -3.48492 1.79400 69 38 10
2.05799 -3.49196 1.81552 65 48 24
2.03888 -3.48204 1.79921 71 39 11
2.03612 -3.48904 1.82065 67 50 30
2.01782 -3.47988 1.80450 73 46 21
2.01506 -3.48686 1.82585 71 53 28
2.00015 -3.48135 1.81031 78 56 34
1.99740 -3.48831 1.83161 75 52 24
1.98396 -3.49552 1.80351 143 138 116
1.98381 -3.48420 1.81632 86 68 49
1.96765 -3.49834 1.80954 151 143 119
1.96944 -3.48917 1.82265 98 76 48
1.95331 -3.50329 1.81587 155 145 128
1.96412 -3.50438 1.83063 110 91 65
1.94797 -3.51852 1.82385 159 152 142
1.93676 -3.49440 1.83447 120 106 85
1.92071 -3.50845 1.82772 162 156 144
1.27939 -2.89383 1.77429 96 68 43
1.29218 -2.88263 1.77967 79 60 53
1.28687 -2.88548 1.76857 91 63 39
1.28470 -2.89098 1.78539 81 58 44
1.27037 -2.90031 1.77968 106 75 39
1.25947 -2.90444 1.78463 120 90 41
1.16075 -2.86823 1.79838 153 123 81
1.14834 -2.87909 1.79317 169 148 109
1.15030 -2.87225 1.80315 156 131 88
1.13790 -2.88309 1.79795 166 145 110
1.13736 -2.87302 1.80728 157 134 84
1.12500 -2.88384 1.80209 162 144 115
1.12696 -2.87698 1.81201 161 138 85
1.11925 -2.88439 1.81741 164 140 93
1.11192 -2.89229 1.82290 166 142 96
1.10534 -2.90117 1.82858 167 144 102
1.10568 -2.91925 1.83611 169 145 106
3.40281 -1.95326 0.73508 212 212 216
3.41911 -1.93900 0.74192 213 213 217
3.41234 -1.94263 0.72779 212 212 216
3.40558 -1.94625 0.71365 211 212 219
3.38328 -1.95976 0.74361 186 188 208
3.36703 -1.97399 0.73678 168 173 187
3.36652 -1.96735 0.75177 171 172 191
3.35029 -1.98155 0.74496 173 178 189
3.31189 -1.98798 0.77665 161 169 187
3.32133 -1.97746 0.76944 172 178 187
3.31463 -1.98105 0.75544 167 173 185
3.26458 -1.98225 0.78830 189 197 209
3.23562 -1.99864 0.80378 180 186 198
3.22122 -2.00682 0.81149 120 123 134
3.22774 -2.02422 0.81685 94 98 105
3.21616 -2.03366 0.82425 112 114 106
3.20085 -2.04141 0.83205 134 143 127
3.19405 -2.05297 0.83892 138 141 133
3.16667 -2.05514 0.84796 102 103 96
3.14482 -2.05973 0.85638 79 67 55
3.12897 -2.07360 0.84972 88 88 93
3.13644 -2.07049 0.86338 90 86 82
3.13393 -2.08400 0.86979 83 92 92
3.12018 -2.10701 0.88353 91 86 86
3.10428 -2.12092 0.87685 102 100 110
2.80705 -2.11239 0.97881 112 117 120
2.80960 -2.10592 0.95901 122 125 118
3.22649 -2.66349 1.08538 231 235 237
3.20894 -2.67884 1.07801 239 242 243
2.69549 -3.06526 1.41165 177 177 169
2.69839 -3.05791 1.38919 179 182 176
2.67873 -3.09012 1.42707 118 118 112
2.66163 -3.10509 1.41988 114 119 119
1.60287 -2.35243 1.43722 128 131 118
1.60497 -2.34712 1.42097 122 129 123
1.59863 -2.36305 1.44294 87 92 75
1.57432 -2.35642 1.44738 61 47 35
1.56203 -2.36718 1.44222 49 43 44
2.10421 -3.47973 1.76117 69 53 48
2.12069 -3.46531 1.76809 56 43 31
2.10700 -3.47265 1.73949 123 110 99
2.09736 -3.48340 1.74687 131 120 111
2.08772 -3.49416 1.75424 138 126 118
2.06762 -3.46125 1.76428 79 71 64
2.05128 -3.47555 1.75742 139 127 121
2.05746 -3.47125 1.77150 92 89 65
2.04113 -3.48555 1.76464 145 133 128
2.04791 -3.48191 1.77880 104 97 68
2.03157 -3.49621 1.77194 150 140 126
2.03902 -3.49330 1.78622 117 109 84
2.02268 -3.50760 1.77936 155 143 127
2.02742 -3.50168 1.79319 127 120 97
2.01109 -3.51597 1.78633 161 146 132
2.01629 -3.51057 1.80022 135 127 104
1.99997 -3.52485 1.79336 167 150 134
1.21219 -2.83839 1.75713 166 140 88
1.18318 -2.83681 1.76508 171 150 97
1.16962 -2.83703 1.76920 172 151 111
1.15726 -2.84785 1.76401 155 122 90
1.11334 -2.88611 1.80651 159 142 113
1.10671 -2.89492 1.81218 156 139 107
1.09438 -2.90572 1.80700 140 120 95
1.10093 -2.90486 1.81806 153 133 102
1.08858 -2.91566 1.81288 137 118 95
1.09920 -2.92022 1.82502 151 131 102
1.08682 -2.93105 1.81982 137 118 99
1.09428 -2.93141 1.83117 149 128 103
1.08189 -2.94225 1.82597 138 118 102
3.36336 -1.94347 0.72516 202 207 212
3.34667 -1.95102 0.73332 173 173 194
3.33052 -1.96515 0.72653 172 175 185
3.27981 -1.98073 0.76576 167 173 188
3.25740 -1.98558 0.77450 209 221 225
3.24805 -1.99601 0.78165 205 212 220
3.27524 -2.02242 0.78451 145 147 168
3.24061 -2.02183 0.79465 104 103 116
3.24050 -2.03641 0.80076 101 98 97
3.20080 -2.03331 0.81138 132 135 121
3.18485 -2.04727 0.80468 144 152 151
3.18940 -2.04278 0.81875 144 150 141
3.17631 -2.05146 0.82629 136 138 134
3.16506 -2.06097 0.83363 98 99 101
3.15081 -2.06907 0.84128 82 73 76
3.13649 -2.09182 0.85506 73 75 87
3.12988 -2.09537 0.84126 74 65 80
3.13058 -2.10381 0.86183 77 75 74
3.12309 -2.11508 0.86878 96 95 95
3.10715 -2.12902 0.86208 100 101 107
2.80343 -2.11711 0.96553 104 105 112
2.81739 -2.13881 0.97038 96 95 110
2.70701 -3.08384 1.39741 175 177 171
2.70992 -3.07646 1.37484 176 180 172
2.69697 -3.09504 1.40509 158 159 152
2.66946 -3.09219 1.41216 117 115 112
2.65238 -3.10715 1.40498 111 117 117
1.60311 -2.35976 1.42680 127 131 117
1.60521 -2.35443 1.41051 124 126 125
1.59814 -2.36980 1.43247 86 89 78
1.57904 -2.36765 1.43731 59 46 40
1.56670 -2.37845 1.43212 48 44 40
1.56793 -2.40109 1.45458 37 31 28
1.58032 -2.39025 1.45979 45 42 34
1.57518 -2.39301 1.44904 43 43 37
1.56583 -2.40642 1.47088 34 25 15
1.56068 -2.40918 1.46013 31 24 18
1.55553 -2.41194 1.44937 28 23 14
1.19184 -2.83959 1.75019 163 141 112
1.17914 -2.84096 1.75457 161 133 104
1.16998 -2.84667 1.75970 159 125 95
1.12569 -2.87671 1.78551 148 116 99
1.11811 -2.88430 1.79095 147 120 103
1.10951 -2.89055 1.79613 145 124 90
1.10068 -2.89646 1.80125 142 121 81
1.08835 -2.90725 1.79607 140 116 93
3.37956 -1.94201 0.70209 209 211 218
3.39578 -1.92782 0.70891 211 213 217
3.38904 -1.93143 0.69484 209 211 216
3.38231 -1.93504 0.68076 208 210 214
3.36669 -1.95121 0.70980 184 190 205
3.35048 -1.96539 0.70299 166 173 185
3.35377 -1.96035 0.71750 171 172 184
3.33758 -1.97453 0.71070 173 177 188
3.30239 -1.98229 0.74215 160 165 188
3.31181 -1.97178 0.73495 171 177 187
3.30512 -1.97536 0.72097 165 173 185
3.27221 -1.98389 0.75197 189 195 209
3.25308 -1.99014 0.76035 214 222 231
3.24331 -2.00039 0.76755 178 183 199
3.25563 -2.02034 0.77208 116 118 143
3.23730 -2.02688 0.78035 92 92 106
3.23533 -2.04065 0.78665 115 111 104
3.19703 -2.03814 0.79721 146 152 142
3.16594 -2.05330 0.81291 132 135 135
3.15990 -2.06518 0.81966 93 93 108
3.15323 -2.07679 0.82649 83 83 95
3.14600 -2.08817 0.83339 81 84 95
3.13480 -2.11250 0.84686 86 82 86
3.11883 -2.12648 0.84016 97 101 101
3.12178 -2.12116 0.85440 97 101 102
3.10582 -2.13513 0.84769 100 100 101
2.81345 -2.12891 0.95102 102 101 103
2.82118 -2.14746 0.95636 91 90 100
2.81200 -2.15722 0.96319 85 86 93
2.79680 -2.17052 0.95680 76 75 81
2.80930 -2.17043 0.96947 80 81 88
2.79408 -2.18375 0.96308 73 75 78
2.88613 -3.02056 1.29830 225 228 229
2.90364 -3.00524 1.30565 233 235 235
2.89637 -3.00914 1.29046 234 235 236
2.89340 -3.01666 1.31349 226 228 229
2.88316 -3.02809 1.32133 220 222 220
2.86260 -3.02209 1.30606 217 220 218
2.85964 -3.02959 1.32901 214 216 212
2.84570 -3.02845 1.31381 211 213 209
2.84275 -3.03594 1.33672 209 211 207
2.83552 -3.03982 1.32161 206 209 204
2.71465 -3.09941 1.38291 170 176 167
2.71757 -3.09201 1.36025 173 176 173
2.70456 -3.11066 1.39063 159 158 149
2.67139 -3.10328 1.39762 115 114 111
2.65426 -3.11827 1.39042 107 111 111
1.60262 -2.36650 1.41629 127 128 118
1.60472 -2.36117 1.39997 122 124 130
1.59705 -2.37605 1.42193 84 94 81
1.58112 -2.37664 1.42700 58 51 43
1.56874 -2.38747 1.42181 47 42 37
1.57191 -2.39742 1.43840 44 41 31
1.56862 -2.40901 1.44420 34 29 20
1.55619 -2.41988 1.43898 26 20 11
1.50260 -2.57239 1.53187 30 15 19
1.51525 -2.56133 1.53718 29 24 11
1.51000 -2.56415 1.52621 27 18 20
1.50785 -2.56958 1.54283 29 22 10
1.50046 -2.57783 1.54849 31 20 13
1.49954 -2.58488 1.53797 33 13 8
1.49739 -2.59033 1.55462 31 16 15
1.49800 -2.59893 1.54425 34 12 12
1.49585 -2.60439 1.56094 31 18 18
1.52112 -2.63752 1.55323 36 14 19
1.51894 -2.64305 1.57013 34 20 21
1.51361 -2.64591 1.55898 45 24 24
1.22357 -2.83637 1.72574 150 112 88
1.23610 -2.82540 1.73100 174 157 110
1.23090 -2.82819 1.72014 151 116 77
1.20972 -2.83654 1.73001 149 115 100
1.20182 -2.84395 1.73547 151 120 104
1.18667 -2.84236 1.73940 154 120 107
1.17288 -2.84233 1.74357 158 121 110
1.16049 -2.84397 1.74800 163 127 104
1.15060 -2.84867 1.75295 171 140 102
1.14850 -2.85399 1.76919 153 120 88
1.13875 -2.85085 1.75744 176 149 111
1.13465 -2.86288 1.76366 180 157 120
1.12647 -2.86971 1.76897 187 164 133
1.11916 -2.87764 1.77447 187 168 142
1.10394 -2.87523 1.77808 190 175 142
1.10152 -2.88952 1.78473 182 164 107
3.37929 -1.94828 0.68714 202 207 212
3.37255 -1.95190 0.67304 184 191 199
3.37023 -1.95906 0.69434 173 176 192
3.35398 -1.97328 0.68752 169 173 183
3.29401 -1.98515 0.72840 165 170 190
3.27737 -1.99255 0.73654 205 221 229
3.26869 -2.00335 0.74364 200 211 222
3.24902 -2.00935 0.75212 145 151 171
3.25534 -2.02674 0.75734 100 102 116
3.24408 -2.03642 0.76478 98 89 96
3.21906 -2.03994 0.77388 137 136 126
3.20303 -2.05397 0.76714 158 164 159
3.19395 -2.04330 0.78294 157 160 154
3.19008 -2.05621 0.78944 142 149 149
3.16912 -2.06132 0.79796 125 131 133
3.16986 -2.07638 0.80393 91 86 107
3.16449 -2.08866 0.81062 84 87 95
3.14849 -2.10267 0.80390 69 63 78
3.15423 -2.09868 0.81789 71 69 88
3.14647 -2.10987 0.82487 73 68 86
3.13942 -2.12142 0.83177 90 93 97
3.12340 -2.13543 0.82505 98 99 98
2.79265 -2.12472 0.93923 111 107 105
2.79521 -2.11824 0.91940 157 160 152
2.82019 -2.15363 0.94270 89 85 87
2.80496 -2.16695 0.93631 78 73 80
2.81303 -2.16449 0.94935 82 80 83
2.79780 -2.17781 0.94296 74 72 77
2.93435 -3.02728 1.26729 242 244 244
2.95202 -3.01181 1.27471 245 246 246
2.94469 -3.01574 1.25938 246 248 248
2.93735 -3.01968 1.24405 247 251 252
2.94169 -3.02334 1.28261 241 241 242
2.90414 -3.02413 1.27524 235 236 237
2.87191 -3.01930 1.28311 224 226 226
2.80118 -3.02316 1.30634 201 203 201
2.79824 -3.03059 1.32908 202 204 200
2.79106 -3.03444 1.31408 197 200 198
2.78388 -3.03830 1.29907 192 193 198
2.73634 -3.12631 1.36862 167 172 169
2.73929 -3.11884 1.34578 170 174 174
2.72618 -3.13764 1.37639 157 157 150
2.67070 -3.11229 1.38293 113 111 108
2.65354 -3.12731 1.37573 104 110 116
1.60054 -2.37191 1.40567 126 126 116
1.60265 -2.36657 1.38933 118 121 123
1.59611 -2.38246 1.41137 84 84 75
1.58557 -2.38774 1.41677 57 46 41
1.57281 -2.40551 1.42798 42 40 27
1.56608 -2.41410 1.43358 31 27 16
1.55732 -2.50999 1.47572 27 14 11
1.56996 -2.49892 1.48103 28 20 15
1.56471 -2.50174 1.47006 24 19 18
1.56257 -2.50717 1.48669 29 18 13
1.55517 -2.51542 1.49234 30 18 15
1.54774 -2.51620 1.48120 29 11 8
1.54560 -2.52163 1.49782 28 19 14
1.53938 -2.52353 1.48678 29 11 8
1.53724 -2.52896 1.50338 24 19 9
1.53233 -2.53209 1.49246 28 12 5
1.53019 -2.53752 1.50907 26 21 7
1.51916 -2.55011 1.50390 40 23 3
1.51702 -2.55554 1.52052 29 19 9
1.50897 -2.55566 1.50930 49 29 5
1.50455 -2.56677 1.51523 54 33 14
1.49425 -2.57217 1.52060 60 39 29
1.48162 -2.58322 1.51530 174 150 95
1.49619 -2.58958 1.52717 69 52 40
1.48351 -2.60067 1.52185 186 162 111
1.50580 -2.61469 1.53456 82 56 46
1.52538 -2.64994 1.54308 91 61 56
1.52893 -2.66948 1.55003 105 74 55
1.52674 -2.67505 1.56707 54 36 20
1.51598 -2.68082 1.54459 198 175 113
1.54878 -2.70559 1.55882 121 92 28
1.53568 -2.71705 1.55332 197 180 112
1.50653 -2.67903 1.56082 139 114 37
1.36053 -2.56132 1.55705 162 134 95
1.34829 -2.57203 1.55191 190 173 122
1.35339 -2.56933 1.56253 171 145 106
1.34660 -2.57768 1.56804 180 155 116
1.34109 -2.58740 1.57373 187 164 123
1.32885 -2.59811 1.56858 176 149 119
1.33408 -2.59554 1.57922 189 165 129
1.33200 -2.60080 1.59532 142 124 106
1.32692 -2.60353 1.58470 190 169 133
1.32183 -2.60625 1.57408 174 138 100
1.24781 -2.70723 1.65158 153 114 74
1.26010 -2.69648 1.65674 180 163 137
1.24990 -2.70195 1.63543 199 185 139
1.25291 -2.70449 1.66223 176 162 131
1.24573 -2.71251 1.66773 173 159 123
1.23436 -2.70801 1.65601 148 111 86
1.23228 -2.71327 1.67212 170 152 124
1.22937 -2.71852 1.66187 145 112 103
1.22729 -2.72379 1.67799 170 144 127
1.22453 -2.72924 1.66776 147 111 109
1.22245 -2.73452 1.68390 168 140 118
1.21512 -2.73462 1.67285 156 118 113
1.21304 -2.73989 1.68897 166 135 100
1.20795 -2.74262 1.67834 165 133 107
1.19003 -2.80453 1.70930 198 183 151
1.16745 -2.79372 1.71176 201 187 164
1.14602 -2.78410 1.71435 206 195 171
1.13760 -2.79044 1.71954 214 201 176
1.13065 -2.79862 1.72503 216 201 180
1.12333 -2.80633 1.73044 219 207 182
1.11695 -2.81522 1.73605 221 213 180
1.11047 -2.82401 1.74165 224 217 188
1.10353 -2.83221 1.74715 225 220 194
1.09893 -2.84344 1.75318 226 223 197
1.08672 -2.85413 1.74805 231 232 224
1.09287 -2.85281 1.75889 225 223 202
1.08065 -2.86350 1.75376 232 233 224
1.08625 -2.86147 1.76448 228 227 201
1.08043 -2.87119 1.77026 223 214 168
1.07683 -2.88389 1.77659 183 158 97
1.07813 -2.90319 1.78413 145 113 78
1.07605 -2.90847 1.80030 138 117 96
1.07035 -2.91042 1.78949 137 115 91
1.06827 -2.91571 1.80566 138 120 100
1.06316 -2.91845 1.79499 138 120 95
1.05806 -2.92118 1.78432 137 118 95
3.39099 -1.94495 0.66450 209 211 211
3.40727 -1.93070 0.67134 208 209 211
3.40051 -1.93432 0.65722 206 209 214
3.39375 -1.93795 0.64310 207 208 212
3.36807 -1.96458 0.67961 169 170 182
3.36132 -1.96820 0.66550 169 171 184
3.35181 -1.97881 0.67278 172 174 185
3.31095 -1.98427 0.70531 157 163 188
3.32040 -1.97373 0.69808 173 176 185
3.31369 -1.97732 0.68406 169 173 183
3.29269 -1.99104 0.71371 184 189 212
3.27957 -1.99996 0.72142 211 222 234
3.26364 -2.00764 0.72948 175 181 200
3.25255 -2.01740 0.73689 117 122 138
3.27228 -2.04077 0.74035 91 93 104
3.26042 -2.05027 0.74790 120 108 97
3.21879 -2.04637 0.75917 155 159 144
3.19274 -2.06401 0.77443 142 147 147
3.17397 -2.07015 0.78273 114 123 131
3.18820 -2.09151 0.78707 92 84 101
3.17643 -2.10090 0.79455 82 83 90
3.15013 -2.11832 0.80980 79 78 88
3.13408 -2.13236 0.80306 97 98 103
3.13543 -2.12625 0.81758 94 99 100
3.11941 -2.14028 0.81085 97 97 100
2.76842 -2.11869 0.92786 128 120 114
2.82510 -2.16294 0.92844 90 79 83
2.80984 -2.17630 0.92203 76 69 79
2.93290 -3.03554 1.25191 244 248 248
2.93590 -3.02793 1.22864 240 242 242
2.90271 -3.03240 1.25995 237 238 238
2.73438 -3.13438 1.35365 166 171 169
2.73733 -3.12690 1.33077 169 173 172
2.72420 -3.14573 1.36143 156 159 150
2.66702 -3.11891 1.36813 110 110 111
2.64984 -3.13394 1.36092 101 106 115
1.60340 -2.38158 1.39524 122 124 111
1.60551 -2.37622 1.37885 114 118 117
1.58218 -2.37764 1.40018 83 88 70
1.58328 -2.39300 1.40613 55 46 36
1.57563 -2.40079 1.41167 41 39 36
1.56878 -2.40928 1.41726 34 34 27
1.56201 -2.41785 1.42285 24 20 12
1.55761 -2.42853 1.42858 24 12 7
1.55550 -2.43388 1.44496 25 19 10
1.55762 -2.44323 1.43459 32 11 5
1.55550 -2.44860 1.45101 23 18 10
1.55892 -2.45919 1.44071 37 11 5
1.55680 -2.46457 1.45719 23 17 14
1.55837 -2.47355 1.44675 41 15 8
1.55624 -2.47895 1.46328 22 19 20
1.55703 -2.48728 1.45278 45 21 11
1.55727 -2.50253 1.45894 50 29 14
1.54757 -2.50862 1.46443 56 35 23
1.53531 -2.51228 1.46971 57 40 31
1.51072 -2.51937 1.48021 82 62 31
1.49716 -2.52162 1.48531 102 74 30
1.50649 -2.54579 1.49231 124 91 30
1.50619 -2.57629 1.50488 154 127 69
1.49351 -2.58738 1.49955 195 177 130
1.50983 -2.59539 1.51156 165 138 78
1.49710 -2.60653 1.50622 193 177 132
1.52746 -2.66024 1.53263 195 165 117
1.33782 -2.57654 1.55699 184 166 121
1.33611 -2.59022 1.56312 179 159 118
1.29159 -2.63647 1.59577 158 115 94
1.30383 -2.62576 1.60091 183 166 131
1.29875 -2.62849 1.59030 163 120 80
1.29668 -2.63375 1.60639 181 164 120
1.28952 -2.64173 1.61186 177 161 123
1.28444 -2.64445 1.60125 152 121 111
1.23146 -2.69702 1.63911 207 194 148
1.22705 -2.70816 1.64503 210 198 165
1.22275 -2.71947 1.65098 217 207 182
1.21535 -2.72719 1.65642 224 214 191
1.20562 -2.73216 1.66146 226 216 194
1.18350 -2.73879 1.67100 233 227 195
1.18143 -2.74403 1.68703 181 155 121
1.17317 -2.74290 1.67587 231 226 198
1.15713 -2.74004 1.67966 233 229 203
1.14501 -2.75065 1.67457 241 242 237
1.14575 -2.74273 1.68427 236 233 212
1.13365 -2.75331 1.67919 242 243 237
1.12590 -2.76811 1.70078 239 239 225
1.11379 -2.77870 1.69570 240 241 238
1.12523 -2.78402 1.70749 239 239 227
1.11309 -2.79465 1.70239 239 240 238
1.12353 -2.79874 1.71404 239 240 229
1.11135 -2.80939 1.70892 238 240 237
1.11741 -2.80794 1.71969 239 240 230
1.10522 -2.81860 1.71458 237 239 237
1.11069 -2.81641 1.72523 238 238 229
1.09851 -2.82707 1.72011 236 237 236
1.10460 -2.82569 1.73090 237 237 230
1.09241 -2.83636 1.72578 235 236 235
1.09863 -2.83513 1.73661 236 236 229
1.08643 -2.84580 1.73149 235 235 231
1.09386 -2.84616 1.74259 235 236 227
1.08165 -2.85685 1.73746 232 232 226
1.06969 -2.86642 1.75834 233 231 213
1.07176 -2.86117 1.74231 230 231 226
1.06463 -2.86913 1.74776 232 233 228
1.06810 -2.88176 1.76510 216 201 160
1.07024 -2.90219 1.77280 171 139 89
1.06495 -2.91276 1.77875 140 113 71
1.05265 -2.92352 1.77359 139 114 91
3.39751 -1.95401 0.64845 202 205 206
3.39084 -1.96585 0.65534 172 176 186
3.37450 -1.98015 0.64848 173 170 185
3.30594 -1.98859 0.69106 164 166 192
3.29207 -1.99724 0.69889 205 218 230
3.28262 -2.00777 0.70612 200 211 222
3.26071 -2.01286 0.71502 144 147 171
3.27897 -2.03555 0.71854 103 104 117
3.27843 -2.05009 0.72462 97 96 104
3.23140 -2.04389 0.73677 143 145 128
3.21531 -2.05798 0.73001 168 176 169
3.21122 -2.04954 0.74536 166 173 161
3.20272 -2.06042 0.75243 155 161 162
3.20219 -2.07495 0.75849 141 144 143
3.19698 -2.08739 0.76517 97 108 121
3.19121 -2.09960 0.77193 85 86 92
3.18063 -2.10957 0.77928 69 72 81
3.16869 -2.11891 0.78680 70 68 83
3.14970 -2.12486 0.79514 90 88 97
3.13362 -2.13892 0.78839 98 97 103
2.79760 -2.14060 0.91134 141 136 125
2.82305 -2.16860 0.91478 96 83 89
2.76402 -2.97590 1.26111 199 199 202
2.75852 -2.99047 1.26874 194 195 200
2.74140 -3.00546 1.26155 186 191 188
2.73377 -3.14357 1.33865 164 170 168
2.73672 -3.13608 1.31574 166 171 170
2.72290 -3.15440 1.34644 157 158 148
2.65462 -3.11844 1.35313 109 109 109
2.63747 -3.13345 1.34593 100 100 108
1.60380 -2.38917 1.38465 118 121 111
1.60592 -2.38380 1.36822 108 114 115
1.58674 -2.38884 1.38983 80 89 73
1.57430 -2.39973 1.38460 26 30 36
1.58220 -2.39935 1.39552 43 38 30
1.57409 -2.40676 1.40105 41 23 24
1.56707 -2.41511 1.40664 53 30 25
1.56224 -2.42543 1.41233 60 46 40
1.57261 -2.44943 1.41885 79 63 51
1.56527 -2.45762 1.42447 103 78 35
1.56491 -2.47216 1.43048 124 90 40
1.55810 -2.48088 1.43615 138 104 60
1.55608 -2.49403 1.44212 152 123 73
1.55756 -2.51048 1.44834 165 139 80
1.54490 -2.52156 1.44302 196 182 133
1.54715 -2.51593 1.45380 176 150 92
1.52008 -2.52082 1.46423 195 167 110
1.50593 -2.52257 1.46935 199 172 118
1.50489 -2.53679 1.47546 199 177 122
1.50796 -2.55506 1.48192 198 180 121
1.50368 -2.56632 1.48783 197 181 128
1.50010 -2.57831 1.49381 196 177 128
1.34797 -2.56429 1.53557 162 144 114
1.33952 -2.57090 1.54089 154 132 109
1.33524 -2.58188 1.54668 145 111 96
1.32439 -2.58595 1.55172 160 136 86
1.32410 -2.60120 1.55800 173 149 114
1.31312 -2.62076 1.56938 195 185 146
1.31104 -2.62604 1.58550 166 127 65
1.30085 -2.63150 1.56423 234 233 224
1.30657 -2.62945 1.57494 208 195 163
1.30046 -2.63861 1.58057 215 206 173
1.28819 -2.64935 1.57542 244 247 238
1.29465 -2.64812 1.58625 223 209 179
1.28223 -2.65034 1.59103 230 220 195
1.28015 -2.65561 1.60714 153 124 121
1.26997 -2.66107 1.58588 250 250 245
1.26151 -2.64329 1.59462 235 228 204
1.25944 -2.64852 1.61063 160 119 125
1.24933 -2.65395 1.58951 249 249 244
1.24216 -2.63758 1.59834 239 232 209
1.24011 -2.64278 1.61426 171 138 122
1.21887 -2.62725 1.60140 240 233 207
1.21683 -2.63241 1.61721 181 157 127
1.21172 -2.63495 1.60676 242 237 210
1.20968 -2.64012 1.62257 190 172 135
1.19969 -2.64547 1.60172 247 247 243
1.20994 -2.64878 1.61294 243 240 215
1.19789 -2.65932 1.60787 247 248 243
1.20780 -2.66227 1.61908 243 241 217
1.19572 -2.67284 1.61401 246 248 244
1.20669 -2.67702 1.62542 243 242 222
1.19458 -2.68761 1.62033 246 247 245
1.20640 -2.69281 1.63192 243 243 230
1.19425 -2.70344 1.62682 246 246 245
1.21228 -2.71590 1.63947 244 244 235
1.20005 -2.72660 1.63434 245 245 243
1.20655 -2.72555 1.64518 244 244 237
1.19432 -2.73625 1.64004 243 244 243
1.19574 -2.72920 1.65003 243 244 238
1.18353 -2.73988 1.64490 244 244 244
1.18533 -2.73327 1.65493 244 245 237
1.17314 -2.74394 1.64981 245 246 245
1.17460 -2.73691 1.65975 245 245 236
1.16243 -2.74756 1.65464 244 245 244
1.16510 -2.74197 1.66477 243 243 236
1.15294 -2.75261 1.65967 242 242 242
1.15210 -2.74274 1.66914 241 241 236
1.13997 -2.75335 1.66405 241 242 241
1.04487 -2.86020 1.75030 233 227 209
1.04692 -2.85499 1.73436 231 233 231
1.04929 -2.88359 1.75842 208 187 139
1.05342 -2.90680 1.76656 160 128 71
3.40632 -1.94946 0.62607 207 210 211
3.42267 -1.93515 0.63294 207 208 210
3.41588 -1.93879 0.61876 205 206 210
3.40909 -1.94243 0.60457 205 207 211
3.39425 -1.95909 0.63376 184 188 200
3.37790 -1.97340 0.62690 165 171 180
3.38802 -1.97114 0.64058 169 167 177
3.37166 -1.98545 0.63371 170 175 184
3.32146 -1.98707 0.66797 161 165 183
3.33094 -1.97649 0.66072 173 174 183
3.32421 -1.98010 0.64665 167 173 180
3.30377 -1.99413 0.67639 184 188 209
3.29287 -2.00407 0.68383 210 220 232
3.27294 -2.01007 0.69253 170 176 195
3.28303 -2.02916 0.69705 117 120 144
3.28364 -2.04419 0.70293 93 94 105
3.25821 -2.04770 0.71235 123 116 107
3.22941 -2.04958 0.72218 165 171 153
3.21005 -2.07037 0.73667 151 158 161
3.20032 -2.08075 0.74391 137 138 142
3.20658 -2.09852 0.74911 83 85 111
3.18589 -2.11879 0.76381 57 57 86
3.17305 -2.12773 0.77146 64 68 91
3.15112 -2.13230 0.78021 92 94 102
3.13502 -2.14639 0.77345 97 97 101
2.77916 -2.13758 0.89945 152 151 143
2.78172 -2.13109 0.87960 164 166 167
2.79618 -2.16113 0.90360 108 101 99
2.83471 -2.19636 0.90568 75 69 77
2.83210 -2.20298 0.92592 71 71 77
2.83457 -2.21117 0.91170 65 62 76
2.83195 -2.21780 0.93199 67 67 74
2.82555 -2.22124 0.91861 62 58 70
2.72517 -2.95573 1.24660 194 195 191
2.71107 -2.96362 1.25422 188 191 190
2.72600 -3.14702 1.32353 163 168 165
2.72895 -3.13953 1.30062 165 171 165
2.71450 -3.15734 1.33131 159 157 142
2.64142 -3.11729 1.33816 110 105 98
1.60262 -2.39542 1.37395 112 116 109
1.60474 -2.39005 1.35750 102 107 111
1.58719 -2.39651 1.37925 76 87 72
1.57059 -2.41100 1.39032 83 80 80
1.57049 -2.42552 1.39621 163 152 111
1.56266 -2.43321 1.40178 196 176 120
1.55803 -2.44378 1.40750 205 181 128
1.56187 -2.46206 1.41367 209 185 121
1.56257 -2.47760 1.41972 210 185 125
1.56227 -2.49232 1.42575 207 183 133
1.56052 -2.50578 1.43174 203 180 133
1.55800 -2.51860 1.43770 200 181 132
1.52422 -2.51730 1.44782 194 178 134
1.50901 -2.51808 1.45292 191 172 136
1.50072 -2.52536 1.45847 185 166 140
1.49967 -2.53959 1.46454 179 159 141
1.49983 -2.55509 1.47074 174 154 140
1.48811 -2.59007 1.48855 162 143 123
1.47544 -2.60116 1.48322 153 131 114
1.33347 -2.55722 1.52399 153 128 103
1.33553 -2.55199 1.50798 156 131 107
1.32841 -2.55993 1.51343 153 130 101
1.32130 -2.56788 1.51887 147 124 94
1.32546 -2.56423 1.52934 148 121 95
1.32187 -2.57588 1.53517 141 116 104
1.29037 -2.55803 1.53788 208 206 165
1.29069 -2.57375 1.54412 238 237 204
1.28044 -2.57823 1.54916 240 242 210
1.26836 -2.58880 1.54409 217 215 209
1.27958 -2.59280 1.55531 237 236 219
1.26746 -2.60340 1.55022 212 209 204
1.27591 -2.62008 1.56747 237 240 227
1.26374 -2.63073 1.56236 222 224 228
1.24349 -2.61582 1.57596 250 250 245
1.23142 -2.62638 1.57089 244 246 244
1.20437 -2.61919 1.58964 249 249 244
1.20640 -2.61405 1.57390 247 249 246
1.19940 -2.62186 1.57926 247 249 248
1.19240 -2.62967 1.58461 247 249 248
1.19827 -2.62802 1.59512 248 247 243
1.18629 -2.63850 1.59009 247 249 249
1.02268 -2.83987 1.73590 235 235 227
1.02472 -2.83471 1.72010 235 237 234
1.01769 -2.84255 1.72548 236 236 233
1.01778 -2.85058 1.74176 231 223 194
1.03038 -2.88513 1.75173 196 172 119
1.04791 -2.92675 1.76301 148 115 74
1.04582 -2.93203 1.77918 138 119 99
1.04466 -2.94019 1.76946 138 116 86
1.04257 -2.94549 1.78566 138 120 94
1.03745 -2.94823 1.77497 138 121 95
3.40054 -1.95351 0.61173 201 206 207
3.40332 -1.94648 0.59023 206 208 210
3.39080 -1.96411 0.61908 169 172 185
3.37445 -1.97842 0.61221 168 174 179
3.31788 -1.99202 0.65344 164 166 183
3.32063 -1.98505 0.63211 160 165 185
3.31324 -2.00469 0.66000 202 215 223
3.30223 -2.01463 0.66748 196 205 217
3.26953 -2.01510 0.67806 139 142 161
3.28347 -2.03592 0.68198 101 100 116
3.27038 -2.04492 0.68975 98 87 104
3.23784 -2.04521 0.70020 147 143 136
3.22171 -2.05933 0.69343 173 179 178
3.22978 -2.05635 0.70723 173 179 167
3.22289 -2.06804 0.71411 164 169 169
3.21416 -2.07891 0.72124 151 154 156
3.21525 -2.09430 0.72706 131 131 141
3.21189 -2.10770 0.73350 82 69 105
3.19601 -2.11529 0.74159 75 82 98
3.17311 -2.13454 0.75659 71 72 84
3.15693 -2.14869 0.74979 94 94 99
3.15421 -2.14057 0.76501 92 95 98
3.13807 -2.15470 0.75823 95 95 100
2.78003 -2.14471 0.88560 162 163 157
2.78260 -2.13820 0.86571 163 165 166
2.81711 -2.17900 0.88756 114 114 109
2.84670 -2.20964 0.89044 67 68 77
2.84592 -2.22419 0.89652 58 56 71
2.83688 -2.23432 0.90345 55 56 61
2.83425 -2.24098 0.92383 59 59 69
2.82781 -2.24443 0.91039 52 56 59
2.67615 -2.92770 1.23248 195 195 178
2.66903 -2.94068 1.23995 178 182 174
2.67056 -2.96034 1.24734 179 187 182
2.66771 -2.96757 1.26947 184 189 186
2.66072 -2.97132 1.25487 179 186 181
2.65373 -2.97506 1.24028 174 182 179
2.70601 -3.14059 1.30833 169 168 157
2.69380 -3.15024 1.31608 167 159 137
2.62868 -3.11649 1.32325 118 105 96
2.61840 -3.12741 1.33089 100 94 95
2.61550 -3.13475 1.35337 102 104 105
2.60840 -3.13856 1.33854 98 100 96
1.58703 -2.40368 1.36859 74 83 69
1.58202 -2.41386 1.37427 26 31 36
1.56510 -2.41350 1.37950 92 100 102
1.56193 -2.42530 1.38524 172 177 152
1.55685 -2.43544 1.39092 194 186 145
1.55304 -2.44675 1.39666 191 175 142
1.55585 -2.46412 1.40273 188 169 145
1.55734 -2.48041 1.40879 183 161 148
1.55297 -2.50648 1.42063 172 152 135
1.55055 -2.51938 1.42657 166 146 127
1.53787 -2.53048 1.42125 147 126 108
1.51967 -2.52075 1.43693 150 137 116
1.50708 -2.53178 1.43164 150 128 104
1.50464 -2.52168 1.44208 145 127 109
1.49208 -2.53267 1.43680 150 126 105
1.48328 -2.51643 1.44677 140 118 105
1.47079 -2.52736 1.44152 151 125 106
1.46974 -2.51857 1.45193 138 117 106
1.45728 -2.52947 1.44670 153 127 107
1.47249 -2.53644 1.45822 142 122 116
1.45998 -2.54738 1.45296 153 129 110
1.48207 -2.56110 1.46506 145 126 121
1.46947 -2.57212 1.45977 153 131 107
1.48048 -2.57500 1.47114 148 130 115
1.46786 -2.58605 1.46583 155 132 106
1.31717 -2.57897 1.52463 140 127 113
1.31923 -2.57373 1.50861 148 124 102
1.28459 -2.55989 1.52734 204 213 200
1.28028 -2.57068 1.53303 238 244 233
1.26821 -2.58124 1.52797 243 243 240
1.26942 -2.57446 1.53800 231 227 225
0.99259 -2.82589 1.72678 236 234 222
0.99461 -2.82077 1.71112 238 241 240
0.97971 -2.82557 1.73074 227 215 178
1.03384 -2.91717 1.75026 181 151 90
1.03353 -2.95263 1.76457 137 119 97
1.03144 -2.95793 1.78078 137 121 97
1.02632 -2.96068 1.77009 138 120 102
1.02120 -2.96342 1.75939 139 119 103
3.40201 -1.96055 0.59625 185 191 203
3.38563 -1.97489 0.58937 167 170 179
3.38658 -1.96882 0.60449 168 168 173
3.37022 -1.98314 0.59762 171 175 185
3.31657 -2.01265 0.64441 208 218 228
3.28511 -2.01374 0.65493 168 170 189
3.30525 -2.03727 0.65784 115 117 125
3.28820 -2.04460 0.66623 92 92 103
3.27341 -2.05288 0.67427 125 110 105
3.24351 -2.05434 0.68445 167 168 162
3.22662 -2.07639 0.69864 162 165 166
3.22072 -2.08859 0.70540 149 151 151
3.23043 -2.10804 0.71002 123 125 129
3.20958 -2.11338 0.71884 85 67 86
3.19466 -2.12142 0.72683 70 71 86
3.18646 -2.13261 0.73391 70 67 62
2.79883 -2.16136 0.86972 164 169 161
2.80141 -2.15481 0.84970 162 164 165
2.85321 -2.22004 0.87564 65 57 63
2.84850 -2.23253 0.88212 60 45 45
2.83442 -2.23994 0.88959 60 49 42
2.83432 -2.25499 0.89562 59 55 49
2.83168 -2.26168 0.91607 52 55 61
2.82522 -2.26514 0.90258 63 61 62
3.27268 -2.79514 0.97006 229 233 233
3.26961 -2.80291 0.99383 236 239 241
3.25656 -2.80347 0.97855 234 238 240
3.25350 -2.81123 1.00229 242 245 245
3.23537 -2.80857 0.98738 240 243 244
3.23232 -2.81631 1.01106 246 248 250
3.21736 -2.82433 0.97981 230 234 234
2.67544 -2.93619 1.21783 203 198 190
2.67829 -2.92897 1.19575 240 240 235
2.65241 -2.93703 1.22556 164 166 171
2.65697 -2.95900 1.23284 166 176 181
2.70270 -3.10864 1.27775 164 171 169
2.71999 -3.09351 1.28501 169 177 176
2.71281 -3.09736 1.27002 167 174 176
2.70563 -3.10121 1.25502 166 171 173
2.70988 -3.10479 1.29275 167 175 172
2.69709 -3.12355 1.28549 169 168 155
2.68406 -3.13249 1.29323 181 165 136
2.67956 -3.14836 1.30099 180 156 113
2.66224 -3.16352 1.29372 165 135 89
2.61414 -3.11417 1.30837 148 118 81
2.59708 -3.12910 1.30120 106 86 73
2.59805 -3.12024 1.31595 103 89 77
2.58102 -3.13514 1.30879 91 89 77
1.58869 -2.39791 1.35215 101 103 94
1.59080 -2.39253 1.33572 92 94 95
1.58332 -2.40776 1.35780 71 78 69
1.58431 -2.42325 1.36365 26 33 46
1.56218 -2.41828 1.36877 92 100 105
1.56460 -2.43511 1.37469 150 153 141
1.55992 -2.44566 1.38040 158 147 130
1.54739 -2.45663 1.37513 156 134 115
1.55440 -2.45548 1.38608 150 133 115
1.54186 -2.46646 1.38081 156 134 115
1.54845 -2.46492 1.39175 149 131 114
1.53590 -2.47590 1.38648 154 133 112
1.54622 -2.47781 1.39759 149 130 115
1.53365 -2.48881 1.39231 152 132 111
1.54808 -2.49453 1.40365 148 128 117
1.53546 -2.50557 1.39835 150 132 113
1.54838 -2.50992 1.40968 147 127 119
1.53573 -2.52100 1.40437 150 132 111
1.54242 -2.51953 1.41542 147 127 115
1.52975 -2.53061 1.41010 150 130 109
1.31057 -2.58005 1.51391 151 137 122
1.27414 -2.55678 1.51632 196 204 195
1.27117 -2.56897 1.52213 228 232 231
0.98399 -2.82357 1.71564 236 239 236
0.96594 -2.81612 1.71847 233 236 221
0.95272 -2.81512 1.72231 213 202 154
0.94094 -2.82543 1.71737 157 139 131
1.03086 -2.94074 1.74726 159 132 85
1.08228 -3.24356 1.85134 133 120 98
1.09547 -3.23203 1.85688 137 122 103
1.08999 -3.23496 1.84545 136 121 101
1.08452 -3.23790 1.83401 135 120 99
1.08776 -3.24063 1.86278 136 122 100
1.08005 -3.24923 1.86868 134 120 100
1.07594 -3.25422 1.85762 127 116 94
1.07370 -3.25989 1.87497 134 120 95
1.06822 -3.26283 1.86353 130 117 90
3.41988 -1.95967 0.57226 201 203 206
3.43632 -1.94528 0.57916 204 205 209
3.42949 -1.94894 0.56490 204 205 207
3.42266 -1.95260 0.55064 205 205 205
3.39651 -1.96473 0.58183 172 170 190
3.38011 -1.97907 0.57494 171 170 182
3.33171 -1.99625 0.61527 162 160 191
3.34800 -1.98199 0.62211 171 176 183
3.33447 -1.98924 0.59385 166 162 185
3.31542 -2.01050 0.60843 204 219 233
3.32374 -2.00755 0.62232 200 212 223
3.31097 -2.01678 0.63011 194 203 220
3.29056 -2.02265 0.63904 135 136 162
3.27432 -2.03687 0.63222 94 92 109
3.28231 -2.03380 0.64612 103 102 111
3.26475 -2.04083 0.65459 100 90 94
3.25512 -2.05135 0.66186 153 150 137
3.23890 -2.06554 0.65505 181 186 183
3.24716 -2.06261 0.66890 179 183 178
3.23673 -2.07277 0.67629 171 176 180
3.23005 -2.08463 0.68315 159 161 169
3.23213 -2.10055 0.68877 150 148 147
3.23703 -2.11787 0.69403 115 115 110
3.20249 -2.11683 0.70481 75 64 67
3.18351 -2.12295 0.71337 60 55 70
3.17700 -2.13492 0.72022 76 76 76
3.16079 -2.14911 0.71341 93 92 99
3.16503 -2.14430 0.72780 91 90 94
3.14883 -2.15848 0.72100 93 91 97
2.83099 -2.18520 0.85214 146 148 154
2.85444 -2.21262 0.85539 105 91 104
2.85131 -2.22594 0.86167 88 61 63
2.85160 -2.24117 0.86761 101 73 62
2.86537 -2.26386 0.87212 109 91 71
2.86255 -2.27758 0.87846 109 107 88
2.84676 -2.28415 0.88617 107 113 101
2.84410 -2.29088 0.90677 70 66 72
2.82806 -2.28904 0.89416 101 105 96
2.78258 -2.29400 0.91085 94 99 104
2.77614 -2.29746 0.89739 71 78 87
3.29015 -2.79626 0.94514 214 218 223
3.27200 -2.81214 0.93752 202 202 207
3.27189 -2.80334 0.95385 220 224 228
3.25378 -2.81919 0.94625 205 204 213
3.24426 -2.80449 0.96325 224 228 232
3.22623 -2.82027 0.95568 209 210 221
3.22527 -2.81093 0.97195 227 230 234
3.20726 -2.82668 0.96439 216 218 224
2.61051 -2.89572 1.20455 220 214 203
2.62524 -2.92523 1.21145 171 164 162
2.63391 -2.95030 1.21856 152 154 160
2.64914 -2.98067 1.22564 165 176 175
2.64628 -2.98791 1.24778 173 180 176
2.63929 -2.99166 1.23317 169 178 172
2.68701 -3.10564 1.26281 167 168 159
2.68359 -3.12229 1.27050 172 160 133
2.66631 -3.13742 1.26324 178 151 111
2.66191 -3.12414 1.27825 178 156 122
2.64468 -3.13921 1.27101 180 152 106
2.65411 -3.13724 1.28596 181 153 106
1.60050 -2.41557 1.34170 94 97 87
1.60263 -2.41017 1.32516 90 89 92
1.59737 -2.42750 1.34743 70 73 63
1.58253 -2.42909 1.35286 26 30 40
1.57401 -2.43624 1.35845 90 101 101
1.56681 -2.44456 1.36407 148 147 131
1.55425 -2.45554 1.35880 156 140 119
1.55960 -2.45287 1.36969 158 142 124
1.54705 -2.46386 1.36442 154 135 111
1.31083 -2.57292 1.49772 144 120 101
1.32300 -2.56227 1.50284 153 132 104
1.31795 -2.56498 1.49228 153 129 99
1.29271 -2.56916 1.50211 165 148 144
1.26681 -2.55695 1.50566 194 196 195
1.25995 -2.56496 1.51105 216 222 222
1.24546 -2.56471 1.51565 235 239 238
1.23420 -2.56787 1.52054 246 248 244
1.22225 -2.57833 1.51553 251 252 250
1.22297 -2.57102 1.52542 249 250 245
1.22095 -2.57614 1.54110 223 222 215
1.21105 -2.58145 1.52042 254 254 252
1.21627 -2.57910 1.53079 249 248 241
1.21425 -2.58423 1.54647 215 211 208
1.16710 -2.60170 1.55565 223 228 228
1.17894 -2.59133 1.56063 235 238 240
1.17402 -2.59397 1.55035 214 216 221
1.16218 -2.60434 1.54537 208 208 206
1.16509 -2.60679 1.57123 246 247 246
1.15989 -2.60910 1.56091 237 238 239
1.15788 -2.61419 1.57649 248 248 248
1.14895 -2.61220 1.56568 245 245 245
1.14695 -2.61729 1.58122 249 250 249
1.14204 -2.61992 1.57097 248 249 247
1.02497 -2.71852 1.64787 241 245 244
1.03672 -2.70824 1.65281 243 243 240
1.03184 -2.71086 1.64262 243 245 244
1.02985 -2.71590 1.65806 243 242 241
1.02298 -2.72357 1.66332 242 243 241
1.02311 -2.73263 1.65406 239 245 245
1.02112 -2.73769 1.66954 242 243 240
1.02218 -2.74803 1.66045 238 245 244
1.02018 -2.75310 1.67598 242 243 240
1.02115 -2.76340 1.66686 237 245 244
1.01914 -2.76849 1.68243 243 243 241
1.01938 -2.77790 1.67317 237 243 243
1.01737 -2.78300 1.68878 242 242 241
1.01646 -2.79096 1.67928 234 239 240
1.01444 -2.79607 1.69493 241 242 240
1.01137 -2.80121 1.68498 231 236 236
1.00935 -2.80633 1.70064 240 241 238
0.99872 -2.80137 1.68914 228 231 231
0.99671 -2.80647 1.70476 239 242 240
0.98851 -2.80471 1.69377 225 228 234
0.97665 -2.81509 1.68879 172 173 192
0.97837 -2.80810 1.69839 220 222 230
0.96802 -2.81114 1.70295 213 216 225
0.95963 -2.81681 1.70791 206 211 221
0.94783 -2.81775 1.71210 198 195 188
0.93605 -2.82805 1.70715 134 117 119
1.07597 -3.24524 1.83968 116 106 91
1.07070 -3.25752 1.84625 98 93 83
1.06570 -3.27027 1.85291 116 109 90
1.06346 -3.27594 1.87028 132 118 93
1.05797 -3.27889 1.85882 128 117 92
3.41992 -1.96615 0.55686 186 191 205
3.40345 -1.98056 0.54994 166 169 183
3.40102 -1.97306 0.56575 170 163 184
3.38459 -1.98744 0.55884 171 174 181
3.33072 -2.00234 0.60022 181 181 203
3.29442 -2.01615 0.61751 164 174 202
3.29753 -2.03227 0.62283 113 115 134
3.26636 -2.04815 0.63925 129 111 106
3.25984 -2.06009 0.64607 174 177 167
3.23952 -2.08072 0.66081 169 170 179
3.23409 -2.09319 0.66749 158 158 170
3.23242 -2.10744 0.67363 148 144 146
3.22856 -2.12072 0.68011 107 101 99
3.19003 -2.11776 0.69154 55 47 42
3.18055 -2.12833 0.69879 53 46 50
3.17479 -2.14068 0.70553 81 80 82
3.15856 -2.15488 0.69871 91 90 93
2.84863 -2.18655 0.83013 156 159 160
2.86408 -2.17304 0.83662 153 156 160
2.85767 -2.17648 0.82322 151 155 158
2.85125 -2.17991 0.80982 149 154 156
2.88938 -2.22318 0.83120 115 109 139
2.87661 -2.23144 0.83862 107 89 122
2.86797 -2.24191 0.84556 145 140 126
2.85949 -2.25247 0.85248 159 156 132
2.84890 -2.26187 0.85963 153 144 139
2.83830 -2.27127 0.86679 132 130 134
2.84318 -2.28927 0.87226 107 114 116
2.82284 -2.29323 0.88047 87 94 92
2.80720 -2.30692 0.87390 53 57 56
2.84534 -2.32132 0.88415 69 75 77
2.79887 -2.34132 0.90719 142 149 150
2.79621 -2.34806 0.92782 149 151 150
2.78970 -2.35156 0.91421 146 149 148
2.78319 -2.35505 0.90060 143 147 144
2.58053 -2.81025 1.16275 252 252 253
2.59677 -2.79604 1.16958 253 253 254
2.59002 -2.79966 1.15549 251 251 253
2.59563 -2.83930 1.16923 244 246 249
2.60127 -2.86145 1.17609 235 240 242
2.61123 -2.88704 1.18288 233 238 241
2.61179 -2.90563 1.19000 228 232 227
2.59905 -2.91408 1.19749 177 181 181
2.58617 -2.92240 1.20496 134 143 154
2.62083 -2.96778 1.21147 145 161 169
2.64254 -3.00345 1.21838 159 175 174
2.63967 -3.01071 1.24059 168 177 173
2.63266 -3.01447 1.22594 164 176 173
2.66747 -3.08022 1.24039 167 168 159
2.68461 -3.06522 1.24759 167 174 174
2.67749 -3.06904 1.23272 166 173 173
2.67037 -3.07285 1.21785 164 167 160
2.66787 -3.11921 1.25558 172 151 118
2.65063 -3.13429 1.24833 177 151 105
2.60241 -3.12379 1.27877 172 146 95
2.60531 -3.11645 1.25632 179 152 104
2.50856 -3.08407 1.29384 95 82 66
2.50572 -3.09125 1.31582 92 90 86
2.49878 -3.09497 1.30131 91 86 80
2.49184 -3.09869 1.28681 89 84 70
1.60015 -2.42265 1.33088 88 93 84
1.60229 -2.41724 1.31431 88 89 85
1.59630 -2.43398 1.33659 72 71 60
1.58042 -2.43465 1.34204 28 29 42
1.57355 -2.44329 1.34768 90 99 99
1.56342 -2.44900 1.35323 147 142 124
1.55086 -2.45999 1.34795 155 140 116
1.32934 -2.58499 1.48315 154 128 94
1.34160 -2.57427 1.48830 157 133 107
1.33651 -2.57700 1.47766 157 133 104
1.33142 -2.57973 1.46703 157 132 104
1.32425 -2.58772 1.47252 155 128 95
1.32217 -2.59299 1.48863 144 114 93
1.29306 -2.57759 1.49210 174 161 153
1.27156 -2.57007 1.49617 184 189 190
1.24762 -2.55971 1.49992 200 204 205
1.23825 -2.56494 1.50504 219 224 226
1.22734 -2.56846 1.50999 240 245 243
1.18996 -2.57350 1.52418 252 252 247
1.18504 -2.57614 1.51391 254 254 253
1.17812 -2.58387 1.51921 253 253 249
1.17384 -2.58640 1.53452 231 228 214
1.16567 -2.59270 1.53966 214 210 200
1.14979 -2.60578 1.54999 214 217 219
1.14103 -2.61135 1.55504 228 230 231
1.13081 -2.61518 1.55988 241 242 243
1.12881 -2.62024 1.57538 249 250 249
1.12372 -2.62264 1.56513 247 249 248
1.12172 -2.62770 1.58063 249 250 249
1.11683 -2.63033 1.57041 250 252 251
1.03751 -2.69413 1.62139 233 237 241
1.04923 -2.68387 1.62631 247 247 245
1.04436 -2.68648 1.61614 235 242 242
1.04238 -2.69152 1.63156 247 248 246
1.03552 -2.69917 1.63681 245 247 245
1.03180 -2.70324 1.62683 231 233 241
1.02422 -2.70998 1.63196 224 227 236
1.02012 -2.72116 1.63769 218 221 230
1.01704 -2.73373 1.64363 212 215 228
1.01137 -2.74297 1.64912 206 209 223
1.00807 -2.75535 1.65506 200 203 218
1.00344 -2.76603 1.66077 196 199 211
0.98655 -2.76049 1.66411 187 194 203
0.98307 -2.77268 1.67004 180 189 195
0.97557 -2.77954 1.67518 179 184 192
0.95871 -2.77371 1.67840 176 178 197
0.94700 -2.78396 1.67349 149 153 164
0.95713 -2.80557 1.69144 170 171 185
0.95224 -2.80820 1.68122 150 154 157
0.94609 -2.80753 1.69581 164 165 181
0.94885 -2.82857 1.70318 161 157 162
0.93703 -2.83891 1.69821 124 106 95
1.07639 -3.23685 1.82188 133 118 91
1.08955 -3.22533 1.82741 134 120 99
1.08409 -3.22826 1.81599 133 119 98
1.07862 -3.23119 1.80457 133 116 91
1.07658 -3.25736 1.82987 85 72 63
1.07140 -3.26985 1.83647 49 49 59
1.06115 -3.27464 1.84171 93 91 93
1.05468 -3.28521 1.84797 124 116 88
1.05244 -3.29090 1.86536 131 117 96
1.04695 -3.29384 1.85389 131 117 91
1.04146 -3.29678 1.84242 131 116 88
3.43870 -1.96560 0.53248 198 203 202
3.45523 -1.95114 0.53942 204 203 204
3.44836 -1.95482 0.52508 204 203 204
3.44150 -1.95850 0.51075 205 205 205
3.43183 -1.96928 0.51814 179 188 200
3.41181 -1.96930 0.54279 171 173 190
3.39534 -1.98370 0.53587 170 170 178
3.33959 -1.99792 0.57777 168 168 184
3.35592 -1.98363 0.58463 173 177 183
3.34914 -1.98727 0.57046 173 176 178
3.33051 -2.00879 0.58500 201 212 219
3.31791 -2.01813 0.59281 190 202 216
3.29393 -2.02250 0.60242 129 139 161
3.27766 -2.03674 0.59558 95 94 99
3.28435 -2.03308 0.60971 103 102 114
3.27483 -2.04370 0.61699 101 93 108
3.26157 -2.05264 0.62485 156 153 145
3.24531 -2.06687 0.61802 184 186 188
3.25793 -2.06589 0.63122 186 188 180
3.24919 -2.07686 0.63838 179 182 181
3.23836 -2.08689 0.64587 166 169 174
3.23387 -2.09982 0.65239 153 156 167
3.23342 -2.11467 0.65833 146 143 142
3.22019 -2.12361 0.66618 94 89 91
3.18479 -2.12207 0.67726 44 33 33
3.19626 -2.14260 0.68149 66 63 46
3.17996 -2.15686 0.67464 92 91 93
3.17957 -2.14981 0.68980 90 89 80
3.16330 -2.16405 0.68297 88 87 92
2.86523 -2.20221 0.81391 153 157 154
2.86787 -2.19554 0.79349 147 153 154
2.88625 -2.22846 0.81722 106 105 126
2.87452 -2.23729 0.82454 105 104 136
2.86456 -2.24706 0.83163 126 146 141
2.85683 -2.25805 0.83847 109 125 125
2.85449 -2.27201 0.84469 94 92 122
2.88213 -2.30267 0.84753 80 73 105
2.86630 -2.31652 0.84088 59 59 61
2.89489 -2.32531 0.85216 66 65 80
2.87897 -2.33924 0.84547 62 64 55
2.84487 -2.31277 0.86376 59 63 63
2.82912 -2.32656 0.85715 64 65 55
2.76965 -2.33166 0.89594 136 143 143
2.75406 -2.34530 0.88939 141 145 142
2.53729 -2.73447 1.12972 234 250 253
2.55323 -2.72052 1.13642 251 251 252
2.54661 -2.72407 1.12259 241 251 253
2.54391 -2.73092 1.14356 250 250 251
2.53458 -2.74132 1.15069 250 249 251
2.54052 -2.75413 1.13633 226 249 253
2.54972 -2.77836 1.14275 215 244 253
2.56528 -2.80752 1.14899 203 234 247
2.60378 -2.85419 1.15450 189 213 233
2.61841 -2.88325 1.16102 175 192 223
2.61106 -2.89581 1.16834 170 181 220
2.59944 -2.90512 1.17580 169 174 207
2.61440 -2.93494 1.18251 145 143 162
2.57205 -2.92044 1.19081 119 121 132
2.57949 -2.94458 1.19778 128 141 152
2.61046 -2.98745 1.20429 148 161 167
2.59369 -3.00213 1.19725 153 153 143
2.63590 -3.02636 1.21108 158 170 165
2.61896 -3.04118 1.20397 164 154 123
2.62431 -3.05507 1.22610 168 157 137
2.60734 -3.06992 1.21898 173 150 106
2.61893 -3.06982 1.23363 172 151 111
2.60194 -3.08469 1.22650 174 151 107
2.56009 -3.09831 1.26416 178 150 100
2.56295 -3.09104 1.24193 178 151 90
2.55307 -3.10207 1.24949 179 151 96
2.54318 -3.11310 1.25706 166 134 82
1.59491 -2.44020 1.32570 72 71 59
1.57913 -2.44096 1.33120 28 32 45
1.57521 -2.45227 1.33691 92 99 95
1.56351 -2.45659 1.34245 144 139 120
1.55092 -2.46761 1.33716 157 140 117
1.33432 -2.61403 1.47946 145 118 97
1.33641 -2.60872 1.46322 155 129 91
1.28053 -2.57229 1.48091 182 178 145
1.27101 -2.57755 1.48611 174 176 174
1.25841 -2.57944 1.49100 182 188 196
1.23012 -2.56416 1.49436 208 217 217
1.21516 -2.56319 1.49892 229 233 227
1.20380 -2.56610 1.50380 245 247 246
1.19396 -2.57062 1.50881 252 252 252
1.16540 -2.58504 1.52386 249 248 239
1.15960 -2.59402 1.52927 239 237 228
1.15066 -2.59940 1.53432 221 223 220
1.14395 -2.60733 1.53963 204 211 213
1.13635 -2.61423 1.54483 205 212 216
1.12897 -2.62138 1.55005 214 225 228
1.11902 -2.62549 1.55493 223 235 237
1.10757 -2.62778 1.55960 229 237 242
1.10557 -2.63283 1.57507 251 252 252
1.09897 -2.63340 1.56463 230 235 245
1.09698 -2.63846 1.58008 251 252 251
1.09014 -2.63871 1.56962 230 231 242
1.08815 -2.64376 1.58505 250 252 251
1.08327 -2.64637 1.57487 228 226 238
1.08428 -2.66361 1.58126 220 219 233
1.08917 -2.66098 1.59148 247 252 252
1.08228 -2.66867 1.59676 245 252 252
1.08416 -2.67958 1.58754 210 212 228
1.07165 -2.68041 1.59198 205 207 226
1.07506 -2.70088 1.59884 197 200 217
1.06884 -2.70950 1.60426 186 193 208
1.05399 -2.72372 1.61471 178 184 201
1.04613 -2.73027 1.61985 174 180 198
1.02521 -2.72008 1.62278 170 176 191
1.01745 -2.72662 1.62789 171 174 188
1.00569 -2.73691 1.62295 153 157 163
1.01085 -2.73464 1.63320 166 169 187
0.99909 -2.74493 1.62826 152 157 161
1.00510 -2.74379 1.63866 162 165 183
0.99333 -2.75409 1.63372 154 157 161
0.99856 -2.75192 1.64399 161 162 179
0.98680 -2.76222 1.63904 155 157 161
0.99862 -2.76877 1.65054 159 158 173
0.98681 -2.77910 1.64558 157 158 158
0.98671 -2.76982 1.65488 155 158 167
0.97493 -2.78013 1.64993 155 159 157
0.98165 -2.77995 1.66050 151 158 161
0.96986 -2.79027 1.65555 156 158 157
0.97008 -2.78134 1.66486 150 154 159
0.95832 -2.79163 1.65992 155 158 161
0.95212 -2.82525 1.68791 150 154 152
0.95413 -2.82017 1.67237 155 158 154
0.96344 -2.85835 1.69709 144 141 133
0.95150 -2.86879 1.69208 122 98 83
1.07104 -3.23995 1.81049 131 112 77
1.07327 -3.23429 1.79318 132 113 87
1.07453 -3.26552 1.81931 77 61 31
1.06130 -3.27710 1.81375 50 34 44
1.06809 -3.27613 1.82558 38 33 44
1.05690 -3.27949 1.83058 71 77 75
1.05037 -3.28997 1.83682 117 114 88
1.03713 -3.30155 1.83126 129 112 89
3.40553 -1.97319 0.52841 167 165 172
3.39869 -1.97686 0.51413 164 170 174
