ply
format ascii 1.0
element face 0
property list uchar int vertex_indices
element vertex 1325
property float x
property float y
property float z
property uchar diffuse_red
property uchar diffuse_green
property uchar diffuse_blue
end_header
-0.57825 -4.53385 1.68178 42 37 33
-0.59386 -4.54364 1.66725 28 32 22
-0.93007 -5.94487 1.74707 19 14 21
-0.94719 -5.96257 1.74948 31 28 32
-0.96370 -5.98665 1.75190 48 52 41
-0.98250 -5.98883 1.75428 58 64 50
-1.00040 -5.99989 1.75668 62 66 59
-1.01979 -6.01205 1.73864 75 76 77
-1.01482 -6.04771 1.75920 66 72 70
-1.03433 -6.05995 1.74105 80 78 80
2.79711 -2.97833 1.21979 253 250 245
2.81118 -2.97240 1.20055 254 254 254
2.78077 -2.98857 1.20459 228 233 224
2.77016 -2.97824 1.22320 198 203 207
2.69239 -2.94246 1.23261 144 150 172
2.67269 -2.94706 1.23515 150 152 180
2.67255 -2.96549 1.23539 172 176 196
2.70692 -3.00865 1.23156 184 191 202
2.70420 -3.02564 1.23211 190 198 205
2.69625 -3.03896 1.23327 192 200 205
2.68217 -3.04490 1.25254 198 204 207
2.69344 -3.05608 1.23383 193 202 206
2.69046 -3.07318 1.23441 192 199 200
2.68189 -3.08629 1.23565 193 189 178
2.66461 -3.09301 1.23792 196 180 152
2.64929 -3.10117 1.23995 199 179 142
2.64814 -3.10335 1.22259 200 177 136
2.50682 -3.05243 1.25738 183 164 126
2.52292 -3.04233 1.27236 194 173 136
2.52068 -3.04659 1.23843 203 178 140
2.50794 -3.05030 1.27435 161 147 125
2.49297 -3.05827 1.27634 135 123 120
2.49185 -3.06040 1.25937 146 129 109
1.57867 -2.43991 1.36743 192 185 185
1.58962 -2.43529 1.35244 78 86 111
1.56594 -2.44790 1.35559 181 166 157
1.57068 -2.44927 1.36856 188 167 163
1.55793 -2.45726 1.35669 181 163 156
1.56650 -2.46171 1.36923 181 162 159
1.55373 -2.46972 1.35734 180 162 155
1.31635 -2.68165 1.40349 212 216 218
1.30119 -2.68523 1.40545 229 227 224
1.29201 -2.69449 1.40672 236 240 238
1.23744 -2.66018 1.41321 199 199 201
1.22459 -2.66824 1.40125 193 199 204
1.08072 -2.87783 1.43562 185 194 208
1.09213 -2.87302 1.42001 186 198 207
1.06747 -2.88614 1.42329 196 207 219
1.07455 -2.89121 1.43656 193 204 216
1.06127 -2.89954 1.42420 197 207 218
1.09671 -3.02022 1.43530 194 205 212
1.10852 -3.01524 1.41915 195 206 218
1.09576 -3.02203 1.42084 195 205 221
1.09223 -3.03654 1.43606 179 188 195
1.08633 -3.05137 1.43699 163 172 181
1.07350 -3.05819 1.43869 155 169 183
1.06542 -3.11499 1.44039 157 172 180
1.07743 -3.10993 1.42396 155 171 190
1.08768 -3.16427 1.43816 124 141 159
1.08723 -3.18665 1.43849 94 123 153
1.07302 -3.19556 1.42527 93 121 158
1.10412 -3.27769 1.43744 96 126 163
1.11660 -3.27242 1.42035 97 126 162
1.10773 -3.30619 1.43732 97 131 166
1.10521 -3.32731 1.43789 108 146 177
1.10828 -3.35569 1.43784 134 173 202
1.10676 -3.37854 1.43831 168 204 231
1.09257 -3.38537 1.44018 198 227 247
1.06378 -3.39846 1.44398 242 251 253
1.04897 -3.40776 1.43020 254 254 254
0.81324 -3.47170 1.47653 205 202 227
0.82685 -3.46446 1.47473 230 233 247
0.82583 -3.46640 1.45931 224 231 245
0.79040 -3.49271 1.47967 188 194 233
0.77574 -3.50191 1.46603 181 219 251
0.77930 -3.50378 1.48121 184 203 238
0.76127 -3.50442 1.48350 177 213 245
0.74931 -3.51420 1.48513 172 217 247
0.75289 -3.54794 1.48508 159 204 241
0.75055 -3.57289 1.48567 142 184 227
0.71778 -3.55062 1.48955 125 156 196
0.70306 -3.55985 1.47585 86 112 138
0.74265 -3.61862 1.48721 85 111 142
0.76728 -3.68721 1.48492 66 89 105
0.75419 -3.69273 1.50283 114 135 152
0.75313 -3.69474 1.48680 81 103 115
0.75207 -3.69675 1.47076 66 82 91
0.85293 -3.95054 1.47723 49 57 73
0.86683 -3.94467 1.45821 57 64 75
0.85181 -3.95267 1.46021 52 58 64
0.83678 -3.96067 1.46220 51 59 62
0.85367 -3.98459 1.47754 51 58 75
0.83742 -3.99479 1.46242 54 60 67
0.84987 -4.01150 1.47835 57 59 74
0.83824 -4.02557 1.47999 60 64 76
0.78043 -4.16900 1.48901 67 69 61
0.79213 -4.22620 1.48821 111 118 110
0.77569 -4.23326 1.49037 120 125 99
0.75880 -4.24385 1.47466 84 89 91
0.76278 -4.24674 1.49217 91 98 90
0.75386 -4.26765 1.49354 86 93 93
0.69465 -4.30865 1.50152 89 100 105
0.69505 -4.34827 1.50194 78 84 88
0.67795 -4.35899 1.48603 61 60 72
0.68992 -4.49898 1.50439 52 57 51
0.68812 -4.53696 1.50507 39 45 42
0.67045 -4.54804 1.48863 29 31 30
0.89107 -5.23180 1.48770 29 32 32
0.90838 -5.22450 1.46402 39 40 41
0.86732 -5.23092 1.49070 30 33 32
0.84063 -5.22346 1.49398 29 35 35
0.81098 -5.20916 1.49756 33 40 41
0.78302 -5.19815 1.50096 45 51 51
0.76817 -5.21600 1.50306 55 65 62
0.75009 -5.22674 1.50547 62 74 72
0.64067 -5.39936 1.52137 113 122 122
0.65807 -5.39203 1.49756 111 125 132
0.61719 -5.39781 1.52432 73 80 85
0.59694 -5.40410 1.52695 43 44 48
0.57522 -5.40661 1.52973 37 40 34
0.55730 -5.41863 1.53214 30 35 25
0.51575 -5.42797 1.53750 16 23 45
0.50160 -5.44987 1.53955 37 54 68
0.44940 -5.37089 1.54521 85 101 104
0.42501 -5.36469 1.54822 130 134 133
0.39649 -5.34692 1.55161 153 151 145
0.37957 -5.35406 1.57477 164 156 148
0.37820 -5.35666 1.55404 161 157 146
0.37683 -5.35926 1.53332 149 150 141
-0.49368 -4.62241 1.65552 181 171 145
-0.47989 -4.61660 1.63666 180 171 158
-0.52182 -4.57306 1.65849 162 147 123
-0.53992 -4.56600 1.66070 118 98 77
-0.56161 -4.54250 1.66316 68 63 43
-0.57675 -4.54764 1.66514 41 35 33
-0.59241 -4.55746 1.65057 28 31 23
-0.86562 -5.85900 1.71731 16 17 12
-0.84644 -5.84697 1.73516 24 25 17
-0.84778 -5.84951 1.71495 19 26 19
-0.86695 -5.86153 1.69710 12 13 11
-0.89859 -5.90123 1.72199 12 13 15
-0.91568 -5.91795 1.72435 21 16 27
-0.94853 -5.96517 1.72907 52 60 48
-0.96626 -5.97749 1.73146 67 72 64
-0.98564 -5.98965 1.71343 78 80 81
-0.98353 -5.99457 1.73384 75 76 71
-1.00293 -6.00674 1.71579 79 80 80
-1.00176 -6.00233 1.73624 74 75 72
-1.02115 -6.01449 1.71820 78 80 81
2.76614 -2.95983 1.20621 254 253 250
2.78011 -2.95394 1.18710 254 254 254
2.76501 -2.96197 1.18911 254 254 253
2.67025 -2.92985 1.21824 160 162 171
2.61816 -2.91152 1.22476 119 119 147
2.62910 -2.93758 1.22358 129 132 161
2.62471 -2.95293 1.22428 149 154 174
2.65438 -2.99283 1.22082 163 171 185
2.67738 -3.02831 1.21819 171 180 196
2.67131 -3.04299 1.21909 178 185 195
2.65601 -3.05099 1.22112 186 186 180
2.63881 -3.05759 1.22338 194 180 157
2.62249 -3.06783 1.20820 200 174 132
2.61775 -3.06132 1.22612 198 176 140
2.60145 -3.07154 1.21095 200 175 127
2.47097 -3.02818 1.24464 197 174 133
2.48470 -3.02239 1.22585 202 176 140
2.44346 -3.02640 1.24815 169 146 115
2.42977 -3.03218 1.26689 130 119 107
2.42866 -3.03428 1.25012 138 118 103
1.32427 -2.69169 1.38868 221 234 228
1.30084 -2.70551 1.39181 243 245 241
1.25098 -2.67576 1.39794 203 206 209
1.09559 -3.04335 1.42105 190 200 215
1.10745 -3.03835 1.40482 194 205 219
1.09463 -3.04517 1.40652 192 203 220
1.09083 -3.05953 1.42180 180 191 195
1.08309 -3.07237 1.42291 162 178 185
1.07117 -3.07739 1.43921 156 173 193
1.07021 -3.07922 1.42462 154 172 190
1.07398 -3.12822 1.42456 161 173 185
1.08418 -3.16311 1.42356 130 149 164
1.08999 -3.19308 1.42307 99 124 153
1.07577 -3.20200 1.40983 99 124 160
1.10156 -3.27770 1.42232 100 131 163
1.10271 -3.30313 1.42240 109 143 174
1.10993 -3.33646 1.42176 138 170 198
1.10834 -3.35903 1.42216 179 207 223
1.08948 -3.35980 1.42459 215 235 244
1.07475 -3.36904 1.41088 253 254 254
1.08013 -3.37268 1.42590 237 248 253
1.06538 -3.38194 1.41217 254 254 254
1.06966 -3.38420 1.42734 248 253 254
1.05489 -3.39347 1.41359 254 254 254
0.88345 -3.38946 1.45125 252 254 254
0.89794 -3.38037 1.46473 254 254 254
0.89693 -3.38229 1.44946 254 254 254
0.88446 -3.38754 1.46652 254 254 254
0.87098 -3.39472 1.46831 254 254 254
0.87338 -3.40140 1.45265 251 250 251
0.85887 -3.41050 1.43914 231 190 223
0.84926 -3.39358 1.45567 249 232 246
0.83683 -3.39883 1.47268 252 249 251
0.83582 -3.40074 1.45745 244 228 242
0.80108 -3.45727 1.46240 203 195 221
0.80006 -3.45919 1.44705 188 175 217
0.79565 -3.47649 1.46326 190 137 199
0.78054 -3.48146 1.46524 183 203 245
0.75960 -3.50537 1.46813 169 212 244
0.74798 -3.51567 1.46971 149 191 226
0.73775 -3.52816 1.47113 123 159 205
0.72307 -3.53736 1.45748 98 134 178
0.73021 -3.54491 1.47224 103 139 187
0.72412 -3.56408 1.47319 94 132 173
0.76532 -3.68779 1.46899 71 85 95
0.75011 -3.69733 1.45484 64 74 79
0.84327 -4.03810 1.46204 58 63 71
0.85738 -4.03215 1.44274 52 58 61
0.84212 -4.04027 1.44476 49 57 61
0.83853 -4.06405 1.46288 62 71 78
0.82320 -4.07220 1.46491 71 78 83
0.79444 -4.19827 1.46970 74 82 77
0.80890 -4.19217 1.44991 71 82 82
0.79327 -4.20049 1.45198 75 87 85
0.79225 -4.23077 1.47026 100 112 103
0.77535 -4.24137 1.45453 84 92 91
0.77845 -4.24263 1.47213 93 100 94
0.75755 -4.27889 1.47513 81 93 82
0.74644 -4.29604 1.47670 79 87 79
0.73373 -4.31035 1.47845 80 79 89
0.71764 -4.31835 1.48058 82 90 92
0.70957 -4.34167 1.48182 77 83 86
0.69247 -4.35240 1.46590 55 63 61
0.70473 -4.37148 1.48270 63 67 75
0.69666 -4.47603 1.48465 63 68 62
0.69335 -4.51061 1.48537 54 60 53
0.69292 -4.55147 1.48578 38 42 42
0.67521 -4.56258 1.46930 37 36 41
0.82748 -5.20054 1.47418 39 45 45
0.80441 -5.20043 1.47714 43 51 51
0.78205 -5.20167 1.48001 53 61 58
0.75944 -5.20218 1.48292 61 71 68
0.71327 -5.20052 1.48882 86 99 98
0.69355 -5.21289 1.47047 108 119 119
0.63350 -5.38794 1.50067 117 126 128
0.65085 -5.38062 1.47693 116 126 137
0.61192 -5.39093 1.50347 85 85 99
0.59372 -5.40223 1.50590 52 46 48
0.57273 -5.40653 1.50862 41 42 40
0.55610 -5.42181 1.51089 34 37 35
0.53735 -5.43174 1.51338 32 35 42
0.51640 -5.43596 1.51610 38 44 57
0.49014 -5.42606 1.51938 51 68 78
0.47010 -5.43863 1.50072 95 98 95
0.45289 -5.38645 1.52381 75 89 93
0.42643 -5.37483 1.52710 103 110 112
0.39960 -5.36171 1.53042 128 133 130
0.37990 -5.37407 1.51209 118 125 123
-0.49131 -4.63940 1.63832 183 170 145
-0.47748 -4.63357 1.61941 181 170 165
-0.52047 -4.58576 1.64160 157 139 109
-0.53706 -4.58551 1.64372 115 94 70
-0.56209 -4.54729 1.64660 63 52 40
-0.57647 -4.55596 1.64851 39 33 34
-0.59214 -4.56579 1.63393 28 31 26
-0.85134 -5.83436 1.69487 13 20 15
-0.83222 -5.82237 1.71265 22 31 16
-0.83488 -5.82742 1.67235 14 18 9
-0.85267 -5.83689 1.67471 11 13 15
-0.88471 -5.87174 1.69947 15 13 15
-0.90125 -5.89241 1.70177 24 21 35
-0.91932 -5.90021 1.70415 38 36 55
-0.93411 -5.93772 1.70637 53 59 60
-0.95138 -5.95371 1.70873 66 75 64
-0.97070 -5.96583 1.69075 78 80 80
-0.96869 -5.96962 1.71108 75 79 76
-0.98803 -5.98175 1.69309 79 81 82
-1.21218 -6.24275 1.74467 58 60 59
-1.19240 -6.23035 1.76307 61 62 54
-1.19378 -6.23296 1.74222 61 62 60
-1.21080 -6.24014 1.76551 55 57 51
-1.22920 -6.24993 1.76795 51 53 49
-1.23058 -6.25254 1.74711 55 53 60
-1.36631 -6.13049 1.76344 37 54 63
-1.34980 -6.12353 1.74085 54 64 53
-1.38321 -6.16840 1.76594 58 74 93
2.70520 -2.95726 1.19685 188 188 195
2.61699 -2.91356 1.20807 119 120 135
2.60334 -2.92218 1.20989 105 108 124
2.59444 -2.93420 1.21111 115 124 142
2.63596 -2.98253 1.20598 131 141 157
2.65935 -3.01824 1.20314 145 153 176
2.66326 -3.05929 1.20285 182 171 166
2.64690 -3.06956 1.18763 194 169 132
1.33697 -2.70626 1.37320 221 232 226
1.34828 -2.70149 1.35772 172 149 150
1.32382 -2.71450 1.36097 234 235 238
1.30977 -2.71665 1.37679 241 241 240
1.29664 -2.72489 1.36457 233 238 235
1.27333 -2.69983 1.38143 215 221 224
1.24427 -2.68986 1.38515 194 200 203
1.23313 -2.69456 1.40039 193 202 211
1.23223 -2.69627 1.38675 193 202 207
1.23133 -2.69798 1.37310 193 201 202
1.08555 -3.07820 1.40789 173 188 197
1.08986 -3.10536 1.40747 159 171 189
1.07590 -3.11412 1.39449 172 184 202
1.08078 -3.11691 1.40872 158 170 193
1.06901 -3.14790 1.41041 147 167 182
1.09023 -3.19646 1.40792 109 133 161
1.09196 -3.24526 1.40797 103 131 163
1.09477 -3.27245 1.40775 113 140 167
1.10970 -3.31505 1.40604 141 167 193
1.10993 -3.33969 1.40615 186 208 227
1.08855 -3.33721 1.40891 226 239 246
1.07389 -3.34641 1.39527 254 254 254
1.08034 -3.35140 1.41005 246 252 252
1.06566 -3.36061 1.39639 254 254 254
0.88403 -3.36774 1.43564 251 250 250
0.89845 -3.35870 1.44906 254 254 254
0.89744 -3.36060 1.43386 253 254 253
0.81538 -3.40118 1.44474 211 167 202
0.80298 -3.40641 1.46171 237 239 250
0.81531 -3.42763 1.44490 209 198 237
0.80290 -3.43636 1.44656 196 192 230
0.78755 -3.46794 1.44872 186 190 234
0.77691 -3.47951 1.45017 176 212 246
0.76736 -3.49278 1.45148 162 199 239
0.75605 -3.50346 1.45301 137 171 217
0.74142 -3.51263 1.43940 98 130 177
0.74668 -3.51718 1.45430 110 141 192
0.73203 -3.52637 1.44066 101 133 175
0.73983 -3.53488 1.45529 97 130 181
0.72513 -3.54410 1.44161 102 136 179
0.72445 -3.56816 1.45746 100 137 172
0.72524 -3.59840 1.45753 91 118 143
0.84579 -4.08051 1.44450 52 61 71
0.86001 -4.07451 1.42504 48 55 54
0.83757 -4.10093 1.44568 69 74 83
0.82215 -4.10914 1.44773 80 85 91
0.82100 -4.11133 1.43026 82 88 91
0.79021 -4.23145 1.45255 84 88 96
0.78903 -4.23368 1.43474 85 91 100
0.77274 -4.27376 1.45505 82 94 89
0.76590 -4.29874 1.45607 72 78 80
0.74884 -4.30944 1.44020 54 56 57
0.76452 -4.33420 1.45645 60 64 66
0.74368 -4.33353 1.45915 67 65 77
0.72655 -4.34427 1.44321 65 65 68
0.73055 -4.34734 1.46093 61 68 78
0.71340 -4.35809 1.44497 62 62 62
0.72052 -4.36715 1.46234 60 67 69
0.70332 -4.37793 1.44634 63 67 62
0.70607 -4.41836 1.46450 60 65 71
0.70487 -4.42065 1.44623 68 70 75
0.70427 -4.45506 1.46493 71 76 72
0.70069 -4.48875 1.46558 73 75 69
0.68316 -4.49975 1.44927 77 83 60
0.69743 -4.52355 1.46620 65 63 59
0.69841 -4.56737 1.46631 48 45 49
0.68064 -4.57851 1.44978 41 45 51
0.81716 -5.18374 1.45425 47 55 57
0.78829 -5.17067 1.45793 51 59 65
0.62984 -5.38508 1.47968 121 126 129
0.64718 -5.37777 1.45596 117 124 130
0.62844 -5.38775 1.45845 120 126 125
0.61305 -5.39988 1.48194 101 104 105
0.59515 -5.41200 1.48434 75 70 52
0.57820 -5.42655 1.48662 52 49 56
0.56084 -5.44015 1.48895 51 49 56
0.53395 -5.42926 1.49238 58 62 70
0.50171 -5.40396 1.49643 75 84 85
0.48172 -5.41650 1.47782 91 98 92
0.47435 -5.39076 1.49991 88 97 90
0.45444 -5.40324 1.48139 92 96 91
0.39769 -5.36284 1.50972 95 104 108
-0.48441 -4.67577 1.62054 183 172 152
-0.47048 -4.66990 1.60148 182 169 164
-0.52166 -4.58746 1.62489 152 129 104
-0.53417 -4.60519 1.62661 111 88 68
-0.56187 -4.55522 1.62994 56 45 41
-0.57768 -4.55746 1.63200 34 31 37
-0.59336 -4.56729 1.61742 28 30 26
-0.82108 -5.78777 1.67034 17 23 11
-0.87056 -5.84549 1.67708 16 13 25
-0.88785 -5.85907 1.67940 31 28 37
-0.90648 -5.86133 1.68184 47 51 54
-0.92559 -5.87331 1.66406 71 78 74
-0.92147 -5.89547 1.68397 60 68 64
-0.94066 -5.90750 1.66612 73 78 73
-0.93775 -5.91931 1.68622 67 76 70
-0.95698 -5.93137 1.66832 78 81 78
-0.95423 -5.94207 1.68848 74 79 75
-0.97350 -5.95416 1.67055 82 83 81
-1.36859 -6.10703 1.74320 51 63 70
-1.35215 -6.10010 1.72071 56 65 61
2.64631 -2.90063 1.18733 254 253 251
2.65995 -2.89488 1.16867 254 254 254
2.59585 -2.91974 1.19401 105 102 115
2.58003 -2.92966 1.17929 97 98 110
2.58511 -2.93041 1.19545 101 105 120
2.57947 -2.94480 1.19623 107 114 128
1.25458 -2.70245 1.37005 198 202 206
1.26576 -2.69773 1.35475 242 244 240
1.24159 -2.71060 1.35796 191 199 203
1.09174 -3.11057 1.39240 171 180 201
1.06424 -3.14518 1.39609 151 162 178
1.09946 -3.21074 1.39160 104 116 152
1.09379 -3.22714 1.39239 89 110 151
1.08725 -3.24259 1.39328 107 133 163
1.10726 -3.29111 1.39076 142 163 185
1.11615 -3.32632 1.38966 188 205 218
1.09210 -3.32049 1.39282 230 241 244
1.07750 -3.32965 1.37922 254 254 254
1.08259 -3.33289 1.39410 250 252 253
1.06796 -3.34207 1.38048 254 254 254
0.89770 -3.33879 1.41844 253 253 253
0.91205 -3.32979 1.43180 254 254 254
0.91105 -3.33169 1.41667 254 254 254
0.89870 -3.33690 1.43357 254 254 254
0.88309 -3.34417 1.42038 250 245 245
0.85448 -3.35568 1.42417 232 211 225
0.85333 -3.37990 1.42437 218 172 218
0.84323 -3.39171 1.42573 211 182 208
0.82638 -3.39395 1.42795 200 133 157
0.81398 -3.40252 1.42960 192 139 201
0.80779 -3.42010 1.43046 189 179 227
0.79085 -3.44906 1.43275 185 210 238
0.78451 -3.46686 1.43362 173 208 237
0.77185 -3.47539 1.43531 148 182 223
0.76321 -3.48999 1.43648 122 146 204
0.74862 -3.49914 1.42290 99 131 174
0.75404 -3.50389 1.43772 100 132 183
0.73942 -3.51306 1.42411 101 134 177
0.72859 -3.57821 1.44123 104 137 174
0.74133 -3.57284 1.42380 104 137 178
0.72756 -3.58017 1.42563 106 138 175
0.71994 -3.59363 1.44241 98 127 151
0.75646 -3.68108 1.43779 86 100 103
0.74130 -3.69059 1.42369 68 81 77
0.85190 -4.09503 1.42616 51 61 73
0.86617 -4.08901 1.40664 51 55 52
0.85075 -4.09722 1.40869 57 66 65
0.83533 -4.10542 1.41073 66 78 74
0.84218 -4.11299 1.42748 71 79 89
0.82557 -4.12341 1.41202 71 79 72
0.81513 -4.20750 1.43125 64 71 78
0.83198 -4.19692 1.44693 70 81 85
0.82964 -4.20138 1.41140 58 66 63
0.81395 -4.20973 1.41348 61 68 70
0.79128 -4.27471 1.43454 80 88 87
0.79010 -4.27696 1.41659 72 79 82
0.77426 -4.28538 1.41870 77 84 85
0.78146 -4.29415 1.43587 79 88 87
0.77499 -4.32001 1.43678 67 71 73
0.75185 -4.35342 1.43990 67 70 72
0.75065 -4.35569 1.42177 73 77 82
0.71216 -4.47527 1.44540 74 78 79
0.71094 -4.47758 1.42695 74 80 84
0.69465 -4.48625 1.42911 83 89 84
0.70467 -4.50140 1.44644 79 86 75
0.70427 -4.58408 1.44668 58 60 54
0.79229 -5.13522 1.43632 52 60 65
0.77694 -5.15136 1.43838 56 64 71
0.60506 -5.38622 1.46152 108 114 116
0.62236 -5.37892 1.43785 120 126 127
0.58511 -5.39303 1.46417 103 106 91
0.57048 -5.41323 1.46614 81 75 86
0.54414 -5.40373 1.46958 83 86 92
0.52409 -5.41631 1.45092 105 105 100
0.52371 -5.40908 1.47228 94 103 103
0.50367 -5.42165 1.45364 96 99 97
0.49779 -5.40000 1.47567 94 101 99
0.47782 -5.41252 1.45709 89 95 91
0.26741 -5.24588 1.50565 157 153 147
0.28654 -5.23389 1.52345 160 155 144
0.28521 -5.23641 1.50329 136 139 135
0.26874 -5.24335 1.52581 166 157 148
0.25095 -5.25282 1.52817 167 157 144
0.24962 -5.25535 1.50801 165 157 145
-0.48269 -4.69009 1.60313 185 174 156
-0.46873 -4.68420 1.58402 180 170 156
-0.52132 -4.59587 1.60800 145 122 107
-0.53235 -4.62023 1.60951 106 85 73
-0.56315 -4.55647 1.61342 51 42 43
-0.57774 -4.56424 1.61536 30 30 36
-0.59343 -4.57408 1.60076 26 31 25
-0.78914 -5.75609 1.64584 24 23 18
-0.77017 -5.74419 1.66349 23 27 31
-0.77149 -5.74670 1.64350 24 27 23
-0.79046 -5.75860 1.62585 18 18 17
-0.80811 -5.76799 1.62819 14 14 15
-0.80612 -5.77039 1.64811 17 20 11
-0.84002 -5.80030 1.65264 14 14 9
-0.85664 -5.81834 1.65486 22 20 24
-0.87526 -5.82038 1.65732 37 40 43
-0.89354 -5.82494 1.65973 53 61 59
-0.91255 -5.83686 1.64204 74 79 76
-0.91019 -5.84324 1.66197 65 74 74
-0.92923 -5.85518 1.64425 72 78 68
2.62112 -2.88590 1.17385 252 254 253
2.54250 -2.86662 1.18436 163 155 159
2.57743 -2.90950 1.17966 111 104 112
2.55462 -2.92979 1.18268 96 100 111
2.55352 -2.93188 1.16604 95 96 95
2.55046 -2.94523 1.18322 112 111 111
1.38945 -2.74277 1.33822 174 151 141
1.40278 -2.73440 1.35062 182 158 140
1.40093 -2.73793 1.32252 185 161 148
1.38853 -2.74453 1.32416 179 158 140
1.37612 -2.75113 1.32581 183 164 162
1.27140 -2.72137 1.35398 203 208 212
1.27049 -2.72309 1.34020 213 218 222
1.16168 -2.85673 1.36847 170 179 197
1.17499 -2.84839 1.38085 191 203 213
1.16261 -2.85497 1.38250 176 187 206
1.16075 -2.85849 1.35444 169 177 193
1.15023 -2.86156 1.38414 165 173 192
1.14930 -2.86332 1.37011 169 178 195
1.09444 -3.09456 1.37720 187 201 216
1.09592 -3.11852 1.37698 178 193 210
1.08874 -3.13239 1.37792 169 173 195
1.09398 -3.16125 1.37719 149 142 159
1.10883 -3.20203 1.37517 119 97 117
1.10319 -3.21837 1.37591 75 62 107
1.09592 -3.23287 1.37686 48 62 121
1.08255 -3.23993 1.37864 87 112 161
1.10452 -3.29088 1.37566 168 189 212
1.10032 -3.30974 1.37620 227 239 240
1.08928 -3.32015 1.37766 250 253 252
1.07468 -3.32930 1.36407 254 254 254
0.88758 -3.32824 1.40454 250 241 246
0.84871 -3.37672 1.40968 208 177 216
0.83056 -3.37708 1.41210 206 198 222
0.82205 -3.41749 1.41319 192 140 176
0.80274 -3.41616 1.41577 192 214 240
0.78868 -3.44927 1.41761 159 198 230
0.77006 -3.47615 1.42006 103 136 180
0.75551 -3.48529 1.40652 102 134 167
0.76072 -3.48969 1.42130 97 126 174
0.74614 -3.49884 1.40773 103 135 174
0.72538 -3.60582 1.42589 102 133 161
0.73819 -3.60042 1.40837 102 137 180
0.73586 -3.65194 1.42445 85 107 113
0.72082 -3.66137 1.41046 54 66 57
0.81514 -4.24824 1.41328 68 76 77
0.79816 -4.25889 1.39749 74 80 96
0.78407 -4.34129 1.41733 70 72 76
0.77381 -4.36054 1.41868 66 66 70
0.73126 -4.43656 1.42428 62 66 68
0.74746 -4.42794 1.42213 59 64 60
0.74625 -4.43024 1.40377 55 63 55
0.72365 -4.46195 1.42527 69 76 78
0.69653 -4.53134 1.42881 85 92 66
0.71172 -4.52494 1.40803 75 83 81
0.69531 -4.53367 1.41021 81 81 69
0.70386 -4.58811 1.42778 64 69 61
0.69784 -4.61851 1.42855 46 51 57
0.68243 -4.62501 1.44964 37 46 49
0.68118 -4.62738 1.43076 43 48 52
0.67993 -4.62975 1.41188 48 54 59
0.78167 -5.06865 1.41692 49 60 66
0.76999 -5.09217 1.41846 55 66 70
0.76001 -5.11971 1.41976 63 72 73
0.73324 -5.11027 1.42334 72 85 81
0.70032 -5.08667 1.42775 102 116 111
0.68099 -5.09880 1.40976 113 122 119
0.59971 -5.37907 1.44087 112 119 122
0.57965 -5.39165 1.42220 103 108 118
0.57838 -5.38233 1.44371 106 114 113
0.55834 -5.39490 1.42507 103 108 116
0.55897 -5.39030 1.44630 106 108 107
0.53894 -5.40286 1.42765 102 109 105
0.53689 -5.39141 1.44924 111 110 98
0.51689 -5.40395 1.43063 101 106 101
0.23534 -5.22049 1.48961 150 149 145
0.21899 -5.22738 1.51198 168 157 140
0.21767 -5.22989 1.49196 163 157 143
-0.48244 -4.69816 1.58584 184 173 152
-0.46846 -4.69227 1.56671 178 171 154
-0.51870 -4.61417 1.59076 139 115 112
-0.52386 -4.66476 1.59139 100 82 75
-0.56304 -4.56394 1.59672 48 39 41
-0.57875 -4.57379 1.58210 27 30 28
-0.57765 -4.57171 1.59866 27 30 32
-0.59336 -4.58156 1.58404 25 31 24
-0.82505 -5.78273 1.63043 14 13 22
-0.84254 -5.79351 1.63275 26 21 30
-0.86172 -5.79081 1.63531 44 45 45
-0.87995 -5.79526 1.63774 60 69 59
-0.89615 -5.81656 1.63988 70 77 69
2.61247 -2.84691 1.15844 250 254 254
2.62808 -2.83711 1.17297 254 254 254
2.62700 -2.83917 1.15651 254 254 254
2.61355 -2.84484 1.17490 254 254 254
2.60351 -2.85852 1.15960 240 250 251
2.53957 -2.83172 1.16835 224 224 237
2.52721 -2.84079 1.16998 193 182 205
2.52934 -2.86014 1.16961 151 139 149
2.55308 -2.89502 1.16626 120 118 116
2.55452 -2.91425 1.16598 101 105 104
2.52700 -2.93110 1.16963 112 106 94
2.53502 -2.95544 1.16844 143 126 106
2.51920 -2.96536 1.15371 154 131 111
1.26613 -2.73720 1.34072 190 196 202
1.27742 -2.73244 1.32528 226 232 230
1.25485 -2.74196 1.35616 193 199 207
1.25393 -2.74369 1.34234 192 200 205
1.19039 -2.87006 1.35039 183 193 214
1.20378 -2.86166 1.36285 193 201 213
1.20284 -2.86343 1.34874 193 202 218
1.16261 -2.88027 1.35410 177 190 203
1.15110 -2.88512 1.36985 183 197 214
1.14923 -2.88866 1.34165 192 206 217
1.12060 -3.08404 1.35891 191 203 218
1.13453 -3.07530 1.37187 191 203 220
1.13356 -3.07714 1.35719 192 203 220
1.12157 -3.08220 1.37359 191 203 216
1.10840 -3.09182 1.36053 189 202 213
1.09349 -3.09643 1.36252 176 181 198
1.10233 -3.12909 1.36119 149 146 173
1.11692 -3.16898 1.35905 121 91 132
1.10247 -3.17448 1.36098 101 60 100
1.10649 -3.20229 1.36032 102 67 88
1.10511 -3.22381 1.36041 70 56 91
1.09168 -3.23079 1.36219 25 32 91
1.08363 -3.24439 1.36323 48 67 142
1.07927 -3.26268 1.36374 138 168 217
1.09462 -3.30581 1.36148 224 244 249
1.08018 -3.31189 1.36340 251 254 254
1.06563 -3.32102 1.34986 251 254 254
0.90862 -3.30981 1.38658 248 244 249
0.92289 -3.30086 1.39986 254 254 254
0.92189 -3.30275 1.38482 253 251 253
0.89352 -3.31441 1.38860 243 239 243
0.87895 -3.31968 1.39055 238 216 237
0.87141 -3.36014 1.39140 208 146 205
0.81210 -3.38020 1.39932 195 230 245
0.80797 -3.40056 1.39979 188 216 229
0.80144 -3.41763 1.40060 178 212 238
0.78822 -3.45199 1.40224 106 139 192
0.77371 -3.46109 1.38874 102 133 167
0.77841 -3.46465 1.40351 94 128 170
0.76388 -3.47377 1.38999 102 135 174
0.72923 -3.61551 1.40952 102 136 167
0.74206 -3.61010 1.39196 102 138 183
0.73369 -3.65213 1.40876 79 103 114
0.83049 -4.24339 1.39319 59 69 75
0.84629 -4.23499 1.39109 50 61 58
0.84510 -4.23723 1.37319 49 61 65
0.82931 -4.24564 1.37529 56 66 70
0.82462 -4.26958 1.39387 65 74 81
0.80913 -4.31603 1.39576 75 76 80
0.80243 -4.34156 1.39656 84 92 86
0.79684 -4.36945 1.39720 80 78 88
0.78589 -4.38765 1.39860 73 74 82
0.73938 -4.45694 1.40459 61 66 67
0.73817 -4.45925 1.38616 67 72 65
0.72190 -4.46791 1.38832 57 69 62
0.73047 -4.47997 1.40569 63 75 73
0.72018 -4.50053 1.40699 67 78 81
0.70260 -4.51156 1.39063 70 79 83
0.70555 -4.59641 1.40856 66 64 64
0.72092 -4.58993 1.38754 85 96 89
0.77440 -5.01024 1.39752 43 56 58
0.79361 -4.99819 1.41540 47 54 59
0.79228 -5.00073 1.39514 43 50 54
0.76229 -5.03224 1.39906 51 62 66
0.75489 -5.06475 1.39992 62 70 71
0.73584 -5.07203 1.40246 73 83 83
0.70610 -5.05548 1.40655 86 100 100
0.68685 -5.06755 1.38864 115 125 130
0.68948 -5.06790 1.40874 117 128 128
0.67023 -5.07998 1.39082 111 118 127
0.61334 -5.36286 1.41778 118 127 129
0.63337 -5.35030 1.43641 122 129 133
0.63198 -5.35294 1.41530 125 136 143
0.63058 -5.35559 1.39419 125 136 134
0.59492 -5.37329 1.42022 106 114 123
0.57488 -5.38585 1.40158 101 102 111
0.46054 -5.37312 1.43837 95 99 94
0.47760 -5.36593 1.41503 104 111 102
0.45916 -5.37574 1.41748 102 109 99
0.44349 -5.38031 1.46170 88 92 88
0.41325 -5.36456 1.44479 96 97 100
0.39629 -5.37171 1.46800 93 96 91
0.39354 -5.37692 1.42645 106 113 102
0.22922 -5.20912 1.47030 119 126 132
0.20791 -5.20771 1.47319 145 147 141
0.19163 -5.21457 1.49545 167 158 142
0.19081 -5.21853 1.47545 162 155 140
0.17454 -5.22539 1.49772 167 160 145
0.17322 -5.22789 1.47778 169 158 145
-0.48246 -4.70506 1.56854 182 169 149
-0.46847 -4.69916 1.54939 178 171 156
-0.51937 -4.61817 1.57390 135 109 111
-0.52704 -4.65775 1.57476 95 78 74
-0.54309 -4.66781 1.55983 42 30 29
-0.55837 -4.59192 1.57927 45 36 35
-0.57417 -4.60182 1.56458 28 30 24
-0.75509 -5.75202 1.60093 17 21 16
-0.73609 -5.74010 1.61861 24 29 21
-0.73874 -5.74512 1.57856 16 19 11
-0.75377 -5.74950 1.62096 21 28 22
-0.75642 -5.75453 1.58091 14 16 11
-0.77277 -5.76142 1.60328 14 17 16
-0.80828 -5.77906 1.60800 19 16 34
-0.79061 -5.76966 1.60566 14 13 23
-0.82646 -5.78457 1.61043 31 33 47
-0.84625 -5.77736 1.61314 49 55 58
-0.86519 -5.77607 1.61570 65 72 67
-0.88218 -5.79028 1.61793 75 81 75
-0.90109 -5.80214 1.60034 89 89 86
-0.89879 -5.80791 1.62010 82 85 82
-0.91773 -5.81979 1.60248 88 87 85
-0.91497 -5.82982 1.62220 82 82 82
-0.93263 -5.83922 1.62454 79 81 72
2.62219 -2.82104 1.14071 251 254 254
2.63774 -2.81128 1.15518 254 254 254
2.63666 -2.81334 1.13878 254 254 254
2.62327 -2.81898 1.15710 254 254 254
2.61529 -2.83394 1.14155 240 251 249
2.58749 -2.83245 1.14537 215 220 229
2.53273 -2.81209 1.15301 179 171 204
2.54954 -2.84149 1.15049 142 126 173
2.54078 -2.85314 1.15160 127 112 151
2.53635 -2.86792 1.15210 130 122 136
2.51479 -2.87057 1.15502 135 134 128
2.54046 -2.90703 1.15124 119 116 105
2.53736 -2.92309 1.15155 103 94 85
2.52164 -2.93296 1.13691 114 93 86
2.52163 -2.93008 1.15365 114 100 90
2.51001 -2.94006 1.15516 136 115 99
2.21550 -2.90275 1.19572 195 168 131
2.22853 -2.89726 1.17788 203 175 142
2.19651 -2.90642 1.19829 153 136 108
2.18350 -2.91191 1.21610 114 112 104
2.18139 -2.91590 1.18421 102 85 107
2.17761 -2.91010 1.20084 123 113 116
2.16461 -2.91558 1.21863 76 79 81
2.16356 -2.91758 1.20271 99 95 102
1.27576 -2.74925 1.32539 195 200 202
1.28708 -2.74447 1.30989 237 242 234
1.26473 -2.75696 1.32684 191 201 207
1.25340 -2.76174 1.34234 193 203 210
1.25249 -2.76348 1.32846 192 204 215
1.25157 -2.76522 1.31459 181 188 198
1.21086 -2.87456 1.33333 191 202 216
1.22429 -2.86613 1.34583 190 200 212
1.22336 -2.86791 1.33167 194 201 213
1.22242 -2.86969 1.31751 196 205 212
1.18282 -2.88463 1.33709 171 180 193
1.16984 -2.89075 1.33882 185 198 212
1.15642 -2.89916 1.32633 195 207 219
1.13185 -3.05644 1.34278 194 206 222
1.14571 -3.04775 1.35567 193 205 221
1.14475 -3.04958 1.34106 195 206 223
1.13282 -3.05461 1.35738 193 204 220
1.12338 -3.06838 1.34385 191 203 216
1.12095 -3.08741 1.34404 178 184 204
1.11998 -3.10832 1.34401 156 151 179
1.12794 -3.13991 1.34269 125 94 135
1.10838 -3.13926 1.34537 97 57 103
1.09955 -3.15131 1.34649 91 42 89
1.10280 -3.17794 1.34584 114 82 111
1.09306 -3.18914 1.34709 149 144 142
1.08825 -3.20640 1.34762 120 123 137
1.09233 -3.23470 1.34685 72 75 107
1.08263 -3.24629 1.34809 55 64 123
1.06651 -3.24996 1.35027 80 110 170
1.05973 -3.26528 1.35108 156 197 219
1.06821 -3.29998 1.34966 228 248 253
0.91507 -3.29683 1.37063 251 247 251
0.92931 -3.28790 1.38388 254 254 254
0.92832 -3.28979 1.36887 254 254 254
0.92732 -3.29167 1.35386 254 254 254
0.91408 -3.29872 1.35562 249 250 253
0.90163 -3.30362 1.37242 241 229 243
0.88623 -3.30775 1.37449 235 228 234
0.87447 -3.31681 1.37604 224 204 235
0.88445 -3.35586 1.37438 204 147 219
0.86240 -3.35091 1.37743 202 190 227
0.84808 -3.35989 1.36411 196 231 249
0.84829 -3.35690 1.37932 196 200 235
0.83394 -3.36253 1.38124 194 218 243
0.81485 -3.38747 1.38366 181 219 242
0.73567 -3.65896 1.39247 85 111 127
0.74039 -3.69654 1.39154 57 70 70
0.72733 -3.70204 1.40941 54 61 60
0.72628 -3.70405 1.39342 53 59 61
0.72522 -3.70605 1.37743 55 57 60
0.83887 -4.29949 1.37358 59 65 69
0.85363 -4.29327 1.35337 57 66 70
0.83767 -4.30176 1.35549 58 62 74
0.83254 -4.32540 1.37425 60 69 80
0.81827 -4.33715 1.37611 68 68 65
0.81464 -4.36850 1.37638 93 102 90
0.79731 -4.37937 1.36025 96 103 114
0.80859 -4.39576 1.37700 92 97 98
0.79592 -4.41097 1.37862 85 93 89
0.78434 -4.42835 1.38007 82 83 82
0.77246 -4.44531 1.38157 60 63 73
0.76170 -4.46457 1.38290 64 71 67
0.70654 -4.60329 1.38941 71 78 74
0.72192 -4.59681 1.36837 71 82 79
0.68867 -4.61450 1.37278 50 60 66
0.69788 -4.62843 1.39041 53 58 62
0.67995 -4.63968 1.37372 53 59 66
0.75908 -4.98281 1.37939 40 52 44
0.74697 -5.00455 1.38089 51 60 64
0.73936 -5.03632 1.38169 67 72 76
0.71274 -5.02659 1.38540 87 98 100
0.69700 -5.04073 1.38745 110 121 121
0.67781 -5.05276 1.36960 118 129 125
0.60495 -5.34827 1.39775 120 125 129
0.62213 -5.34103 1.37423 119 129 134
0.60355 -5.35091 1.37670 123 132 137
0.58561 -5.35628 1.40033 105 109 120
0.43270 -5.36405 1.42119 103 107 102
0.44969 -5.35689 1.39795 106 113 100
0.41296 -5.37643 1.40282 107 116 118
0.41053 -5.36352 1.42422 104 109 108
0.22104 -5.19176 1.45142 101 110 113
0.19848 -5.18645 1.45455 113 120 115
0.18706 -5.21381 1.45590 136 135 127
0.16730 -5.21658 1.45858 158 152 144
0.15107 -5.22343 1.48079 170 157 147
0.14975 -5.22592 1.46091 166 157 146
-0.51939 -4.62506 1.55691 130 103 105
-0.52124 -4.69056 1.55668 90 72 71
-0.53739 -4.70069 1.54165 42 30 27
-0.77347 -5.76835 1.58313 13 14 21
-0.79136 -5.77631 1.58552 21 16 42
-0.80951 -5.78223 1.58796 34 34 60
-0.82858 -5.78097 1.59058 57 62 67
-0.84844 -5.77304 1.59335 72 81 74
-0.86692 -5.77523 1.59586 78 84 80
-0.88580 -5.78708 1.57829 88 90 85
-0.88428 -5.78631 1.59816 82 85 82
-0.90317 -5.79816 1.58058 91 91 89
-1.45230 -5.84733 1.67539 114 122 140
2.61869 -2.78652 1.12504 251 254 254
2.63413 -2.77684 1.13940 254 254 254
2.63305 -2.77888 1.12313 254 254 254
2.61977 -2.78448 1.14131 254 254 254
2.61651 -2.80244 1.12517 240 250 249
2.55834 -2.78018 1.13346 216 222 230
2.51697 -2.76911 1.13931 170 170 201
2.53003 -2.79548 1.13722 126 118 155
2.53070 -2.81346 1.13693 101 88 131
2.52074 -2.82411 1.13820 94 82 117
2.52364 -2.84388 1.13759 108 96 117
2.52460 -2.86241 1.13726 137 127 145
2.50302 -2.86499 1.14022 165 164 164
2.49138 -2.87465 1.14173 156 153 123
2.52723 -2.91864 1.13629 122 106 84
2.49559 -2.93239 1.14053 126 105 95
2.48979 -2.94662 1.14118 143 121 102
2.48824 -2.96408 1.14121 164 140 106
2.47435 -2.97247 1.14304 183 154 110
2.45859 -2.98236 1.12837 189 159 119
2.45668 -2.97802 1.14543 190 162 116
2.44092 -2.98790 1.13076 191 162 124
2.21010 -2.90137 1.18039 200 175 138
2.17978 -2.89613 1.18465 157 136 117
2.15157 -2.91090 1.18840 109 105 108
2.15052 -2.91289 1.17252 91 95 98
2.13861 -2.91637 1.20613 72 67 82
2.13651 -2.92035 1.17438 91 94 93
1.28706 -2.76296 1.30970 198 198 201
1.29843 -2.75816 1.29413 238 240 236
1.27581 -2.77052 1.31117 178 180 186
1.26259 -2.77882 1.29887 177 185 187
1.21576 -2.88245 1.31829 187 198 213
1.22735 -2.87756 1.30244 195 206 213
1.20230 -2.89089 1.30577 168 177 196
1.20375 -2.88965 1.31988 169 179 198
1.18807 -2.89297 1.32202 174 184 198
1.14263 -3.05010 1.32663 194 207 222
1.15648 -3.04141 1.33952 196 207 222
1.15551 -3.04324 1.32492 197 209 222
1.13315 -3.06086 1.32783 184 193 209
1.14309 -3.09404 1.32610 162 158 180
1.12910 -3.10282 1.31308 90 43 94
1.14479 -3.11804 1.32560 132 107 143
1.12370 -3.11565 1.32855 102 65 115
1.11287 -3.12520 1.32995 90 44 99
1.10740 -3.14112 1.33054 103 68 102
1.10823 -3.16471 1.33017 131 113 132
1.09830 -3.17559 1.33143 163 169 170
1.09431 -3.19372 1.33179 175 187 182
1.08201 -3.20188 1.33340 150 156 178
1.07415 -3.21550 1.33435 142 153 176
1.06318 -3.22537 1.33576 136 152 169
1.05390 -3.23740 1.33692 94 118 147
1.04069 -3.24455 1.33867 85 129 167
1.02391 -3.24721 1.34096 157 203 230
1.03726 -3.28814 1.33868 229 249 253
1.02487 -3.29336 1.35564 254 254 254
1.02386 -3.29527 1.34046 252 254 254
0.89920 -3.30357 1.35763 238 243 250
0.88314 -3.30677 1.35982 233 236 242
0.86776 -3.31086 1.36191 217 206 232
0.85960 -3.32485 1.36289 199 190 227
0.82913 -3.35903 1.36674 189 225 246
0.81846 -3.36982 1.36811 176 207 234
0.83098 -3.41390 1.36590 141 166 197
0.81653 -3.42297 1.35245 103 132 160
0.80792 -3.40718 1.36917 103 137 169
0.79793 -3.41926 1.37042 91 126 175
0.78351 -3.42830 1.35700 107 137 178
0.74960 -3.65505 1.37459 104 140 175
0.76256 -3.64959 1.35686 103 138 179
0.73273 -3.65793 1.37690 91 118 141
0.74575 -3.70887 1.37455 67 74 83
0.73054 -3.71842 1.36040 56 59 58
0.83846 -4.34057 1.35496 56 67 82
0.85333 -4.33430 1.33462 58 63 73
0.82409 -4.35224 1.35683 66 80 84
0.81935 -4.38169 1.35717 98 105 94
0.79909 -4.42149 1.35955 90 95 98
0.79788 -4.42380 1.34115 94 102 101
0.78163 -4.43244 1.34330 107 112 85
0.77889 -4.46221 1.36191 83 88 90
0.76752 -4.48042 1.36329 79 84 79
0.76587 -4.95536 1.35845 52 60 57
0.78224 -4.94845 1.33604 57 63 72
0.75317 -4.97552 1.35999 53 62 60
0.73627 -4.98677 1.36221 58 62 75
0.72727 -5.01534 1.36315 69 72 82
0.70795 -5.02151 1.36576 89 102 99
0.69126 -5.03345 1.36795 119 133 128
0.67211 -5.04546 1.35013 114 124 118
0.55571 -5.34380 1.38340 107 105 103
0.53861 -5.35101 1.40680 103 105 114
0.53376 -5.34481 1.38643 109 113 111
0.51392 -5.35726 1.36797 126 126 120
0.50913 -5.33876 1.38991 119 120 114
0.48751 -5.34020 1.39289 118 121 112
0.46776 -5.35259 1.37451 110 116 114
0.46797 -5.34692 1.39552 108 116 107
0.44824 -5.35930 1.37715 109 117 111
0.19859 -5.19312 1.43447 95 99 92
0.21480 -5.18628 1.41229 104 108 97
0.19728 -5.19561 1.41461 102 105 96
0.17976 -5.20493 1.41694 97 103 105
0.18120 -5.20282 1.43677 99 102 102
0.16030 -5.20201 1.43967 124 127 132
0.14524 -5.21869 1.44158 148 149 145
0.12904 -5.22552 1.46375 167 158 146
0.12674 -5.22497 1.44408 163 157 141
0.11054 -5.23180 1.46623 168 158 149
0.10923 -5.23429 1.44640 169 159 147
-0.47929 -4.73274 1.53326 174 162 139
-0.46523 -4.72681 1.51402 177 169 162
-0.50561 -4.69223 1.53734 122 97 89
-0.50904 -4.75183 1.53718 83 67 69
-0.52539 -4.76209 1.52196 43 32 34
-0.70561 -5.72295 1.55402 21 25 9
-0.68663 -5.71104 1.57169 27 29 17
-0.68795 -5.71355 1.55168 24 30 16
-0.70429 -5.72044 1.57403 25 25 14
-0.70693 -5.72546 1.53401 15 21 10
-0.72327 -5.73235 1.55637 15 18 8
-0.75691 -5.76282 1.56070 20 16 21
-0.73921 -5.75341 1.55835 13 15 9
-0.77415 -5.77544 1.56295 29 28 38
-0.78879 -5.80725 1.56464 44 46 58
-0.80901 -5.79843 1.56753 60 67 71
-0.82805 -5.81037 1.54981 81 88 83
-0.82896 -5.79072 1.57038 75 84 77
-0.84795 -5.80263 1.55271 84 89 91
-0.84848 -5.78555 1.57314 80 87 83
-0.86742 -5.79743 1.55551 91 93 97
-0.86775 -5.78162 1.57585 83 88 87
-0.88665 -5.79347 1.55826 95 94 91
-1.47050 -5.85632 1.65852 86 80 106
2.59113 -2.73640 1.11320 252 254 254
2.60637 -2.72684 1.12738 254 254 254
2.60531 -2.72886 1.11132 254 254 254
2.59219 -2.73439 1.12926 254 254 254
2.59668 -2.75719 1.11214 241 252 250
2.55225 -2.74436 1.11854 216 219 233
2.52906 -2.74573 1.12178 169 168 197
2.53275 -2.76542 1.12098 117 113 143
2.53692 -2.78558 1.12012 83 81 123
2.53025 -2.79840 1.12088 80 75 107
2.52647 -2.81329 1.12120 93 89 108
2.52555 -2.83027 1.12109 115 111 123
2.52748 -2.84939 1.12056 150 143 150
2.50613 -2.85212 1.12351 189 185 196
2.50544 -2.86954 1.12337 214 216 216
2.49149 -2.87755 1.12521 202 207 181
2.49145 -2.89563 1.12496 150 143 120
2.49600 -2.91717 1.12403 114 95 85
2.48037 -2.92698 1.10948 111 93 69
2.48087 -2.92448 1.12605 117 98 84
2.46964 -2.93466 1.12748 135 113 94
2.47157 -2.95462 1.12693 163 137 106
2.45740 -2.96272 1.12880 184 155 115
2.44169 -2.97258 1.11419 188 158 126
2.23495 -2.90504 1.16079 202 175 137
2.25012 -2.89552 1.17491 199 173 136
2.24906 -2.89753 1.15892 199 171 132
2.24801 -2.89953 1.14293 199 170 128
2.20151 -2.89750 1.16559 184 161 134
2.19366 -2.90983 1.16652 114 95 108
2.17854 -2.91931 1.15245 48 49 77
1.30225 -2.78050 1.29329 198 197 208
1.31369 -2.77568 1.27764 236 236 235
1.28335 -2.78062 1.29594 170 168 175
1.21869 -2.88828 1.30350 179 190 213
1.19225 -2.90019 1.30705 181 191 207
1.17982 -2.90696 1.30869 192 204 219
1.16634 -2.91541 1.29616 201 214 226
1.17325 -2.92006 1.30943 198 210 223
1.16163 -2.92496 1.32533 198 210 223
1.16069 -2.92675 1.31110 200 212 225
1.15975 -2.92853 1.29687 202 214 227
1.17347 -3.04499 1.30766 198 212 220
1.18736 -3.03628 1.32058 197 208 220
1.18639 -3.03811 1.30595 200 210 221
1.17444 -3.04315 1.32230 198 210 220
1.15636 -3.04712 1.31003 189 200 211
1.16350 -3.07677 1.30862 170 169 193
1.15838 -3.09270 1.30912 141 121 154
1.14735 -3.10194 1.31053 109 69 114
1.12272 -3.11750 1.31377 101 70 108
1.12294 -3.14006 1.31343 126 113 144
1.11205 -3.14967 1.31482 158 160 174
1.10799 -3.16746 1.31514 169 180 189
1.09863 -3.17904 1.31629 154 166 185
1.08929 -3.19072 1.31744 137 141 178
1.07976 -3.20222 1.31862 146 151 189
1.08175 -3.22794 1.31798 176 189 217
1.07375 -3.24157 1.31891 190 199 225
1.05554 -3.24257 1.32145 158 171 199
1.03089 -3.23538 1.32501 84 113 163
1.01880 -3.24389 1.32658 71 120 178
1.00568 -3.25109 1.32832 158 205 233
1.00568 -3.27513 1.32799 230 248 251
0.99336 -3.28033 1.34484 254 254 254
0.98350 -3.27076 1.33116 251 254 254
0.97122 -3.27593 1.34795 254 254 254
0.97023 -3.27782 1.33292 254 254 254
0.90653 -3.29180 1.34166 240 251 253
0.91974 -3.28477 1.33990 249 253 254
0.89332 -3.29884 1.34341 228 245 250
0.87912 -3.30775 1.33020 199 235 249
0.87689 -3.30150 1.34568 211 228 245
0.86281 -3.30730 1.34757 195 210 241
0.84979 -3.31456 1.34929 194 223 246
0.83665 -3.32165 1.35104 192 229 250
0.82623 -3.33255 1.35235 179 215 240
0.81010 -3.33544 1.35457 150 176 217
0.79592 -3.34433 1.34138 95 129 174
0.80652 -3.38218 1.35442 99 123 164
0.79221 -3.39116 1.34110 109 137 170
0.75692 -3.67031 1.35737 103 139 176
0.76992 -3.66483 1.33958 106 138 181
0.75587 -3.67231 1.34144 106 139 180
0.74380 -3.67930 1.35908 96 125 150
0.75207 -3.72279 1.35732 72 81 91
0.73681 -3.73236 1.34312 55 64 80
0.84075 -4.34918 1.33617 66 69 80
0.82605 -4.36031 1.33808 71 79 86
0.80874 -4.37117 1.32197 80 83 91
0.81994 -4.38730 1.33856 82 85 97
0.81285 -4.41279 1.33920 89 101 103
0.78191 -4.47261 1.34271 92 87 89
0.78068 -4.47493 1.32417 96 103 108
0.77003 -4.48994 1.34413 83 86 85
0.75241 -4.50099 1.32774 74 74 72
0.75777 -4.50668 1.34562 74 79 73
0.74012 -4.51775 1.32919 83 86 80
0.74744 -4.52734 1.34678 65 68 71
0.73221 -4.53377 1.36761 61 65 69
0.73098 -4.53610 1.34896 60 63 58
0.72286 -4.60357 1.34916 59 67 71
0.74075 -4.59235 1.36581 65 71 74
0.73950 -4.59472 1.34695 59 64 64
0.72161 -4.60594 1.33031 56 64 70
0.70498 -4.61479 1.33252 51 60 64
0.76023 -4.94869 1.33912 58 66 72
0.77658 -4.94180 1.31676 59 67 75
0.75891 -4.95120 1.31910 59 68 76
0.74777 -4.96928 1.34059 63 73 74
0.73292 -4.98492 1.34245 69 78 79
0.72285 -5.01112 1.34350 80 86 83
0.70437 -5.01906 1.34598 100 111 100
0.68525 -5.03105 1.32819 124 135 143
0.69508 -5.04748 1.34688 121 136 127
0.67589 -5.05952 1.32903 123 131 129
0.56245 -5.31077 1.36182 119 122 121
0.57947 -5.30360 1.33853 122 128 132
0.54268 -5.32318 1.34342 101 117 108
0.48103 -5.32956 1.37297 123 124 118
0.46133 -5.34191 1.35464 110 107 121
0.16494 -5.22238 1.41878 97 107 116
0.18118 -5.21553 1.39656 106 110 108
0.16363 -5.22487 1.39889 106 110 110
0.14687 -5.23014 1.42120 115 122 122
0.12463 -5.22501 1.42439 141 143 131
0.10695 -5.23376 1.42675 159 157 144
0.09077 -5.24058 1.44889 170 159 146
0.08946 -5.24307 1.42907 169 160 148
-0.48052 -4.73455 1.51605 169 156 133
-0.50151 -4.71725 1.51924 116 99 72
-0.49875 -4.80484 1.51763 72 65 70
-0.51527 -4.81520 1.50225 42 31 44
-0.69189 -5.69934 1.53227 20 27 15
-0.67296 -5.68747 1.54988 24 31 23
-0.67428 -5.68997 1.52993 23 30 22
-0.69321 -5.70184 1.51232 16 19 14
-0.72461 -5.73470 1.53636 14 15 14
-0.74074 -5.75454 1.53835 21 17 28
-0.75603 -5.78069 1.54013 35 35 42
-0.76925 -5.82246 1.54140 51 56 57
-0.78761 -5.82816 1.54390 68 74 74
-0.80677 -5.84017 1.52606 81 87 82
-0.80875 -5.81278 1.54707 77 84 80
-0.82784 -5.82475 1.52932 81 88 84
-1.47083 -5.90489 1.63862 58 46 88
-1.52140 -5.97282 1.64476 132 156 184
2.57469 -2.71123 1.09979 244 252 249
2.55097 -2.71227 1.10314 225 229 229
2.54825 -2.72736 1.10327 180 181 198
2.54312 -2.74091 1.10376 124 118 160
2.54640 -2.76026 1.10297 85 73 123
2.54109 -2.77387 1.10349 69 62 87
2.53558 -2.78742 1.10404 78 79 96
2.52315 -2.79624 1.10565 106 108 123
2.52407 -2.81439 1.10521 146 146 154
2.50871 -2.82403 1.09091 205 207 204
2.52550 -2.83303 1.10469 179 182 177
2.52093 -2.84757 1.10509 201 206 201
2.51497 -2.86121 1.10570 214 218 223
2.50261 -2.87034 1.10729 220 213 220
2.48822 -2.87803 1.10920 213 207 209
2.46928 -2.88242 1.11182 173 167 165
2.49170 -2.91690 1.10805 124 107 91
2.46367 -2.93312 1.11175 129 110 89
2.45398 -2.94445 1.11293 159 132 106
2.43841 -2.95144 1.11502 181 152 123
2.24846 -2.91834 1.14254 195 169 128
2.21334 -2.90954 1.14767 148 130 111
2.21561 -2.92987 1.14700 70 59 83
2.20040 -2.93942 1.13285 52 53 66
1.33389 -2.81422 1.27411 208 210 217
1.34545 -2.80934 1.25829 232 232 230
1.29772 -2.79749 1.27953 184 180 182
1.28632 -2.80508 1.28102 194 201 193
1.27484 -2.80992 1.29672 171 172 188
1.27392 -2.81168 1.28267 174 171 187
1.25725 -2.81399 1.28499 184 191 201
1.25818 -2.81223 1.29903 181 189 201
1.24579 -2.81882 1.30067 191 200 203
1.24789 -2.82365 1.28616 195 202 206
1.23642 -2.82849 1.30185 192 202 210
1.23549 -2.83025 1.28780 195 204 213
1.23456 -2.83201 1.27375 196 205 214
1.23333 -2.88655 1.28714 191 203 214
1.24683 -2.87809 1.29970 193 204 214
1.24589 -2.87987 1.28548 194 204 216
1.24495 -2.88166 1.27125 195 205 217
1.21984 -2.89502 1.27459 172 182 203
1.22342 -2.89601 1.28839 173 184 209
1.21141 -2.90328 1.28997 172 182 198
1.19759 -2.90864 1.29184 188 198 214
1.18670 -2.91711 1.29324 198 208 223
1.17319 -2.92559 1.28066 203 215 228
1.17829 -3.03199 1.29246 194 207 217
1.19214 -3.02331 1.30535 199 210 224
1.19117 -3.02514 1.29075 201 213 229
1.20455 -3.08280 1.28787 176 177 196
1.19612 -3.09499 1.28885 146 132 155
1.17156 -3.08889 1.29244 115 77 123
1.15625 -3.09322 1.29454 96 48 104
1.14638 -3.10379 1.29576 102 60 105
1.14793 -3.12768 1.29513 125 109 136
1.14223 -3.14333 1.29567 153 160 168
1.13277 -3.15467 1.29682 169 186 193
1.11863 -3.16355 1.28366 125 139 182
1.11909 -3.16106 1.29865 170 188 203
1.10555 -3.16761 1.30046 138 149 187
1.08846 -3.16986 1.30285 97 101 164
1.07559 -3.17718 1.30455 93 97 166
1.07533 -3.19990 1.30420 130 147 196
1.06705 -3.21298 1.30515 150 157 215
1.04905 -3.21410 1.30768 138 132 208
1.03597 -3.22128 1.30942 130 126 199
1.02391 -3.22975 1.31098 102 116 181
1.00777 -3.23307 1.31322 54 88 161
0.99001 -3.23426 1.31572 67 111 183
0.98650 -3.25367 1.31588 154 201 232
0.97512 -3.26309 1.31734 226 243 251
0.95732 -3.26417 1.31984 250 253 254
0.94510 -3.26932 1.33656 254 254 254
0.94411 -3.27120 1.32160 250 253 254
0.92549 -3.27106 1.32424 243 252 253
0.92647 -3.26919 1.33917 252 254 254
0.91172 -3.27729 1.32609 233 248 251
0.89756 -3.28618 1.31291 202 235 246
0.90078 -3.28729 1.32747 218 242 249
0.88915 -3.29642 1.32897 206 239 248
0.86167 -3.30897 1.33265 196 229 247
0.84519 -3.31144 1.33495 188 222 245
0.82757 -3.31225 1.33743 164 194 233
0.81092 -3.31433 1.33976 132 147 205
0.79681 -3.32318 1.32663 106 133 169
0.80461 -3.33096 1.34037 99 128 175
0.79046 -3.33983 1.32720 108 137 170
0.75507 -3.70102 1.34106 102 130 162
0.76814 -3.69551 1.32317 107 138 182
0.76865 -3.75329 1.33824 73 88 110
0.75328 -3.76294 1.32393 66 76 86
0.84489 -4.36116 1.31701 69 71 83
0.83039 -4.37274 1.31887 79 79 87
0.80436 -4.44055 1.32140 87 98 93
0.79431 -4.46106 1.32247 91 95 97
0.77453 -4.50331 1.32456 86 94 100
0.75687 -4.51439 1.30812 74 77 76
0.74250 -4.56369 1.32807 75 75 72
0.74126 -4.56604 1.30932 70 70 63
0.72471 -4.57485 1.31151 66 70 69
0.73633 -4.59324 1.32844 62 66 70
0.74331 -4.96507 1.32108 68 71 81
0.73117 -4.98651 1.32244 77 82 87
0.71981 -5.00990 1.32365 92 100 99
0.70958 -5.03607 1.32465 118 126 126
0.64994 -5.05057 1.33286 127 138 136
0.66640 -5.04364 1.31035 121 123 124
0.62653 -5.09775 1.33538 125 138 143
0.61602 -5.12458 1.33641 106 100 114
0.59673 -5.13667 1.31846 108 107 123
0.60325 -5.14639 1.33785 108 117 122
0.58661 -5.15341 1.36062 113 126 136
0.51437 -5.30770 1.34770 107 125 119
0.49469 -5.32005 1.32939 121 128 127
0.47123 -5.31022 1.35378 120 125 122
0.23186 -5.24214 1.38891 107 114 101
0.25088 -5.23021 1.40662 103 109 101
0.24956 -5.23272 1.38656 104 110 103
0.21185 -5.24477 1.39171 108 112 103
0.14538 -5.23209 1.40136 104 105 112
0.16161 -5.22525 1.37915 111 114 109
0.12379 -5.22895 1.40448 106 111 114
0.10609 -5.23764 1.40684 127 134 122
0.08776 -5.24431 1.40933 152 150 147
0.07158 -5.25113 1.43147 172 159 145
0.06935 -5.25067 1.41183 169 159 148
0.05317 -5.25748 1.43396 171 159 142
0.05187 -5.25997 1.41415 171 159 140
-0.46272 -4.74449 1.49601 180 170 157
-0.44633 -4.73421 1.51126 177 167 151
-0.44747 -4.73637 1.49398 177 167 150
-0.44861 -4.73854 1.47670 176 166 148
-0.48042 -4.74202 1.49856 164 149 124
-0.49772 -4.74098 1.50104 114 99 59
-0.50516 -4.78361 1.50136 62 58 68
-0.52160 -4.79392 1.48606 39 32 48
-0.68075 -5.66017 1.51126 19 25 15
-0.66193 -5.64837 1.52878 28 30 22
-0.66324 -5.65086 1.50894 25 28 18
-0.68206 -5.66266 1.49143 14 17 11
-0.70944 -5.72021 1.51431 16 17 23
-0.72576 -5.73840 1.51631 25 22 38
-0.74090 -5.76501 1.51800 40 40 50
-0.75338 -5.81109 1.51899 55 60 58
-0.77079 -5.82356 1.52124 68 76 69
-0.78996 -5.83559 1.50340 86 90 83
-0.78930 -5.82805 1.52379 80 86 81
-0.80846 -5.84007 1.50597 85 91 87
-1.47153 -5.93564 1.61877 40 30 60
-1.48991 -5.94717 1.60166 38 44 56
-1.52295 -5.95241 1.62578 95 118 143
2.57160 -2.67841 1.08485 254 254 254
2.58662 -2.66899 1.09882 254 254 254
2.58557 -2.67098 1.08299 254 254 254
2.58453 -2.67296 1.06716 254 254 254
2.56612 -2.69147 1.08537 226 229 247
2.56269 -2.70595 1.08556 187 181 213
2.57302 -2.72973 1.08360 141 131 152
2.56577 -2.74187 1.08439 100 94 122
2.55394 -2.75096 1.08590 81 78 107
2.54534 -2.76227 1.08691 84 80 99
2.53486 -2.77234 1.08821 105 101 109
2.52155 -2.78049 1.08996 128 127 130
2.53491 -2.80717 1.08749 152 157 163
2.53440 -2.82438 1.08722 185 190 193
2.51680 -2.84745 1.08928 191 199 195
2.51572 -2.84949 1.07300 173 175 184
2.50171 -2.85459 1.09130 172 188 187
2.49478 -2.86755 1.09203 189 190 200
2.48625 -2.87943 1.09301 218 211 217
2.47315 -2.88805 1.09472 208 203 198
2.46841 -2.90278 1.09510 155 143 118
2.47257 -2.92412 1.09407 117 99 69
2.45820 -2.93196 1.09597 121 103 86
2.44766 -2.94264 1.09727 145 124 104
2.42858 -2.94697 1.09992 173 146 117
2.41353 -2.95429 1.10193 186 158 120
2.40010 -2.95996 1.12031 190 161 126
2.39901 -2.96202 1.10386 189 161 122
2.39792 -2.96408 1.08742 190 161 117
2.28631 -2.93188 1.12066 195 171 127
2.30164 -2.92227 1.13493 196 166 120
2.30057 -2.92429 1.11877 196 167 118
2.29951 -2.92632 1.10261 197 169 121
2.25922 -2.92952 1.12460 174 157 121
2.22968 -2.92512 1.12893 118 112 97
2.21956 -2.93582 1.13017 66 65 76
2.20433 -2.94538 1.11599 57 56 55
1.59783 -2.55984 1.22712 170 162 152
1.61001 -2.55336 1.22550 119 118 121
1.60910 -2.55509 1.21170 83 86 96
1.58657 -2.56459 1.24253 180 162 152
1.58566 -2.56632 1.22873 180 162 155
1.40429 -2.82863 1.24944 203 187 192
1.41788 -2.82011 1.26209 175 155 156
1.41599 -2.82370 1.23344 183 161 149
1.40524 -2.82683 1.26377 215 211 213
1.39260 -2.83356 1.26545 229 231 234
1.39165 -2.83536 1.25112 224 225 228
1.34878 -2.83154 1.25736 223 225 223
1.34784 -2.83333 1.24312 228 231 232
