ply
format ascii 1.0
element face 0
property list uchar int vertex_indices
element vertex 1344
property float x
property float y
property float z
property uchar diffuse_red
property uchar diffuse_green
property uchar diffuse_blue
end_header
1.00537 -3.44737 0.83074 46 53 67
0.99059 -3.45735 0.82331 25 39 61
0.98596 -3.46344 0.84102 38 46 71
0.98084 -3.46528 0.82847 30 43 63
0.97118 -3.47341 0.83359 40 41 59
0.97916 -3.47844 0.84541 62 69 82
0.96435 -3.48843 0.83798 40 32 68
0.97295 -3.49500 0.84967 61 69 73
0.95811 -3.50502 0.84221 43 31 74
0.96279 -3.50206 0.85493 52 50 83
0.94795 -3.51207 0.84748 39 33 64
0.94568 -3.65714 0.87593 65 81 81
0.95039 -3.65064 0.85765 38 42 53
0.94040 -3.65904 0.86295 54 63 71
0.93041 -3.66745 0.86825 66 78 84
0.93879 -3.67361 0.88049 92 104 99
0.92348 -3.68394 0.87280 75 85 94
0.92025 -3.99152 0.91593 42 33 52
0.93650 -3.98055 0.92409 71 78 80
0.93087 -3.98257 0.91029 64 62 73
0.89695 -4.00344 0.92764 21 27 52
0.88290 -4.00222 0.93399 74 93 97
0.87792 -4.00912 0.95336 112 126 122
0.86057 -3.97611 0.94205 123 138 126
0.85563 -3.98295 0.96124 134 138 128
0.85007 -3.98494 0.94761 132 137 130
0.84452 -3.98694 0.93399 133 134 126
0.82237 -3.98197 0.96009 129 128 116
0.83833 -3.97120 0.96811 134 135 130
0.83281 -3.97318 0.95455 132 137 129
0.82257 -4.02377 0.96354 75 72 74
0.80647 -4.03464 0.95546 24 18 22
0.90937 -4.62142 0.97426 38 36 26
0.91497 -4.61367 0.95251 51 55 47
0.90308 -4.62368 0.95882 58 64 39
0.88137 -4.62704 0.98761 55 54 49
0.86036 -4.60545 0.99543 68 65 57
0.84354 -4.59778 1.00251 78 76 63
0.82560 -4.60988 0.99350 94 96 87
0.83606 -4.62262 1.00805 84 85 66
0.81806 -4.63476 0.99901 98 96 83
0.81929 -4.61471 1.01509 92 92 72
0.80136 -4.62681 1.00608 100 100 86
0.80307 -4.60836 1.02200 96 97 83
0.78520 -4.62042 1.01303 101 100 92
0.78899 -4.60949 1.02857 98 103 97
0.77116 -4.62152 1.01961 103 100 89
0.58848 -4.82855 1.13925 89 95 87
0.57049 -4.84068 1.13021 99 106 107
0.57819 -4.84519 1.14539 101 103 88
0.56017 -4.85734 1.13634 104 108 110
1.80081 -1.02792 0.25086 77 80 91
1.80692 -1.02278 0.24762 64 62 82
1.80369 -1.02394 0.23969 64 72 81
1.79672 -1.03400 0.25325 88 90 103
1.79941 -1.04331 0.25276 98 103 112
1.79325 -1.04846 0.25603 107 113 119
1.79412 -1.05699 0.25632 85 84 78
1.80886 -1.07229 0.25076 67 46 37
1.80738 -1.07983 0.25206 65 43 38
1.79787 -1.08625 0.24728 52 32 45
1.80401 -1.08646 0.25416 64 49 50
1.80104 -1.09332 0.25609 58 46 54
1.79150 -1.09976 0.25130 87 64 64
1.79580 -1.09907 0.25898 50 40 57
1.78433 -1.11008 0.26517 126 108 92
1.77777 -1.11518 0.26862 148 136 104
1.76823 -1.12162 0.26382 139 115 111
1.77305 -1.12121 0.27129 149 135 110
1.76797 -1.13559 0.27482 142 126 108
1.75838 -1.14205 0.27000 160 143 122
1.76477 -1.14247 0.27685 159 144 121
1.75517 -1.14895 0.27203 167 148 130
3.02070 -2.35370 -0.20485 20 14 67
3.02583 -2.34660 -0.22479 12 12 47
3.01541 -2.36672 -0.20134 30 25 90
2.94281 -2.41674 -0.16372 44 41 102
2.95947 -2.40550 -0.15535 38 38 112
2.95370 -2.40757 -0.16950 39 38 105
2.94794 -2.40964 -0.18364 46 34 75
2.94857 -2.41466 -0.14957 41 40 117
2.92953 -2.42418 -0.15697 51 37 95
2.91661 -2.43186 -0.15038 57 30 84
2.91390 -2.44699 -0.14789 73 36 78
2.90117 -2.45482 -0.14137 78 55 94
2.87915 -2.47300 -0.12971 38 44 137
2.87338 -2.47507 -0.14387 42 47 138
2.86248 -2.48424 -0.13808 36 44 136
2.84319 -2.53317 -0.10819 42 48 139
2.84835 -2.52604 -0.12824 36 46 145
2.83739 -2.53526 -0.12242 39 47 139
2.82644 -2.54448 -0.11661 42 51 139
2.83464 -2.54427 -0.10333 41 50 137
2.81787 -2.55559 -0.11176 36 50 136
2.82514 -2.55465 -0.09810 35 45 131
2.81402 -2.56376 -0.09222 30 39 124
2.80718 -2.57627 -0.08803 39 28 94
2.79896 -2.58773 -0.08330 59 33 42
2.78215 -2.59908 -0.09175 93 66 43
2.79577 -2.60327 -0.08056 93 73 41
2.78813 -2.61528 -0.07605 98 72 55
2.77126 -2.62667 -0.08452 63 35 79
2.78326 -2.62960 -0.07263 54 34 75
2.77574 -2.64180 -0.06816 50 33 64
2.76791 -2.65379 -0.06357 92 70 48
2.75867 -2.66464 -0.05841 109 98 54
2.75137 -2.67714 -0.05402 142 131 58
2.74193 -2.68787 -0.04878 135 112 86
2.72999 -2.69650 -0.04256 122 95 100
2.72120 -2.70781 -0.03757 124 109 104
2.70422 -2.71927 -0.04610 41 46 141
2.70471 -2.71251 -0.02957 101 85 105
2.69132 -2.71985 -0.02279 118 111 90
2.67610 -2.72554 -0.01529 141 123 72
2.66285 -2.73293 -0.00856 154 134 70
2.64670 -2.73772 -0.00071 151 134 47
2.64106 -2.75183 0.00305 134 110 30
2.63119 -2.76220 0.00846 124 93 36
2.62308 -2.77418 0.01318 108 77 45
2.61653 -2.78762 0.01730 92 40 42
2.61674 -2.84676 0.02202 52 41 89
2.63072 -2.87979 0.01826 33 30 81
2.61344 -2.89145 0.00958 32 22 65
2.80254 -3.37705 -0.02062 119 102 57
2.82182 -3.36404 -0.01093 121 99 61
2.80847 -3.36884 -0.04369 109 86 47
2.80921 -3.37465 -0.00424 123 101 62
2.79586 -3.37945 -0.03700 110 79 46
2.79812 -3.39623 -0.01702 122 109 56
2.79799 -3.42005 -0.01501 131 117 47
2.79373 -3.43966 -0.01144 128 105 42
2.77684 -3.47028 -0.00115 99 76 67
2.76483 -3.48181 0.00535 97 86 66
2.75588 -3.49670 0.01070 102 103 77
2.74395 -3.50838 0.01716 123 128 119
2.72442 -3.52156 0.00735 140 151 148
2.72914 -3.51687 0.02470 138 144 140
2.58025 -3.54813 0.09606 151 138 104
2.58617 -3.53994 0.07305 141 150 132
2.57359 -3.55053 0.07972 145 143 116
2.56103 -3.55089 0.10516 133 122 111
2.54899 -3.56206 0.11163 121 116 128
2.53661 -3.57282 0.11824 115 114 132
2.52658 -3.58642 0.12398 108 108 127
2.51270 -3.62128 0.13324 115 110 120
2.49344 -3.62372 0.14233 127 125 127
2.47420 -3.63670 0.13267 150 154 140
2.48097 -3.63445 0.14897 140 141 128
2.46173 -3.64743 0.13931 153 152 139
2.46835 -3.64498 0.15566 141 139 125
2.45241 -3.65135 0.16355 140 141 123
2.43319 -3.66432 0.15390 145 144 131
2.43651 -3.65771 0.17142 140 145 127
2.41731 -3.67066 0.16177 141 137 126
2.03764 -3.51925 0.34447 67 77 69
2.04309 -3.51171 0.32327 74 75 66
1.94711 -3.41688 0.37796 34 34 48
1.93589 -3.42633 0.38392 56 44 34
1.88083 -3.37258 0.40498 113 107 83
1.86398 -3.38395 0.39652 139 126 101
1.62487 -3.52582 0.53576 149 136 106
1.63000 -3.51872 0.51584 146 123 105
1.60313 -3.51652 0.54505 177 177 162
1.57784 -3.52852 0.55772 171 163 146
1.55038 -3.50863 0.56879 75 52 84
1.53752 -3.51390 0.57516 64 67 106
1.48852 -3.45520 0.59302 127 146 162
1.39927 -3.40440 0.63013 137 153 168
1.38358 -3.41498 0.62225 171 174 172
1.26356 -3.26042 0.68111 133 153 170
1.24868 -3.27046 0.67364 125 145 152
1.18386 -3.26738 0.71851 144 150 150
1.19856 -3.25746 0.72589 144 148 144
1.19347 -3.25929 0.71341 143 148 148
1.18839 -3.26112 0.70093 143 150 150
1.17485 -3.27666 0.72343 127 129 133
1.16094 -3.27609 0.72982 52 48 80
1.14628 -3.28598 0.72245 28 25 52
1.15026 -3.28195 0.73523 31 22 39
1.13561 -3.29183 0.72787 30 30 57
1.12970 -3.32316 0.74809 37 32 42
1.14443 -3.31322 0.75548 29 31 54
1.13933 -3.31505 0.74298 30 31 47
1.13423 -3.31689 0.73047 30 32 54
1.12880 -3.34957 0.75066 55 62 64
1.12160 -3.36297 0.75508 56 71 62
1.11158 -3.37045 0.76032 42 43 55
1.09080 -3.38374 0.77100 36 36 70
1.07598 -3.39373 0.76356 69 81 84
1.08209 -3.39402 0.77587 57 69 78
1.06290 -3.41077 0.78610 62 66 79
1.04191 -3.42345 0.79684 63 68 83
1.03678 -3.42530 0.78426 64 70 81
1.03193 -3.43094 0.80206 63 70 83
1.02531 -3.44614 0.80635 54 54 77
1.01048 -3.45615 0.79890 32 37 56
1.01617 -3.45562 0.81135 44 45 67
1.00133 -3.46563 0.80390 26 38 55
1.00555 -3.46162 0.81675 33 37 55
0.99072 -3.47163 0.80930 28 41 60
0.92758 -3.99124 0.89595 53 50 60
0.94386 -3.98025 0.90413 82 84 82
0.93823 -3.98228 0.89030 76 83 78
0.91130 -4.00222 0.88777 29 26 46
0.91895 -4.00600 0.90114 35 29 44
0.90702 -4.01127 0.90708 21 20 38
0.89233 -4.00838 0.91364 44 50 54
0.87708 -4.00357 0.92030 100 113 102
0.86089 -4.01449 0.91217 131 134 129
0.86101 -3.99605 0.92711 131 137 126
0.84489 -4.00693 0.91901 132 133 125
0.83623 -4.00250 0.93909 133 135 126
0.82514 -4.00956 0.94479 110 105 109
0.83496 -4.08178 0.94613 54 41 51
0.81865 -4.09279 0.93794 22 21 16
0.86459 -4.59327 0.97413 74 76 62
0.84660 -4.60541 0.96510 92 90 76
0.84871 -4.58894 0.98111 85 86 74
0.83078 -4.60104 0.97210 97 91 76
0.59412 -4.82137 1.11772 101 97 84
0.59966 -4.81371 1.09619 106 104 94
0.58790 -4.82361 1.10244 116 110 95
0.57613 -4.83351 1.10868 106 104 98
0.58222 -4.83065 1.12397 99 98 96
0.56424 -4.84279 1.11494 98 105 99
1.79650 -1.02857 0.24340 68 76 83
1.79937 -1.02460 0.23224 52 57 61
1.79345 -1.03514 0.24533 72 79 83
1.79097 -1.04201 0.24702 72 80 64
1.79587 -1.05244 0.24556 63 61 48
1.78647 -1.05878 0.24083 41 26 29
1.80049 -1.06281 0.24422 54 33 35
1.79105 -1.06918 0.23948 42 28 27
1.79866 -1.07012 0.24564 49 24 23
1.78920 -1.07650 0.24089 45 28 36
1.79758 -1.07783 0.24675 48 30 34
1.79064 -1.09098 0.25101 54 32 50
1.77998 -1.10234 0.25685 123 105 83
1.77412 -1.10776 0.26000 137 124 100
1.76799 -1.11305 0.26327 140 125 108
1.76127 -1.12650 0.26744 145 120 109
1.75173 -1.13294 0.26265 156 140 121
1.75798 -1.13329 0.26950 154 136 113
1.74843 -1.13974 0.26470 159 140 124
3.01151 -2.35343 -0.21760 22 16 66
3.01664 -2.34634 -0.23752 9 11 40
3.00572 -2.36610 -0.21392 37 25 85
2.99986 -2.37878 -0.21020 35 31 97
2.99173 -2.38991 -0.20555 39 35 95
2.98659 -2.39703 -0.18556 31 35 100
2.98112 -2.39933 -0.19988 31 31 83
2.97598 -2.40645 -0.17988 33 36 101
2.95937 -2.40086 -0.18965 34 29 78
2.93412 -2.41671 -0.17667 54 29 73
2.92025 -2.42370 -0.16967 70 19 56
2.90473 -2.42947 -0.16201 96 12 30
2.90767 -2.44873 -0.16187 119 58 50
2.89099 -2.45998 -0.17024 44 31 112
2.89607 -2.45739 -0.15579 65 38 107
2.88542 -2.46675 -0.15011 48 50 142
2.86875 -2.47800 -0.15849 32 44 137
2.80658 -2.56456 -0.10581 41 43 117
2.81174 -2.55742 -0.12587 32 45 131
2.78981 -2.57587 -0.11423 71 51 69
2.80079 -2.57791 -0.10207 50 37 61
2.79378 -2.59033 -0.09783 82 52 40
2.77696 -2.60168 -0.10628 90 68 61
2.78221 -2.61731 -0.09034 78 58 67
2.76684 -2.64140 -0.08131 55 44 65
2.76317 -2.65683 -0.07840 98 89 53
2.75240 -2.66641 -0.07264 115 82 101
2.74109 -2.67554 -0.06667 114 76 102
2.73065 -2.68541 -0.06105 73 69 130
2.71716 -2.69268 -0.05421 54 51 140
2.70023 -2.70411 -0.06271 41 54 155
2.70471 -2.70081 -0.04778 47 57 139
2.67504 -2.71289 -0.03305 40 56 134
2.66920 -2.71499 -0.04739 34 49 148
2.66478 -2.72286 -0.02749 88 90 119
2.65700 -2.73503 -0.02292 133 125 99
2.63585 -2.73537 -0.01307 150 130 56
2.62831 -2.74776 -0.00859 135 113 33
2.62561 -2.76455 -0.00602 124 92 40
2.60869 -2.77596 -0.01452 128 104 36
2.61606 -2.77523 -0.00074 124 99 29
2.60682 -2.78622 0.00441 120 83 24
2.60637 -2.82497 0.00765 104 70 35
2.60751 -2.84582 0.00876 68 46 69
2.61801 -2.87562 0.00621 44 31 77
2.75815 -3.24769 -0.02979 94 82 46
2.77692 -3.23502 -0.02036 95 79 47
2.76393 -3.23969 -0.05225 78 62 40
2.76465 -3.24535 -0.01384 100 84 51
2.75237 -3.25568 -0.00733 106 90 52
2.74588 -3.25802 -0.02327 98 87 50
2.78217 -3.38892 -0.02989 107 85 61
2.78554 -3.41641 -0.02930 106 103 70
2.77675 -3.43118 -0.02406 113 118 72
2.77488 -3.45344 -0.02145 113 110 73
2.77088 -3.47355 -0.01801 116 112 87
2.75308 -3.47882 -0.00933 123 120 98
2.73361 -3.49196 -0.01911 139 139 120
2.74091 -3.49015 -0.00278 132 136 109
2.72143 -3.50330 -0.01257 143 144 116
2.73400 -3.50730 0.00177 141 139 123
2.71448 -3.52047 -0.00803 142 145 139
2.55751 -3.55696 0.08770 151 150 122
2.56342 -3.54878 0.06472 138 142 139
2.55086 -3.55936 0.07139 146 153 145
2.53830 -3.56993 0.07805 150 158 141
2.54244 -3.56455 0.09530 151 149 128
2.52325 -3.57750 0.08566 146 151 141
2.52931 -3.57442 0.10218 140 141 130
2.52085 -3.58991 0.10732 133 134 123
2.51080 -3.60355 0.11306 130 130 119
2.49647 -3.61198 0.12038 130 129 133
2.47734 -3.61447 0.12947 137 142 141
2.45816 -3.62741 0.11984 145 148 135
2.44230 -3.64939 0.14849 149 147 137
2.44821 -3.64122 0.12553 147 148 137
2.43566 -3.65178 0.13219 150 151 143
2.42311 -3.66234 0.13885 148 150 140
2.25434 -3.64368 0.23541 137 134 118
2.27303 -3.63107 0.24480 132 131 115
2.26656 -3.63340 0.22893 138 133 121
2.26010 -3.63572 0.21306 142 142 125
2.26081 -3.64136 0.25128 127 120 103
2.24859 -3.65164 0.25777 116 120 108
2.23265 -3.64113 0.24530 122 120 115
2.22691 -3.64906 0.26757 125 128 104
2.22047 -3.65138 0.25176 122 120 104
2.21403 -3.65369 0.23595 120 120 115
2.03873 -3.53167 0.32686 68 76 66
2.04420 -3.52410 0.30560 78 72 66
1.97224 -3.46328 0.35241 31 35 48
1.97067 -3.48691 0.35499 55 48 37
1.89363 -3.40162 0.38412 115 110 86
1.87665 -3.41308 0.37559 137 127 98
1.62297 -3.53445 0.52033 153 141 125
1.60586 -3.53305 0.52818 175 177 174
1.59498 -3.54220 0.53395 184 185 169
1.57414 -3.53408 0.54300 153 145 133
1.54839 -3.51712 0.55364 74 48 65
1.54005 -3.53039 0.55856 45 35 78
1.51321 -3.51092 0.56951 87 100 128
1.45201 -3.42948 0.59158 148 161 163
1.43720 -3.43030 0.59852 155 163 164
1.42433 -3.43451 0.60484 131 141 154
1.40782 -3.43198 0.61231 145 155 163
1.39202 -3.44264 0.60438 171 175 170
1.26822 -3.25424 0.66328 158 167 176
1.27795 -3.24605 0.65812 174 174 172
1.27280 -3.24790 0.64548 172 174 172
1.25849 -3.26243 0.66845 131 152 169
1.24361 -3.27247 0.66097 131 144 151
1.18248 -3.27656 0.70489 143 151 147
1.18701 -3.27029 0.68727 144 151 145
1.17614 -3.29125 0.70898 120 120 118
1.16014 -3.28656 0.71605 38 33 63
1.14544 -3.29648 0.70867 27 28 57
1.13409 -3.34479 0.73272 46 45 61
1.11927 -3.35478 0.72528 65 76 72
1.13235 -3.36968 0.73548 71 72 78
1.12052 -3.37343 0.74127 56 57 60
1.10566 -3.38346 0.73380 33 32 46
1.11251 -3.38526 0.74592 39 37 54
1.10334 -3.39466 0.75092 40 41 60
1.09484 -3.40556 0.75572 63 70 78
1.06851 -3.40678 0.76806 68 80 88
1.06023 -3.41813 0.77280 57 62 72
1.04539 -3.42815 0.76534 43 43 65
1.05067 -3.42663 0.77791 50 49 75
1.03188 -3.44441 0.78804 54 53 68
1.02543 -3.46015 0.79226 41 35 63
1.01054 -3.47019 0.78479 24 30 49
0.95113 -3.95874 0.86585 81 86 86
0.96738 -3.94778 0.87402 88 88 97
0.96175 -3.94980 0.86022 85 88 97
0.95613 -3.95182 0.84642 76 81 85
0.95675 -3.95672 0.87965 84 88 94
0.94613 -3.96566 0.88529 81 88 90
0.93846 -3.96193 0.87200 72 82 78
0.92906 -3.97430 0.87733 59 54 73
0.91282 -3.98525 0.86918 33 24 48
0.93068 -4.01826 0.88002 41 31 57
0.91430 -4.02931 0.87180 24 22 49
0.90463 -4.02276 0.89248 15 19 43
0.89616 -4.03827 0.89763 58 74 77
0.87433 -4.01408 0.90589 113 126 119
0.85811 -4.02502 0.89774 132 133 132
0.83729 -4.02484 0.92395 130 133 118
0.84227 -4.01796 0.90462 132 134 133
0.83441 -4.05755 0.92785 79 80 82
0.83871 -4.11322 0.93021 28 28 29
0.82227 -4.12431 0.92196 34 35 26
1.80612 -1.03576 0.22992 49 40 61
1.80901 -1.03177 0.21870 37 24 38
1.79674 -1.04209 0.22521 35 21 30
1.80158 -1.04168 0.23248 39 29 49
1.79220 -1.04802 0.22777 36 23 32
1.79327 -1.04581 0.23668 32 26 41
1.78389 -1.05214 0.23197 33 26 29
1.79273 -1.05366 0.23752 35 24 34
1.78333 -1.06000 0.23280 35 26 28
1.78543 -1.08291 0.24313 55 37 44
1.78299 -1.08999 0.24481 64 49 53
1.77574 -1.09469 0.24855 92 78 67
1.77289 -1.10160 0.25040 118 108 79
1.76892 -1.10798 0.25274 127 118 91
1.76273 -1.11323 0.25602 126 111 101
1.75838 -1.11942 0.25852 135 114 105
1.75464 -1.12595 0.26076 149 130 114
1.74512 -1.13238 0.25598 157 139 126
3.00386 -2.35420 -0.23095 24 22 59
3.00898 -2.34712 -0.25086 13 12 39
2.99810 -2.35628 -0.24509 28 19 35
2.98722 -2.36543 -0.23931 20 14 26
2.99615 -2.36555 -0.22650 25 22 65
2.97950 -2.37679 -0.23486 13 14 37
2.98911 -2.37739 -0.22231 19 19 67
2.97244 -2.38864 -0.23069 12 9 38
2.97984 -2.38772 -0.21721 17 17 63
2.96585 -2.39472 -0.21014 20 14 57
2.94711 -2.39832 -0.20111 35 24 59
2.93049 -2.40954 -0.20946 79 62 72
2.93706 -2.40806 -0.19568 56 32 59
2.92470 -2.41614 -0.18929 71 26 60
2.91218 -2.42410 -0.18284 109 19 43
2.90058 -2.43270 -0.17677 148 52 7
2.90062 -2.44986 -0.17550 154 82 36
2.87861 -2.46804 -0.16384 25 39 132
2.87284 -2.47012 -0.17800 18 33 132
2.86194 -2.47929 -0.17221 27 38 134
2.79899 -2.56523 -0.11932 42 44 107
2.78793 -2.59240 -0.11210 94 67 60
2.78211 -2.59449 -0.12639 99 68 54
2.77605 -2.61916 -0.10454 60 44 85
2.75919 -2.63054 -0.11302 39 17 54
2.76816 -2.63102 -0.09996 52 40 70
2.75968 -2.64242 -0.09514 40 24 62
2.75564 -2.65755 -0.09211 88 69 114
2.73850 -2.66179 -0.08378 148 137 164
2.72729 -2.67095 -0.07785 144 135 143
2.72161 -2.68482 -0.07416 75 60 106
2.71066 -2.69424 -0.06833 48 52 146
2.68197 -2.70719 -0.05394 43 51 153
2.65075 -2.71777 -0.03855 26 48 144
2.64492 -2.71987 -0.05286 31 48 154
2.64207 -2.72910 -0.03364 80 74 122
2.63814 -2.74471 -0.03064 149 146 79
2.61913 -2.74686 -0.02158 161 144 26
2.61585 -2.76313 -0.01883 140 111 29
2.59676 -2.78448 -0.00830 121 97 30
2.59446 -2.80187 -0.00592 121 90 30
2.59187 -2.81910 -0.00341 118 82 34
2.59169 -2.83869 -0.00186 89 54 61
2.59486 -2.86158 -0.00162 68 42 65
2.60558 -2.89181 -0.00436 45 26 61
2.60026 -2.89917 0.01631 24 20 62
2.59428 -2.90132 0.00164 24 18 63
2.58831 -2.90346 -0.01303 24 18 65
2.73355 -3.23163 -0.03865 84 65 42
2.73898 -3.25994 -0.03906 85 75 62
2.73320 -3.26793 -0.01660 104 90 50
2.75765 -3.30215 -0.04461 91 86 74
2.77234 -3.34067 -0.04859 104 101 85
2.76691 -3.35857 -0.04470 114 108 83
2.76163 -3.37673 -0.04087 117 108 87
2.75284 -3.39128 -0.03567 128 127 97
2.73812 -3.39955 -0.02816 144 145 109
2.71891 -3.41250 -0.03781 153 149 136
2.73536 -3.42065 -0.02529 147 142 114
2.71610 -3.43364 -0.03497 147 150 138
2.73672 -3.44633 -0.02400 145 144 117
2.71737 -3.45939 -0.03371 146 144 131
2.73618 -3.47018 -0.02195 143 142 118
2.71677 -3.48328 -0.03171 143 140 129
2.51512 -3.59342 0.09065 150 150 140
2.50847 -3.59582 0.07433 154 157 144
2.49590 -3.60639 0.08100 152 155 151
2.49998 -3.60087 0.09829 150 151 142
2.48078 -3.61382 0.08865 157 157 153
2.46974 -3.61567 0.11354 148 151 142
2.45057 -3.62861 0.10391 147 149 138
2.33495 -3.65491 0.17950 135 135 112
2.35389 -3.64213 0.18902 133 134 116
2.34734 -3.64448 0.17293 132 131 116
2.34151 -3.65255 0.19559 131 131 114
2.32912 -3.66297 0.20216 143 142 125
2.31601 -3.66769 0.16999 155 161 139
2.31644 -3.65725 0.18833 152 154 124
2.29754 -3.67000 0.17884 151 151 137
2.24394 -3.64070 0.22098 140 139 123
2.24969 -3.63275 0.19866 141 141 130
2.23749 -3.64302 0.20514 139 139 127
2.21879 -3.63339 0.23219 129 124 117
2.20023 -3.64592 0.22286 123 122 118
2.17360 -3.62501 0.25269 130 130 113
2.16722 -3.62731 0.23704 128 135 117
2.15314 -3.62348 0.26214 134 122 86
2.14748 -3.63130 0.28411 81 75 65
2.14113 -3.63358 0.26852 92 77 69
2.03872 -3.54259 0.30955 70 73 60
1.62897 -3.52879 0.50008 140 120 111
1.64566 -3.51752 0.50846 148 127 103
1.63988 -3.51960 0.49428 147 128 108
1.63411 -3.52168 0.48010 148 128 105
1.63000 -3.55829 0.50181 157 148 142
1.61370 -3.55840 0.50944 177 181 177
1.60275 -3.56762 0.51525 182 182 169
1.59020 -3.57406 0.52160 139 124 123
1.54823 -3.52885 0.53783 76 44 60
1.53277 -3.52965 0.54511 61 53 63
1.51210 -3.52103 0.55413 65 74 101
1.46109 -3.45765 0.57321 110 128 147
1.43244 -3.43360 0.58480 154 167 168
1.41847 -3.43579 0.59150 153 159 158
1.40262 -3.44649 0.58354 171 173 165
1.40675 -3.44202 0.59744 157 164 160
1.39091 -3.45271 0.58949 173 174 170
1.27222 -3.27332 0.64766 155 166 175
1.27683 -3.26695 0.62976 171 173 173
1.26244 -3.28155 0.65285 131 148 168
1.24748 -3.29165 0.64534 133 145 155
1.17927 -3.28215 0.69178 141 147 138
1.18381 -3.27587 0.67414 145 150 147
1.17270 -3.29643 0.69592 111 103 99
1.16355 -3.30561 0.70089 35 20 47
1.14878 -3.31558 0.69347 27 29 48
1.13746 -3.33602 0.71537 26 31 60
1.14714 -3.32788 0.71023 28 28 52
1.14202 -3.32972 0.69766 30 27 40
1.13810 -3.36579 0.71731 48 52 70
1.12180 -3.38895 0.72667 48 41 58
1.10687 -3.39902 0.71917 32 33 46
1.10317 -3.40732 0.73676 38 43 61
1.09800 -3.40918 0.72408 35 39 55
1.09195 -3.41236 0.74238 51 63 73
1.08024 -3.41626 0.74815 58 71 77
1.07118 -3.42598 0.75312 55 68 73
1.06216 -3.43582 0.75807 49 55 61
1.04724 -3.44589 0.75058 36 42 57
1.04158 -3.44979 0.76875 45 53 65
1.03642 -3.45165 0.75609 35 39 53
1.02667 -3.45985 0.76126 34 31 40
1.03410 -3.46321 0.77325 39 39 57
1.01917 -3.47328 0.76575 29 29 45
1.02376 -3.47009 0.77860 30 29 54
1.00884 -3.48016 0.77110 27 29 41
0.99967 -3.91884 0.82358 36 34 43
1.01593 -3.90787 0.83175 35 37 59
1.01031 -3.90990 0.81794 32 35 43
1.00468 -3.91192 0.80413 33 37 43
0.99405 -3.92087 0.80977 35 37 43
0.99467 -3.92577 0.84303 60 68 82
0.98875 -3.92699 0.82930 48 47 70
0.98374 -3.93392 0.84875 76 82 95
0.97812 -3.93594 0.83495 65 65 84
0.95025 -3.97402 0.85083 71 83 75
0.94218 -3.99029 0.85583 58 58 67
0.92585 -4.00130 0.84763 35 30 46
0.93965 -4.02247 0.85943 43 31 51
0.92323 -4.03355 0.85118 32 27 45
0.90541 -4.04365 0.87703 20 31 50
0.89213 -4.04512 0.88335 75 95 101
0.87466 -4.03389 0.89067 124 133 133
0.85838 -4.04488 0.88249 130 131 130
0.83876 -4.04860 0.90856 121 121 118
0.85202 -4.13193 0.90862 66 59 55
0.83548 -4.14308 0.90032 31 31 19
0.84002 -4.13729 0.91464 31 28 19
0.82350 -4.14843 0.90634 37 40 31
0.82932 -4.46941 0.94460 81 82 76
0.81179 -4.48123 0.93579 94 87 88
1.78245 -1.06775 0.23377 42 30 31
1.77880 -1.07417 0.23595 52 38 38
1.76937 -1.08054 0.23121 69 52 45
1.77736 -1.08171 0.23717 65 49 48
1.76791 -1.08809 0.23242 75 57 51
1.77356 -1.08810 0.23942 73 56 53
1.76689 -1.09307 0.24291 92 74 57
1.76744 -1.10169 0.24327 108 95 76
1.76107 -1.10683 0.24664 119 99 91
1.75643 -1.11286 0.24925 127 105 94
1.75160 -1.11880 0.25195 140 125 108
1.74210 -1.12521 0.24717 152 135 120
1.74699 -1.12487 0.25455 152 138 124
1.73749 -1.13128 0.24978 156 137 117
2.99241 -2.23855 -0.25088 22 13 35
2.98740 -2.24548 -0.23143 17 11 12
2.98178 -2.24750 -0.24524 16 12 25
2.95623 -2.39407 -0.22268 29 14 56
2.93959 -2.40530 -0.23104 112 72 75
2.93941 -2.39900 -0.21441 59 44 79
2.91936 -2.41851 -0.20358 117 44 58
2.90955 -2.42843 -0.19826 142 44 54
2.89961 -2.43827 -0.19287 152 83 82
2.88823 -2.44705 -0.18689 126 112 118
2.88246 -2.46000 -0.18325 34 33 119
2.86580 -2.47124 -0.19162 23 37 130
2.79819 -2.55339 -0.13691 36 43 128
2.81492 -2.54210 -0.12850 32 44 129
2.80913 -2.54418 -0.14271 36 44 135
2.80334 -2.54626 -0.15692 38 45 135
2.78147 -2.56467 -0.14531 56 38 48
2.79151 -2.56597 -0.13286 43 40 83
2.78601 -2.57956 -0.12930 77 52 60
2.77475 -2.60670 -0.12205 71 55 64
2.76934 -2.62054 -0.11851 43 29 73
2.75307 -2.64389 -0.10918 38 20 102
2.73938 -2.65098 -0.10223 116 96 168
2.72860 -2.66049 -0.09648 208 204 195
2.72098 -2.67267 -0.09202 227 184 157
2.70997 -2.68200 -0.08617 167 146 154
2.70307 -2.69486 -0.08200 84 69 142
2.68677 -2.69965 -0.07399 58 64 160
2.67528 -2.70856 -0.06795 55 60 163
2.66157 -2.71553 -0.06100 49 57 159
2.63585 -2.73086 -0.04781 69 57 152
2.63366 -2.74803 -0.04554 179 183 176
2.62095 -2.75585 -0.03900 190 183 123
2.60669 -2.76223 -0.03184 158 138 35
2.59753 -2.77323 -0.02674 131 107 22
2.58791 -2.78383 -0.02145 110 92 43
2.58280 -2.79863 -0.01799 118 99 47
2.56587 -2.81005 -0.02649 135 108 41
2.57699 -2.81284 -0.01423 128 98 47
2.57596 -2.83160 -0.01240 109 84 44
2.56783 -2.84379 -0.00770 94 69 37
2.59425 -2.88887 -0.01688 55 35 53
2.57701 -2.90051 -0.02553 25 19 60
2.70423 -3.18820 -0.04705 65 69 77
2.72270 -3.17574 -0.03777 66 58 61
2.71631 -3.17804 -0.05346 46 52 86
2.71509 -3.22173 -0.04974 89 91 77
2.73598 -3.26587 -0.05639 102 103 92
2.74812 -3.30144 -0.05953 116 113 101
2.74913 -3.32578 -0.05826 125 122 110
2.74891 -3.34904 -0.05648 129 129 112
2.74047 -3.36381 -0.05145 136 131 113
2.73145 -3.37800 -0.04618 146 142 121
2.71232 -3.39091 -0.05579 159 154 141
2.72851 -3.39877 -0.04331 155 153 130
2.70933 -3.41172 -0.05295 153 149 136
2.45487 -3.60784 0.10039 159 160 148
2.44826 -3.61022 0.08416 159 162 151
2.33952 -3.64520 0.15732 134 137 130
2.35190 -3.63478 0.15075 139 138 133
2.34535 -3.63713 0.13467 135 135 134
2.32059 -3.65797 0.14781 154 156 141
2.32334 -3.65062 0.16532 149 152 135
2.20403 -3.62435 0.21952 135 135 122
2.20973 -3.61647 0.19737 140 142 133
2.14350 -3.62119 0.24776 140 133 90
2.14914 -3.61338 0.22581 125 128 104
2.13715 -3.62347 0.23218 131 130 101
2.05987 -3.55713 0.28247 84 73 62
2.04210 -3.55839 0.29092 70 72 54
2.01617 -3.54782 0.30235 31 27 51
2.00845 -3.56325 0.30708 57 47 48
1.62907 -3.54082 0.48385 138 116 112
1.63423 -3.53369 0.46382 147 129 102
1.62926 -3.56902 0.48579 163 156 152
1.61243 -3.58038 0.47734 180 184 183
1.62557 -3.59086 0.48909 180 184 178
1.61354 -3.59844 0.49530 176 178 170
1.59379 -3.59251 0.50416 122 109 118
1.54379 -3.53313 0.52339 70 44 60
1.52730 -3.54425 0.51511 51 36 60
1.53197 -3.54036 0.52947 57 43 55
1.51669 -3.54140 0.53673 57 58 78
1.48141 -3.50626 0.55079 76 86 109
1.42834 -3.43811 0.57084 128 141 155
1.41432 -3.44021 0.57758 161 169 167
1.39846 -3.45091 0.56961 170 175 170
1.27730 -3.29457 0.63152 155 164 173
1.28193 -3.28816 0.61352 171 173 172
1.26746 -3.30285 0.63675 132 148 166
1.25241 -3.31300 0.62919 136 146 152
1.17638 -3.28841 0.67853 138 141 130
1.18092 -3.28213 0.66087 146 150 151
1.17488 -3.31298 0.68101 96 86 83
1.16539 -3.32159 0.68609 34 17 41
1.15055 -3.33160 0.67863 27 30 46
1.13933 -3.35245 0.70056 40 35 64
1.14684 -3.39686 0.70023 59 67 71
1.14037 -3.41226 0.70437 64 76 68
1.12288 -3.40418 0.71202 47 32 61
1.09753 -3.43779 0.72636 37 47 60
1.10215 -3.43139 0.70838 35 38 56
1.09233 -3.43966 0.71360 36 45 56
1.08250 -3.44793 0.71881 39 42 54
1.08775 -3.44616 0.73156 43 45 58
1.07273 -3.45630 0.72401 36 36 56
1.07653 -3.45131 0.73720 43 45 66
1.06152 -3.46144 0.72966 38 33 48
1.06418 -3.45386 0.74319 41 46 59
0.99077 -3.94965 0.81339 47 44 62
0.98241 -3.96499 0.81842 63 70 85
0.97737 -3.97196 0.83800 73 75 90
0.97171 -3.97400 0.82410 67 68 88
0.96162 -3.98472 0.82961 62 63 81
0.95534 -4.00614 0.83411 54 53 73
0.94745 -4.02324 0.83905 43 37 60
0.93099 -4.03435 0.83078 32 30 44
0.91410 -4.04731 0.85646 20 20 50
0.91917 -4.04030 0.83679 30 27 39
0.91002 -4.07600 0.86045 50 53 74
0.88651 -4.04728 0.86943 104 113 117
0.87014 -4.05833 0.86121 128 133 129
0.87527 -4.05468 0.87525 128 133 132
0.85891 -4.06573 0.86703 130 132 128
0.85091 -4.06362 0.88735 131 134 125
0.84764 -4.09555 0.89118 106 95 94
0.85052 -4.14721 0.89355 53 39 35
1.77750 -1.05992 0.22594 34 30 28
1.78364 -1.05476 0.22269 27 25 20
1.77314 -1.06596 0.22843 50 38 34
1.76374 -1.07230 0.22370 64 49 42
1.77109 -1.07316 0.22989 62 47 41
1.76168 -1.07951 0.22516 70 55 44
1.76009 -1.09247 0.23642 86 62 58
1.76299 -1.08844 0.22512 76 59 50
1.75530 -1.09837 0.23909 100 77 75
1.75328 -1.10571 0.24055 117 93 93
1.74855 -1.11167 0.24319 134 113 99
1.73908 -1.11807 0.23843 145 129 109
1.74401 -1.11775 0.24576 146 130 109
1.73453 -1.12415 0.24099 151 133 117
2.98232 -2.23764 -0.26278 31 24 40
2.98434 -2.25493 -0.26254 20 13 32
2.97932 -2.26187 -0.24305 15 13 21
2.97368 -2.26390 -0.25689 14 12 27
2.94842 -2.37787 -0.23711 26 11 35
2.95927 -2.36875 -0.24286 15 19 21
2.95353 -2.37081 -0.25695 35 30 12
2.94408 -2.39161 -0.23411 76 55 70
2.92498 -2.41179 -0.22369 122 45 62
2.91558 -2.42201 -0.21854 134 60 61
2.89788 -2.42619 -0.20988 137 110 122
2.88851 -2.43642 -0.20475 129 121 124
2.88317 -2.44964 -0.20131 75 65 109
2.86653 -2.46086 -0.20967 22 29 120
2.87528 -2.46102 -0.19680 26 28 124
2.85863 -2.47225 -0.20516 27 35 129
2.78957 -2.55322 -0.14993 42 41 109
2.77286 -2.56450 -0.15833 65 44 50
2.77930 -2.58092 -0.14317 74 50 51
2.77349 -2.58301 -0.15742 70 44 53
2.77253 -2.59355 -0.13910 82 57 55
2.76828 -2.60827 -0.13608 49 34 64
2.76362 -2.62273 -0.13288 26 12 69
2.75385 -2.63305 -0.12755 59 34 92
2.74297 -2.64246 -0.12176 124 92 168
2.73245 -2.65217 -0.11611 206 192 214
2.72373 -2.66340 -0.11122 240 214 198
2.71504 -2.67469 -0.10633 233 160 119
2.69814 -2.68609 -0.11482 220 179 142
2.70436 -2.68431 -0.10062 227 157 113
2.69373 -2.69397 -0.09493 159 153 182
2.66918 -2.69158 -0.08349 84 86 172
2.65947 -2.70198 -0.07818 65 76 173
2.64264 -2.71334 -0.08664 47 52 159
2.65191 -2.71427 -0.07376 55 57 165
2.63835 -2.72130 -0.06686 35 41 161
2.62372 -2.72736 -0.05953 97 79 177
2.63191 -2.75381 -0.06158 197 193 222
2.61620 -2.75893 -0.05380 185 164 184
2.60401 -2.76720 -0.04747 171 154 113
2.59319 -2.77671 -0.04170 153 135 70
2.58069 -2.78467 -0.03524 139 117 47
2.57701 -2.80080 -0.03239 136 112 43
2.56512 -2.82907 -0.02483 130 101 29
2.55925 -2.83118 -0.03926 125 92 47
2.55720 -2.84143 -0.02023 120 89 23
2.57713 -2.88039 -0.02698 70 47 47
2.67863 -3.17101 -0.05499 60 66 103
2.68428 -3.16319 -0.07694 41 48 110
2.67228 -3.17329 -0.07057 45 53 112
2.71137 -3.22682 -0.06663 84 92 102
2.75385 -3.29327 -0.08214 106 112 104
2.75814 -3.32097 -0.08227 132 132 112
2.73912 -3.33381 -0.09183 140 144 136
2.74360 -3.32925 -0.07482 140 139 119
2.73915 -3.34810 -0.07142 137 129 111
2.72523 -3.35706 -0.06423 139 128 115
2.70618 -3.36992 -0.07380 148 149 134
2.71577 -3.37074 -0.05881 151 148 139
2.69670 -3.38361 -0.06839 150 148 135
2.19078 -3.61729 0.20640 141 142 129
2.19646 -3.60943 0.18431 144 145 134
2.18439 -3.61959 0.19071 145 147 133
2.16855 -3.61348 0.21664 123 119 109
2.15016 -3.62589 0.20741 128 133 110
2.11122 -3.61397 0.24379 129 120 91
2.11684 -3.60620 0.22196 118 123 110
2.05532 -3.56171 0.26663 94 81 63
2.04365 -3.57167 0.27283 68 73 51
2.02180 -3.56698 0.28284 28 27 51
2.00698 -3.57225 0.29021 58 50 51
1.94037 -3.50189 0.31687 116 111 89
1.92292 -3.51366 0.30811 139 124 96
1.63264 -3.55879 0.46630 135 114 109
1.63781 -3.55163 0.44618 145 128 102
1.63962 -3.59881 0.46575 166 162 158
1.62266 -3.61025 0.45723 180 181 179
1.61744 -3.61747 0.47752 169 172 167
1.59719 -3.61074 0.48663 106 94 113
1.54003 -3.53862 0.50870 65 40 62
1.52353 -3.54976 0.50041 53 39 61
1.51139 -3.54413 0.52262 60 61 70
1.49258 -3.53864 0.53114 63 71 89
1.45000 -3.48958 0.54790 90 104 129
1.41958 -3.46192 0.56038 141 154 163
1.28549 -3.32185 0.61416 154 164 168
1.29015 -3.31539 0.59602 171 174 173
1.27033 -3.33208 0.60654 136 148 155
1.27557 -3.33019 0.61942 135 149 157
1.26041 -3.34042 0.61180 138 147 151
1.17657 -3.30090 0.66422 134 134 131
1.17947 -3.33454 0.66516 82 66 81
1.16885 -3.34099 0.67063 33 17 43
1.15394 -3.35105 0.66313 28 29 48
1.14864 -3.35594 0.68121 31 32 42
1.14307 -3.37289 0.68501 53 57 59
1.15819 -3.43367 0.68204 75 87 76
1.14451 -3.43404 0.68854 73 74 66
1.12648 -3.42491 0.69644 56 35 68
1.11634 -3.43258 0.70176 41 35 47
1.05205 -3.47048 0.73476 33 32 61
1.04195 -3.47809 0.74006 45 49 64
1.03288 -3.48809 0.74504 40 45 42
1.02306 -3.49635 0.75025 34 35 47
1.01786 -3.49822 0.73750 34 36 51
0.99832 -3.63039 0.77117 41 41 49
1.01369 -3.62002 0.77889 34 36 59
1.00837 -3.62194 0.76583 36 41 49
1.00364 -3.62848 0.78422 35 35 59
0.99359 -3.63694 0.78956 33 33 52
0.99937 -3.66654 0.77316 42 40 50
0.99461 -3.67314 0.79168 33 33 49
0.98925 -3.67506 0.77853 36 36 47
0.99307 -3.93539 0.79462 36 37 50
1.00374 -3.92641 0.78896 31 37 45
0.99809 -3.92844 0.77511 33 37 47
0.98777 -3.95889 0.79875 51 53 59
0.97140 -3.96994 0.79053 63 71 67
0.97708 -3.96794 0.80443 68 74 76
0.96682 -3.97819 0.80998 66 72 77
0.95969 -3.99717 0.81466 54 56 72
0.95241 -4.01593 0.81939 44 42 61
0.93595 -4.02703 0.81113 33 32 44
0.94391 -4.03143 0.82447 37 35 51
0.92743 -4.04255 0.81620 28 30 43
0.91248 -4.06127 0.84139 21 23 49
0.91756 -4.05425 0.82166 26 22 43
0.90230 -4.07212 0.84695 67 81 94
0.88422 -4.05942 0.85463 116 128 123
0.86781 -4.07049 0.84638 130 133 132
0.84929 -4.07808 0.87243 128 129 115
0.86608 -4.17269 0.87099 75 74 69
0.84936 -4.18397 0.86260 31 27 33
0.85562 -4.18338 0.87667 33 33 33
0.84477 -4.19285 0.88246 35 38 29
0.82805 -4.20413 0.87406 49 49 50
1.77691 -1.05424 0.21625 40 27 23
1.78629 -1.04791 0.22096 33 25 22
1.78304 -1.04908 0.21300 36 23 22
1.77227 -1.06013 0.21885 47 37 26
1.76289 -1.06646 0.21413 60 46 38
1.76612 -1.06529 0.22211 56 44 34
1.75674 -1.07162 0.21740 66 50 44
1.75193 -1.09117 0.23056 83 62 61
1.74835 -1.09767 0.23269 103 83 71
1.74473 -1.10418 0.23483 124 107 88
1.74089 -1.11059 0.23708 136 120 100
1.73143 -1.11697 0.23233 143 128 108
1.60860 -1.20073 0.30590 205 186 150
1.61799 -1.19439 0.31062 211 186 159
1.61474 -1.19556 0.30264 210 186 154
1.61149 -1.19673 0.29467 211 187 161
1.61185 -1.19956 0.31388 208 185 152
1.60535 -1.20190 0.29793 205 184 154
1.60475 -1.20727 0.30816 163 152 119
1.60186 -1.21127 0.31941 100 81 74
1.59860 -1.21244 0.31142 96 81 77
1.59535 -1.21361 0.30344 96 76 75
2.96454 -2.21584 -0.27235 48 51 57
2.97508 -2.20696 -0.27794 26 20 50
2.96950 -2.20897 -0.29164 23 16 42
2.95896 -2.21784 -0.28605 51 42 57
2.95270 -2.22387 -0.26619 54 57 51
2.93658 -2.23475 -0.27429 58 57 57
2.96894 -2.25050 -0.27217 35 23 46
2.97743 -2.27220 -0.27478 19 14 38
2.97240 -2.27916 -0.25523 13 11 27
2.96675 -2.28119 -0.26911 15 12 35
2.93088 -2.37161 -0.24613 76 21 27
2.93597 -2.36457 -0.26590 80 27 8
2.93147 -2.38880 -0.24528 108 43 47
2.91977 -2.39732 -0.23916 116 39 51
2.90582 -2.40420 -0.23207 120 80 96
2.89807 -2.41555 -0.22764 137 131 128
2.88150 -2.42674 -0.23597 73 60 87
2.89069 -2.42720 -0.22337 117 114 124
2.87930 -2.43594 -0.21738 87 74 89
2.86855 -2.44514 -0.21166 31 33 108
2.85196 -2.45634 -0.22000 19 35 125
2.78620 -2.53939 -0.16632 42 46 133
2.80287 -2.52814 -0.15794 34 45 141
2.79710 -2.53022 -0.17210 39 46 142
2.78084 -2.55297 -0.16288 50 42 80
2.76633 -2.59532 -0.15320 65 42 58
2.77150 -2.58817 -0.17330 66 42 53
2.75977 -2.60817 -0.14924 34 18 63
2.75266 -2.62062 -0.14504 43 13 55
2.74653 -2.63392 -0.14125 137 104 154
2.73668 -2.64418 -0.13590 208 181 191
2.72864 -2.65597 -0.13130 230 150 126
2.71818 -2.66576 -0.12569 238 141 109
2.70754 -2.67539 -0.11999 231 134 78
2.68794 -2.69612 -0.10931 138 125 175
2.66507 -2.69517 -0.09850 67 67 162
2.65188 -2.70253 -0.09174 58 72 171
2.62816 -2.71954 -0.07935 68 75 173
2.61465 -2.72655 -0.07246 92 77 183
2.60752 -2.73926 -0.06824 165 166 223
2.60182 -2.75332 -0.06461 138 142 208
2.59681 -2.76807 -0.06126 121 115 162
2.58586 -2.77745 -0.05543 129 122 108
2.57593 -2.78777 -0.05003 137 121 67
2.55903 -2.79917 -0.05852 137 121 55
2.57000 -2.80183 -0.04629 138 117 52
2.56351 -2.81542 -0.04231 126 96 54
2.55241 -2.84458 -0.03513 131 101 39
2.55952 -2.87137 -0.03675 85 62 39
2.55555 -2.88774 -0.03379 33 22 54
2.55027 -2.89504 -0.01327 17 21 76
2.54433 -2.89718 -0.02783 19 20 79
2.53840 -2.89931 -0.04240 19 18 80
2.65845 -3.18152 -0.06346 58 66 104
2.66410 -3.17371 -0.08540 40 48 118
2.65210 -3.18380 -0.07904 49 51 113
2.69378 -3.24043 -0.07640 90 95 97
2.74339 -3.31485 -0.09511 124 130 117
2.72379 -3.34125 -0.08406 142 139 123
2.71721 -3.34361 -0.10020 142 149 133
2.70478 -3.35407 -0.09360 149 147 125
2.15694 -3.60853 0.20304 134 136 117
2.15059 -3.61082 0.18745 135 132 118
2.13858 -3.62092 0.19382 127 126 109
2.10744 -3.61981 0.22732 137 126 97
2.11306 -3.61203 0.20547 121 129 111
2.06668 -3.58891 0.24468 108 97 68
2.04522 -3.58503 0.25463 71 76 46
2.02723 -3.59717 0.24559 28 23 32
2.02632 -3.58464 0.26359 27 27 39
2.00818 -3.58520 0.27225 60 54 54
1.96311 -3.54620 0.29113 117 112 93
1.94546 -3.55811 0.28226 137 124 98
1.65169 -3.60326 0.44297 134 115 101
1.65693 -3.59601 0.42261 146 128 99
1.64659 -3.62295 0.44669 168 167 161
1.62953 -3.63446 0.43812 180 181 175
1.62427 -3.64173 0.45853 164 167 167
1.60290 -3.63316 0.46813 105 96 114
1.53322 -3.53873 0.49507 66 39 62
1.50221 -3.53992 0.50990 57 53 68
1.49653 -3.54196 0.49595 53 47 60
1.48676 -3.54041 0.51728 58 57 76
1.47125 -3.54064 0.52467 52 57 91
1.41227 -3.46061 0.54747 107 120 141
1.40618 -3.47744 0.55147 161 171 171
1.40127 -3.48425 0.57058 174 174 168
1.39574 -3.48623 0.55701 173 176 171
1.39021 -3.48822 0.54344 174 176 175
1.29236 -3.34680 0.59703 154 162 168
1.29706 -3.34030 0.57876 172 174 175
1.27710 -3.35711 0.58936 135 148 156
1.18257 -3.29747 0.64600 144 151 151
1.19739 -3.28747 0.65345 145 149 151
1.19226 -3.28931 0.64086 143 149 151
1.18713 -3.29116 0.62827 140 149 148
1.17610 -3.31212 0.65004 126 128 132
1.19209 -3.37254 0.64640 60 50 80
1.17318 -3.36230 0.65472 32 18 42
1.15188 -3.37530 0.66570 37 36 54
1.15983 -3.42085 0.66491 61 73 79
1.15964 -3.44978 0.66690 87 99 93
1.15002 -3.45890 0.67207 88 91 94
1.13694 -3.46058 0.67840 74 63 83
1.11693 -3.44707 0.68703 59 57 69
1.10404 -3.44880 0.69327 44 38 59
1.09450 -3.45784 0.69840 40 40 53
1.08429 -3.46537 0.70375 44 45 56
1.07321 -3.47095 0.70939 46 46 58
1.06443 -3.48171 0.71427 56 57 66
1.06264 -3.50849 0.71688 72 84 85
1.04996 -3.51047 0.72303 84 87 70
1.03597 -3.50926 0.72961 49 50 36
1.02087 -3.51945 0.72203 29 32 46
1.00187 -3.62094 0.75315 38 48 52
1.01723 -3.61058 0.76086 33 38 58
1.01191 -3.61249 0.74782 36 40 52
1.00901 -3.67203 0.75310 61 74 67
0.99898 -3.68091 0.75846 58 57 63
0.99212 -3.69779 0.76283 41 38 52
0.98732 -3.70442 0.78146 29 33 45
0.98194 -3.70636 0.76823 30 33 44
0.98682 -3.93578 0.78095 41 39 57
0.97052 -3.94678 0.77276 53 66 63
0.98132 -3.95880 0.78508 56 63 60
0.96270 -3.98450 0.79562 58 62 63
0.95480 -4.00142 0.80049 45 44 57
0.93837 -4.01250 0.79224 29 30 44
0.94749 -4.02016 0.80519 36 35 48
0.93102 -4.03127 0.79692 27 29 40
0.91249 -4.08013 0.82577 32 39 53
0.89868 -4.08039 0.83235 86 103 103
0.88216 -4.09153 0.82405 129 134 134
0.88696 -4.08674 0.83834 126 134 128
0.87045 -4.09788 0.83005 130 132 134
0.86372 -4.09987 0.85025 132 136 130
0.85556 -4.11708 0.85526 112 115 104
0.87034 -4.20619 0.85408 58 51 48
0.84778 -4.22302 0.86591 39 40 42
0.84195 -4.22511 0.85161 48 50 49
0.81516 -4.29810 0.88635 84 82 67
0.83214 -4.28664 0.89488 64 64 51
0.82627 -4.28875 0.88045 72 71 61
0.82104 -4.29598 0.90077 76 76 61
0.80993 -4.30533 0.90667 85 84 66
0.80891 -4.32380 0.89100 94 89 75
0.80366 -4.33106 0.91140 89 90 71
0.79776 -4.33318 0.89692 96 93 79
0.79187 -4.33530 0.88244 94 97 87
1.77838 -1.04956 0.20567 41 25 29
1.78775 -1.04324 0.21038 35 22 23
1.78451 -1.04441 0.20242 33 22 24
1.77197 -1.05459 0.20905 48 32 31
1.76260 -1.06091 0.20434 60 44 40
1.76487 -1.05926 0.21274 54 40 32
1.75550 -1.06558 0.20804 65 48 42
1.74755 -1.08349 0.22253 79 59 57
1.75369 -1.07832 0.21927 71 54 48
1.74414 -1.09005 0.22457 88 68 70
1.73922 -1.09585 0.22729 108 91 77
1.73541 -1.10224 0.22951 125 108 87
1.73187 -1.10879 0.23161 135 120 99
1.72244 -1.11515 0.22687 142 127 108
1.58611 -1.19923 0.30696 163 147 121
1.58898 -1.19526 0.29579 205 185 160
1.57678 -1.20553 0.30227 96 74 75
2.95265 -2.22952 -0.28230 70 75 71
2.95763 -2.22264 -0.30162 52 39 55
2.96235 -2.26792 -0.28455 36 19 49
2.95597 -2.27977 -0.28075 20 12 39
2.95095 -2.28672 -0.26123 14 12 43
2.94530 -2.28875 -0.27509 14 12 38
2.92041 -2.37030 -0.25810 87 21 21
2.92549 -2.36327 -0.27785 61 19 9
2.91199 -2.38107 -0.25340 101 40 43
2.91317 -2.39876 -0.25286 108 93 95
2.90586 -2.41043 -0.24864 107 110 107
2.89262 -2.41782 -0.24185 96 83 115
2.87398 -2.43831 -0.23165 112 108 91
2.85261 -2.43964 -0.22135 40 49 136
2.83607 -2.45080 -0.22966 19 38 130
2.78374 -2.52633 -0.18301 40 44 132
2.80037 -2.51511 -0.17465 36 45 136
2.79462 -2.51718 -0.18878 40 44 136
2.78886 -2.51925 -0.20291 37 44 134
2.76711 -2.53756 -0.19136 36 27 85
2.77714 -2.53886 -0.17907 44 39 107
2.77313 -2.55351 -0.17624 61 44 53
2.76868 -2.56787 -0.17321 75 45 57
2.75983 -2.59685 -0.16717 50 34 62
2.75402 -2.59894 -0.18143 29 20 66
2.75294 -2.60944 -0.16309 26 11 75
2.74918 -2.62465 -0.16034 105 83 129
2.73942 -2.63497 -0.15503 206 195 180
2.73292 -2.64802 -0.15111 230 155 95
2.72524 -2.66013 -0.14668 231 120 68
2.71469 -2.66985 -0.14103 236 157 77
2.70331 -2.67887 -0.13502 233 178 124
2.69359 -2.68931 -0.12973 186 142 157
2.67210 -2.68959 -0.11943 100 64 164
2.65244 -2.69135 -0.10992 58 47 155
2.64091 -2.70012 -0.10386 58 61 165
2.63731 -2.71588 -0.10115 57 53 161
2.62447 -2.72353 -0.09454 97 79 173
2.61252 -2.73194 -0.08829 108 68 167
2.60593 -2.74517 -0.08432 130 94 188
2.60093 -2.75990 -0.08101 126 97 184
2.59208 -2.77119 -0.07607 93 73 161
2.57961 -2.77918 -0.06961 99 72 118
2.57091 -2.79064 -0.06473 124 104 72
2.55716 -2.81708 -0.05651 134 114 50
2.55130 -2.81919 -0.07090 144 121 42
2.54022 -2.82852 -0.06502 143 117 51
2.55065 -2.83073 -0.05254 133 110 54
2.54003 -2.84052 -0.04685 141 121 62
2.54024 -2.86071 -0.04570 103 84 45
2.55135 -2.89155 -0.04908 45 31 52
2.53418 -2.90313 -0.05770 23 17 72
2.55277 -2.93379 -0.04713 21 28 102
2.54744 -2.94116 -0.02643 28 34 114
2.55720 -2.95883 -0.04769 29 36 117
2.55185 -2.96623 -0.02688 34 39 114
2.54583 -2.96840 -0.04165 35 42 120
2.53981 -2.97056 -0.05642 37 45 125
2.64506 -3.19901 -0.07472 62 64 105
2.65071 -3.19119 -0.09670 46 48 120
2.63870 -3.20130 -0.09032 50 51 114
2.71153 -3.29087 -0.10078 87 95 120
2.09520 -3.61370 0.21412 129 127 99
2.10081 -3.60594 0.19232 128 132 111
2.08889 -3.61597 0.19864 121 118 102
2.08407 -3.62486 0.22013 127 120 79
2.04086 -3.58995 0.23862 81 80 46
2.00867 -3.59716 0.25447 63 58 57
1.97819 -3.57950 0.26794 118 113 95
1.96039 -3.59152 0.25900 136 125 99
1.66800 -3.64332 0.42027 138 121 100
1.67329 -3.63599 0.39970 146 126 95
1.65587 -3.65124 0.42656 169 172 165
1.63869 -3.66283 0.41793 180 180 175
1.63365 -3.67059 0.43840 161 166 171
1.61464 -3.66633 0.44722 118 120 130
1.52092 -3.52907 0.48348 77 61 77
1.50586 -3.53040 0.49077 57 46 60
1.48945 -3.54147 0.48252 58 48 59
1.47746 -3.53583 0.50469 55 47 55
1.47180 -3.53786 0.49080 57 49 52
1.46263 -3.53723 0.51187 39 36 62
1.40575 -3.48893 0.53606 159 170 170
1.38973 -3.49973 0.52801 176 175 177
1.18455 -3.31357 0.63090 140 150 146
1.18913 -3.30723 0.61309 140 148 146
1.17671 -3.32560 0.63540 116 119 121
1.18435 -3.36927 0.63447 42 37 70
1.16929 -3.37943 0.62691 25 26 55
1.17234 -3.37311 0.64046 27 22 48
1.16300 -3.38242 0.64550 27 30 46
1.15126 -3.38671 0.65139 41 42 66
1.16222 -3.43884 0.64940 73 83 96
1.14944 -3.47086 0.65751 95 101 108
1.13892 -3.47814 0.66299 87 81 96
1.13060 -3.49021 0.66772 89 97 87
1.12173 -3.50111 0.67265 88 84 89
1.11126 -3.50853 0.67811 84 79 87
1.09894 -3.51176 0.68421 88 91 93
1.08726 -3.51636 0.69008 94 99 99
1.07295 -3.51490 0.69683 90 100 91
1.05604 -3.50728 0.70445 77 85 60
1.04622 -3.51582 0.70968 59 52 56
1.03106 -3.52604 0.70206 34 32 36
1.03675 -3.52520 0.71479 37 32 29
1.02159 -3.53543 0.70717 29 32 44
1.00843 -3.58603 0.73213 30 34 47
1.02370 -3.57572 0.73980 34 37 50
1.01842 -3.57762 0.72683 29 35 46
1.01313 -3.57952 0.71385 25 30 41
1.01371 -3.58413 0.74510 30 39 53
1.00502 -3.61054 0.73529 46 48 56
1.01132 -3.65929 0.73532 66 77 78
1.00117 -3.66783 0.74070 76 83 79
0.99518 -3.68680 0.74475 62 63 67
0.98953 -3.70684 0.74870 44 40 56
0.98065 -3.71882 0.75370 32 34 45
0.97585 -3.72547 0.77238 30 33 39
0.97044 -3.72741 0.75912 29 34 40
0.96504 -3.72935 0.74585 35 39 48
0.97923 -3.89498 0.76537 35 41 49
0.99539 -3.88407 0.77349 34 36 47
0.98980 -3.88608 0.75976 32 38 41
0.96306 -3.90589 0.75725 51 56 64
0.98082 -3.93682 0.76722 46 51 67
0.96583 -3.97225 0.77659 50 58 61
0.95769 -3.98839 0.78150 44 41 59
0.94129 -3.99946 0.77326 32 28 48
0.94819 -4.00087 0.78682 36 33 51
0.93178 -4.01195 0.77857 27 28 45
0.90597 -4.03908 0.80939 21 23 48
0.91671 -4.03004 0.80369 27 29 42
0.91103 -4.03209 0.78975 27 30 46
0.89413 -4.04486 0.81541 55 64 79
0.87772 -4.05593 0.80717 121 127 129
0.90010 -4.10378 0.81623 107 119 122
0.88350 -4.11499 0.80789 130 133 130
0.86321 -4.11793 0.83476 131 134 124
0.86831 -4.11088 0.81495 128 133 130
0.87542 -4.19868 0.83396 91 91 84
0.87033 -4.22659 0.83813 48 41 36
0.85342 -4.23800 0.82964 48 46 46
0.85816 -4.23235 0.84431 41 37 34
0.84612 -4.28358 0.85327 58 63 56
0.84088 -4.29083 0.87364 59 55 60
0.83498 -4.29295 0.85918 70 74 66
0.82963 -4.32149 0.86352 82 83 74
0.81314 -4.31313 0.87088 93 91 81
0.79611 -4.32463 0.86233 108 103 97
0.80348 -4.32749 0.87640 99 96 85
0.78642 -4.33899 0.86784 103 100 95
1.78047 -1.04519 0.19482 36 29 27
1.78984 -1.03887 0.19953 30 22 23
1.78660 -1.04004 0.19157 28 24 19
1.77110 -1.05151 0.19011 52 39 37
1.77442 -1.05038 0.19804 47 33 34
1.76505 -1.05670 0.19333 57 43 41
1.76744 -1.05512 0.20167 54 38 38
1.75808 -1.06144 0.19697 62 47 44
1.74750 -1.06980 0.21213 72 52 50
1.74197 -1.07525 0.21511 79 57 60
1.73782 -1.08139 0.21747 88 70 65
1.73221 -1.09511 0.22098 113 97 80
1.72281 -1.10145 0.21626 123 107 96
1.72737 -1.10095 0.22366 124 107 89
1.71797 -1.10730 0.21893 132 118 103
1.72332 -1.10721 0.22598 134 119 97
1.71391 -1.11357 0.22125 141 125 110
2.93763 -2.22529 -0.29185 81 79 82
2.94259 -2.21843 -0.31112 48 41 54
2.92810 -2.23482 -0.28670 75 72 70
2.91835 -2.24421 -0.28146 57 54 58
2.93837 -2.27372 -0.28934 38 22 46
2.93322 -2.28640 -0.28611 23 13 33
2.92820 -2.29333 -0.26663 18 12 39
2.92257 -2.29536 -0.28046 27 11 26
2.91693 -2.29739 -0.29429 41 11 20
2.90848 -2.36795 -0.26939 53 24 22
2.90271 -2.38058 -0.26586 78 67 58
2.89197 -2.38970 -0.26016 79 74 90
2.88266 -2.39985 -0.25508 65 54 86
2.87388 -2.41040 -0.25024 60 53 96
2.87118 -2.42544 -0.24805 113 106 121
2.84636 -2.42420 -0.23619 140 154 149
2.83516 -2.43296 -0.23028 38 35 129
2.77359 -2.52495 -0.19522 35 42 124
2.77870 -2.51787 -0.21510 34 45 135
2.76540 -2.55402 -0.18956 95 86 22
2.75977 -2.56744 -0.18606 102 79 36
2.75845 -2.58441 -0.18443 64 44 57
2.74277 -2.60796 -0.17549 57 38 70
2.74917 -2.63155 -0.17717 164 133 136
2.73362 -2.63709 -0.16937 226 168 128
2.72835 -2.65118 -0.16599 234 135 61
2.71763 -2.66074 -0.16027 240 139 92
2.69830 -2.66300 -0.15084 236 216 169
2.69311 -2.67725 -0.14751 229 209 206
2.68039 -2.68509 -0.14092 223 197 213
2.67132 -2.69607 -0.13591 202 183 210
2.66279 -2.70754 -0.13113 176 147 183
2.64703 -2.71269 -0.12325 174 136 165
2.62311 -2.71057 -0.11187 183 148 175
2.59559 -2.70508 -0.09895 207 185 202
2.57888 -2.71635 -0.10735 241 217 217
2.59023 -2.71926 -0.09554 192 157 184
2.59076 -2.73883 -0.09463 153 124 202
2.59076 -2.75807 -0.09350 117 88 189
2.57945 -2.76708 -0.08752 101 86 184
2.56239 -2.77079 -0.07910 152 143 179
2.55834 -2.78650 -0.07622 155 129 118
2.55758 -2.80538 -0.07474 143 117 53
2.53108 -2.83969 -0.05996 145 120 56
2.52661 -2.85539 -0.05688 125 100 42
2.55024 -2.89836 -0.06571 63 42 42
2.53305 -2.90996 -0.07434 31 20 74
2.54462 -2.93383 -0.06091 23 27 101
2.54594 -2.95581 -0.06024 30 38 119
2.52858 -2.96752 -0.06896 40 46 132
2.64793 -3.23360 -0.09285 58 63 117
2.65363 -3.22572 -0.11498 47 51 118
2.64153 -3.23590 -0.10856 50 53 109
2.69080 -3.30158 -0.10944 82 95 129
2.70207 -3.33691 -0.11277 121 129 138
2.68647 -3.34393 -0.10485 148 146 136
2.67409 -3.35436 -0.09828 148 148 133
2.06887 -3.61440 0.20818 136 128 87
2.02676 -3.58084 0.22645 98 91 53
2.03625 -3.62153 0.22429 39 25 28
2.00598 -3.60454 0.23784 72 62 54
1.98319 -3.59816 0.24843 121 115 95
1.96530 -3.61023 0.23944 138 124 97
1.67785 -3.67255 0.39967 141 128 107
1.68318 -3.66517 0.37896 145 125 94
1.65696 -3.66553 0.40931 171 176 168
1.63972 -3.67717 0.40065 179 179 171
1.63354 -3.68298 0.42160 158 165 175
1.60744 -3.66621 0.43316 126 139 150
1.53989 -3.57510 0.46026 98 97 110
1.49813 -3.52875 0.47760 72 55 67
1.45520 -3.53598 0.49867 47 44 60
1.46022 -3.52904 0.47917 57 41 62
1.40699 -3.47526 0.51826 105 117 125
1.39814 -3.48705 0.52322 163 172 170
1.38214 -3.49785 0.51518 176 174 176
1.18937 -3.33552 0.61465 139 146 141
1.19398 -3.32914 0.59673 144 148 147
1.18161 -3.34787 0.61912 109 106 106
1.18378 -3.38065 0.62001 34 26 57
1.16868 -3.39084 0.61243 23 27 57
1.16240 -3.39387 0.63108 29 29 55
1.15283 -3.40280 0.63621 52 55 80
1.16117 -3.44966 0.63497 83 95 107
1.15515 -3.46651 0.63886 98 106 104
1.14602 -3.47679 0.64386 102 107 106
1.13591 -3.48498 0.64921 91 90 99
1.12060 -3.49531 0.64153 97 99 100
1.12741 -3.49671 0.65399 96 101 93
1.11761 -3.50563 0.65923 105 114 111
1.10629 -3.51115 0.66500 112 119 116
1.09429 -3.51509 0.67101 106 115 110
1.08307 -3.52073 0.67674 100 101 106
1.07011 -3.52234 0.68307 68 71 69
1.05486 -3.53262 0.67541 36 36 52
1.05984 -3.53005 0.68846 48 47 51
1.04460 -3.54033 0.68080 34 37 47
1.04830 -3.53475 0.69429 37 33 47
1.03307 -3.54503 0.68664 34 36 45
1.00794 -3.59962 0.71754 31 27 49
1.01266 -3.59310 0.69920 32 30 34
1.00456 -3.62435 0.72063 55 57 67
0.98916 -3.63473 0.71290 83 90 93
1.00404 -3.65650 0.72278 77 87 93
0.99441 -3.66627 0.72799 77 84 83
0.98925 -3.68736 0.73172 61 62 73
0.98401 -3.70847 0.73549 49 50 63
0.96841 -3.71899 0.72766 40 41 52
0.97631 -3.72348 0.74008 40 46 60
0.96068 -3.73403 0.73223 38 37 39
0.96600 -3.83951 0.75191 35 41 47
0.98197 -3.82874 0.75993 33 36 46
0.97644 -3.83073 0.74637 37 36 49
0.96048 -3.84150 0.73835 49 47 62
0.95004 -3.85028 0.74389 46 47 58
0.96805 -3.88196 0.75343 40 49 55
0.96553 -3.95060 0.75871 49 50 60
0.94922 -3.96161 0.75052 30 28 56
0.94608 -3.97381 0.76944 34 30 54
0.92975 -3.98483 0.76123 32 30 53
0.89058 -4.01256 0.79842 25 27 57
0.89560 -4.00561 0.77891 28 24 51
0.87427 -4.02356 0.79023 92 106 113
