ply
format ascii 1.0
element face 0
property list uchar int vertex_indices
element vertex 1330
property float x
property float y
property float z
property uchar diffuse_red
property uchar diffuse_green
property uchar diffuse_blue
end_header
2.31878 -2.94877 -0.31794 112 102 32
2.32801 -2.93813 -0.32510 144 90 57
2.32066 -2.94101 -0.33885 119 93 45
2.31231 -2.96194 -0.31228 64 91 47
2.29978 -2.96953 -0.30332 43 54 54
2.31015 -2.99843 -0.30675 29 26 48
2.29347 -3.01204 -0.31338 21 20 20
2.32233 -3.02929 -0.31113 22 15 31
2.30554 -3.04299 -0.31781 24 23 29
2.29886 -3.08587 -0.28957 47 47 51
2.29934 -3.10630 -0.28757 68 68 67
2.29593 -3.12306 -0.28347 98 90 92
2.27897 -3.13691 -0.29022 121 118 110
2.29280 -3.14018 -0.27952 117 114 112
2.27580 -3.15405 -0.28628 121 119 112
2.28717 -3.15489 -0.27421 117 112 110
2.27014 -3.16879 -0.28098 123 122 115
2.27996 -3.16809 -0.26807 125 124 120
2.26293 -3.18200 -0.27484 127 126 114
1.87885 -3.53100 0.03198 143 149 136
1.88075 -3.52314 0.01082 136 143 134
1.87142 -3.53391 0.01806 144 151 136
1.86209 -3.54468 0.02531 153 157 140
1.83244 -3.56196 0.06545 152 154 139
1.81573 -3.57560 0.05881 142 141 128
1.81794 -3.56572 0.07523 140 141 135
1.80127 -3.57933 0.06861 145 142 131
1.66527 -3.68198 0.18697 132 133 138
1.68178 -3.66851 0.19353 142 147 133
1.67259 -3.67911 0.20067 144 148 140
1.65795 -3.68485 0.17327 128 125 135
1.66340 -3.68972 0.20781 150 149 140
1.66408 -3.70452 0.19029 136 141 140
1.66220 -3.71228 0.21119 149 147 136
1.65486 -3.71516 0.19745 147 150 139
1.27714 -3.59384 0.42761 131 135 129
1.22875 -3.55778 0.45478 30 22 38
1.21392 -3.56988 0.44888 28 33 50
1.05092 -3.54572 0.56824 47 54 74
1.05885 -3.53657 0.56208 41 47 62
1.05254 -3.53905 0.55026 30 35 50
1.04453 -3.55788 0.57374 58 61 77
1.03046 -3.55505 0.58250 59 67 84
1.02822 -3.57535 0.58625 54 63 75
1.02082 -3.58558 0.59218 56 70 75
1.00968 -3.58834 0.59969 59 64 85
0.99911 -3.59216 0.60695 58 72 80
0.99241 -3.60375 0.61258 56 66 75
0.99080 -3.61041 0.63053 66 71 78
0.98679 -3.61759 0.61778 54 64 73
0.98518 -3.62427 0.63575 62 69 81
0.98074 -3.63061 0.62316 51 61 75
0.97913 -3.63729 0.64115 53 60 72
0.96648 -3.64225 0.61749 35 37 62
0.97535 -3.64507 0.62827 45 50 70
0.97374 -3.65176 0.64629 51 63 73
0.96107 -3.65673 0.62259 34 34 55
0.96845 -3.68238 0.63695 42 47 68
0.96208 -3.68488 0.62503 36 31 53
0.95409 -3.69410 0.63124 37 29 49
0.95937 -3.68930 0.64360 40 42 57
0.95327 -3.70257 0.64903 32 39 58
0.94670 -3.71487 0.65467 29 35 59
0.91329 -3.77590 0.68314 26 26 48
0.92774 -3.76411 0.68888 31 29 50
0.92133 -3.76662 0.67690 27 27 55
0.91970 -3.77339 0.69512 28 29 50
0.91166 -3.78266 0.70137 25 29 50
0.89885 -3.78769 0.67740 59 64 66
0.90145 -3.77658 0.69087 26 25 46
0.89981 -3.78333 0.70905 23 27 51
0.89343 -3.78583 0.69710 28 27 47
0.85264 -3.88747 0.73493 50 47 71
0.84618 -3.89000 0.72286 86 95 104
0.84641 -3.90136 0.74052 73 79 86
0.84325 -3.95217 0.74831 115 123 113
0.83673 -3.95473 0.73612 125 132 132
0.82855 -3.96417 0.74247 125 131 130
0.82871 -3.94586 0.75699 125 132 124
0.81407 -3.95780 0.75117 123 128 126
0.88917 -4.28656 0.75648 58 45 58
0.88220 -4.28929 0.74343 49 35 51
0.87419 -4.28035 0.76546 39 27 30
0.86471 -4.28843 0.77249 42 38 44
0.85150 -4.28652 0.78080 62 58 62
0.84327 -4.29779 0.78739 80 81 71
0.82764 -4.31054 0.78118 97 102 94
0.83226 -4.30157 0.79493 91 93 76
0.81666 -4.31430 0.78873 99 104 87
0.82424 -4.31341 0.80144 96 95 82
0.80864 -4.32615 0.79524 100 103 87
1.33736 -1.00280 0.08617 153 156 152
1.32755 -1.01330 0.09369 187 186 192
1.31921 -1.02010 0.09038 198 198 198
1.31989 -1.03192 0.10072 207 207 209
1.31152 -1.03875 0.09739 217 217 218
1.25836 -1.07156 0.14503 232 232 226
1.25929 -1.06769 0.13458 230 230 228
1.25469 -1.07300 0.13816 245 240 237
1.24978 -1.07511 0.15098 240 236 237
1.23999 -1.07807 0.15767 227 210 206
1.23906 -1.08502 0.15904 197 176 159
1.23080 -1.09176 0.15576 120 97 97
1.26735 -1.10539 0.14291 137 114 105
1.25895 -1.11225 0.13957 91 74 67
1.94198 -1.66160 -0.23384 16 11 26
1.95395 -1.65183 -0.22908 14 10 16
1.94864 -1.65391 -0.23901 14 8 16
1.94333 -1.65599 -0.24894 14 8 16
1.93667 -1.66368 -0.24377 13 9 19
1.94062 -1.66720 -0.21873 27 26 45
1.94946 -1.67717 -0.23699 23 21 36
1.94810 -1.68280 -0.22180 34 30 42
1.94276 -1.68490 -0.23178 31 27 37
1.93743 -1.68699 -0.24177 29 26 27
2.81142 -2.36189 -0.72121 29 18 16
2.81330 -2.35414 -0.74207 43 31 22
2.79489 -2.37538 -0.72778 16 10 7
2.58322 -2.45911 -0.56235 34 24 75
2.58140 -2.46665 -0.54205 31 19 70
2.57427 -2.46945 -0.55540 33 25 79
2.56713 -2.47224 -0.56875 21 17 66
2.54278 -2.51388 -0.53007 60 37 22
2.54461 -2.50633 -0.55040 37 28 36
2.53564 -2.51668 -0.54344 46 32 31
2.52667 -2.52703 -0.53648 54 35 24
2.54257 -2.53053 -0.52810 72 49 20
2.52641 -2.54371 -0.53452 52 30 26
2.50740 -2.55563 -0.50251 84 70 68
2.50923 -2.54809 -0.52284 44 22 27
2.50026 -2.55844 -0.51588 50 31 31
2.49129 -2.56878 -0.50891 71 49 36
2.47060 -2.56226 -0.47788 141 115 77
2.46117 -2.57217 -0.47067 147 123 84
2.42952 -2.56524 -0.45089 134 116 91
2.41362 -2.57822 -0.45721 151 133 119
2.40963 -2.56704 -0.43778 170 146 97
2.39114 -2.58673 -0.42361 144 108 30
2.38232 -2.59690 -0.41676 130 98 28
2.33541 -2.62826 -0.38285 119 89 59
2.33720 -2.62087 -0.40276 115 87 66
2.31963 -2.64113 -0.38913 68 56 88
2.32596 -2.65512 -0.37376 110 99 136
2.29341 -2.64584 -0.35365 154 142 201
2.27451 -2.66481 -0.33929 194 149 197
2.26756 -2.66754 -0.35231 202 176 233
2.25882 -2.67762 -0.34553 190 163 211
2.28537 -2.69127 -0.34343 169 129 182
2.26958 -2.70416 -0.34971 179 159 203
2.24806 -2.67740 -0.32074 143 117 178
2.23242 -2.69016 -0.32695 158 150 210
2.25953 -2.70455 -0.32519 133 127 194
2.26999 -2.73108 -0.32906 161 159 215
2.25990 -2.74017 -0.32151 198 192 229
2.25429 -2.75313 -0.31644 198 193 214
2.25264 -2.76958 -0.31357 138 138 162
2.27614 -2.80819 -0.32457 46 63 135
2.26006 -2.82131 -0.33096 39 48 143
2.30008 -2.88473 -0.33169 100 77 120
2.30919 -2.87422 -0.33876 60 63 150
2.30734 -2.88188 -0.31812 73 72 145
2.29823 -2.89239 -0.31105 107 66 98
2.29098 -2.89523 -0.32462 128 77 64
2.28373 -2.89807 -0.33819 113 85 36
2.31890 -2.95849 -0.33579 78 94 48
2.32079 -2.95071 -0.35674 89 98 43
2.29329 -2.95406 -0.31965 40 58 68
2.29960 -2.97907 -0.32099 27 25 56
2.28299 -2.99262 -0.32759 18 17 25
2.30433 -3.00280 -0.32145 21 18 32
2.28764 -3.01642 -0.32808 23 23 24
2.30398 -3.06122 -0.31479 31 21 37
2.29633 -3.07370 -0.30845 50 42 50
2.30194 -3.09903 -0.30930 68 75 64
2.29934 -3.11656 -0.30569 102 103 76
2.28826 -3.12586 -0.29747 113 110 102
2.27130 -3.13971 -0.30421 119 120 111
1.83030 -3.54878 0.04640 154 157 144
1.81362 -3.56240 0.03976 141 139 129
1.81827 -3.55582 0.05498 142 142 134
1.80161 -3.56942 0.04836 140 137 122
1.63941 -3.63332 0.17963 142 139 130
1.65573 -3.62000 0.18612 149 151 145
1.64849 -3.62284 0.17258 147 146 143
1.62309 -3.64664 0.17314 137 133 131
1.64419 -3.68863 0.18262 132 138 137
1.63688 -3.69149 0.16894 133 134 128
1.28618 -3.59941 0.40522 137 146 146
1.30131 -3.58706 0.41124 138 144 147
1.29460 -3.58969 0.39868 138 144 146
1.28789 -3.59232 0.38612 140 145 142
1.27624 -3.60650 0.41245 122 125 120
1.04957 -3.55782 0.55425 34 39 59
1.05119 -3.55113 0.53621 31 35 55
1.04324 -3.56031 0.54239 33 35 56
1.03528 -3.56949 0.54857 33 35 53
1.04207 -3.56789 0.56023 35 40 58
1.02778 -3.57956 0.55454 33 35 58
1.03257 -3.57403 0.56707 40 44 65
1.01828 -3.58569 0.56139 27 32 54
1.02370 -3.58140 0.57364 37 42 58
1.00943 -3.59305 0.56796 32 32 57
1.01091 -3.58090 0.58189 41 45 65
0.99667 -3.59252 0.57623 37 30 59
1.00349 -3.59107 0.58782 43 42 72
0.98926 -3.60269 0.58216 35 31 57
0.99306 -3.59513 0.59505 42 47 66
0.98550 -3.60500 0.60103 38 45 63
0.98092 -3.62097 0.60577 33 46 57
0.97571 -3.63577 0.61078 34 43 62
0.94916 -3.70993 0.63618 33 30 51
0.93474 -3.73189 0.64796 32 36 48
0.92246 -3.73179 0.65592 32 37 45
0.91628 -3.74502 0.66139 37 41 56
0.91169 -3.76189 0.66623 42 48 67
0.90144 -3.76615 0.67335 47 56 66
0.92854 -3.88317 0.66863 70 72 70
0.92687 -3.89010 0.68730 33 29 47
0.87557 -3.87394 0.70201 66 74 84
0.87723 -3.86710 0.68358 76 81 88
0.86910 -3.87648 0.68989 77 82 87
0.86097 -3.88585 0.69620 72 75 90
0.85826 -3.86151 0.71188 72 81 91
0.84375 -3.87335 0.70611 63 64 93
0.85141 -3.87378 0.71767 68 80 93
0.83689 -3.88564 0.71190 85 87 108
0.85026 -3.92896 0.72450 111 119 113
0.83559 -3.94094 0.71866 119 126 126
0.83818 -3.92879 0.73232 121 129 122
0.82355 -3.94073 0.72650 121 128 131
0.89456 -4.28852 0.73532 74 61 78
0.91033 -4.27565 0.74159 118 123 122
0.90333 -4.27840 0.72850 110 113 112
0.89634 -4.28114 0.71542 95 99 91
0.87293 -4.29807 0.75041 63 60 60
0.86161 -4.30136 0.75812 80 78 71
0.85151 -4.30780 0.76539 89 85 80
0.83582 -4.32060 0.75915 104 98 97
0.84006 -4.31055 0.77312 96 96 92
0.82440 -4.32333 0.76690 98 98 94
1.32100 -0.99928 0.08698 166 169 167
1.31761 -1.00508 0.08982 183 185 189
1.30932 -1.01185 0.08652 196 195 200
1.31510 -1.01125 0.09211 192 193 196
1.31204 -1.02443 0.09552 205 204 206
1.30371 -1.03122 0.09221 216 216 217
1.24285 -1.07508 0.14611 238 225 220
1.22854 -1.07598 0.15554 224 202 186
1.23258 -1.08517 0.15389 185 163 151
1.22434 -1.09190 0.15061 102 78 88
1.94761 -1.68120 -0.24904 19 17 25
1.94897 -1.67556 -0.26424 12 8 16
2.80480 -2.36520 -0.73534 31 22 14
2.80668 -2.35746 -0.75621 44 33 23
2.57706 -2.46258 -0.57627 19 14 52
2.56097 -2.47572 -0.58266 8 7 32
2.45600 -2.55943 -0.48688 87 66 42
2.45781 -2.55195 -0.50704 58 40 18
2.45591 -2.57634 -0.48501 103 84 46
2.42668 -2.57121 -0.46648 88 60 56
2.40201 -2.58631 -0.44876 194 188 143
2.35835 -2.56949 -0.42206 183 164 80
2.35766 -2.58587 -0.41986 150 125 59
2.35318 -2.59936 -0.41550 111 81 69
2.34022 -2.60617 -0.40631 107 81 64
2.32909 -2.63154 -0.39632 106 80 74
2.32209 -2.63428 -0.40942 79 65 99
2.31331 -2.64442 -0.40260 61 61 116
2.30849 -2.66668 -0.37912 72 63 176
2.29276 -2.67109 -0.36838 150 136 226
2.27698 -2.68397 -0.37465 157 151 221
2.26538 -2.73591 -0.34357 155 158 219
2.24952 -2.74886 -0.34988 167 174 218
2.25468 -2.74448 -0.33567 176 178 227
2.24881 -2.75723 -0.33047 172 169 212
2.25325 -2.77904 -0.33103 126 125 159
2.26974 -2.81163 -0.33831 43 57 135
2.25366 -2.82475 -0.34470 46 48 126
2.30042 -2.95116 -0.34341 54 73 58
2.29201 -2.96253 -0.33670 25 30 65
2.27545 -2.97604 -0.34328 14 12 29
2.29217 -2.98189 -0.33473 17 15 45
2.27556 -2.99545 -0.34133 19 18 23
2.29175 -3.03988 -0.32825 31 25 37
2.29498 -3.06268 -0.32792 38 30 52
2.29464 -3.08220 -0.32560 76 73 63
2.31115 -3.11822 -0.33253 95 102 87
2.29836 -3.12592 -0.32335 115 120 93
2.28135 -3.13980 -0.33012 129 125 121
2.28316 -3.13120 -0.31287 123 118 110
2.26618 -3.14506 -0.31962 117 116 110
1.77709 -3.55935 0.06328 150 148 135
1.77897 -3.55159 0.04238 134 133 132
1.76787 -3.56998 0.07044 158 158 141
1.63220 -3.61235 0.16353 154 150 147
1.64845 -3.59908 0.16999 150 144 138
1.64125 -3.60191 0.15651 154 148 139
1.63404 -3.60474 0.14302 154 153 149
1.62499 -3.61517 0.15004 159 159 154
1.62485 -3.62530 0.16971 146 138 128
1.28674 -3.61463 0.38926 137 144 139
1.28846 -3.60752 0.37010 138 145 141
1.27645 -3.62119 0.39668 110 108 102
0.97689 -3.60274 0.59024 34 33 56
0.97268 -3.61949 0.59478 33 39 50
0.96780 -3.63496 0.59962 35 39 57
0.96311 -3.65092 0.60439 40 41 58
0.95701 -3.66400 0.60977 44 47 56
0.95560 -3.68714 0.61317 47 55 67
0.95282 -3.70753 0.61716 53 60 71
0.94531 -3.71788 0.62318 63 66 77
0.93089 -3.72964 0.61745 105 108 106
0.94597 -3.74604 0.62576 72 74 86
0.93148 -3.75786 0.62000 103 108 104
0.94164 -3.76353 0.63046 80 85 87
0.92711 -3.77539 0.62468 99 104 103
0.93411 -3.77408 0.63650 84 91 86
0.91958 -3.78594 0.63072 99 101 101
0.92732 -3.78631 0.64224 89 97 93
0.92485 -3.80825 0.64620 94 104 99
0.91687 -3.81796 0.65245 98 108 96
0.91608 -3.84404 0.65575 103 108 88
0.90996 -3.85814 0.66126 105 105 89
0.88696 -4.28970 0.72246 63 57 62
0.88875 -4.28232 0.70257 93 95 84
0.87684 -4.29628 0.72977 64 58 58
0.87155 -4.31560 0.73529 89 84 71
0.85576 -4.32849 0.72902 111 107 96
0.85985 -4.31799 0.74318 101 93 83
0.84410 -4.33085 0.73692 110 105 96
0.84806 -4.31996 0.75109 104 96 90
0.83233 -4.33280 0.74484 109 103 98
1.31309 -0.99905 0.08272 179 181 184
1.30203 -1.02329 0.09249 209 209 210
1.29373 -1.03007 0.08919 221 220 220
1.25340 -1.06814 0.12907 240 241 242
1.26167 -1.06139 0.13236 208 201 200
1.25800 -1.06283 0.12550 224 222 213
1.24974 -1.06958 0.12221 246 242 242
1.24524 -1.07186 0.13482 243 240 240
1.23356 -1.07398 0.14270 232 216 209
1.22098 -1.07563 0.15112 224 200 177
1.24048 -1.09189 0.14002 170 147 141
1.23219 -1.09866 0.13672 95 75 78
1.94519 -1.68494 -0.26078 16 13 20
1.94656 -1.67929 -0.27601 12 9 15
1.93984 -1.68704 -0.27079 15 10 18
1.95470 -1.70186 -0.26527 25 23 25
1.95332 -1.70755 -0.24995 37 28 35
1.94794 -1.70966 -0.26002 35 30 26
1.94256 -1.71177 -0.27009 34 27 22
2.79944 -2.36930 -0.75023 34 26 16
2.80132 -2.36155 -0.77111 47 35 24
2.79158 -2.38077 -0.74388 18 13 11
2.78970 -2.38852 -0.72299 6 7 3
2.78236 -2.39140 -0.73672 7 7 7
2.77502 -2.39428 -0.75046 8 8 11
2.41703 -2.53826 -0.48170 62 43 20
2.41882 -2.53086 -0.50166 37 25 19
2.41724 -2.55524 -0.48008 62 40 21
2.40138 -2.56819 -0.48638 37 18 27
2.40215 -2.57759 -0.46785 93 67 66
2.37272 -2.57187 -0.44913 129 112 92
2.36284 -2.58114 -0.44169 136 114 74
2.35893 -2.59508 -0.43767 114 89 67
2.33302 -2.59170 -0.42102 85 58 66
2.31868 -2.59732 -0.41102 86 67 65
2.30140 -2.66936 -0.39219 37 46 151
2.30319 -2.66195 -0.41214 45 57 133
2.28433 -2.67265 -0.38065 95 92 194
2.25707 -2.71985 -0.35785 162 143 211
2.26587 -2.70970 -0.36468 175 161 214
2.25124 -2.73256 -0.35270 157 150 213
2.24299 -2.76105 -0.34432 155 157 200
2.25157 -2.78654 -0.34730 116 113 157
2.27495 -2.82534 -0.35861 38 45 133
2.27893 -2.92201 -0.35118 71 89 56
2.28807 -2.91146 -0.35827 96 101 30
2.27240 -2.93496 -0.34554 30 43 66
2.27601 -2.95736 -0.34558 15 15 49
2.25950 -2.97083 -0.35214 14 13 23
2.28137 -3.02039 -0.34255 30 25 30
2.28363 -3.04214 -0.34177 40 33 49
2.29243 -3.07033 -0.34461 50 53 65
2.30233 -3.09983 -0.34804 100 100 88
2.30007 -3.11774 -0.34470 114 121 108
2.28306 -3.13163 -0.35146 123 124 120
2.28547 -3.12363 -0.33451 120 122 111
2.26849 -3.13749 -0.34126 129 132 129
1.61033 -3.61727 0.15988 149 150 138
1.60314 -3.62009 0.14643 144 147 134
1.61088 -3.64202 0.16210 140 136 135
1.60181 -3.65248 0.16913 132 134 127
1.59460 -3.65531 0.15562 131 133 129
1.28542 -3.62670 0.37408 133 139 133
1.28715 -3.61957 0.35486 133 143 145
1.27569 -3.63429 0.38126 94 85 85
1.24062 -3.59716 0.40041 35 20 40
1.04434 -3.57732 0.52716 38 32 59
1.05233 -3.56810 0.52096 31 31 58
1.03773 -3.58927 0.53274 41 35 59
1.02973 -3.59849 0.53895 39 42 60
1.00983 -3.58394 0.55049 35 44 63
0.99580 -3.58085 0.55938 41 50 70
0.98842 -3.59106 0.56528 49 54 74
0.97810 -3.59528 0.57250 52 61 76
0.97838 -3.62125 0.57501 61 66 81
0.98018 -3.65061 0.57688 69 77 79
0.96583 -3.66232 0.57117 102 109 103
0.97766 -3.67125 0.58068 77 83 88
0.96326 -3.68300 0.57496 101 108 105
0.97142 -3.68423 0.58613 85 89 94
0.95700 -3.69600 0.58040 99 106 106
0.96788 -3.70300 0.59040 88 98 95
0.96525 -3.72386 0.59430 91 105 102
0.96108 -3.74157 0.59888 96 106 98
0.94654 -3.75344 0.59310 95 96 94
0.95279 -3.75048 0.60524 103 108 98
0.93825 -3.76234 0.59947 93 92 92
0.92115 -3.81705 0.63293 99 101 95
0.92281 -3.81020 0.61448 87 87 90
0.91467 -3.81959 0.62080 89 87 85
0.90653 -3.82898 0.62711 90 88 79
0.91225 -3.82470 0.63956 97 98 84
0.91494 -3.85885 0.64135 94 93 80
0.90481 -3.86382 0.64851 92 89 79
0.88455 -4.30442 0.70762 82 78 70
0.87469 -4.31180 0.71486 86 86 78
0.85889 -4.32469 0.70857 113 108 101
0.86577 -4.32161 0.72173 102 103 93
0.84997 -4.33450 0.71545 114 107 101
1.32113 -0.98375 0.06645 139 137 138
1.32938 -0.97700 0.06973 137 137 133
1.32572 -0.97844 0.06288 136 135 133
1.32206 -0.97988 0.05602 136 134 133
1.30896 -0.99319 0.07542 175 174 182
1.30233 -1.00480 0.08097 194 195 199
1.24378 -1.05962 0.12513 236 235 235
1.25201 -1.05291 0.12840 211 207 203
1.24471 -1.05577 0.11476 239 241 243
1.23190 -1.06897 0.13391 241 235 231
1.21858 -1.07029 0.14283 233 214 199
1.21066 -1.07400 0.14844 222 201 167
1.20250 -1.08066 0.14519 145 120 107
1.22583 -1.08830 0.13987 159 137 119
1.21759 -1.09503 0.13659 93 73 74
2.79180 -2.37199 -0.76378 36 27 18
2.79368 -2.36424 -0.78465 49 37 29
2.78473 -2.38395 -0.75790 19 15 16
2.76817 -2.39746 -0.76448 9 8 13
2.40426 -2.53667 -0.49146 36 21 17
2.40604 -2.52928 -0.51138 19 14 32
2.39726 -2.53942 -0.50456 19 12 25
2.38847 -2.54956 -0.49774 19 12 31
2.38341 -2.57134 -0.47421 55 30 24
2.37640 -2.57409 -0.48733 35 20 26
2.36760 -2.58425 -0.48050 30 18 25
2.37514 -2.58192 -0.46769 62 38 32
2.35933 -2.59483 -0.47398 22 14 35
2.36419 -2.59039 -0.45960 55 32 38
2.33059 -2.58104 -0.43839 40 23 41
2.30992 -2.58164 -0.42469 39 27 60
2.28293 -2.59397 -0.40563 44 43 95
2.26736 -2.60667 -0.41182 21 28 111
2.28216 -2.66199 -0.39826 51 58 146
2.27102 -2.67013 -0.39009 91 95 177
2.25480 -2.67397 -0.37900 129 133 200
2.25303 -2.68132 -0.35920 169 163 218
2.26066 -2.69638 -0.38061 140 140 211
2.24811 -2.70330 -0.37163 136 125 206
2.27003 -2.73971 -0.38241 119 105 191
2.24595 -2.73680 -0.36682 133 134 197
2.24421 -2.75311 -0.36402 159 169 209
2.24051 -2.76780 -0.36010 139 137 189
2.24941 -2.79366 -0.36337 93 80 143
2.23341 -2.80672 -0.36973 49 34 93
2.26013 -2.82136 -0.36765 40 34 117
2.25842 -2.83818 -0.36481 70 51 96
2.25659 -2.84574 -0.34444 92 63 87
2.26460 -2.86220 -0.36647 116 80 55
2.26276 -2.86980 -0.34599 116 87 42
2.25556 -2.87262 -0.35946 106 105 32
2.24837 -2.87544 -0.37292 96 116 30
2.26119 -2.89642 -0.36076 82 105 43
2.24771 -2.90286 -0.35123 50 65 67
2.25587 -2.92926 -0.35395 17 25 55
2.23949 -2.94263 -0.36046 11 11 19
2.26200 -2.95399 -0.35549 9 11 32
2.26898 -2.99907 -0.35555 27 20 30
2.27987 -3.02890 -0.35972 42 34 38
2.28284 -3.05141 -0.35941 52 48 59
2.29182 -3.07989 -0.36246 74 81 75
2.29563 -3.10359 -0.36259 109 112 111
2.27866 -3.11744 -0.36933 127 128 118
2.28106 -3.10948 -0.35238 121 125 111
2.26412 -3.12331 -0.35911 124 127 123
2.21936 -3.12888 -0.30971 116 117 116
2.22871 -3.11809 -0.31697 113 114 115
2.22126 -3.12101 -0.33091 109 109 119
2.22681 -3.12596 -0.29577 116 115 103
2.20255 -3.14260 -0.31639 128 132 128
2.20729 -3.13692 -0.30093 124 127 124
2.20538 -3.14478 -0.27975 133 131 122
2.19794 -3.14770 -0.29368 132 133 127
2.19050 -3.15062 -0.30761 136 137 135
1.62644 -3.60698 0.12974 143 145 147
1.61018 -3.62024 0.12328 140 135 130
1.28447 -3.63948 0.35864 127 133 129
1.26770 -3.63476 0.36922 80 64 73
1.23464 -3.60096 0.38763 38 19 34
1.21999 -3.59939 0.39714 32 33 51
1.21829 -3.60640 0.41603 32 34 56
1.21344 -3.61221 0.40275 38 36 57
1.21174 -3.61923 0.42166 34 34 55
1.20509 -3.62183 0.40923 36 36 60
1.12355 -3.59517 0.46034 36 34 57
1.13822 -3.58320 0.46616 33 35 57
1.13172 -3.58575 0.45400 34 35 57
1.13005 -3.59262 0.47250 33 35 51
1.12189 -3.60204 0.47883 33 35 55
1.10889 -3.60714 0.45451 60 66 85
1.10856 -3.59165 0.46988 37 36 59
1.10690 -3.59850 0.48830 32 34 60
1.08854 -3.57840 0.48174 37 40 63
1.08690 -3.58519 0.50005 32 35 62
1.07214 -3.57173 0.49189 41 49 69
1.07051 -3.57850 0.51011 34 35 60
1.05770 -3.58352 0.48615 76 94 100
1.06031 -3.57367 0.49989 45 51 66
1.04590 -3.58542 0.49417 80 100 98
1.05168 -3.58173 0.50640 45 55 69
1.04021 -3.58422 0.51422 55 60 75
1.02349 -3.57621 0.52444 67 67 84
1.00919 -3.58788 0.51876 93 103 107
1.01524 -3.58481 0.53075 72 78 88
1.00094 -3.59648 0.52507 91 103 110
1.00559 -3.59060 0.53771 73 86 96
0.99130 -3.60226 0.53203 94 106 115
0.99572 -3.59590 0.54475 79 95 107
0.98145 -3.60754 0.53908 99 105 111
0.98702 -3.62897 0.55383 92 107 108
0.98314 -3.64664 0.55817 97 110 109
0.96878 -3.65836 0.55246 95 95 96
0.97422 -3.65395 0.56479 103 111 100
0.96462 -3.73884 0.57969 99 105 103
0.96627 -3.73202 0.56133 85 86 92
0.95817 -3.74137 0.56762 84 86 90
0.95007 -3.75071 0.57391 83 85 88
0.96098 -3.75783 0.58401 96 98 93
0.89667 -3.86260 0.63702 89 91 81
0.88199 -3.87458 0.63118 108 110 96
0.89323 -3.88309 0.64135 79 76 73
0.87851 -3.89510 0.63550 109 108 95
0.88849 -4.30264 0.68682 110 110 101
0.90433 -4.28972 0.69311 103 113 107
0.89731 -4.29248 0.67998 103 105 99
0.87972 -4.31292 0.69364 112 110 92
0.86389 -4.32585 0.68735 122 117 100
0.86936 -4.31898 0.70109 111 108 92
0.85354 -4.33189 0.69480 120 118 105
1.31303 -0.98347 0.06237 150 147 143
1.28639 -1.00843 0.08248 212 210 212
1.23623 -1.05933 0.12073 245 246 249
1.23716 -1.05549 0.11037 251 252 253
1.23260 -1.06076 0.11392 252 253 252
1.23476 -1.06598 0.12236 250 247 244
1.22600 -1.06938 0.12850 245 230 221
1.21221 -1.07047 0.13775 239 215 193
1.20629 -1.07508 0.14213 216 195 165
1.19813 -1.08173 0.13889 127 100 103
2.78152 -2.37302 -0.77573 37 30 23
2.78339 -2.36528 -0.79659 48 39 33
2.33276 -2.59096 -0.45674 21 13 47
2.30573 -2.58653 -0.43924 21 19 73
2.27536 -2.64754 -0.41313 34 50 130
2.26255 -2.65425 -0.40397 66 76 147
2.24687 -2.66704 -0.41021 113 120 158
2.27416 -2.68132 -0.40903 112 122 173
2.25599 -2.68356 -0.39675 101 105 174
2.25368 -2.71676 -0.39197 73 72 172
2.25569 -2.73622 -0.39140 68 70 163
2.25599 -2.75432 -0.38983 91 106 175
2.22778 -2.74768 -0.37177 122 135 190
2.23511 -2.77202 -0.37425 93 89 169
2.24721 -2.80076 -0.37946 50 36 119
2.24591 -2.83619 -0.37513 97 65 62
2.24802 -2.85655 -0.37454 116 102 31
2.24853 -2.89429 -0.37119 61 80 57
2.23954 -2.90481 -0.36419 28 31 62
2.22326 -2.91810 -0.37067 12 9 18
2.24939 -2.93283 -0.36798 12 11 34
2.25384 -2.97526 -0.36678 21 18 24
2.26160 -3.00195 -0.36932 39 25 41
2.26544 -3.02511 -0.36960 59 54 50
2.27714 -3.07587 -0.37239 104 109 89
2.26028 -3.08962 -0.37910 118 110 106
2.27145 -3.09029 -0.36720 114 116 110
2.25457 -3.10406 -0.37392 121 128 125
2.20552 -3.12535 -0.32004 120 122 122
1.29230 -3.64294 0.33635 130 141 146
1.30762 -3.63043 0.34245 136 142 148
1.30083 -3.63309 0.32973 133 141 150
1.29403 -3.63576 0.31702 129 139 144
1.28360 -3.65248 0.34306 120 127 127
1.26096 -3.63740 0.35660 74 63 79
1.23541 -3.61679 0.37153 53 43 47
1.22033 -3.62910 0.36554 101 105 104
1.21539 -3.60564 0.38372 59 61 68
1.20040 -3.61787 0.37776 115 123 109
1.20051 -3.60348 0.39338 70 72 76
1.19408 -3.61649 0.39892 44 43 68
1.19239 -3.62349 0.41778 37 35 56
1.18230 -3.61975 0.40705 40 37 61
1.18061 -3.62674 0.42588 33 32 57
1.16787 -3.61804 0.41645 42 35 61
1.16618 -3.62501 0.43522 33 33 60
1.15573 -3.62043 0.42474 43 33 63
1.13548 -3.60751 0.43691 40 40 65
1.11865 -3.60073 0.44741 46 51 77
1.11255 -3.63916 0.45522 67 77 90
1.10600 -3.64173 0.44297 88 104 109
1.09779 -3.65121 0.44935 87 105 113
1.09944 -3.63921 0.46392 71 88 99
1.08472 -3.65122 0.45806 90 105 113
1.03554 -3.59007 0.50149 87 102 99
1.03717 -3.58333 0.48334 90 103 106
1.02916 -3.59257 0.48955 94 100 100
1.02115 -3.60181 0.49577 88 96 97
0.98559 -3.64161 0.53967 97 103 105
0.98722 -3.63488 0.52153 84 87 94
0.97922 -3.64411 0.52774 85 88 91
0.97122 -3.65334 0.53395 89 89 96
0.98321 -3.66251 0.54329 96 102 104
0.96879 -3.67428 0.53756 88 87 101
0.96718 -3.68108 0.55574 90 90 88
0.95915 -3.69034 0.56197 84 88 90
0.94494 -3.76658 0.57886 86 88 97
0.94395 -3.79166 0.58197 90 92 100
0.94229 -3.79852 0.60045 93 91 88
0.92930 -3.80361 0.57615 111 116 118
0.93756 -3.80500 0.58751 96 98 101
0.93590 -3.81187 0.60601 88 89 92
0.92290 -3.81697 0.58168 109 115 111
0.88600 -4.31727 0.67184 123 128 115
0.87778 -4.32912 0.67845 126 122 110
1.30685 -0.97688 0.05645 139 141 135
1.31506 -0.97017 0.05972 135 135 138
1.31142 -0.97160 0.05290 133 132 135
1.29231 -0.99237 0.06762 192 191 192
1.28975 -0.99844 0.06990 198 200 201
1.27570 -1.00700 0.08008 219 216 218
1.26397 -1.01646 0.08880 231 230 232
1.26304 -1.02029 0.09913 230 229 229
1.25942 -1.02171 0.09233 238 239 240
1.20546 -1.07046 0.13294 244 221 195
1.20049 -1.07550 0.13673 201 180 165
1.19234 -1.08214 0.13349 109 82 99
2.77346 -2.37544 -0.78900 38 30 27
2.77533 -2.36770 -0.80986 47 40 31
2.76928 -2.38923 -0.78491 19 13 19
2.75273 -2.40274 -0.79149 9 7 13
2.36904 -2.59360 -0.49863 26 19 34
2.37787 -2.58342 -0.50549 22 16 36
2.35187 -2.59723 -0.48684 29 27 56
2.30718 -2.57895 -0.45877 49 49 86
2.27984 -2.57411 -0.44100 47 51 102
2.25696 -2.64081 -0.41942 48 64 133
2.24809 -2.68551 -0.40927 73 69 138
2.21501 -2.67492 -0.38821 31 28 128
2.23505 -2.70956 -0.39830 50 49 147
2.25029 -2.74039 -0.40554 77 80 155
2.24754 -2.75589 -0.40223 82 97 158
2.24495 -2.77159 -0.39901 71 81 157
2.23861 -2.78409 -0.39360 45 43 137
2.22264 -2.79712 -0.39995 65 36 81
2.23468 -2.79874 -0.38959 36 20 97
2.22952 -2.81235 -0.38486 73 49 71
2.23257 -2.83342 -0.38490 106 88 46
2.22595 -2.84586 -0.37931 104 121 33
2.23422 -2.87192 -0.38235 80 107 42
2.22949 -2.88625 -0.37784 38 50 58
2.21328 -2.89948 -0.38428 13 8 16
2.23418 -2.90936 -0.37877 18 11 37
2.23132 -2.94463 -0.37353 17 14 17
2.23610 -2.96828 -0.37447 30 24 33
2.24541 -2.99643 -0.37801 53 42 54
2.25908 -3.02901 -0.38404 81 85 76
2.24239 -3.04263 -0.39068 112 117 108
2.24623 -3.03629 -0.37478 111 114 103
2.20327 -3.11332 -0.33883 108 106 116
2.21259 -3.10256 -0.34606 126 125 121
2.20516 -3.10548 -0.35995 133 131 125
2.18652 -3.12698 -0.34548 125 128 135
1.29178 -3.65658 0.32049 127 138 138
1.28533 -3.67017 0.32608 117 125 126
1.25071 -3.63384 0.34572 91 93 103
1.23552 -3.64624 0.33969 121 124 117
1.22947 -3.62075 0.35865 93 98 94
1.21438 -3.63306 0.35265 120 116 112
1.18863 -3.62125 0.38593 55 55 82
1.19033 -3.61424 0.36705 131 137 127
1.18200 -3.62385 0.37352 80 81 94
1.17367 -3.63346 0.37998 75 80 97
1.17836 -3.62728 0.39335 50 50 77
1.16962 -3.63609 0.40002 60 61 80
1.16638 -3.65518 0.40398 64 59 83
1.14532 -3.64088 0.41667 61 61 79
1.13044 -3.65302 0.41075 83 95 83
1.13899 -3.65412 0.42215 69 87 91
1.12409 -3.66628 0.41623 81 94 96
1.13423 -3.67044 0.42687 86 102 109
1.11931 -3.68262 0.42093 81 90 94
0.96508 -3.69269 0.54177 88 91 96
0.96672 -3.68592 0.52353 103 113 117
0.95867 -3.69520 0.52978 105 117 116
0.96401 -3.71686 0.54478 87 95 99
0.95593 -3.72619 0.55105 92 99 106
0.96661 -3.77617 0.54867 94 103 110
0.95192 -3.78816 0.54283 108 117 116
0.95960 -3.78815 0.55448 95 107 110
0.94490 -3.80014 0.54864 111 119 125
0.95743 -3.81082 0.55807 102 112 118
0.94268 -3.82286 0.55221 117 123 127
0.89689 -4.30030 0.64484 131 122 91
0.88101 -4.31326 0.63853 129 120 105
0.86150 -4.34102 0.67230 122 117 105
0.85266 -4.35122 0.67916 115 109 105
0.84562 -4.35398 0.66599 117 111 104
1.30297 -0.97119 0.04915 134 135 137
1.31116 -0.96451 0.05240 135 136 141
1.30753 -0.96593 0.04561 133 134 138
1.30390 -0.96735 0.03881 133 134 136
1.29914 -0.97673 0.05223 150 153 152
1.28480 -0.98521 0.06261 192 189 193
1.26837 -0.99983 0.07497 218 218 217
1.26420 -1.00523 0.07826 226 224 225
1.19510 -1.06880 0.13042 244 226 197
1.20726 -1.08169 0.12344 184 163 162
1.19907 -1.08838 0.12019 100 76 83
2.75952 -2.37416 -0.79866 39 31 24
2.76139 -2.36644 -0.81948 49 40 30
2.75221 -2.37703 -0.81235 40 34 24
2.75572 -2.38816 -0.79483 19 13 20
2.73919 -2.40165 -0.80140 10 7 13
2.35861 -2.57666 -0.51132 15 16 46
2.37441 -2.56377 -0.50504 15 14 37
2.36740 -2.56652 -0.51815 14 13 37
2.36040 -2.56927 -0.53125 13 10 39
2.34187 -2.58058 -0.49974 50 43 72
2.33106 -2.58909 -0.49172 76 76 110
2.30840 -2.58815 -0.47661 95 96 137
2.29273 -2.60094 -0.48284 115 99 158
2.30172 -2.59985 -0.47106 91 90 136
2.26087 -2.60099 -0.44357 65 64 143
2.24531 -2.61369 -0.44975 116 117 164
2.23296 -2.64659 -0.42067 75 84 154
2.26310 -2.68928 -0.43697 119 129 162
2.24768 -2.69381 -0.42621 88 86 121
2.23101 -2.69720 -0.41472 45 49 113
2.23282 -2.71638 -0.41418 61 70 147
2.24186 -2.74195 -0.41789 77 80 148
2.23929 -2.75761 -0.41473 59 72 137
2.23460 -2.77150 -0.41032 41 59 133
2.22545 -2.78149 -0.40327 42 48 121
2.20952 -2.79449 -0.40960 84 60 65
2.21027 -2.82251 -0.38933 105 115 42
2.20546 -2.83650 -0.38482 87 124 47
2.21380 -2.86260 -0.38802 50 71 51
2.21533 -2.88264 -0.38721 19 20 45
2.21865 -2.92337 -0.38570 15 14 21
2.20235 -2.93667 -0.39217 23 24 33
2.21806 -2.94183 -0.38361 22 20 29
2.22368 -2.96628 -0.38513 29 26 42
2.24726 -3.00810 -0.39711 63 63 62
2.23183 -3.01281 -0.38633 95 103 103
2.21525 -3.02634 -0.39292 109 112 109
2.21403 -3.03474 -0.37238 115 118 119
2.19745 -3.04828 -0.37898 122 124 132
1.30689 -3.64783 0.29199 132 138 139
1.32231 -3.63525 0.29811 137 142 146
1.31547 -3.63793 0.28533 137 143 146
1.30864 -3.64061 0.27254 138 143 143
1.31373 -3.64515 0.30477 134 141 145
1.29612 -3.65390 0.29977 120 128 132
1.28072 -3.66647 0.29365 112 121 115
1.29006 -3.66819 0.30514 119 130 125
1.27464 -3.68077 0.29901 105 106 106
1.28177 -3.67861 0.31165 113 116 115
1.25773 -3.66097 0.32615 114 112 111
1.24243 -3.67345 0.32007 116 123 118
1.16742 -3.64694 0.38540 83 91 109
1.16580 -3.66914 0.38853 82 91 106
1.15077 -3.68141 0.38255 75 82 91
1.15126 -3.66713 0.39810 79 83 87
1.13627 -3.67936 0.39214 79 87 84
0.98298 -3.80108 0.52319 108 119 120
0.96817 -3.81317 0.51730 125 124 124
0.97830 -3.81836 0.52791 109 117 120
0.96345 -3.83048 0.52201 116 118 114
1.28735 -0.97500 0.05064 168 167 169
1.27291 -0.98337 0.06112 199 197 199
1.25382 -0.99682 0.07518 226 227 224
1.20356 -1.06114 0.11475 249 233 227
1.19996 -1.06256 0.10800 248 232 220
1.18994 -1.06224 0.12403 248 230 209
1.18573 -1.06757 0.12734 237 225 187
1.17763 -1.07417 0.12412 152 128 104
1.19849 -1.08074 0.11990 166 148 130
1.19032 -1.08741 0.11666 98 73 66
2.73730 -2.38399 -0.80169 21 12 23
2.73917 -2.37628 -0.82247 41 37 29
2.72083 -2.39743 -0.80824 11 8 10
2.35618 -2.58298 -0.52719 19 18 50
2.34181 -2.58877 -0.51700 54 48 94
2.32734 -2.59441 -0.50674 85 79 132
2.30733 -2.59556 -0.49315 96 87 154
2.30384 -2.62706 -0.48801 119 111 155
2.28589 -2.62972 -0.47568 118 114 162
2.26142 -2.64416 -0.45791 97 104 158
2.22383 -2.63021 -0.43381 56 55 150
2.24086 -2.66172 -0.44249 81 85 168
2.25604 -2.69198 -0.45004 138 152 184
2.24795 -2.70273 -0.44364 126 136 140
2.23788 -2.71179 -0.43605 93 107 123
2.23449 -2.72660 -0.43245 76 86 145
2.23142 -2.75967 -0.42745 33 42 121
2.22694 -2.77374 -0.42318 46 63 124
2.21881 -2.78463 -0.41674 59 62 109
2.20637 -2.80987 -0.40612 108 98 28
2.19929 -2.81265 -0.41937 97 112 28
2.19617 -2.81894 -0.39844 93 120 29
2.19169 -2.83320 -0.39416 54 89 38
2.20566 -2.86449 -0.40080 16 29 36
2.20858 -2.88584 -0.40087 12 7 19
2.20724 -2.90338 -0.39842 18 14 18
2.19102 -2.91662 -0.40487 26 25 30
2.20559 -2.92072 -0.39577 22 22 27
2.18933 -2.93400 -0.40223 21 24 33
2.20350 -2.95686 -0.39116 22 25 46
2.21866 -2.99062 -0.39838 74 80 64
2.20312 -2.99508 -0.38752 104 111 110
2.19132 -3.02259 -0.37712 106 111 110
2.18400 -3.02546 -0.39080 104 106 105
2.15801 -3.08832 -0.34885 134 136 131
2.14145 -3.10184 -0.35544 127 134 135
2.07798 -3.16672 -0.28796 137 136 126
2.09451 -3.15323 -0.28139 143 141 134
2.08718 -3.15611 -0.29510 136 136 130
2.08531 -3.16385 -0.27425 135 134 131
2.07065 -3.16960 -0.30168 140 146 135
2.07611 -3.17446 -0.26711 129 123 126
2.07095 -3.17968 -0.28208 132 120 121
2.06908 -3.18743 -0.26121 129 125 126
2.06174 -3.19031 -0.27493 128 118 124
1.30253 -3.65480 0.27791 129 131 130
1.30428 -3.64758 0.25844 139 141 141
1.17670 -3.65398 0.36265 71 68 87
1.18507 -3.64432 0.35615 80 80 71
1.16344 -3.65450 0.37163 68 68 104
1.16063 -3.67457 0.37530 66 73 103
1.13270 -3.69816 0.39621 74 87 96
1.12733 -3.71359 0.40120 81 89 97
1.12562 -3.72064 0.42019 75 87 93
1.11028 -3.70632 0.41205 78 95 100
1.10859 -3.71333 0.43094 78 85 95
1.10195 -3.71594 0.41852 84 99 104
1.09531 -3.71854 0.40609 106 128 115
1.27630 -0.96657 0.04807 158 156 151
1.27270 -0.96798 0.04134 170 171 168
1.24296 -0.99528 0.07311 235 236 234
1.20079 -1.05568 0.10685 251 243 237
1.20890 -1.04906 0.11008 254 254 254
1.20531 -1.05047 0.10334 254 253 251
1.19267 -1.06230 0.10362 249 237 216
1.18403 -1.06259 0.11879 250 235 211
1.16927 -1.06306 0.12883 226 213 179
1.16124 -1.06962 0.12564 134 104 89
2.37421 -2.58821 -0.55708 20 14 46
2.39012 -2.57523 -0.55075 9 9 33
2.38307 -2.57799 -0.56395 12 11 47
2.35831 -2.60119 -0.56340 62 47 63
2.35896 -2.59341 -0.54630 47 34 52
2.34928 -2.60293 -0.53892 41 30 70
2.33341 -2.61588 -0.54523 15 9 62
2.33579 -2.60943 -0.52923 33 24 88
2.31004 -2.60604 -0.51207 46 39 120
2.30041 -2.61546 -0.50474 90 81 147
2.30523 -2.63661 -0.50620 139 144 168
2.28697 -2.63904 -0.49362 132 124 168
2.27074 -2.64303 -0.48228 107 92 167
2.24887 -2.65959 -0.46604 79 75 160
2.23801 -2.66790 -0.45798 98 98 168
2.24903 -2.69473 -0.46315 134 145 192
2.24023 -2.70487 -0.45632 129 141 173
2.23245 -2.71590 -0.45011 94 97 143
2.22353 -2.72594 -0.44320 53 55 137
2.20772 -2.73884 -0.44949 43 37 117
2.22195 -2.74239 -0.44073 31 41 130
2.20610 -2.75532 -0.44703 59 39 99
2.21961 -2.77628 -0.43625 43 40 104
2.20916 -2.78510 -0.42841 56 42 83
2.20418 -2.79881 -0.42386 88 73 50
2.18436 -2.81740 -0.40884 73 97 41
2.20867 -2.85803 -0.42184 25 40 31
2.19255 -2.87119 -0.42825 14 11 23
2.20611 -2.87430 -0.41871 9 8 24
2.20093 -2.88821 -0.41401 15 13 21
2.18475 -2.90141 -0.42044 30 27 40
2.19789 -2.90418 -0.41058 26 22 30
2.18168 -2.91740 -0.41703 25 24 32
2.18419 -2.94818 -0.39754 23 28 43
2.18688 -2.96995 -0.39750 77 83 78
2.17886 -2.98150 -0.39108 112 120 104
2.16251 -2.99485 -0.39758 122 124 118
2.17353 -2.99569 -0.38625 116 123 109
2.14782 -3.06836 -0.36262 121 119 117
2.14050 -3.07123 -0.37630 124 119 123
2.13992 -3.08027 -0.35625 136 142 138
2.12342 -3.09373 -0.36281 128 137 132
2.05972 -3.17834 -0.29352 141 147 132
2.06159 -3.17060 -0.31436 135 138 133
2.05239 -3.18121 -0.30722 140 142 131
2.04320 -3.19182 -0.30009 136 138 131
1.57890 -3.60381 0.06864 146 147 133
1.58073 -3.59624 0.04824 135 139 130
1.57173 -3.60662 0.05523 153 164 143
1.57400 -3.62041 0.07337 137 138 125
1.57217 -3.62800 0.09381 133 133 128
1.56499 -3.63082 0.08037 134 131 123
1.16590 -3.64891 0.35231 43 45 74
1.15927 -3.66177 0.35790 44 56 89
1.15917 -3.68704 0.36013 60 72 101
1.15188 -3.69885 0.36608 81 94 108
1.13306 -3.71434 0.38016 92 109 117
1.10820 -3.71786 0.39730 97 114 121
1.23596 -0.98829 0.06803 239 239 237
1.22791 -0.99486 0.06483 252 251 252
1.23419 -0.99457 0.06976 246 245 246
1.22613 -1.00115 0.06655 254 253 254
1.23380 -1.00144 0.07059 250 249 251
1.22572 -1.00803 0.06738 254 254 254
1.20316 -1.05253 0.09567 253 250 248
1.21128 -1.04590 0.09890 254 254 254
1.20768 -1.04731 0.09216 254 254 254
1.20408 -1.04872 0.08542 254 254 251
1.19503 -1.05915 0.09244 250 242 224
1.18988 -1.05380 0.10482 250 242 228
1.18179 -1.06040 0.10161 252 244 221
1.17309 -1.06063 0.11682 251 239 213
1.15540 -1.05971 0.12879 212 193 173
1.14741 -1.06623 0.12561 114 87 89
2.37823 -2.59962 -0.57710 31 22 60
2.38004 -2.59214 -0.59724 32 21 72
2.37116 -2.60239 -0.59034 35 24 78
2.36227 -2.61264 -0.58345 39 36 76
2.34730 -2.60970 -0.55520 42 27 66
2.34026 -2.61246 -0.56839 26 23 67
2.32361 -2.62529 -0.53778 27 26 77
2.31769 -2.63783 -0.53271 58 63 113
2.30927 -2.64837 -0.52611 105 113 160
2.28952 -2.64962 -0.51256 117 113 161
2.27425 -2.65443 -0.50176 100 101 161
2.24611 -2.68334 -0.48021 89 96 153
2.23917 -2.69505 -0.47452 72 78 164
2.24365 -2.71655 -0.47580 56 65 157
2.22390 -2.71732 -0.46228 42 49 138
2.20810 -2.73021 -0.46857 48 32 108
2.22288 -2.73422 -0.46019 40 42 131
2.20704 -2.74715 -0.46649 75 37 85
2.20938 -2.77624 -0.44754 68 47 81
2.20447 -2.78998 -0.44306 70 60 63
2.19539 -2.80003 -0.43605 87 91 43
2.18993 -2.81336 -0.43123 79 102 36
2.19927 -2.84024 -0.43537 47 54 41
2.18322 -2.85334 -0.44176 11 10 13
2.19554 -2.85533 -0.43158 16 12 16
2.18566 -2.88347 -0.42254 20 20 34
2.17850 -2.88628 -0.43592 21 23 31
2.16953 -2.89663 -0.42895 22 23 30
2.17860 -2.93347 -0.41360 20 26 37
2.18118 -2.95505 -0.41358 45 52 55
2.16818 -2.96173 -0.40418 95 106 100
2.15189 -2.97502 -0.41065 128 128 118
2.16534 -2.97825 -0.40089 119 115 100
2.14902 -2.99157 -0.40738 126 119 119
2.15405 -3.00600 -0.39091 121 121 115
2.14679 -3.00884 -0.40448 131 130 124
2.14494 -3.01650 -0.38384 117 120 122
1.55253 -3.62557 0.06986 138 130 125
1.55070 -3.63314 0.09025 140 134 130
1.54354 -3.63595 0.07684 137 132 122
1.53637 -3.63876 0.06343 136 136 126
1.19848 -3.69924 0.31708 77 93 103
1.20149 -3.73056 0.31761 86 103 108
1.18089 -3.71769 0.33058 92 108 112
1.16886 -3.72077 0.33902 102 118 114
1.14945 -3.70961 0.35133 113 124 126
1.13890 -3.71524 0.35897 118 130 130
1.12379 -3.72757 0.35296 148 149 142
1.11693 -3.72458 0.37471 125 135 135
1.10505 -3.75368 0.38519 135 153 117
1.10334 -3.76076 0.40426 109 119 126
1.09664 -3.76338 0.39172 137 136 126
1.22845 -0.98113 0.06338 241 241 240
1.22043 -0.98767 0.06019 253 253 252
1.15640 -1.05600 0.11865 251 241 218
1.15730 -1.05226 0.10856 253 248 229
2.33354 -2.62437 -0.56284 19 20 68
2.33534 -2.61692 -0.58291 23 22 63
2.31819 -2.62935 -0.55194 46 57 82
2.32406 -2.65148 -0.55420 46 66 98
2.31635 -2.66268 -0.54803 65 80 128
2.29147 -2.65975 -0.53124 98 100 138
2.27547 -2.66400 -0.51995 72 71 130
2.28153 -2.68659 -0.52230 45 49 131
2.25398 -2.68107 -0.50387 68 82 137
2.24748 -2.69318 -0.49846 55 70 137
2.23132 -2.69706 -0.48709 22 34 134
2.21553 -2.70994 -0.49336 49 38 105
2.22206 -2.70679 -0.47998 24 33 130
2.20628 -2.71967 -0.48625 63 38 93
2.21593 -2.71923 -0.47480 37 34 122
2.21055 -2.76822 -0.46722 109 59 62
2.19464 -2.78121 -0.47355 100 113 41
2.20511 -2.78148 -0.46245 112 85 53
2.19855 -2.79378 -0.45698 96 96 49
2.18941 -2.80378 -0.44993 77 90 38
2.19138 -2.82388 -0.44968 45 58 26
2.17538 -2.83694 -0.45604 10 8 10
2.18555 -2.83698 -0.44465 14 19 15
2.17762 -2.86675 -0.43686 19 16 20
2.16880 -2.91482 -0.42701 22 23 30
2.16581 -2.93095 -0.42368 43 43 56
2.15854 -2.94305 -0.41774 91 91 101
2.15493 -2.95873 -0.41403 118 125 114
2.13868 -2.97199 -0.42049 119 123 112
1.22466 -3.73740 0.28468 110 123 126
1.20921 -3.75001 0.27853 152 152 133
1.20903 -3.73421 0.29513 120 129 128
1.19363 -3.74677 0.28901 153 152 129
1.18752 -3.71976 0.30871 123 131 124
1.17222 -3.73224 0.30263 150 148 129
1.17309 -3.71839 0.31848 130 137 130
1.15785 -3.73083 0.31242 145 147 138
1.16265 -3.72445 0.32611 131 142 128
1.14743 -3.73688 0.32005 144 146 134
1.14424 -3.71512 0.33798 140 144 130
1.12909 -3.72748 0.33195 153 156 139
1.09825 -3.72974 0.37062 141 141 134
1.09995 -3.72270 0.35164 150 145 128
1.09158 -3.73236 0.35814 153 155 150
1.08321 -3.74202 0.36464 157 159 148
1.10119 -3.76197 0.37116 154 167 144
1.08606 -3.77432 0.36514 154 152 144
1.09659 -3.77937 0.37570 156 154 137
1.08814 -3.78911 0.38225 156 156 134
1.21772 -0.97963 0.06144 250 250 249
1.20973 -0.98614 0.05827 254 254 254
1.14976 -1.05597 0.11404 243 236 213
1.13368 -1.05569 0.12508 175 152 156
1.12575 -1.06216 0.12193 100 70 73
2.05732 -1.89755 -0.44641 39 29 39
2.07041 -1.88686 -0.44121 27 22 29
2.06460 -1.88914 -0.45207 23 18 26
2.05880 -1.89142 -0.46293 22 16 28
2.05583 -1.90368 -0.42990 59 45 35
2.05003 -1.90595 -0.44076 55 44 39
2.34846 -2.64479 -0.58982 27 30 71
2.35027 -2.63729 -0.61003 35 28 73
2.34136 -2.64758 -0.60311 38 30 76
2.33709 -2.65309 -0.58136 44 58 90
2.32340 -2.65948 -0.57145 35 48 92
2.31205 -2.66773 -0.56301 36 40 97
2.28986 -2.68457 -0.54645 35 33 103
2.27391 -2.69758 -0.55279 42 19 71
2.27647 -2.69103 -0.53675 26 29 97
2.26055 -2.70403 -0.54308 52 23 67
2.24856 -2.68517 -0.51798 31 34 98
2.23674 -2.69276 -0.50927 25 30 101
2.22315 -2.69880 -0.49945 32 31 105
2.21386 -2.74412 -0.48960 88 48 70
2.20819 -2.75710 -0.48471 119 72 45
2.20340 -2.77090 -0.48036 120 97 32
2.19153 -2.79660 -0.47024 80 103 50
2.18635 -2.81019 -0.46563 48 59 33
2.17485 -2.81805 -0.45712 13 18 11
2.16465 -2.84553 -0.44801 18 16 17
2.16670 -2.86601 -0.44785 25 27 21
2.16201 -2.88031 -0.44354 30 31 26
2.15892 -2.89617 -0.44020 38 32 33
2.15041 -2.90696 -0.43352 48 57 66
2.14855 -2.92412 -0.43093 92 93 98
2.14356 -2.93836 -0.42641 108 106 104
2.12738 -2.95156 -0.43284 123 130 131
2.13932 -2.95338 -0.42235 112 117 118
2.12312 -2.96660 -0.42879 126 126 115
1.27199 -3.68509 0.23038 134 137 137
1.28746 -3.67246 0.23653 128 134 139
1.28060 -3.67515 0.22369 131 135 140
1.27885 -3.68240 0.24321 124 134 138
1.27023 -3.69234 0.24990 118 130 137
1.25783 -3.68508 0.24012 126 131 128
1.25608 -3.69231 0.25959 116 128 132
1.25249 -3.70086 0.24500 125 130 125
1.23703 -3.71348 0.23885 163 160 138
1.24270 -3.70863 0.25233 138 143 137
1.22725 -3.72124 0.24619 155 149 137
1.23445 -3.71919 0.25881 135 138 129
1.21900 -3.73180 0.25267 152 154 134
1.08306 -3.79509 0.36879 142 148 137
1.08134 -3.80220 0.38795 147 140 127
1.07461 -3.80485 0.37535 145 144 131
1.06788 -3.80749 0.36275 145 146 129
0.93741 -4.07600 0.49045 142 137 123
0.93054 -4.07870 0.47760 142 142 124
0.92192 -4.08864 0.48429 137 137 125
1.14765 -1.05085 0.10595 253 251 233
1.15562 -1.04435 0.10912 251 245 227
1.15209 -1.04573 0.10251 253 250 233
1.14856 -1.04712 0.09590 253 252 236
1.14154 -1.05519 0.11049 230 222 199
1.13960 -1.06147 0.11230 159 131 124
1.13163 -1.06797 0.10913 99 73 62
2.05754 -1.90355 -0.46117 31 21 39
2.05903 -1.89740 -0.47773 22 17 26
2.05530 -1.91512 -0.45878 48 39 44
2.05381 -1.92128 -0.44219 61 46 26
2.04798 -1.92356 -0.45310 60 46 28
2.04216 -1.92585 -0.46400 60 43 34
2.33553 -2.66038 -0.59814 37 22 68
2.32842 -2.66316 -0.61145 55 35 63
2.32442 -2.66889 -0.58983 25 14 70
2.31073 -2.67526 -0.57990 17 12 72
2.29880 -2.68303 -0.57108 24 14 76
2.23307 -2.69836 -0.52448 58 29 63
2.21106 -2.69717 -0.50934 73 37 69
2.20726 -2.71158 -0.50565 91 50 71
2.19148 -2.72445 -0.51192 101 96 30
2.20199 -2.72477 -0.50104 107 66 55
2.18619 -2.73766 -0.50732 89 107 20
2.20836 -2.74823 -0.50374 117 86 36
2.20339 -2.76185 -0.49930 108 107 35
2.19801 -2.77515 -0.49461 93 116 35
2.19212 -2.78805 -0.48959 72 91 27
2.17619 -2.80105 -0.49593 23 20 36
2.18247 -2.79757 -0.48221 47 49 29
2.17458 -2.80870 -0.47595 19 21 24
2.16566 -2.81889 -0.46903 15 12 21
2.15899 -2.83115 -0.46352 24 17 29
2.15062 -2.84186 -0.45694 34 31 33
2.15027 -2.86008 -0.45536 47 55 27
2.13913 -2.86826 -0.44706 58 67 26
2.13782 -2.88573 -0.44488 90 85 55
2.12179 -2.89881 -0.45125 112 118 127
2.13867 -2.90536 -0.44403 102 108 107
2.12258 -2.91849 -0.45043 117 124 132
2.13897 -2.92460 -0.44283 111 115 114
2.12283 -2.93777 -0.44925 127 124 121
2.13466 -2.93950 -0.43876 121 117 117
2.11850 -2.95269 -0.44519 126 128 126
1.38660 -3.67195 0.13234 134 134 113
1.40241 -3.65905 0.13863 144 143 137
1.39540 -3.66180 0.12551 137 137 121
1.39361 -3.66920 0.14546 139 134 127
1.38480 -3.67936 0.15229 138 136 128
1.37799 -3.68244 0.13906 141 143 128
1.37620 -3.68984 0.15901 136 134 132
1.36919 -3.69259 0.14590 142 139 134
1.36218 -3.69534 0.13278 145 141 124
1.27515 -3.68035 0.21005 142 145 149
1.29064 -3.66772 0.21621 132 136 141
1.28378 -3.67041 0.20336 138 140 138
1.27691 -3.67310 0.19051 144 139 135
1.25967 -3.69299 0.20390 155 158 155
1.25653 -3.69775 0.22421 146 146 142
1.24105 -3.71038 0.21806 149 159 154
1.24736 -3.70668 0.23121 147 149 140
1.13792 -1.04938 0.10345 254 252 232
1.13882 -1.04566 0.09343 254 253 242
1.12167 -1.04899 0.11473 215 203 187
1.11378 -1.05543 0.11159 117 91 94
1.13252 -1.06119 0.10803 139 109 100
1.12456 -1.06768 0.10487 97 79 63
2.06011 -1.91102 -0.47752 25 17 34
2.06160 -1.90486 -0.49413 21 18 22
2.05427 -1.91331 -0.48844 19 18 30
2.05672 -1.92193 -0.47440 39 30 42
2.30108 -2.67592 -0.59154 53 31 44
2.29121 -2.68538 -0.58401 63 38 39
2.27742 -2.69155 -0.57400 77 43 40
2.26389 -2.69786 -0.56414 84 39 38
2.23131 -2.68793 -0.54218 96 51 34
2.22014 -2.69604 -0.53384 110 74 30
2.20435 -2.70893 -0.54012 109 126 19
2.20973 -2.70479 -0.52600 115 81 37
2.20518 -2.71859 -0.52186 110 86 39
2.19613 -2.76443 -0.51236 75 107 24
2.19028 -2.77732 -0.50739 56 79 26
2.17436 -2.79031 -0.51371 26 21 23
2.18583 -2.79151 -0.50330 33 39 22
2.16382 -2.80809 -0.48683 29 22 35
2.15037 -2.81409 -0.47706 40 29 41
2.13336 -2.81674 -0.46505 52 49 62
2.13034 -2.83232 -0.46186 68 73 82
2.13051 -2.85097 -0.46066 97 99 84
2.12988 -2.86900 -0.45897 120 118 91
2.11391 -2.88204 -0.46532 125 121 117
2.13109 -2.88888 -0.45842 124 122 106
2.11506 -2.90196 -0.46479 107 113 120
2.08486 -3.05556 -0.41460 139 137 123
2.10120 -3.04223 -0.40810 127 133 123
2.09396 -3.04507 -0.42166 132 133 123
2.09211 -3.05272 -0.40104 130 127 117
2.07577 -3.06606 -0.40754 140 140 133
2.06852 -3.06890 -0.42109 150 146 135
1.38469 -3.65837 0.11453 144 143 122
1.40048 -3.64549 0.12080 137 140 122
1.39348 -3.64824 0.10771 130 127 113
1.36891 -3.67126 0.10825 158 163 153
1.36883 -3.68155 0.12718 156 153 134
1.35304 -3.69444 0.12090 142 141 138
1.26276 -3.67319 0.20036 148 149 146
1.26451 -3.66596 0.18088 152 154 136
1.25591 -3.67588 0.18755 151 153 137
1.12828 -1.04794 0.10095 253 249 230
1.12917 -1.04423 0.09097 254 254 245
1.11863 -1.05058 0.10787 195 178 177
1.11074 -1.05702 0.10474 103 78 86
2.06643 -1.93397 -0.49556 29 23 38
2.06793 -1.92776 -0.51228 17 17 26
2.07548 -1.95286 -0.50062 51 39 40
2.07396 -1.95910 -0.48379 61 44 40
2.06805 -1.96142 -0.49486 58 45 42
2.06214 -1.96374 -0.50592 53 46 36
2.32201 -2.66653 -0.62520 53 33 40
2.33094 -2.65622 -0.63214 34 17 34
2.32383 -2.65901 -0.64544 12 11 38
2.31490 -2.66932 -0.63851 13 10 44
2.30597 -2.67962 -0.63158 28 21 49
2.31026 -2.67450 -0.61646 75 58 52
2.29423 -2.68758 -0.62283 44 43 46
2.26952 -2.67596 -0.58788 87 84 16
2.24390 -2.67206 -0.57023 89 94 18
2.23847 -2.68508 -0.56556 88 89 26
2.22264 -2.69799 -0.57186 86 114 39
2.21774 -2.68508 -0.55108 94 95 26
2.20198 -2.69794 -0.55735 90 118 31
2.22116 -2.70568 -0.55209 106 114 18
2.20670 -2.72878 -0.54044 98 120 23
2.19989 -2.74073 -0.53488 81 110 16
2.19861 -2.75759 -0.53285 67 97 10
2.18855 -2.76672 -0.52521 47 65 14
2.18005 -2.77724 -0.51856 29 30 16
2.15655 -2.79239 -0.50113 37 30 41
2.15008 -2.80474 -0.49577 49 34 49
2.13479 -2.80898 -0.48480 62 49 59
2.12570 -2.81890 -0.47778 76 77 78
2.12195 -2.83381 -0.47416 89 92 94
2.12033 -2.85080 -0.47189 98 101 104
2.10442 -2.86379 -0.47822 117 119 112
2.12028 -2.86938 -0.47062 120 120 115
2.10432 -2.88241 -0.47696 115 113 114
2.08407 -3.04520 -0.43355 137 140 129
2.06775 -3.05852 -0.44004 148 150 146
1.38492 -3.64839 0.09553 140 143 131
1.40070 -3.63552 0.10180 130 127 120
1.39370 -3.63826 0.08871 137 142 134
1.38671 -3.64101 0.07563 139 134 124
1.37544 -3.65734 0.10275 147 151 139
1.35968 -3.67021 0.09649 156 160 151
1.11540 -1.04497 0.10069 247 241 219
1.10782 -1.04853 0.10625 177 155 155
1.09996 -1.05494 0.10313 99 76 76
2.07611 -1.94606 -0.51686 23 17 31
2.07762 -1.93982 -0.53368 19 15 22
2.07020 -1.94838 -0.52792 22 16 24
2.08361 -1.96408 -0.52098 38 32 37
2.07021 -1.97502 -0.52631 47 41 34
2.25744 -2.67451 -0.59781 59 73 30
2.25924 -2.66708 -0.61784 9 12 58
2.24157 -2.68747 -0.60412 19 33 50
2.23689 -2.67481 -0.58335 69 98 26
2.23755 -2.69302 -0.58266 79 112 34
2.20315 -2.71671 -0.55697 88 123 17
2.20133 -2.73298 -0.55466 80 115 18
2.19154 -2.74232 -0.54719 62 86 17
2.17569 -2.75526 -0.55349 25 18 26
2.18135 -2.75129 -0.53945 38 48 20
2.17320 -2.76207 -0.53304 22 24 30
2.16594 -2.77365 -0.52720 24 22 34
2.15985 -2.78632 -0.52211 36 34 48
2.13499 -2.78188 -0.50493 55 51 66
2.12711 -2.79285 -0.49869 69 68 74
2.12189 -2.80629 -0.49417 80 83 82
2.11848 -2.82148 -0.49080 89 98 92
2.10265 -2.83440 -0.49710 97 106 103
2.11401 -2.83573 -0.48675 97 105 98
2.09814 -2.84867 -0.49306 101 109 106
2.11052 -2.85097 -0.48333 109 109 105
2.09463 -2.86394 -0.48965 113 112 111
2.09451 -2.98742 -0.46337 139 138 131
2.11072 -2.97419 -0.45692 129 130 121
2.10353 -2.97701 -0.47038 122 129 125
2.09634 -2.97983 -0.48383 124 126 125
2.09267 -2.99502 -0.44291 110 109 102
2.08548 -2.99784 -0.45637 110 112 120
2.07346 -3.00522 -0.44745 133 136 126
2.05727 -3.01844 -0.45389 139 140 137
1.63120 -3.37772 -0.11295 143 144 141
1.64702 -3.36481 -0.10666 151 156 148
1.64001 -3.36756 -0.11979 151 149 140
1.63822 -3.37497 -0.09982 151 152 146
1.62941 -3.38513 -0.09298 148 149 141
1.62239 -3.38788 -0.10611 142 146 142
1.37592 -3.64777 0.08364 142 139 130
1.36016 -3.66063 0.07738 156 160 153
1.11430 -1.04037 0.09211 254 254 243
1.12216 -1.03395 0.09524 254 254 247
1.11868 -1.03532 0.08872 254 254 248
1.11519 -1.03668 0.08219 254 254 249
1.10692 -1.05111 0.09798 161 137 125
1.09905 -1.05753 0.09485 98 80 71
1.14620 -1.10631 0.07359 35 31 33
1.15434 -1.09966 0.07682 75 66 62
1.15073 -1.10108 0.07007 69 63 55
1.14527 -1.11012 0.08386 30 26 23
1.14166 -1.11154 0.07710 29 27 25
1.13805 -1.11295 0.07035 29 28 27
2.09769 -1.97914 -0.54547 31 25 29
2.09922 -1.97282 -0.56250 21 17 17
