ply
format ascii 1.0
element face 0
property list uchar int vertex_indices
element vertex 1321
property float x
property float y
property float z
property uchar diffuse_red
property uchar diffuse_green
property uchar diffuse_blue
end_header
1.23518 -2.95022 1.16418 208 197 197
1.24514 -2.97747 1.16425 236 235 229
1.22874 -2.98798 1.14896 249 253 254
1.23545 -2.98992 1.16587 247 246 247
1.21902 -3.00045 1.15056 253 253 254
1.22147 -2.99913 1.16782 253 253 252
1.20503 -3.00966 1.15250 254 254 254
1.08069 -3.04989 1.18567 251 250 250
1.09493 -3.04415 1.16632 254 254 254
1.07963 -3.05226 1.16837 254 254 253
1.09280 -3.08032 1.18564 211 212 228
1.09217 -3.10059 1.18659 94 123 194
1.07391 -3.10647 1.18887 79 112 183
1.05660 -3.11313 1.19109 91 124 181
1.03687 -3.11773 1.19348 115 131 215
1.01338 -3.11914 1.19615 157 166 242
0.99691 -3.12969 1.18081 240 250 253
0.98774 -3.11864 1.19898 215 222 243
0.97317 -3.12744 1.20098 239 246 251
0.94770 -3.14825 1.20472 227 246 248
0.92742 -3.15216 1.20714 200 210 229
0.91099 -3.16269 1.19183 154 174 207
0.91660 -3.16427 1.20887 164 184 210
0.90016 -3.17481 1.19354 156 175 207
0.90127 -3.17246 1.21093 150 172 205
0.86586 -3.27332 1.21922 163 182 210
0.88040 -3.26747 1.19947 165 188 215
0.86478 -3.27574 1.20157 169 189 215
0.84917 -3.28402 1.20366 174 194 217
0.82878 -3.42403 1.22986 166 196 223
0.84587 -3.41307 1.24580 163 189 218
0.84477 -3.41555 1.22772 171 193 218
0.82989 -3.42154 1.24794 162 188 217
0.81960 -3.43909 1.23154 165 195 217
0.80310 -3.44710 1.23372 144 160 201
0.83848 -3.50602 1.23233 119 132 188
0.84546 -3.53756 1.23292 86 90 150
0.84697 -3.56397 1.23389 51 66 124
0.82943 -3.57522 1.21753 47 57 106
0.83783 -3.57994 1.23560 41 50 116
0.83217 -3.59952 1.23707 59 69 120
0.81454 -3.61082 1.22064 62 70 114
0.81556 -3.63371 1.24040 57 59 114
0.78955 -3.65863 1.24437 32 54 128
0.79819 -3.69372 1.24493 117 156 201
0.79938 -3.72134 1.24599 154 185 214
0.78259 -3.73024 1.24824 154 184 212
0.78143 -3.73285 1.22926 163 188 214
0.76882 -3.76923 1.25146 149 179 202
0.78452 -3.76291 1.23011 158 184 217
0.75881 -3.78558 1.25328 121 142 145
0.79501 -3.85218 1.25213 82 82 82
0.77667 -3.86393 1.23504 70 65 82
0.86353 -4.34861 1.26597 92 99 82
0.88090 -4.34162 1.24236 73 79 80
0.84944 -4.36401 1.26820 107 115 96
0.85098 -4.39845 1.26952 117 125 106
0.83863 -4.41627 1.27166 122 129 112
0.82838 -4.43678 1.27369 125 127 110
0.81647 -4.45539 1.27582 115 121 115
0.81619 -4.48865 1.27729 101 110 107
0.79483 -4.49572 1.27997 95 105 99
0.78720 -4.52017 1.28187 97 110 105
0.77323 -4.53671 1.28414 95 103 98
0.75285 -4.54977 1.26515 85 89 91
0.76292 -4.66372 1.29078 87 92 83
0.78232 -4.65344 1.28818 89 93 88
0.78098 -4.65645 1.26624 91 98 95
0.75815 -4.69338 1.29259 82 87 76
0.74876 -4.71717 1.29467 68 67 65
0.73039 -4.95594 1.30703 79 90 96
0.74917 -4.94838 1.28150 79 86 81
0.71300 -4.97060 1.30960 133 154 137
0.70437 -4.99780 1.31174 97 95 119
0.68741 -5.01330 1.31429 104 107 112
0.67350 -5.03328 1.31670 125 130 133
0.65177 -5.04721 1.29645 149 152 150
0.65601 -5.04818 1.31929 138 144 158
0.63426 -5.06211 1.29902 152 160 157
0.63941 -5.06446 1.32184 151 163 158
0.61764 -5.07841 1.30155 156 163 159
0.62371 -5.08215 1.32435 158 167 157
0.60566 -5.09644 1.32698 139 142 138
0.58385 -5.11042 1.30665 122 127 124
0.58606 -5.10845 1.32968 129 142 139
0.56748 -5.12203 1.33233 135 148 158
-0.42536 -4.79403 1.42857 216 205 184
-0.40862 -4.78729 1.40581 211 202 191
-0.43441 -4.82146 1.43076 177 156 128
-0.45063 -4.83474 1.43314 126 107 75
-0.45350 -4.87531 1.43521 76 66 42
-0.47565 -4.87674 1.43773 36 37 28
-0.49506 -4.88918 1.41965 32 38 38
-0.51662 -4.93413 1.44477 35 42 40
-0.49964 -4.92729 1.42169 32 37 34
-0.51788 -4.93696 1.42414 31 36 36
-0.53134 -4.95135 1.44715 58 58 38
-0.55088 -4.96387 1.42894 33 33 25
-0.54626 -4.96825 1.44954 58 50 29
-0.56583 -4.98079 1.43130 29 32 22
-0.56445 -4.97820 1.45200 32 27 16
-0.58402 -4.99075 1.43376 29 38 21
-0.63529 -5.51847 1.48323 23 24 23
-0.61419 -5.50495 1.50289 33 31 30
-0.61556 -5.50801 1.48058 30 30 31
-0.65638 -5.53199 1.46357 14 15 9
-0.69876 -5.66265 1.49652 14 17 18
-0.69737 -5.65954 1.51919 13 18 13
-0.71364 -5.68690 1.49923 25 23 24
-0.72827 -5.71212 1.50194 46 43 32
-0.73743 -5.75243 1.50470 65 65 45
-0.75323 -5.77528 1.50745 83 86 75
-0.77151 -5.79155 1.51018 99 104 103
-0.79321 -5.80546 1.48995 113 114 114
-0.78990 -5.80762 1.51293 108 112 107
-0.81163 -5.82154 1.49268 113 113 111
-1.52820 -5.87169 1.59780 75 80 92
-1.54102 -5.91060 1.60091 89 107 129
-1.54748 -5.97853 1.60457 100 116 153
1.37855 -2.88496 1.12792 203 186 185
1.39277 -2.87923 1.10860 202 182 179
1.36211 -2.89221 1.13007 221 217 217
1.33950 -2.89500 1.13273 241 245 247
1.32320 -2.90545 1.11754 240 246 249
1.32419 -2.90303 1.13478 236 237 241
1.30902 -2.91117 1.13682 194 175 198
1.27686 -2.90678 1.14028 148 100 146
1.27482 -2.92458 1.14122 173 134 156
1.25532 -2.92947 1.14362 213 197 202
1.23905 -2.93990 1.12845 242 247 249
1.25197 -2.94646 1.14468 236 236 232
1.23565 -2.95692 1.12947 240 248 250
1.24311 -2.95938 1.14619 244 248 244
1.22676 -2.96986 1.13096 249 253 253
1.23785 -2.97511 1.14742 249 253 252
1.22146 -2.98561 1.13215 252 254 254
1.06276 -3.05909 1.17055 237 243 243
1.07699 -3.05336 1.15120 252 254 253
1.07665 -3.09114 1.17026 165 193 215
1.06611 -3.10332 1.17194 102 135 191
1.03736 -3.10043 1.17507 156 186 219
1.02092 -3.11097 1.15975 240 250 251
1.01710 -3.10450 1.17752 215 220 237
1.00216 -3.11299 1.17955 237 243 251
0.97210 -3.12983 1.18361 229 243 250
0.96152 -3.14207 1.18530 203 205 237
0.94507 -3.15261 1.16997 156 173 210
0.94660 -3.15061 1.18733 163 180 217
0.93015 -3.16116 1.17200 155 179 213
0.92927 -3.15707 1.18954 150 171 214
0.91283 -3.16761 1.17422 160 180 216
0.85004 -3.40043 1.20822 174 197 224
0.86709 -3.38950 1.22411 167 188 213
0.86598 -3.39198 1.20608 178 196 217
0.85114 -3.39795 1.22625 169 192 217
0.84673 -3.42097 1.20941 171 194 212
0.83016 -3.42891 1.21160 142 165 192
0.83743 -3.45994 1.21202 119 127 186
0.86019 -3.50639 1.21131 92 99 156
0.84608 -3.51712 1.21333 80 96 144
0.84992 -3.54563 1.21404 64 70 123
0.83243 -3.55685 1.19773 58 67 103
0.84546 -3.56614 1.21536 52 59 103
0.82791 -3.57739 1.19901 52 57 101
0.83137 -3.60243 1.21840 58 73 115
0.83023 -3.60499 1.19976 54 56 101
0.81660 -3.63852 1.22151 61 61 116
0.80540 -3.65283 1.22335 49 56 108
0.79137 -3.66429 1.22539 25 41 108
0.79430 -3.69347 1.22623 99 125 177
0.79987 -3.72569 1.22689 155 189 220
0.78191 -3.73720 1.21015 170 194 222
0.76806 -3.77229 1.23234 154 184 210
0.79969 -3.86122 1.23233 92 87 104
0.77982 -3.89538 1.23594 85 87 83
0.76257 -3.90452 1.23825 86 88 86
0.76138 -3.90720 1.21875 80 84 88
0.86569 -4.35564 1.24464 84 91 89
0.84572 -4.36845 1.22602 96 105 109
0.85304 -4.37281 1.24676 102 109 106
0.85045 -4.40231 1.24823 110 118 118
0.83936 -4.42168 1.25026 122 130 128
0.81896 -4.42972 1.25288 134 141 126
0.81996 -4.46428 1.25415 118 127 112
0.82231 -4.50089 1.25535 94 102 96
0.81106 -4.52077 1.25741 83 82 87
0.79067 -4.53383 1.23841 75 74 77
0.79527 -4.53502 1.25977 83 83 85
0.77062 -4.67864 1.26829 92 97 83
0.78873 -4.67135 1.24369 89 96 98
0.76790 -4.71111 1.26990 88 93 79
0.75859 -4.73513 1.27191 77 80 73
0.75027 -4.76067 1.27387 62 66 67
0.73062 -4.77109 1.27651 62 70 72
0.72925 -4.77414 1.25428 60 62 72
0.72344 -4.95128 1.28452 83 95 94
0.70450 -4.96367 1.28716 139 157 143
0.69994 -4.99663 1.28899 117 108 102
0.67921 -5.00667 1.29173 123 136 139
0.65756 -5.02055 1.27155 147 157 152
0.66009 -5.01905 1.29438 140 151 152
0.63844 -5.03293 1.27420 156 159 148
0.59472 -5.08536 1.30442 148 154 144
0.55960 -5.11538 1.30958 133 146 154
0.54155 -5.12973 1.31220 149 154 159
0.52258 -5.13737 1.33799 150 160 154
0.52116 -5.14054 1.31493 152 161 157
0.51975 -5.14371 1.29188 154 161 152
0.09880 -5.23602 1.36645 96 103 113
0.00704 -5.11725 1.37206 135 149 152
-0.42032 -4.80931 1.40801 216 206 182
-0.40354 -4.80256 1.38521 210 203 190
-0.43300 -4.87575 1.41210 133 111 78
-0.44842 -4.89108 1.41446 79 69 44
-0.47248 -4.88869 1.41708 37 39 33
-0.49192 -4.90115 1.39896 33 34 43
-0.53249 -4.95442 1.42648 33 37 33
-0.51548 -4.94758 1.40337 34 37 35
-0.53376 -4.95726 1.40582 35 39 34
-0.55203 -4.96695 1.40827 35 37 32
-0.69105 -5.62681 1.47127 20 17 25
-0.67111 -5.61624 1.46860 17 13 18
-0.70293 -5.65848 1.47388 35 35 48
-0.71762 -5.68318 1.47653 58 62 60
-0.73349 -5.70504 1.47919 80 91 72
-0.74644 -5.73503 1.48186 95 106 86
-0.76800 -5.74885 1.46175 112 118 114
-0.76083 -5.76151 1.48454 102 109 96
-0.78245 -5.77537 1.46438 114 118 114
-0.77598 -5.78624 1.48724 109 113 111
-0.79765 -5.80013 1.46704 117 121 114
-1.55810 -5.94056 1.58174 92 96 114
-1.57898 -5.95395 1.56227 97 97 102
-1.56033 -6.02885 1.58552 93 97 123
-1.58019 -6.03895 1.58817 96 105 138
-1.60043 -6.04726 1.59078 102 115 145
-1.61883 -6.05467 1.61579 161 181 199
-1.62236 -6.04752 1.59327 110 120 149
-1.64073 -6.05492 1.61824 172 185 203
-1.65156 -6.01248 1.59517 120 130 164
-1.66980 -6.01983 1.61995 188 195 197
-1.67251 -6.02591 1.57564 89 100 120
-1.67584 -5.99994 1.59741 132 144 172
-1.69401 -6.00726 1.62210 206 206 196
-1.69672 -6.01332 1.57795 86 101 139
1.36313 -2.87705 1.11192 199 178 180
1.37730 -2.87134 1.09266 201 181 171
1.36207 -2.87941 1.09470 200 179 171
1.35385 -2.88940 1.11343 211 194 193
1.34460 -2.90183 1.11495 234 231 229
1.30675 -2.91265 1.11969 230 230 236
1.30570 -2.91502 1.10245 241 249 251
1.29037 -2.91989 1.12183 225 218 223
1.27407 -2.93033 1.10664 240 247 248
1.26790 -2.92259 1.12451 237 236 230
1.25163 -2.93302 1.10935 235 248 250
1.25659 -2.93357 1.12621 244 246 244
1.24031 -2.94401 1.11103 238 250 251
1.05517 -3.05614 1.15380 249 251 251
1.06938 -3.05042 1.13449 247 251 252
1.05411 -3.05851 1.13654 248 252 252
1.03884 -3.06661 1.13858 248 253 253
1.04444 -3.06797 1.15547 239 245 243
1.03639 -3.08205 1.15691 229 235 235
1.02061 -3.08978 1.15900 238 245 249
1.00109 -3.11537 1.16218 227 244 248
0.99039 -3.12746 1.16385 202 209 234
0.97899 -3.13900 1.16558 167 184 222
0.96016 -3.14421 1.16793 155 169 221
0.94372 -3.15475 1.15261 164 178 211
0.85951 -3.36599 1.18762 181 202 224
0.87647 -3.35513 1.20342 175 194 217
0.87537 -3.35759 1.18549 184 204 221
0.86061 -3.36353 1.20555 177 195 215
0.86732 -3.39676 1.18786 178 194 211
0.87521 -3.45180 1.18897 115 134 177
0.87576 -3.47643 1.18981 81 106 131
0.86168 -3.48705 1.19182 78 74 139
0.85907 -3.50892 1.19292 86 108 140
0.84495 -3.51964 1.19493 95 103 125
0.82755 -3.53079 1.17872 57 64 101
0.85316 -3.55250 1.19520 69 75 102
0.83565 -3.56373 1.17888 56 66 102
0.82903 -3.62927 1.20079 51 57 108
0.81980 -3.64555 1.20244 64 81 114
0.80823 -3.65951 1.20428 56 68 118
0.79765 -3.67457 1.20605 34 48 106
0.77460 -3.67670 1.20877 68 82 139
0.80586 -3.73582 1.20736 147 182 218
0.78177 -3.76384 1.21115 166 192 218
0.78060 -3.76646 1.19207 176 199 222
0.76977 -3.77801 1.21304 161 189 211
0.76406 -3.79904 1.21447 160 181 192
0.79301 -3.85792 1.21331 103 110 119
0.78499 -3.90507 1.21597 77 82 88
0.76652 -3.91691 1.19875 73 79 87
0.85427 -4.34640 1.22423 88 88 97
0.84352 -4.43129 1.22859 94 101 109
0.83386 -4.45262 1.23048 107 113 107
0.82493 -4.47502 1.23232 101 110 95
0.83325 -4.51919 1.23299 85 92 82
0.81284 -4.53227 1.21397 73 74 71
0.80625 -4.51933 1.23609 76 74 78
0.78588 -4.53238 1.21711 72 74 73
0.77990 -4.55454 1.24041 77 79 80
0.77248 -4.57972 1.24218 85 86 90
0.75464 -4.58690 1.26643 90 96 98
0.75332 -4.58988 1.24475 90 94 98
0.75199 -4.59286 1.22308 88 91 89
0.78126 -4.69744 1.24550 96 104 92
0.77336 -4.72319 1.24735 102 108 91
0.76630 -4.75028 1.24916 91 94 84
0.76105 -4.78007 1.25085 76 77 75
0.73997 -4.79358 1.23120 57 54 69
0.72187 -4.91532 1.26031 80 84 85
0.74330 -4.90158 1.28029 78 85 86
0.74191 -4.90469 1.25762 78 84 88
0.74052 -4.90781 1.23496 80 85 87
0.71472 -4.94410 1.26219 106 108 102
0.69196 -4.95101 1.26505 151 169 156
0.69102 -4.98905 1.26656 145 142 107
0.66942 -5.00290 1.24642 142 146 157
0.66264 -4.98798 1.26977 133 143 153
0.64108 -5.00180 1.24968 150 159 154
0.59523 -5.05039 1.27979 137 148 171
0.61547 -5.03966 1.27708 153 158 163
0.61407 -5.04280 1.25420 152 158 164
0.57359 -5.06426 1.25962 158 178 180
0.57583 -5.06237 1.28246 159 173 170
0.56391 -5.08564 1.28468 127 126 133
0.54948 -5.10530 1.28706 130 138 149
0.52937 -5.11641 1.28977 150 158 157
0.50764 -5.13034 1.26951 155 162 152
0.27868 -5.27948 1.32450 139 143 136
0.30050 -5.26549 1.34485 134 137 137
0.29909 -5.26866 1.32177 139 142 135
0.28009 -5.27631 1.34759 131 136 136
0.25685 -5.29347 1.30416 151 155 143
0.11108 -5.21723 1.34143 121 116 112
0.07083 -5.19154 1.34510 54 45 65
0.04961 -5.20515 1.32532 35 36 54
0.06870 -5.23405 1.34691 55 70 92
-0.42008 -4.86085 1.38924 184 165 136
-0.42341 -4.90055 1.39108 140 118 83
-0.44045 -4.91278 1.39349 84 73 43
-0.46886 -4.90159 1.39633 39 39 35
-0.48834 -4.91408 1.37818 36 30 38
-0.67216 -5.55899 1.44379 20 16 18
-0.68404 -5.58972 1.44628 26 26 26
-0.69495 -5.62338 1.44877 46 48 47
-0.70943 -5.64820 1.45134 74 76 78
-0.72524 -5.66982 1.45395 96 104 92
-0.74663 -5.68353 1.43400 120 120 109
-0.73817 -5.69935 1.45652 109 116 102
-0.75964 -5.71311 1.43651 117 119 119
-0.75097 -5.72969 1.45910 112 119 113
-0.77250 -5.74349 1.43902 116 121 119
-1.52422 -5.90644 1.55425 84 93 95
-1.54505 -5.91979 1.53483 93 98 97
-1.61390 -6.09717 1.57154 94 95 112
-1.63516 -6.11080 1.55172 92 95 91
1.34998 -2.88974 1.09645 199 181 176
1.36416 -2.88403 1.07718 200 182 170
1.34892 -2.89211 1.07922 198 181 174
1.33368 -2.90018 1.08127 208 193 192
1.32396 -2.89000 1.09949 217 211 213
1.29977 -2.89149 1.10235 239 244 248
1.26824 -2.90668 1.10653 242 248 249
1.25202 -2.91707 1.09142 231 248 252
1.03148 -3.08125 1.13993 242 253 251
1.01955 -3.09216 1.14168 228 242 246
1.00819 -3.10359 1.14339 200 204 228
0.99302 -3.11185 1.14543 163 184 211
0.98337 -3.12480 1.14699 154 174 209
0.97172 -3.13610 1.14872 155 172 207
0.95467 -3.14279 1.15093 158 171 209
0.87727 -3.33972 1.16653 185 205 224
0.89417 -3.32889 1.18228 179 193 220
0.89307 -3.33134 1.16441 186 199 219
0.87977 -3.36519 1.16709 180 197 211
0.88457 -3.39305 1.16747 149 172 204
0.91184 -3.44242 1.16595 121 134 188
0.88737 -3.44305 1.16882 91 92 164
0.88099 -3.46092 1.17016 60 75 132
0.87375 -3.47808 1.17158 60 70 114
0.85643 -3.48917 1.15544 59 70 119
0.86761 -3.49642 1.17290 69 72 119
0.85025 -3.50755 1.15673 52 68 120
0.86182 -3.51524 1.17421 65 83 122
0.84441 -3.52639 1.15798 52 63 116
0.86154 -3.53961 1.17506 64 70 113
0.84406 -3.55082 1.15877 50 65 108
0.84303 -3.62165 1.17996 59 60 104
0.85958 -3.61287 1.17774 56 56 101
0.85843 -3.61545 1.15902 53 58 98
0.84188 -3.62422 1.16124 61 70 107
0.84142 -3.64563 1.18095 72 88 121
0.82567 -3.65532 1.18311 82 93 110
0.80790 -3.66671 1.16654 58 63 89
0.81721 -3.67254 1.18467 60 69 93
0.80762 -3.68870 1.18633 50 57 102
0.79294 -3.69965 1.18840 33 43 117
0.79413 -3.72732 1.18919 129 157 199
0.80237 -3.76271 1.18941 173 197 222
0.78431 -3.77429 1.17258 184 203 219
0.77655 -3.78917 1.19331 171 194 216
0.77537 -3.79179 1.17416 181 200 218
0.76580 -3.80482 1.19508 173 192 203
0.79674 -3.86594 1.19353 132 141 136
0.80797 -3.90618 1.19357 79 78 65
0.79413 -3.91917 1.19561 70 75 80
0.83867 -4.36440 1.20534 99 107 95
0.83749 -4.42843 1.20762 81 82 90
0.81735 -4.44134 1.18885 84 84 88
0.83761 -4.46181 1.20872 87 88 87
0.81737 -4.47478 1.18986 84 85 82
0.82944 -4.48521 1.21046 86 89 81
0.80915 -4.49822 1.19154 81 82 74
0.82765 -4.51679 1.21172 79 82 73
0.80726 -4.52986 1.19272 77 78 76
0.77736 -4.55595 1.21889 74 76 78
0.76557 -4.57549 1.22092 83 85 86
0.78385 -4.66976 1.22194 88 93 97
0.76307 -4.68308 1.20257 113 127 118
0.78671 -4.70944 1.22294 104 115 104
0.77942 -4.73608 1.22468 111 122 106
0.76678 -4.75580 1.22681 98 104 99
0.76374 -4.78859 1.22826 83 83 84
0.74263 -4.80212 1.20859 52 58 68
0.74997 -4.84468 1.23174 65 77 82
0.73147 -4.85212 1.25689 74 81 87
0.73010 -4.85521 1.23441 77 84 85
0.71796 -4.91491 1.23782 87 93 93
0.70488 -4.93532 1.24003 142 144 128
0.67779 -4.93599 1.24320 160 175 175
0.66629 -4.95881 1.24531 158 163 147
0.64482 -4.97257 1.22529 150 156 154
0.58275 -5.03705 1.25765 127 144 170
0.60152 -5.02949 1.23213 148 153 157
0.56117 -5.05088 1.23754 164 177 173
0.55996 -5.08495 1.26190 128 132 148
0.54703 -5.10688 1.26414 130 135 151
0.52531 -5.12081 1.24389 155 159 160
0.52633 -5.11707 1.26689 154 162 159
0.50461 -5.13099 1.24664 154 164 156
0.35209 -5.22815 1.29089 146 146 147
0.37387 -5.21419 1.31119 148 151 147
0.37105 -5.22052 1.26512 159 165 161
0.35351 -5.22499 1.31392 145 149 143
0.33314 -5.23578 1.31665 142 148 139
0.33173 -5.23895 1.29362 143 147 142
0.29880 -5.27373 1.29862 148 149 140
0.32063 -5.25974 1.31897 139 145 143
0.31921 -5.26291 1.29588 144 144 144
0.27696 -5.28773 1.27827 154 159 150
0.27864 -5.28499 1.30134 151 155 140
0.25680 -5.29899 1.28099 151 155 145
0.07391 -5.20262 1.32241 68 56 64
0.02657 -5.20986 1.32816 43 57 74
-0.01858 -5.17381 1.33221 97 117 138
-0.09121 -5.13231 1.33927 197 195 183
-0.10929 -5.13959 1.36385 209 198 179
-0.11064 -5.14261 1.34188 206 196 179
-0.41228 -4.88188 1.36825 189 172 144
-0.41377 -4.92551 1.36988 147 125 91
-0.43721 -4.92485 1.37259 90 79 41
-0.46697 -4.91093 1.37559 44 40 26
-0.48647 -4.92343 1.35741 38 30 29
-0.65028 -5.50058 1.41667 19 17 14
-0.63064 -5.49018 1.41403 13 15 16
-0.66323 -5.52779 1.41908 24 26 21
-0.67382 -5.56133 1.42144 43 42 40
-0.69123 -5.57789 1.42402 62 70 59
-0.70706 -5.59865 1.42656 87 96 82
-0.71483 -5.64078 1.42887 108 111 97
-0.73615 -5.65445 1.40900 123 128 109
-0.72733 -5.67105 1.43134 117 120 102
-0.74872 -5.68476 1.41140 117 120 106
1.28932 -2.88698 1.08610 224 214 220
1.30341 -2.88131 1.06696 200 183 176
1.27808 -2.89786 1.08776 225 227 240
1.26188 -2.90824 1.07266 214 221 229
1.25785 -2.90213 1.09028 225 236 248
1.24167 -2.91250 1.07520 226 250 253
1.04320 -3.05284 1.12019 242 253 253
1.05843 -3.04476 1.11814 248 253 253
1.03829 -3.06940 1.12127 227 242 248
1.03049 -3.08369 1.12262 198 204 232
1.02123 -3.09682 1.12411 165 184 218
1.00063 -3.10053 1.12666 153 172 212
0.99104 -3.11346 1.12818 153 174 205
0.97911 -3.12447 1.12992 154 166 192
0.94887 -3.11987 1.13335 155 144 174
0.93253 -3.13034 1.11812 176 175 182
0.94649 -3.13907 1.13422 162 157 186
0.93568 -3.15110 1.13586 169 176 210
0.92033 -3.15924 1.13792 176 189 220
0.88870 -3.30793 1.14615 190 207 218
0.90551 -3.29715 1.16182 184 198 214
0.90442 -3.29959 1.14404 194 205 218
0.88979 -3.30549 1.16393 185 199 215
0.89827 -3.33960 1.14598 180 197 212
0.90182 -3.36600 1.14635 155 170 202
0.92582 -3.41174 1.14490 123 134 184
0.92047 -3.43035 1.14610 81 97 155
0.90323 -3.44140 1.13003 47 50 116
0.90360 -3.43819 1.14833 59 72 143
0.89103 -3.45011 1.15017 51 55 130
0.88000 -3.46355 1.15188 48 60 115
0.87262 -3.48059 1.15327 54 66 114
0.85693 -3.58865 1.15839 48 63 102
0.84709 -3.65515 1.16156 53 70 116
0.84593 -3.65774 1.14274 52 64 115
0.82929 -3.66656 1.14497 56 64 108
0.83843 -3.67216 1.16310 62 65 106
0.82059 -3.68359 1.14647 59 66 103
0.81830 -3.70360 1.16643 60 59 100
0.80040 -3.71507 1.14974 38 46 93
0.80730 -3.71847 1.16818 26 38 107
0.80743 -3.74516 1.16897 99 117 171
0.81116 -3.77590 1.16946 170 195 216
0.77749 -3.82137 1.17481 183 198 212
0.79332 -3.81500 1.15329 188 203 216
0.74866 -3.81751 1.17810 159 172 172
0.80960 -3.91196 1.17376 91 90 91
0.80279 -3.93275 1.17519 68 70 77
0.79432 -3.95185 1.17677 68 75 82
0.77812 -3.95837 1.19879 76 79 87
0.77691 -3.96108 1.17910 72 77 86
0.79926 -4.55404 1.19440 82 82 79
0.81706 -4.54687 1.17021 81 82 78
0.79399 -4.58192 1.19586 85 88 85
0.77347 -4.59507 1.17673 99 105 100
0.78327 -4.60302 1.19777 90 94 91
0.79987 -4.69552 1.19860 104 113 112
0.77769 -4.73862 1.20253 109 117 107
0.77227 -4.76802 1.20406 90 100 98
0.77463 -4.80818 1.20499 71 75 82
0.75345 -4.82176 1.18525 52 60 55
0.75028 -4.85007 1.20914 65 75 82
0.74078 -4.87494 1.21101 78 86 85
0.72762 -4.89493 1.21317 86 89 95
0.71689 -4.91847 1.21515 110 120 122
0.69547 -4.93220 1.19518 179 194 176
0.68596 -4.91372 1.21866 167 182 157
0.67020 -4.93029 1.22102 162 168 172
0.64882 -4.94399 1.20109 163 170 161
0.65342 -4.94549 1.22346 156 164 164
0.54735 -5.07117 1.23979 133 141 154
0.56616 -5.06360 1.21422 169 171 167
0.52574 -5.08502 1.21964 142 146 149
0.53525 -5.09424 1.24191 139 142 148
0.34155 -5.21625 1.26848 155 160 156
0.36046 -5.20864 1.24279 160 167 154
0.34014 -5.21941 1.24551 163 167 154
0.31983 -5.23017 1.24823 166 167 155
0.33112 -5.24346 1.27053 156 160 153
0.30934 -5.25742 1.25023 165 167 154
0.31465 -5.26080 1.27300 156 156 153
0.29283 -5.27478 1.25267 162 167 155
0.29906 -5.27975 1.27542 157 158 151
0.10555 -5.21854 1.29642 137 140 122
0.12413 -5.21106 1.27117 144 146 133
0.08045 -5.21990 1.29942 103 101 86
0.04460 -5.20166 1.30311 76 63 48
-0.00416 -5.20591 1.30899 27 33 48
-0.02174 -5.22044 1.31151 76 96 116
-0.39424 -4.92355 1.34652 193 176 148
-0.41683 -4.92474 1.34922 152 129 100
-0.56268 -5.31832 1.37835 28 27 26
-0.54211 -5.30513 1.39753 31 36 26
-0.54344 -5.30812 1.37577 33 31 31
-0.56135 -5.31533 1.40011 30 32 28
-0.58059 -5.32553 1.40269 28 30 20
-0.58326 -5.33151 1.35917 18 16 24
-0.57867 -5.33615 1.38078 23 21 23
-0.59794 -5.34636 1.38336 18 17 17
-0.59928 -5.34935 1.36157 18 16 20
-0.63060 -5.43835 1.39000 17 14 23
-0.60977 -5.42499 1.40942 17 19 8
-0.61112 -5.42802 1.38739 15 17 12
-0.62925 -5.43532 1.41203 12 14 14
-0.64309 -5.46590 1.39231 20 20 26
-0.65369 -5.49852 1.39455 29 32 23
-0.66938 -5.51880 1.39702 55 59 41
-0.68167 -5.54792 1.39935 83 88 71
-0.69875 -5.56517 1.40189 102 110 96
-0.71985 -5.57870 1.38221 111 118 112
-0.70789 -5.60315 1.40411 111 118 107
-0.72909 -5.61675 1.38435 118 129 119
-0.71936 -5.63561 1.40645 121 125 111
-0.74065 -5.64925 1.38661 117 129 117
-1.49877 -5.93902 1.50767 57 54 73
-1.48053 -5.93168 1.48288 86 89 73
-1.51836 -5.94941 1.51030 70 82 83
1.30605 -2.90233 1.06721 202 186 184
1.32019 -2.89664 1.04799 200 182 179
1.30499 -2.90469 1.05003 201 183 180
1.29634 -2.91443 1.06870 203 195 202
1.12914 -2.96347 1.09006 245 235 241
1.14529 -2.95311 1.10511 244 252 254
1.14319 -2.95781 1.07095 227 234 243
1.13018 -2.96112 1.10714 245 252 254
1.12809 -2.96581 1.07298 239 231 238
1.11508 -2.96913 1.10917 246 252 254
1.11416 -2.97157 1.09207 245 247 246
1.10010 -2.97723 1.11118 252 254 254
1.09905 -2.97958 1.09410 252 254 254
1.05017 -3.02092 1.10107 240 253 253
1.06637 -3.01054 1.11617 242 250 252
1.06532 -3.01289 1.09904 246 253 254
1.05122 -3.01857 1.11820 245 251 251
1.04082 -3.03366 1.10254 228 242 248
1.05692 -3.06729 1.10152 200 206 235
1.03365 -3.06882 1.10435 167 182 225
1.01599 -3.07492 1.10663 156 174 214
1.01275 -3.09302 1.10750 154 172 208
0.99777 -3.10139 1.10952 156 164 203
0.98487 -3.11153 1.11134 161 159 186
0.96009 -3.11160 1.11431 159 140 178
0.95881 -3.13165 1.11501 168 150 172
0.93112 -3.15046 1.11883 172 159 192
0.91632 -3.15906 1.12084 180 186 201
0.90205 -3.16481 1.14024 179 193 217
0.90604 -3.17162 1.12241 185 197 218
0.89174 -3.17738 1.14184 182 196 218
0.89068 -3.17977 1.12447 187 201 216
0.88961 -3.18215 1.10710 194 204 218
0.89289 -3.27000 1.12664 190 206 222
0.90959 -3.25929 1.14221 188 201 216
0.90851 -3.26172 1.12455 194 206 219
0.89398 -3.26757 1.14430 189 199 218
0.90664 -3.30505 1.12594 184 198 207
0.91141 -3.33222 1.12610 159 172 206
0.94135 -3.38288 1.12388 123 138 187
0.94775 -3.41220 1.12391 83 94 152
0.92772 -3.41706 1.12644 65 70 141
0.91172 -3.42566 1.12859 54 57 125
0.88991 -3.45261 1.13193 53 56 105
0.87841 -3.46561 1.13366 55 55 99
0.87181 -3.48341 1.13493 55 53 96
0.86809 -3.50412 1.13594 57 62 110
0.86288 -3.52354 1.13709 60 71 115
0.86103 -3.54642 1.13792 60 68 113
0.86111 -3.57141 1.13859 53 62 102
0.86077 -3.59619 1.13930 46 48 94
0.85799 -3.61872 1.14024 55 51 90
0.85743 -3.64370 1.14098 62 63 104
0.83239 -3.72206 1.14610 68 68 107
0.84803 -3.71576 1.12484 53 59 107
0.79337 -3.73418 1.15110 62 72 128
0.80686 -3.80227 1.15132 188 203 216
0.78869 -3.81392 1.13438 194 208 219
0.78455 -3.83294 1.15483 187 203 215
0.78337 -3.83559 1.13554 191 207 217
0.77417 -3.84925 1.15651 180 195 196
0.77719 -3.88038 1.15699 107 117 120
0.80312 -3.93715 1.15541 67 66 70
0.79497 -3.95662 1.15692 64 68 73
0.78943 -3.97917 1.15819 71 78 78
0.77075 -3.99115 1.14077 76 74 69
0.87349 -4.38285 1.15902 80 84 82
0.87219 -4.38577 1.13782 75 78 70
0.85345 -4.39570 1.14034 74 76 67
0.86042 -4.39965 1.16104 77 81 78
0.81774 -4.68781 1.17393 106 113 104
0.79638 -4.73186 1.17768 108 121 110
0.79472 -4.76614 1.17881 98 98 96
0.78940 -4.79586 1.18025 80 79 84
0.78087 -4.82154 1.18196 63 64 64
0.75132 -4.85648 1.18644 63 70 71
0.74328 -4.88340 1.18814 79 92 83
0.72663 -4.89859 1.19054 104 109 115
0.70319 -4.90434 1.19350 142 153 157
0.66818 -4.93249 1.19846 165 166 162
0.66679 -4.93560 1.17585 167 171 164
0.63243 -4.95980 1.20348 157 163 149
0.61380 -4.96730 1.22880 150 160 153
0.61103 -4.97352 1.18353 144 147 142
0.61530 -4.97461 1.20593 144 152 143
0.59666 -4.98212 1.23127 146 153 158
0.59527 -4.98523 1.20862 142 150 156
0.53957 -5.06466 1.21744 143 152 162
0.55835 -5.05710 1.19192 165 168 165
0.51800 -5.07849 1.19733 148 152 154
0.08467 -5.23305 1.27649 138 135 120
0.07008 -5.25338 1.27878 121 121 96
0.05222 -5.26790 1.28132 85 83 45
-0.03634 -5.19892 1.29006 29 42 57
-0.04587 -5.22841 1.29200 96 111 113
-0.37158 -4.92776 1.32291 214 203 177
-0.35444 -4.92086 1.29961 206 197 178
-0.37285 -4.93062 1.30208 212 201 177
-0.38523 -4.94711 1.32507 196 179 151
-0.40838 -4.94734 1.32785 155 131 105
-0.41890 -4.97331 1.32981 102 90 59
-0.53615 -5.27675 1.35205 30 33 28
-0.51566 -5.26362 1.37114 35 37 36
-0.51699 -5.26659 1.34948 34 38 35
-0.53482 -5.27377 1.37371 34 36 28
-0.55663 -5.28988 1.33295 16 18 16
-0.54747 -5.30492 1.35417 27 23 30
-0.56802 -5.31809 1.33501 15 18 14
-0.56452 -5.32015 1.35662 21 18 21
-0.58509 -5.33334 1.33745 17 17 22
-0.62295 -5.40573 1.36593 21 19 20
-0.60221 -5.39243 1.38526 12 15 8
-0.60355 -5.39545 1.36333 15 15 11
-0.63408 -5.43618 1.36809 26 29 37
-0.64727 -5.46197 1.37036 50 53 49
-0.65966 -5.49008 1.37261 68 76 58
-0.67282 -5.51663 1.37490 98 103 83
-0.69381 -5.53008 1.35533 118 122 108
-0.69012 -5.53297 1.37742 110 115 94
-0.71113 -5.54644 1.35783 118 120 109
-0.70202 -5.56333 1.37966 111 117 105
-0.72311 -5.57685 1.36001 112 119 116
-1.50049 -5.94052 1.48551 70 61 71
-1.48226 -5.93318 1.46073 92 98 89
-1.50185 -5.94356 1.46336 92 93 89
-1.52144 -5.95395 1.46599 70 68 61
1.24853 -2.88234 1.05636 200 187 183
1.26253 -2.87670 1.03732 205 183 179
1.24748 -2.88468 1.03934 204 186 177
1.23243 -2.89265 1.04136 207 195 189
1.24139 -2.89618 1.05756 207 207 207
1.20794 -2.89047 1.06149 221 240 242
1.19397 -2.89609 1.08047 228 251 252
1.19293 -2.89842 1.06350 224 251 252
1.14989 -2.92382 1.06933 224 229 243
1.16595 -2.91352 1.08430 229 250 250
1.15093 -2.92148 1.08632 232 248 250
1.14885 -2.92615 1.05235 227 218 236
1.13487 -2.93178 1.07135 224 234 244
1.10748 -2.96951 1.07557 244 231 242
1.10644 -2.97185 1.05852 247 246 249
1.09210 -2.97727 1.07763 251 253 254
1.07807 -2.98292 1.09670 254 254 254
1.07945 -2.98719 1.07940 250 254 254
1.06540 -2.99284 1.09849 252 254 254
1.06585 -2.99638 1.08127 240 251 253
1.05274 -3.00598 1.08309 224 234 248
1.04981 -3.02383 1.08387 196 203 234
1.04747 -3.04229 1.08459 167 179 214
1.03695 -3.05418 1.08616 152 152 187
1.02800 -3.06741 1.08756 154 148 174
1.01519 -3.07751 1.08935 160 172 191
1.00062 -3.08616 1.09133 160 146 171
0.98532 -3.09421 1.09338 160 137 153
0.96767 -3.10026 1.09567 155 109 108
0.95607 -3.11145 1.09735 160 120 155
0.94237 -3.12087 1.09924 169 124 140
0.93564 -3.13631 1.10042 174 150 174
0.92208 -3.14593 1.10230 172 161 176
0.92516 -3.17008 1.10250 186 194 207
0.90872 -3.18062 1.08717 196 206 223
0.90935 -3.17785 1.10460 190 200 218
0.89529 -3.23102 1.10757 193 206 226
0.91187 -3.22039 1.12303 189 200 221
0.91080 -3.22280 1.10549 196 206 221
0.89637 -3.22861 1.12511 191 203 223
0.89656 -3.25435 1.10798 187 201 222
0.92504 -3.30256 1.10566 158 173 212
0.95640 -3.35391 1.10307 125 137 183
0.96721 -3.38695 1.10254 93 98 167
0.94630 -3.39096 1.10518 58 74 140
0.93525 -3.40411 1.10683 51 52 122
0.92504 -3.41809 1.10840 59 51 104
0.91060 -3.42816 1.11040 56 53 109
0.90419 -3.44588 1.11160 59 72 125
0.88695 -3.45693 1.09552 119 148 155
0.90144 -3.46720 1.11244 97 111 132
0.89938 -3.48936 1.11322 105 116 138
0.89539 -3.50983 1.11419 116 127 151
0.88944 -3.52855 1.11536 121 134 146
0.88726 -3.55109 1.11616 127 136 157
0.89135 -3.58002 1.11635 126 130 154
0.89198 -3.60577 1.11688 117 127 140
0.89230 -3.63143 1.11745 111 116 129
0.88390 -3.64855 1.11888 109 110 124
0.87476 -3.66502 1.12038 83 98 113
0.87377 -3.68991 1.12109 62 66 104
0.86344 -3.70541 1.12272 50 58 98
0.84184 -3.73573 1.12606 60 59 107
0.84067 -3.73835 1.10700 53 50 103
0.82382 -3.74728 1.10926 47 53 93
0.83196 -3.75197 1.12765 42 51 91
0.80643 -3.75180 1.13075 27 43 106
0.82759 -3.80111 1.12935 128 155 186
0.81371 -3.81349 1.13133 185 202 218
0.79550 -3.82517 1.11435 200 211 218
0.77832 -3.85773 1.13668 191 206 206
0.79424 -3.85132 1.11505 197 208 218
0.75985 -3.86530 1.13911 140 146 142
0.80885 -3.94752 1.13511 72 57 64
0.79023 -3.95945 1.11776 59 60 54
0.79410 -3.95970 1.13719 58 59 58
0.79355 -3.98787 1.13793 67 75 72
0.77484 -3.99986 1.12049 77 73 68
0.85477 -4.43012 1.14099 72 78 66
0.87231 -4.42306 1.11716 79 81 75
0.83462 -4.44304 1.12222 95 102 92
0.84761 -4.45447 1.14244 82 93 81
0.81770 -4.69256 1.15174 93 100 99
0.81558 -4.72575 1.15278 97 110 93
0.80867 -4.75294 1.15427 94 107 88
0.80415 -4.78356 1.15555 86 89 89
0.78301 -4.79711 1.13584 74 85 88
0.79201 -4.80427 1.15751 79 79 82
0.78122 -4.82695 1.15936 67 68 56
0.76448 -4.84172 1.16175 54 56 46
0.74867 -4.85782 1.16405 64 73 65
0.73029 -4.87046 1.16659 109 123 103
0.70346 -4.87137 1.16987 140 146 144
0.69170 -4.89326 1.17182 161 170 164
0.67676 -4.91084 1.17405 172 181 175
0.65544 -4.92451 1.15418 163 172 167
0.63328 -4.92680 1.17972 163 172 164
0.61198 -4.94045 1.15987 145 148 149
0.61723 -4.94294 1.18205 155 160 149
0.57029 -4.99369 1.18896 158 167 162
0.55027 -5.00429 1.19165 150 162 155
0.54889 -5.00740 1.16902 149 161 153
0.09682 -5.26048 1.25284 139 141 137
0.11548 -5.25297 1.22747 148 153 137
0.09543 -5.26360 1.23016 143 152 140
0.07537 -5.27423 1.23285 136 141 142
0.07703 -5.27160 1.25551 135 141 130
0.04431 -5.25908 1.25919 131 130 109
-0.02601 -5.22374 1.26690 84 93 88
-0.04610 -5.23362 1.26957 98 118 109
-0.06723 -5.24717 1.24987 124 134 125
-0.15967 -5.11313 1.28051 167 173 172
-0.38182 -4.95944 1.30386 201 186 154
-0.36461 -4.95252 1.28047 212 200 173
-0.41068 -4.99567 1.30823 108 92 68
-0.52004 -5.26567 1.32793 26 32 24
-0.54051 -5.27880 1.30885 14 20 8
-0.53866 -5.27701 1.33046 20 25 18
-0.55914 -5.29014 1.31138 15 18 12
-0.60057 -5.35244 1.33978 24 20 16
-0.61184 -5.38183 1.34185 20 26 13
-0.61936 -5.42068 1.34369 42 47 38
-0.62968 -5.45325 1.34571 62 73 60
-0.64573 -5.47215 1.34811 97 103 83
-0.66472 -5.48389 1.35070 113 116 101
-0.68562 -5.49729 1.33122 118 121 117
-0.67906 -5.50736 1.35300 119 123 111
-0.70001 -5.52079 1.33348 117 119 111
1.19422 -2.88334 1.04588 217 221 223
1.20815 -2.87773 1.02695 205 187 182
1.19319 -2.88566 1.02896 209 201 205
1.15530 -2.87327 1.05047 225 247 251
1.14145 -2.87884 1.06929 225 250 251
1.14042 -2.88115 1.05247 230 250 251
1.13902 -2.89929 1.05301 233 233 243
1.10957 -2.95453 1.05777 243 237 242
1.12461 -2.94656 1.05576 227 232 242
1.12356 -2.94890 1.03875 242 246 247
1.09082 -2.97942 1.06060 238 249 252
1.07782 -2.98907 1.06240 221 231 243
1.06883 -3.00195 1.06377 190 201 230
1.06001 -3.01502 1.06512 164 183 225
1.05272 -3.02939 1.06632 153 170 213
1.04680 -3.04496 1.06737 152 167 200
1.03442 -3.05533 1.06911 154 147 169
1.02195 -3.06566 1.07085 158 117 147
1.01216 -3.07824 1.07232 167 164 173
0.99586 -3.08869 1.05712 162 119 150
0.99931 -3.08832 1.07411 163 143 164
0.98335 -3.09581 1.07623 165 138 154
0.96561 -3.10178 1.07854 158 116 120
0.95469 -3.11354 1.08013 168 131 132
0.95015 -3.13081 1.08104 175 155 166
0.94468 -3.14740 1.08205 180 170 190
0.92828 -3.15791 1.06677 200 207 220
0.93933 -3.16419 1.08306 188 192 200
0.92382 -3.17223 1.08514 196 203 217
0.89529 -3.19050 1.08903 195 206 219
0.90518 -3.22116 1.08844 188 199 214
0.95820 -3.29077 1.08333 160 173 203
0.97498 -3.32847 1.08204 125 135 184
0.97166 -3.34832 1.08285 86 95 163
0.96023 -3.36090 1.08452 64 71 137
0.95148 -3.37600 1.08591 55 56 120
0.94516 -3.39343 1.08705 47 57 113
0.93567 -3.40802 1.08852 56 68 116
0.93147 -3.42766 1.08944 102 114 142
0.92175 -3.44223 1.09093 109 121 152
0.91900 -3.46351 1.09171 110 135 167
0.91382 -3.50686 1.09324 120 136 162
0.90974 -3.52736 1.09416 136 154 174
0.89971 -3.54220 1.09570 147 167 183
0.90023 -3.56749 1.09616 155 166 188
0.88263 -3.57877 1.07975 147 161 185
0.90295 -3.59517 1.09639 151 159 183
0.91661 -3.63398 1.09550 154 168 178
0.89878 -3.64541 1.07888 174 182 196
0.92744 -3.67036 1.09491 164 178 182
0.92217 -3.69088 1.09599 152 161 170
0.92032 -3.71502 1.09671 130 142 149
0.89296 -3.71330 1.10005 113 118 131
0.87119 -3.71720 1.10281 80 83 109
0.86218 -3.73423 1.10427 58 52 96
0.81651 -3.76631 1.11056 22 41 100
0.83224 -3.75997 1.08918 50 50 85
0.88751 -3.86874 1.10391 93 116 159
0.81908 -3.82315 1.11141 174 196 214
0.78380 -3.86768 1.11667 196 207 214
0.79975 -3.86125 1.09499 199 210 217
0.78444 -3.89632 1.11718 170 174 172
0.81250 -3.95560 1.11494 90 76 85
0.79487 -3.99343 1.11788 65 72 71
0.79366 -3.99615 1.09809 64 67 64
0.77615 -4.00543 1.10043 71 67 65
0.86289 -4.44457 1.11876 82 89 74
0.88047 -4.43749 1.09487 86 86 73
0.84270 -4.45751 1.09994 99 101 94
0.84304 -4.48680 1.12208 86 87 82
0.82406 -4.49686 1.12462 74 73 66
0.84704 -4.55967 1.12308 83 87 75
0.84837 -4.55668 1.14478 84 87 80
0.82652 -4.57282 1.10395 98 104 76
0.83693 -4.58133 1.12477 91 97 77
0.83239 -4.64532 1.12664 87 91 87
0.81164 -4.65863 1.10729 69 79 74
0.83022 -4.67791 1.12758 78 88 84
0.80936 -4.69128 1.10814 67 79 75
0.82437 -4.70605 1.12888 75 83 86
0.82383 -4.74141 1.12967 83 96 85
0.81466 -4.76573 1.13130 82 92 82
0.80455 -4.78899 1.13302 75 83 89
0.77456 -4.82290 1.13741 76 77 73
0.76065 -4.84146 1.13951 72 71 77
0.74692 -4.86040 1.14159 94 103 102
0.71866 -4.85937 1.14505 151 160 149
0.69744 -4.87298 1.12527 170 173 178
0.70123 -4.87327 1.14749 168 172 175
0.68000 -4.88688 1.12769 171 180 180
0.67989 -4.88171 1.15029 172 181 175
0.65866 -4.89532 1.13050 154 165 163
0.66476 -4.89892 1.15251 157 165 168
0.62243 -4.91629 1.15808 149 164 158
0.59410 -4.95396 1.16235 156 161 157
0.57279 -4.96762 1.14248 160 169 161
0.57707 -4.96879 1.16475 157 169 165
0.55574 -4.98246 1.14487 162 171 164
0.51668 -5.04047 1.17366 160 172 172
0.53535 -5.03296 1.14829 151 164 159
0.51529 -5.04359 1.15098 167 178 169
0.05503 -5.28435 1.23557 133 139 141
0.07370 -5.27683 1.21020 138 143 141
0.05364 -5.28746 1.21289 128 136 143
0.03359 -5.29809 1.21558 134 145 128
0.02122 -5.26956 1.23943 133 141 126
-0.00013 -5.28325 1.21953 130 139 127
-0.06147 -5.21039 1.24841 129 139 126
-0.28691 -5.01292 1.27214 201 198 179
-0.30568 -5.02287 1.27465 206 198 176
-0.36668 -4.99545 1.28161 206 190 156
-0.34936 -4.98848 1.25808 211 199 175
-0.39658 -4.98229 1.28503 165 143 111
-0.40611 -5.01060 1.28678 112 96 68
-0.44583 -4.97660 1.29098 65 58 40
-0.49454 -5.22295 1.30204 25 33 18
-0.47417 -5.20989 1.32103 28 38 25
-0.47549 -5.21285 1.29948 30 36 21
-0.49586 -5.22591 1.28049 19 26 13
-0.51492 -5.23601 1.28305 17 22 14
-0.50899 -5.24335 1.30424 20 28 17
-0.52941 -5.25644 1.28521 19 22 20
-0.58370 -5.34273 1.31549 20 19 20
-0.56444 -5.33252 1.31290 17 19 17
-0.59462 -5.37273 1.31745 40 35 23
-0.60148 -5.41288 1.31912 49 64 43
-0.61619 -5.43464 1.32138 87 98 83
-0.63928 -5.43610 1.32425 117 116 104
-0.66007 -5.44942 1.30487 130 135 113
-0.65371 -5.45881 1.32650 123 127 111
-0.66705 -5.48448 1.32867 121 126 117
-0.68794 -5.49787 1.30920 114 119 119
1.16985 -2.88730 1.03190 221 231 237
1.18375 -2.88170 1.01301 206 191 194
1.14538 -2.88800 1.03497 238 250 253
1.12945 -2.89821 1.02012 252 254 253
1.12848 -2.89437 1.03719 246 247 248
1.11935 -2.90668 1.03855 247 241 245
1.10443 -2.91458 1.04055 246 247 247
1.10281 -2.95241 1.04140 234 243 248
1.09804 -2.96842 1.04228 219 226 246
1.08306 -2.97646 1.04429 184 199 233
1.07730 -2.99184 1.04527 162 181 220
1.07215 -3.00779 1.04619 154 165 201
1.06201 -3.01983 1.04767 151 139 170
1.05263 -3.03252 1.04906 151 120 144
1.04345 -3.04546 1.05043 153 118 139
1.03059 -3.05542 1.05221 158 128 131
1.02090 -3.06803 1.05364 160 118 144
1.00750 -3.07761 1.05548 164 139 154
0.98301 -3.09878 1.05891 172 137 150
0.97388 -3.11205 1.06028 172 145 169
0.97716 -3.13597 1.06028 180 169 176
0.96075 -3.14649 1.04498 198 206 211
0.97251 -3.15328 1.06116 190 194 201
0.96147 -3.16519 1.06275 197 200 210
0.92538 -3.17692 1.06746 199 206 218
0.91715 -3.19138 1.06874 187 196 219
0.93177 -3.22615 1.06751 159 173 203
0.95454 -3.26852 1.06540 125 137 182
0.98114 -3.31477 1.06287 88 94 158
0.96418 -3.32564 1.04707 54 53 122
0.97299 -3.33015 1.06416 65 73 143
0.96557 -3.34626 1.06536 53 56 129
0.96391 -3.36775 1.06594 55 53 116
0.95706 -3.38464 1.06709 66 72 118
0.94792 -3.39951 1.06849 101 125 152
0.93905 -3.41471 1.06986 113 120 142
0.92305 -3.42331 1.07201 120 126 160
0.92221 -3.44624 1.07251 101 102 128
0.91654 -3.46476 1.07354 89 97 136
0.90344 -3.47629 1.07538 87 101 125
0.90754 -3.50444 1.07535 119 135 151
0.91317 -3.53433 1.07516 135 146 175
0.89565 -3.54555 1.05884 146 157 186
0.90311 -3.54918 1.07668 138 148 184
0.88556 -3.56042 1.06033 143 157 176
0.90023 -3.57117 1.07742 152 163 183
0.88262 -3.58246 1.06101 147 162 183
0.91070 -3.63184 1.07716 151 162 187
0.88872 -3.66092 1.08041 167 180 190
0.91306 -3.71146 1.07824 156 167 180
0.91551 -3.74018 1.07843 138 153 169
0.89184 -3.74227 1.08143 120 123 137
0.87084 -3.74704 1.08413 77 75 105
0.85869 -3.76099 1.08589 56 48 87
0.84064 -3.79568 1.08875 37 48 93
0.83946 -3.79833 1.06951 47 49 89
0.80206 -3.78174 1.09333 53 72 127
0.84021 -3.84972 1.08974 152 178 203
0.82147 -3.85711 1.09221 198 211 220
0.80312 -3.86887 1.07511 199 210 214
0.79118 -3.87970 1.09638 197 205 218
0.78998 -3.88237 1.07696 197 206 213
0.78004 -3.89546 1.09805 187 193 196
0.79885 -3.94452 1.09654 114 116 119
0.80571 -3.98078 1.09631 68 71 58
0.78702 -3.99276 1.07889 68 66 65
0.85524 -4.50652 1.09922 88 91 92
0.85392 -4.50948 1.07768 88 99 96
0.83488 -4.51957 1.08023 82 88 93
0.85505 -4.54016 1.09982 77 80 83
0.83458 -4.55328 1.08074 88 91 86
0.84792 -4.56542 1.10115 86 92 80
0.82738 -4.57858 1.08201 97 101 80
0.84022 -4.62498 1.10314 94 93 71
0.81952 -4.63825 1.08385 83 84 67
0.83772 -4.65692 1.10401 81 82 73
0.81693 -4.67025 1.08462 74 80 74
0.82221 -4.74413 1.10745 72 82 79
0.84052 -4.73676 1.08257 70 77 70
0.81616 -4.77259 1.10870 66 66 73
0.80283 -4.79160 1.11070 67 66 79
0.78640 -4.80657 1.11301 79 83 87
0.76942 -4.82087 1.11538 104 104 99
0.75811 -4.84296 1.11717 118 118 120
0.72645 -4.83726 1.12103 140 147 149
0.70938 -4.85152 1.12341 163 174 169
0.68821 -4.86510 1.10367 174 182 178
0.62675 -4.88864 1.13438 159 168 159
0.62538 -4.89171 1.11200 159 158 152
0.60559 -4.90220 1.11466 159 160 146
0.60374 -4.89449 1.13735 145 152 143
0.58260 -4.90804 1.11765 155 157 153
0.59161 -4.91603 1.13924 144 145 146
0.57043 -4.92961 1.11950 158 165 155
0.58715 -4.94893 1.14037 158 168 159
0.56587 -4.96257 1.12054 162 170 154
0.47667 -5.02582 1.15550 154 158 153
0.49524 -5.01835 1.13027 168 178 169
0.45672 -5.03640 1.15818 149 161 161
0.45534 -5.03949 1.13562 146 156 147
-0.32693 -4.98622 1.25523 200 197 175
-0.36073 -5.01295 1.25992 208 192 162
-0.39125 -4.99866 1.26349 167 150 116
-0.39932 -5.03010 1.26504 117 103 69
-0.43485 -5.00492 1.26904 70 63 39
-0.45066 -5.02042 1.27129 36 37 29
-0.46792 -5.02737 1.29474 34 38 41
-0.46920 -5.03025 1.27378 35 40 34
-0.47049 -5.03313 1.25281 33 39 38
-0.47181 -5.17513 1.27661 29 33 18
-0.45154 -5.16214 1.29549 34 38 32
-0.45286 -5.16508 1.27406 33 37 24
-0.47049 -5.17218 1.29803 31 36 24
-0.49207 -5.18811 1.25772 17 23 14
-0.47424 -5.22145 1.27771 26 30 14
-0.49464 -5.23453 1.25870 14 25 16
-0.54825 -5.32129 1.28869 20 21 18
-0.52900 -5.31109 1.28610 19 22 8
-0.56670 -5.33336 1.29120 27 28 31
-0.58201 -5.35283 1.29345 44 47 39
-0.58453 -5.40291 1.29463 78 84 61
-0.60530 -5.41623 1.27527 118 124 104
-0.61761 -5.38041 1.29838 99 110 91
-0.63826 -5.39364 1.27913 120 121 113
-0.62750 -5.41349 1.30018 118 120 104
-0.64824 -5.42678 1.28086 132 130 121
-0.64383 -5.43128 1.30253 130 129 112
-0.66459 -5.44459 1.28318 133 136 118
-0.66969 -5.48431 1.30668 125 129 120
-0.67104 -5.48734 1.28460 130 135 126
1.16058 -2.88342 1.01597 220 220 226
1.17446 -2.87784 0.99711 207 189 180
1.13119 -2.88035 1.01965 244 251 254
1.10882 -2.90172 1.02278 247 253 253
1.10156 -2.93496 1.02417 217 225 245
1.09505 -2.94949 1.02520 180 198 230
1.09153 -2.96646 1.02588 161 182 218
1.08303 -2.97960 1.02714 153 173 212
1.07822 -2.99574 1.02798 150 160 207
1.06900 -3.00845 1.02933 151 130 186
1.05849 -3.02019 1.03082 159 139 165
1.05045 -3.03397 1.03204 167 157 164
1.04366 -3.04884 1.03311 167 146 155
1.02966 -3.05788 1.03501 164 125 136
1.02050 -3.07094 1.03635 165 132 139
1.00244 -3.07665 1.03872 168 110 135
1.00083 -3.09610 1.03919 174 152 164
1.00182 -3.11788 1.03938 183 167 181
0.98542 -3.12839 1.02410 197 208 214
0.99346 -3.13192 1.04063 190 187 200
0.98983 -3.15007 1.04135 194 200 209
0.95528 -3.16317 1.04591 200 207 215
0.94657 -3.17713 1.04721 189 195 218
0.95608 -3.20711 1.04642 162 172 203
0.95390 -3.22708 1.04698 128 138 179
0.99907 -3.28917 1.04213 88 99 157
0.99141 -3.30482 1.04332 66 76 142
0.98167 -3.31870 1.04475 57 60 130
0.96768 -3.35166 1.04699 60 71 127
0.96468 -3.37195 1.04765 97 112 163
0.95487 -3.38614 1.04909 115 128 153
0.94886 -3.40391 1.05011 97 104 152
0.94518 -3.42397 1.05086 89 97 134
0.92795 -3.43501 1.03480 68 76 105
0.93811 -3.44101 1.05199 79 79 123
0.93151 -3.45860 1.05307 72 65 95
0.91420 -3.46969 1.03694 65 70 101
0.92265 -3.47415 1.05441 61 65 101
0.91021 -3.48637 1.05616 55 65 99
0.89533 -3.49628 1.05819 114 128 143
0.91794 -3.54260 1.05597 147 158 179
0.90039 -3.55385 1.03962 156 169 187
0.90831 -3.63319 1.05847 147 165 189
0.92103 -3.67148 1.05739 160 174 189
0.92872 -3.70508 1.05689 139 148 178
0.92041 -3.72275 1.05819 134 148 180
0.92174 -3.75040 1.05841 129 144 171
0.88794 -3.74209 1.06258 134 149 167
0.87828 -3.75861 1.06403 118 122 143
0.86619 -3.77267 1.06576 78 83 96
0.87567 -3.80949 1.06508 55 50 77
0.83563 -3.82139 1.07032 31 44 109
0.83034 -3.84308 1.07129 122 147 188
0.81922 -3.85863 1.07292 187 205 220
0.78963 -3.91002 1.07739 196 203 207
0.80569 -3.90356 1.05557 199 206 209
0.78592 -3.93420 1.07820 145 152 152
0.81569 -3.99600 1.07530 81 77 70
0.79694 -4.00802 1.05782 73 71 74
0.86917 -4.49469 1.07554 90 97 89
0.88819 -4.48461 1.07299 91 95 79
0.84042 -4.62996 1.08108 92 91 69
0.85845 -4.62270 1.05658 105 111 93
0.82297 -4.74997 1.08498 68 74 66
0.81362 -4.77411 1.08650 67 67 65
0.80253 -4.79611 1.08822 90 85 86
0.78290 -4.80679 1.09085 118 119 106
0.74980 -4.79923 1.09494 146 150 135
0.72873 -4.81274 1.07530 160 170 165
0.73430 -4.81542 1.09713 155 158 151
0.71320 -4.82895 1.07746 158 167 164
0.71759 -4.83003 1.09945 158 165 165
0.70235 -4.84675 1.10162 164 177 170
0.65788 -4.86079 1.10745 166 172 173
0.63814 -4.87127 1.11010 158 166 159
0.46936 -5.01984 1.13357 163 171 161
0.48789 -5.01238 1.10838 168 179 168
0.42138 -5.02828 1.13976 152 162 160
0.42276 -5.02520 1.16223 158 165 167
0.42001 -5.03137 1.11730 151 155 150
0.40289 -5.03573 1.16489 164 170 166
-0.31741 -5.01058 1.23310 176 181 175
-0.30000 -5.00357 1.20944 121 128 131
-0.34395 -5.00480 1.23638 200 196 184
-0.35739 -5.02521 1.23837 207 198 173
-0.38984 -5.00704 1.24223 169 155 124
-0.39425 -5.04611 1.24333 120 107 75
-0.42654 -5.02775 1.24717 72 67 40
-0.43611 -5.05654 1.24878 34 40 29
-0.45048 -5.12537 1.25157 36 36 29
-0.44918 -5.12244 1.27287 38 39 27
-0.46262 -5.14979 1.25345 30 31 17
-0.48281 -5.16273 1.23463 17 17 7
-0.46609 -5.19340 1.25450 23 24 11
-0.48640 -5.20642 1.23556 16 18 13
-0.51629 -5.29211 1.26225 22 26 19
-0.49709 -5.28193 1.25968 17 25 16
-0.53333 -5.30725 1.26462 29 32 21
-0.55810 -5.35951 1.26850 63 77 53
-0.57878 -5.37276 1.24923 117 126 101
-0.58846 -5.34378 1.27212 94 105 90
-0.60904 -5.35697 1.25294 116 126 111
-0.60594 -5.35820 1.27454 120 125 107
-0.62653 -5.37140 1.25534 110 122 99
1.11235 -2.85017 1.00479 217 211 208
1.12606 -2.84465 0.98615 208 188 171
1.12933 -2.88202 1.00295 235 235 239
1.11595 -2.89102 1.00477 233 228 247
1.11325 -2.90822 1.00530 215 217 243
1.11342 -2.92776 1.00549 179 199 231
1.10823 -2.94327 1.00633 164 186 221
1.09966 -2.95624 1.00757 153 175 213
1.09171 -2.96976 1.00873 152 174 206
1.08280 -2.98258 1.01002 158 173 204
1.07885 -2.99942 1.01071 158 150 192
1.06768 -3.01059 1.01226 159 119 171
1.06683 -3.03011 1.01258 174 176 191
1.06173 -3.04634 1.01341 181 192 200
1.04546 -3.05677 0.99825 182 179 204
1.05274 -3.05949 1.01471 178 182 196
1.03660 -3.06682 1.01686 174 156 176
1.02354 -3.07669 1.01864 182 168 168
1.01957 -3.09416 1.01934 185 166 169
1.00323 -3.10463 1.00411 199 211 213
1.02318 -3.11809 1.01914 191 195 197
1.01232 -3.13002 1.02066 197 199 208
0.98470 -3.14899 1.02441 195 207 212
0.97387 -3.16107 1.02593 186 196 211
0.97384 -3.18253 1.02617 163 171 205
0.95323 -3.18625 1.02886 129 134 184
1.00844 -3.25633 1.02253 91 102 163
1.00930 -3.27929 1.02267 73 79 143
0.99241 -3.29012 1.00693 55 62 119
1.00041 -3.29379 1.02396 60 63 130
0.98884 -3.30597 1.02558 51 61 120
0.97814 -3.31898 1.02710 60 50 118
0.97679 -3.34051 1.02750 83 83 136
0.98336 -3.36942 1.02697 112 137 160
0.96977 -3.38013 1.02883 116 132 162
0.95852 -3.39301 1.03042 104 111 149
0.94137 -3.40400 1.01443 63 64 89
0.95858 -3.41645 1.03066 70 62 114
0.94136 -3.42749 1.01461 63 75 102
0.95093 -3.43289 1.03182 66 77 112
0.93367 -3.44395 1.01574 70 79 107
0.93514 -3.46561 1.03420 70 70 100
0.93402 -3.46813 1.01588 79 83 113
0.91781 -3.47672 1.01805 74 82 109
0.91224 -3.49192 1.03743 52 66 105
0.93478 -3.53798 1.03503 124 141 157
0.92308 -3.55125 1.03668 152 167 182
0.90341 -3.58167 1.03954 153 163 183
0.90998 -3.61326 1.03903 146 162 182
0.91280 -3.64141 1.03898 113 118 156
0.90391 -3.65806 1.04030 101 110 144
0.89089 -3.67065 1.04211 78 81 131
0.87940 -3.68483 1.04374 72 81 133
0.87638 -3.70777 1.04437 76 89 125
0.89109 -3.74918 1.04293 85 104 139
0.87537 -3.75943 1.04506 115 129 156
0.86123 -3.77136 1.04701 119 128 138
0.84537 -3.78150 1.04915 78 79 99
0.85933 -3.82326 1.04781 51 50 88
0.84103 -3.83499 1.03076 37 46 81
0.82796 -3.87204 1.05237 170 190 204
0.81524 -3.88603 1.05415 198 207 211
0.79683 -3.89783 1.03699 199 206 211
0.79722 -3.92239 1.05686 199 207 210
0.81176 -3.96693 1.05548 172 180 173
0.81634 -4.00082 1.05525 99 91 93
0.82232 -4.06600 1.05519 73 78 74
0.87620 -4.18757 1.04959 84 88 83
0.87735 -4.21956 1.04979 77 80 80
0.88532 -4.48566 1.05165 88 93 79
0.88400 -4.48861 1.03014 78 77 71
0.86498 -4.49869 1.03269 72 76 77
0.87386 -4.50506 1.05333 79 83 79
0.85348 -4.51813 1.03434 70 76 81
0.86270 -4.52498 1.05498 75 81 84
0.84228 -4.53807 1.03595 66 75 76
0.85945 -4.55494 1.05572 72 78 84
0.85204 -4.57994 1.05694 85 93 88
0.83403 -4.62651 1.05976 101 103 80
0.82642 -4.65187 1.06101 84 83 67
0.80701 -4.66215 1.06361 74 71 67
0.81358 -4.70639 1.06325 77 77 65
0.80826 -4.73547 1.06425 93 98 80
0.80393 -4.76613 1.06514 110 116 96
0.78892 -4.78282 1.06724 139 142 125
0.76784 -4.79634 1.04759 161 166 160
0.76081 -4.78197 1.07084 158 157 138
0.73978 -4.79546 1.05124 165 167 160
0.74192 -4.79346 1.07339 164 166 156
0.72088 -4.80695 1.05378 160 168 156
0.68255 -4.82427 1.08135 166 178 176
0.70086 -4.81690 1.05646 153 165 154
0.66889 -4.84310 1.08331 178 187 189
0.63660 -4.83582 1.08737 158 158 154
0.60787 -4.83334 1.09103 139 146 149
0.45133 -4.99743 1.11291 173 178 163
0.46978 -4.99001 1.08784 164 174 167
0.44996 -5.00051 1.09050 166 174 161
0.43443 -5.01243 1.11524 157 157 144
-0.35007 -4.99801 1.21580 167 172 172
-0.35921 -5.02706 1.21729 197 195 173
-0.38967 -5.01291 1.22105 172 158 131
-0.38734 -5.06592 1.22132 127 109 87
-0.40693 -5.07413 1.22393 77 70 49
-0.41897 -5.09815 1.22573 35 39 31
-0.42606 -5.13292 1.22702 30 32 33
