ply
format ascii 1.0
element face 0
property list uchar int vertex_indices
element vertex 1324
property float x
property float y
property float z
property uchar diffuse_red
property uchar diffuse_green
property uchar diffuse_blue
end_header
1.11275 -3.12542 1.35389 209 221 226
1.12192 -3.15336 1.35521 178 154 183
1.09946 -3.15657 1.35544 130 80 111
1.08951 -3.16966 1.35611 102 30 67
1.08684 -3.18864 1.35704 110 36 87
1.07648 -3.22294 1.35874 71 60 122
1.06456 -3.23479 1.35936 62 56 122
1.06242 -3.25468 1.36033 138 135 185
1.08707 -3.29678 1.36229 224 225 240
1.05368 -3.29123 1.36213 252 253 254
0.89470 -3.33498 1.36481 249 248 250
0.91246 -3.32935 1.34544 245 249 253
0.88290 -3.34739 1.36545 239 224 235
0.86286 -3.35262 1.36577 226 211 226
0.86210 -3.37487 1.36685 226 248 242
0.84797 -3.38541 1.36741 207 228 240
0.82883 -3.39149 1.36777 177 192 221
0.81167 -3.40090 1.34916 129 155 191
0.82335 -3.40986 1.36868 135 157 198
0.80614 -3.41930 1.35002 134 160 199
0.81629 -3.42693 1.36954 119 149 204
0.79903 -3.43640 1.35083 134 161 199
0.73897 -3.64858 1.38055 128 164 196
0.75751 -3.64270 1.36034 136 166 206
0.73932 -3.65053 1.36078 133 166 202
0.74706 -3.68223 1.38216 114 137 159
0.80258 -3.76310 1.38589 73 69 80
0.79077 -3.80461 1.38794 84 88 88
0.80485 -3.84574 1.38989 97 98 100
0.78633 -3.85590 1.36982 64 70 63
0.80868 -3.87692 1.39139 73 73 89
0.84090 -3.96537 1.39557 82 75 78
0.84128 -3.96744 1.37458 88 94 89
0.82121 -3.97161 1.41703 76 76 75
0.82159 -3.97368 1.39604 73 73 74
0.84967 -4.08926 1.40155 76 71 81
0.86976 -4.08289 1.37965 54 51 59
0.83036 -4.09985 1.38061 78 79 84
0.83871 -4.10701 1.40245 92 93 83
0.81936 -4.11763 1.38146 49 52 74
0.82351 -4.12037 1.40315 87 90 87
0.80302 -4.15798 1.40504 75 81 91
0.80341 -4.16010 1.38346 71 76 82
0.78356 -4.16865 1.38394 75 78 90
0.78875 -4.29575 1.41177 97 96 100
0.80940 -4.28920 1.38925 98 100 106
0.78365 -4.32154 1.41304 108 103 103
0.77435 -4.34281 1.41411 75 77 98
0.71078 -4.49830 1.42187 98 98 97
0.68211 -4.53174 1.42359 117 113 102
0.71204 -4.60232 1.42691 85 80 74
0.69135 -4.61367 1.40447 70 47 50
0.66608 -4.90812 1.44190 102 116 106
0.67268 -5.07272 1.44986 70 67 71
0.66505 -5.10249 1.45133 80 82 83
0.65151 -5.12454 1.45245 92 93 91
0.64919 -5.16213 1.45428 98 103 99
0.64881 -5.20280 1.45625 115 121 112
0.63824 -5.22978 1.45760 126 137 138
0.59120 -5.33344 1.46279 140 143 134
0.61488 -5.32593 1.43698 145 151 148
0.59166 -5.33593 1.43755 140 148 145
0.56201 -5.33481 1.46296 121 122 83
0.56098 -5.37699 1.46501 79 85 49
0.52699 -5.37138 1.46485 86 102 84
0.49123 -5.36294 1.46457 113 125 112
0.46851 -5.37540 1.43993 119 123 112
0.46805 -5.37291 1.46513 117 124 114
0.35300 -5.33356 1.46362 116 115 134
0.35345 -5.33601 1.43872 125 125 142
0.30264 -5.30130 1.46223 138 143 144
0.22875 -5.23200 1.45912 177 181 163
0.20589 -5.23925 1.48404 202 194 172
0.18111 -5.20236 1.45785 196 194 172
0.15841 -5.20956 1.48259 202 195 175
0.15885 -5.21195 1.45839 203 193 168
-0.43679 -4.75817 1.43844 224 213 175
-0.41634 -4.75168 1.41614 214 205 189
-0.43498 -4.80499 1.44070 165 143 112
-0.44508 -4.83149 1.44202 128 103 66
-0.45376 -4.86081 1.44347 55 49 25
-0.51727 -4.92878 1.44699 46 47 45
-0.49639 -4.92215 1.42423 36 34 34
-0.51687 -4.93097 1.42472 32 34 34
-0.53735 -4.93979 1.42522 32 29 45
-0.53098 -4.95016 1.44807 59 57 54
-0.55110 -4.96119 1.42626 34 31 42
-0.54863 -4.96436 1.44883 43 38 44
-0.56878 -4.97541 1.42698 31 35 29
-0.63544 -5.40386 1.47044 23 27 21
-0.61407 -5.39214 1.49361 29 33 32
-0.61364 -5.39447 1.46991 26 29 19
-0.63586 -5.40152 1.49414 31 30 30
-0.65680 -5.41558 1.44727 13 13 8
-0.64885 -5.43090 1.47180 18 21 18
-0.67028 -5.44265 1.44856 13 11 9
-0.66165 -5.45959 1.47324 12 16 12
-0.68315 -5.47138 1.44992 15 13 16
-0.70352 -5.59871 1.48013 19 11 22
-0.68165 -5.58672 1.50384 11 13 13
-0.68121 -5.58911 1.47959 17 16 15
-0.70695 -5.65045 1.48265 37 36 16
-0.71396 -5.69497 1.48483 63 76 58
-0.73630 -5.70528 1.48541 96 98 108
-0.75845 -5.71743 1.46139 115 121 111
-0.75095 -5.73329 1.48682 107 104 108
-0.77317 -5.74547 1.46273 119 122 113
-0.76738 -5.75751 1.48805 111 115 107
-0.78966 -5.76973 1.46391 119 127 123
-1.49874 -5.72768 1.48913 104 105 92
-1.47667 -5.72068 1.46507 106 110 100
-1.49832 -5.73000 1.46560 101 105 93
-1.51997 -5.73932 1.46612 102 97 80
-2.77793 -3.24144 1.37296 239 240 229
-2.76546 -3.23749 1.35937 222 212 201
-2.79222 -3.23477 1.37268 247 248 244
-2.80464 -3.23871 1.38623 254 254 253
-2.81015 -3.20619 1.37136 251 252 251
-2.82246 -3.21009 1.38478 254 254 252
-2.82222 -3.21139 1.37165 253 254 253
-3.10994 -3.21497 1.37282 252 252 253
-3.09848 -3.20868 1.38525 254 254 254
-3.09825 -3.20993 1.37254 254 254 254
-3.11017 -3.21371 1.38554 254 254 254
-3.12187 -3.21875 1.38582 253 254 254
-3.13342 -3.22407 1.37334 246 249 252
-3.14534 -3.22785 1.38634 254 254 254
1.12772 -3.07717 1.33301 227 239 241
1.14432 -3.06807 1.35100 232 239 243
1.14465 -3.06988 1.33259 235 239 244
1.12739 -3.07535 1.35141 232 238 242
1.12327 -3.09409 1.33379 213 223 223
1.13991 -3.12748 1.33522 177 153 184
1.12406 -3.13582 1.33567 126 82 117
1.10927 -3.14501 1.33616 99 26 61
1.10164 -3.15986 1.33687 109 18 56
1.08482 -3.16908 1.31864 214 222 207
1.10355 -3.18239 1.33787 138 79 101
1.08253 -3.18677 1.33817 188 175 165
1.07737 -3.20386 1.33897 179 187 179
1.07910 -3.22664 1.33999 111 94 124
1.06491 -3.23664 1.34051 70 50 100
1.02239 -3.22350 1.34013 102 107 141
1.01732 -3.24094 1.34094 179 188 204
1.03851 -3.28025 1.34261 235 243 250
1.00920 -3.27787 1.34264 252 254 254
0.99181 -3.28535 1.34307 254 254 254
0.88582 -3.32883 1.34555 238 238 249
0.87362 -3.34085 1.34615 228 239 244
0.86760 -3.35836 1.34697 209 233 241
0.83882 -3.35585 1.34700 178 193 230
0.82176 -3.36520 1.32850 130 153 196
0.82857 -3.36970 1.34767 137 153 208
0.81902 -3.38427 1.34838 124 147 193
0.80189 -3.39366 1.32981 136 160 200
0.74288 -3.67973 1.36208 125 158 184
0.76152 -3.67382 1.34176 133 165 205
0.79484 -3.75707 1.36532 87 99 126
0.79144 -3.78019 1.36638 63 50 77
0.78938 -3.80486 1.36750 81 93 86
0.77102 -3.81493 1.34759 74 73 80
0.79660 -3.83908 1.36901 77 79 79
0.77812 -3.84921 1.34897 71 72 75
0.82780 -3.92565 1.37276 76 85 90
0.82818 -3.92771 1.35193 77 75 84
0.85839 -4.01342 1.37657 68 74 78
0.85877 -4.01550 1.35540 73 73 63
0.83930 -4.02388 1.35587 66 69 74
0.85264 -4.09409 1.38024 67 61 56
0.87274 -4.08772 1.35832 57 63 72
0.83331 -4.10469 1.35928 89 89 102
0.81313 -4.14066 1.38253 78 85 83
0.81352 -4.14278 1.36100 93 98 99
0.79887 -4.30881 1.39019 95 91 92
0.79166 -4.33230 1.39128 116 113 114
0.78076 -4.35181 1.39222 95 94 116
0.76700 -4.36820 1.39302 95 93 107
0.76224 -4.39503 1.39426 90 83 89
0.74131 -4.40166 1.41707 83 85 83
0.74947 -4.41283 1.39512 76 81 72
0.72890 -4.42168 1.39562 77 76 53
0.73386 -4.46047 1.39735 86 80 77
0.71358 -4.47159 1.37536 88 84 80
0.72962 -4.48880 1.39865 102 90 82
0.71890 -4.50969 1.39964 92 93 96
0.71183 -4.53513 1.40083 96 104 104
0.69840 -4.55311 1.40170 99 94 100
0.71428 -4.60679 1.40405 94 76 78
0.71313 -4.67554 1.40716 79 75 63
0.71355 -4.67783 1.38396 81 74 63
0.72237 -4.94478 1.41926 100 92 81
0.69466 -5.02470 1.42300 68 66 72
0.67801 -5.04198 1.42386 73 76 75
0.66953 -5.07031 1.42518 83 82 82
0.65793 -5.09470 1.42634 94 93 90
0.64721 -5.12051 1.42755 110 108 97
0.64546 -5.15884 1.42929 123 123 121
0.63921 -5.19138 1.43079 132 133 124
0.62259 -5.20985 1.43171 134 135 135
0.61981 -5.24782 1.43343 136 138 145
0.59728 -5.26018 1.40901 150 162 165
0.61625 -5.28512 1.43513 142 147 150
0.56949 -5.34743 1.43817 137 150 128
0.56994 -5.34992 1.41292 130 137 126
0.54672 -5.35992 1.41349 132 139 119
0.53915 -5.34708 1.43831 136 143 110
0.51066 -5.34929 1.43855 135 135 108
0.48827 -5.36037 1.43916 128 129 113
0.43717 -5.37314 1.43998 118 118 114
0.41450 -5.38557 1.41540 132 137 127
0.29671 -5.29395 1.43710 123 126 141
0.29716 -5.29638 1.41243 118 124 129
0.27446 -5.30615 1.41298 121 129 140
0.23924 -5.24994 1.43540 134 139 151
0.18036 -5.20289 1.43357 160 164 168
0.14319 -5.18904 1.43312 188 189 183
0.12059 -5.19621 1.45776 206 192 174
0.10920 -5.17985 1.43288 202 194 179
0.08668 -5.18700 1.45743 207 194 181
0.08711 -5.18936 1.43341 207 194 178
-0.42191 -4.78542 1.41769 225 210 173
-0.40136 -4.77890 1.39529 210 202 183
-0.43446 -4.80737 1.41874 186 165 115
-0.43194 -4.85611 1.42093 137 111 70
-0.45292 -4.86377 1.42138 73 73 36
-0.46458 -4.88813 1.42253 39 36 20
-0.48539 -4.89473 1.44523 36 35 43
-0.48499 -4.89692 1.42303 37 35 33
-0.48459 -4.89910 1.40083 39 33 43
-0.62653 -5.36928 1.44504 22 25 14
-0.60526 -5.35762 1.46810 29 31 18
-0.60483 -5.35994 1.44451 29 29 24
-0.62610 -5.37160 1.42145 14 18 8
-0.64779 -5.38094 1.42198 12 16 11
-0.63688 -5.40228 1.44658 17 19 11
-0.65824 -5.41399 1.42342 15 13 13
-0.68066 -5.53378 1.45272 17 12 15
-0.69004 -5.57122 1.45446 25 18 16
-0.69419 -5.62076 1.45672 40 48 34
-0.71464 -5.63472 1.45745 91 92 90
-0.73660 -5.64677 1.43364 119 126 114
-0.72724 -5.66644 1.45894 113 116 101
-0.74928 -5.67853 1.43504 114 123 118
-0.73960 -5.69917 1.46048 114 124 120
-0.76173 -5.71130 1.43649 116 124 116
-2.78100 -3.22406 1.35884 221 211 201
-2.76860 -3.22013 1.34532 231 217 198
-2.78076 -3.22537 1.34562 228 214 193
-2.79292 -3.23060 1.34591 222 215 194
-2.79258 -3.23263 1.35928 230 221 211
-2.80931 -3.21103 1.35839 240 236 230
-2.82116 -3.21752 1.34555 225 215 208
-3.10959 -3.21765 1.36017 237 230 238
-3.12107 -3.22539 1.36057 211 203 225
-3.13270 -3.23139 1.36090 204 210 233
-3.14487 -3.23056 1.36092 217 232 245
1.13963 -3.04750 1.31322 230 244 248
1.15614 -3.03845 1.33112 235 239 245
1.15647 -3.04025 1.31281 237 243 247
1.13930 -3.04570 1.33153 235 238 244
1.13298 -3.06253 1.31389 215 227 236
1.15296 -3.09810 1.31524 181 150 193
1.14490 -3.11235 1.31589 126 73 122
1.12817 -3.11994 1.31631 100 22 89
1.11911 -3.13352 1.31694 105 26 70
1.11511 -3.15116 1.31770 133 82 97
1.09614 -3.15708 1.31807 180 164 157
1.07212 -3.18001 1.31918 219 234 225
1.06684 -3.19696 1.31992 202 200 202
1.04931 -3.20411 1.32033 197 177 184
1.03703 -3.21553 1.32088 203 199 194
1.01328 -3.21761 1.32112 145 183 193
0.98532 -3.21615 1.32124 109 147 165
0.97554 -3.22965 1.32186 169 185 195
0.89076 -3.28982 1.32491 244 253 253
0.90768 -3.28054 1.34326 254 254 254
0.90802 -3.28239 1.32449 250 254 254
0.89042 -3.28797 1.34368 251 254 254
0.88829 -3.31003 1.32577 230 249 253
0.87431 -3.32039 1.32629 218 235 249
0.85667 -3.32759 1.32671 188 200 239
0.83968 -3.33691 1.30828 125 154 201
0.83296 -3.32944 1.32694 142 162 219
0.81599 -3.33875 1.30854 132 162 196
0.83264 -3.35194 1.32788 122 150 197
0.81561 -3.36128 1.30941 139 162 199
0.75072 -3.68904 1.34247 131 162 196
0.76940 -3.68312 1.32211 135 167 206
0.75476 -3.71904 1.34369 109 130 158
0.80216 -3.79251 1.34646 67 68 91
0.78906 -3.80617 1.34711 71 75 85
0.77070 -3.81624 1.32720 75 76 79
0.84455 -3.97248 1.35370 76 77 80
0.86425 -3.96623 1.33222 80 76 81
0.84493 -3.97455 1.33269 76 79 82
0.85608 -4.09942 1.35892 69 70 79
0.87619 -4.09304 1.33699 61 63 73
0.83345 -4.13440 1.36052 69 70 88
0.83384 -4.13652 1.33899 93 89 87
0.80650 -4.31907 1.36840 84 75 76
0.80960 -4.35424 1.36985 122 128 114
0.79290 -4.36730 1.37050 122 121 114
0.77964 -4.38436 1.37130 115 118 121
0.76850 -4.40396 1.37219 100 98 95
0.76428 -4.43170 1.37337 87 85 75
0.75287 -4.45135 1.37426 83 81 68
0.74824 -4.47907 1.37545 92 97 102
0.72863 -4.52300 1.37741 73 79 84
0.72904 -4.52524 1.35472 82 82 63
0.71853 -4.54488 1.37838 84 89 97
0.69723 -4.55345 1.37888 97 111 118
0.68052 -4.56756 1.37957 123 128 110
0.73739 -4.67171 1.38356 64 50 68
0.66910 -4.84017 1.39102 46 53 74
0.69130 -4.83313 1.36682 66 66 77
0.71937 -4.94272 1.39498 107 103 90
0.70478 -4.96212 1.39588 91 94 112
0.68302 -4.97405 1.37229 73 72 95
0.69640 -4.98980 1.39709 74 68 86
0.68266 -5.01067 1.39805 74 66 86
0.66572 -5.02744 1.39886 82 77 74
0.66203 -5.06208 1.40033 93 89 77
0.65828 -5.09699 1.40181 108 115 116
0.64438 -5.11848 1.40279 129 135 131
0.62891 -5.13799 1.40371 140 148 146
0.60671 -5.15016 1.37964 148 160 156
0.61756 -5.16332 1.40483 144 150 152
0.59530 -5.17553 1.38070 147 163 155
0.60253 -5.18378 1.40578 144 149 153
0.58022 -5.19601 1.38160 147 162 149
0.59993 -5.22180 1.40739 145 153 157
0.57751 -5.23409 1.38308 153 164 145
0.59039 -5.29295 1.41042 147 156 158
0.56777 -5.30536 1.38589 133 143 142
0.57764 -5.31767 1.41153 136 142 144
0.51010 -5.35028 1.41332 135 141 119
0.48925 -5.36363 1.41401 132 139 118
0.46654 -5.37608 1.38940 133 142 138
0.42689 -5.35952 1.41424 131 135 123
0.40428 -5.37192 1.38972 132 137 134
0.18962 -5.21903 1.40989 123 135 144
0.21237 -5.21182 1.38509 132 139 128
0.19006 -5.22142 1.38563 134 138 126
0.16775 -5.23102 1.38617 132 135 133
0.14893 -5.19974 1.40934 140 147 152
0.10906 -5.18131 1.40883 173 174 165
0.07635 -5.17386 1.40872 199 198 182
0.05390 -5.18098 1.43320 207 196 182
0.05433 -5.18334 1.40926 208 198 178
-0.41192 -4.80418 1.39641 217 208 175
-0.39131 -4.79765 1.37393 208 198 181
-0.41153 -4.80635 1.37442 212 203 182
-0.42874 -4.81883 1.39713 200 183 145
-0.42217 -4.87480 1.39942 140 115 79
-0.44049 -4.88733 1.40006 95 82 67
-0.45899 -4.89960 1.40069 46 32 25
-0.47904 -4.91059 1.37895 34 32 36
-0.59817 -5.32155 1.41918 25 26 26
-0.57702 -5.30995 1.44212 32 30 28
-0.57660 -5.31226 1.41866 26 31 32
-0.59860 -5.31923 1.44264 34 29 27
-0.61933 -5.33315 1.39625 12 14 12
-0.61177 -5.34719 1.42034 19 21 16
-0.63298 -5.35882 1.39734 12 14 10
-0.67153 -5.49776 1.42700 20 12 24
-0.64950 -5.48828 1.42647 19 13 17
-0.67892 -5.53898 1.42877 34 29 25
-0.68824 -5.57658 1.43040 51 70 67
-0.70246 -5.60391 1.43163 95 110 95
-0.71592 -5.63327 1.43294 115 122 111
-2.24735 -4.13770 1.38029 95 99 96
-2.23195 -4.12926 1.39698 96 103 100
-2.23164 -4.13094 1.37991 95 100 93
-2.23134 -4.13263 1.36284 94 103 88
-2.24766 -4.13602 1.39736 100 105 99
-2.26336 -4.14278 1.39775 101 109 97
-2.26441 -4.13914 1.38046 85 88 78
-2.28040 -4.14422 1.39789 85 89 79
-2.27409 -4.16978 1.38180 51 46 34
-2.29017 -4.17488 1.39933 54 50 48
-2.28986 -4.17657 1.38218 36 26 23
-2.28955 -4.17825 1.36504 29 29 25
-2.80862 -3.21500 1.34536 220 210 201
-2.79629 -3.21109 1.33192 229 218 188
-2.80838 -3.21629 1.33222 229 212 190
-2.82047 -3.22150 1.33251 224 210 194
-3.08681 -3.19967 1.34650 253 253 253
-3.07537 -3.19339 1.35890 254 254 254
-3.07514 -3.19464 1.34621 254 254 254
-3.09774 -3.21295 1.34712 241 245 233
-3.10908 -3.22214 1.34758 196 187 179
-3.12056 -3.22844 1.33513 150 145 138
-3.11960 -3.24137 1.34845 149 134 152
1.15899 -3.02380 1.29378 235 247 250
1.17545 -3.01477 1.31162 240 242 244
1.17578 -3.01657 1.29337 241 246 250
1.15866 -3.02200 1.31203 240 243 245
1.14515 -3.03325 1.29425 216 226 238
1.16094 -3.06524 1.29535 177 147 194
1.16431 -3.08802 1.29620 123 71 122
1.15557 -3.10168 1.29679 100 25 66
1.14120 -3.11105 1.29726 108 27 56
1.13559 -3.12727 1.29793 143 84 120
1.12152 -3.13697 1.29841 189 165 178
1.12814 -3.16298 1.29936 215 222 208
1.11205 -3.17123 1.29980 220 237 228
1.10019 -3.18287 1.30034 189 198 225
1.08333 -3.19212 1.28205 90 102 172
1.05240 -3.16580 1.30006 137 133 200
1.03565 -3.17499 1.28189 123 130 192
1.04042 -3.17727 1.30059 145 146 206
1.04420 -3.20154 1.30149 182 195 221
1.02956 -3.21102 1.30197 178 184 217
1.01270 -3.22026 1.28369 110 134 191
0.99731 -3.20609 1.30203 157 149 202
0.97820 -3.23342 1.30323 80 91 181
0.94583 -3.22817 1.30328 158 172 226
0.94063 -3.24557 1.30399 232 243 253
0.88797 -3.26682 1.30522 235 251 254
0.90481 -3.25758 1.32348 252 254 254
0.90515 -3.25942 1.30480 247 253 254
0.87776 -3.28021 1.30581 220 240 251
0.86493 -3.29140 1.30634 193 209 240
0.84805 -3.30067 1.28803 128 157 202
0.83093 -3.28423 1.30633 149 170 220
0.81410 -3.29345 1.28809 134 158 196
0.82606 -3.30237 1.30707 120 151 203
0.80919 -3.31162 1.28877 137 162 195
0.76135 -3.70110 1.32286 132 167 202
0.78007 -3.69516 1.30245 138 170 206
0.76171 -3.70307 1.30290 135 169 205
0.75122 -3.71715 1.32356 124 154 183
0.78457 -3.77662 1.32557 84 100 120
0.78895 -3.80770 1.32673 73 69 71
0.85926 -4.01769 1.33423 78 78 74
0.87154 -4.05916 1.33573 71 69 73
0.86345 -4.10890 1.33770 65 63 74
0.86384 -4.11102 1.31622 65 66 78
0.86055 -4.13533 1.33873 90 81 94
0.84111 -4.14599 1.31765 84 88 88
0.82483 -4.34133 1.34691 90 89 91
0.82523 -4.34352 1.32470 85 96 91
0.81510 -4.36218 1.34779 109 116 109
0.80127 -4.37854 1.34853 117 131 119
0.78596 -4.39331 1.34921 124 128 117
0.77569 -4.41396 1.35008 109 111 107
0.76392 -4.43303 1.35091 137 135 128
0.76123 -4.46283 1.35207 91 104 104
0.76224 -4.49725 1.35338 101 113 100
0.74764 -4.51357 1.35412 93 95 76
0.72656 -4.55625 1.35592 84 86 80
0.72697 -4.55850 1.33313 79 84 76
0.70600 -4.56752 1.33364 66 80 69
0.71814 -4.58042 1.35692 81 90 87
0.69646 -4.58867 1.35740 99 114 85
0.72485 -4.65815 1.35984 72 77 78
0.70399 -4.66959 1.33723 64 59 40
0.72140 -4.68926 1.36106 73 68 75
0.71787 -4.72057 1.36229 75 74 86
0.69683 -4.73211 1.33948 75 68 59
0.72244 -4.76233 1.36386 64 55 62
0.72158 -4.79769 1.36522 61 58 58
0.70030 -4.80936 1.34215 71 72 69
0.72295 -4.83626 1.36669 61 64 67
0.70155 -4.84799 1.34349 74 72 69
0.68212 -4.85868 1.36787 52 57 81
0.71181 -4.93475 1.37055 116 115 91
0.70247 -4.96091 1.37163 84 84 102
0.67800 -5.00632 1.37356 80 89 100
0.67387 -5.04009 1.37489 94 106 85
0.65908 -5.05993 1.37577 110 116 85
0.65093 -5.08889 1.37694 122 128 117
0.62886 -5.10100 1.35301 145 161 154
0.63358 -5.10561 1.37772 140 146 149
0.61861 -5.12568 1.37860 148 154 154
0.53506 -5.34478 1.38766 139 150 146
0.55867 -5.33729 1.36192 146 152 144
0.53552 -5.34726 1.36249 151 157 149
0.51237 -5.35723 1.36305 145 145 149
0.51286 -5.35614 1.38827 143 149 143
0.49016 -5.36860 1.36365 142 147 143
0.48172 -5.35433 1.38844 136 145 135
0.45907 -5.36675 1.36388 142 149 142
0.13173 -5.21891 1.38599 134 143 146
0.07313 -5.17038 1.38459 144 154 164
0.03527 -5.15431 1.38427 171 178 184
0.01294 -5.16139 1.40861 207 196 178
0.00481 -5.14983 1.38434 198 197 188
-0.01746 -5.15689 1.40861 207 198 180
-0.01703 -5.15924 1.38487 208 196 180
-0.42132 -4.83328 1.37553 214 195 167
-0.40063 -4.82672 1.35298 212 202 179
-0.41190 -4.89436 1.37780 146 122 95
-0.43147 -4.90484 1.37836 108 91 77
-0.45371 -4.91054 1.37875 48 30 25
-0.47379 -4.92156 1.35697 37 33 36
-0.57950 -5.30787 1.39497 22 27 23
-0.55838 -5.29628 1.41788 24 33 33
-0.55795 -5.29859 1.39445 26 32 29
-0.57908 -5.31018 1.37154 17 17 14
-0.60063 -5.31946 1.37206 16 14 10
-0.59669 -5.32601 1.39580 18 19 16
-0.61785 -5.33762 1.37286 15 15 13
-0.65366 -5.42506 1.40004 20 15 20
-0.63185 -5.41567 1.39951 15 15 17
-0.66031 -5.46672 1.40169 28 19 19
-0.66794 -5.50689 1.40329 37 44 41
-0.67771 -5.54303 1.40476 89 90 89
-0.69748 -5.55778 1.40548 108 116 94
-0.71015 -5.58831 1.40675 110 109 119
-0.73196 -5.60027 1.38310 120 134 135
-0.72488 -5.61469 1.40787 129 133 117
-0.73980 -5.64094 1.40900 122 130 122
-0.76217 -5.65057 1.40954 107 116 114
-0.76173 -5.65297 1.38522 113 116 109
-2.24819 -4.13492 1.36306 83 92 80
-2.26023 -4.15600 1.36396 58 61 58
-2.27566 -4.16446 1.34723 24 25 24
-2.27502 -4.16654 1.36448 36 27 22
-2.29046 -4.17501 1.34774 25 30 26
-3.09721 -3.21749 1.33452 200 189 176
-3.10782 -3.23521 1.33529 160 145 138
1.17115 -3.01467 1.27503 222 227 235
1.18759 -3.00565 1.29286 241 247 248
1.18792 -3.00745 1.27462 238 251 250
1.18825 -3.00924 1.25639 188 151 204
1.17476 -3.03720 1.27578 185 153 196
1.17145 -3.05467 1.27643 129 76 134
1.16699 -3.07139 1.27705 104 21 70
1.16237 -3.08810 1.27768 109 31 61
1.14572 -3.09723 1.25962 228 232 222
1.15630 -3.10380 1.27829 144 91 124
1.14769 -3.11764 1.27885 198 175 172
1.14577 -3.13676 1.27953 227 234 216
1.14486 -3.15680 1.28024 220 238 230
1.12263 -3.16022 1.28057 196 208 218
1.07733 -3.14534 1.28047 165 174 210
1.06252 -3.15446 1.28093 108 125 185
1.04579 -3.16363 1.26279 130 149 196
1.02313 -3.18604 1.28240 146 166 209
1.04057 -3.18051 1.26338 128 142 198
1.01209 -3.19835 1.28293 141 168 210
0.99530 -3.20756 1.26472 127 125 178
0.98381 -3.21803 1.28388 88 93 163
0.96666 -3.22541 1.28430 82 92 174
0.94308 -3.22743 1.28459 127 153 222
0.92819 -3.23669 1.28505 209 226 250
0.91406 -3.24659 1.28553 236 252 254
0.88992 -3.24804 1.28580 226 244 252
0.85313 -3.23860 1.28581 199 215 244
0.84446 -3.25314 1.28640 159 175 224
0.83300 -3.26534 1.28693 130 158 206
0.81624 -3.27453 1.26876 144 168 202
0.79210 -3.55532 1.29745 147 175 210
0.80969 -3.54568 1.31652 143 170 206
0.81004 -3.54760 1.29702 146 174 209
0.79175 -3.55340 1.31696 144 171 204
0.77381 -3.56112 1.31740 141 171 206
0.79064 -3.57867 1.29828 140 171 207
0.77227 -3.58449 1.31830 140 169 208
0.78581 -3.59900 1.29904 135 166 209
0.76739 -3.60484 1.31912 140 169 209
0.78281 -3.62124 1.29984 132 164 211
0.76432 -3.62710 1.32000 137 169 209
0.77969 -3.64354 1.30065 134 169 214
0.76114 -3.64943 1.32088 138 167 208
0.76150 -3.65138 1.30110 139 170 208
0.75503 -3.72254 1.30364 134 164 199
0.77381 -3.71659 1.28318 140 169 209
0.75857 -3.75234 1.30465 114 134 160
0.78652 -3.80690 1.30630 80 77 88
0.79468 -3.84208 1.30746 72 67 67
0.77548 -3.84817 1.32839 76 80 85
0.77585 -3.85019 1.30791 73 71 70
0.84727 -3.97864 1.31174 75 84 83
0.86660 -3.97032 1.31127 75 69 81
0.82832 -3.98903 1.29120 100 107 99
0.84822 -4.00796 1.31276 90 102 82
0.86463 -4.05365 1.31420 78 95 90
0.84543 -4.06418 1.29339 68 72 75
0.86821 -4.08637 1.31531 62 71 82
0.86137 -4.13790 1.31718 80 75 90
0.86176 -4.14002 1.29561 86 79 87
0.84530 -4.33432 1.32420 72 83 87
0.86573 -4.32553 1.32370 75 79 72
0.86613 -4.32772 1.30149 78 82 73
0.82063 -4.37015 1.32568 86 98 101
0.80053 -4.38118 1.30388 99 112 96
0.81007 -4.39027 1.32648 101 106 112
0.79111 -4.40094 1.32703 115 130 136
0.77575 -4.41577 1.32769 123 135 124
0.77702 -4.44994 1.32887 120 112 112
0.75673 -4.46107 1.30688 118 134 130
0.77194 -4.47706 1.32987 79 99 67
0.76124 -4.49782 1.33069 105 115 90
0.75368 -4.52246 1.33162 86 90 88
0.73320 -4.53369 1.30942 94 111 93
0.74405 -4.54485 1.33250 79 90 80
0.72745 -4.62807 1.33556 77 82 78
0.73628 -4.67390 1.33708 74 70 64
0.71537 -4.68537 1.31440 53 61 45
0.73224 -4.74018 1.33944 76 73 61
0.71113 -4.75175 1.31655 76 69 60
0.69337 -4.87492 1.34451 60 62 65
0.72080 -4.94818 1.34681 121 131 93
0.70536 -4.96648 1.34760 74 84 104
0.68631 -4.98018 1.34825 67 60 78
0.66927 -4.99658 1.34898 79 83 90
0.67175 -5.03908 1.35045 112 123 107
0.65743 -5.05953 1.35130 139 149 141
0.63545 -5.07159 1.32746 151 162 160
0.64142 -5.07786 1.35208 146 154 149
0.61034 -5.11616 1.35371 149 166 155
0.59419 -5.13469 1.35451 152 163 158
0.57259 -5.14575 1.35510 146 158 151
0.55001 -5.15547 1.35565 146 157 145
0.55046 -5.15789 1.33110 153 155 149
0.16174 -5.22327 1.36162 143 145 136
0.18401 -5.21368 1.36108 145 145 134
0.18444 -5.21607 1.33687 140 150 145
0.13255 -5.22189 1.36185 127 135 128
0.06646 -5.16139 1.36034 77 88 102
0.04946 -5.17882 1.36111 62 71 100
-0.03362 -5.08910 1.35875 132 146 161
-0.03626 -5.12942 1.36018 187 193 184
-0.05840 -5.13644 1.38432 207 195 180
-0.06003 -5.13536 1.36061 206 200 184
-0.08216 -5.14238 1.38473 208 197 184
-0.08174 -5.14470 1.36114 207 196 179
-0.39632 -4.87846 1.35475 218 206 168
-0.37546 -4.87184 1.33201 209 200 182
-0.39956 -4.91762 1.35615 156 139 115
-0.42392 -4.91974 1.35645 121 102 79
-0.44756 -4.92303 1.35678 57 43 35
-0.54699 -5.26987 1.36983 29 29 26
-0.52595 -5.25833 1.39265 33 33 22
-0.52552 -5.26063 1.36931 33 32 26
-0.54741 -5.26757 1.39317 30 34 28
-0.56804 -5.28141 1.34701 15 19 15
-0.56568 -5.28466 1.37052 21 24 20
-0.58674 -5.29621 1.34768 17 17 13
-0.63295 -5.41482 1.37570 19 16 27
-0.61114 -5.40543 1.37517 15 15 16
-0.64475 -5.44527 1.37687 31 35 39
-0.66070 -5.46733 1.37779 52 69 57
-0.66436 -5.51602 1.37953 88 97 80
-0.68600 -5.52789 1.35606 124 123 114
-0.68609 -5.52628 1.38009 111 110 113
-0.70773 -5.53815 1.35662 121 126 120
-0.70170 -5.54994 1.38106 114 117 115
-0.72340 -5.56184 1.35754 112 115 127
-0.71788 -5.57263 1.38200 112 117 129
-0.74850 -5.62272 1.38404 115 117 118
-0.74806 -5.62511 1.35980 112 113 107
-0.77036 -5.63471 1.36034 119 121 106
-2.23810 -4.10738 1.34489 88 95 88
-2.24743 -4.13835 1.34606 65 62 53
-2.26282 -4.14679 1.32938 34 25 22
-2.26079 -4.15426 1.34674 31 30 25
-2.27621 -4.16271 1.33002 28 28 26
-2.93999 -3.09796 1.31611 253 254 254
-2.95176 -3.10169 1.32895 254 254 254
-2.95153 -3.10293 1.31639 254 254 254
-3.10778 -3.23424 1.32244 153 148 140
1.19058 -3.03073 1.25704 137 77 138
1.20775 -3.02529 1.23832 120 36 104
1.18917 -3.04958 1.25765 117 25 69
1.18004 -3.06272 1.25817 120 44 56
1.16345 -3.07182 1.24017 244 238 224
1.17257 -3.07719 1.25870 153 103 126
1.15594 -3.08631 1.24067 230 244 239
1.15588 -3.08471 1.25912 202 181 180
1.15077 -3.12159 1.26034 231 242 236
1.13870 -3.13283 1.26082 213 207 211
1.10916 -3.13044 1.26107 164 135 173
1.09932 -3.14345 1.26158 118 91 174
1.08228 -3.15082 1.26200 115 96 184
1.04831 -3.14471 1.26217 138 139 191
1.03164 -3.15385 1.24410 139 150 194
1.00202 -3.17050 1.26348 156 169 203
1.01937 -3.16499 1.24456 104 108 167
1.00235 -3.17232 1.24497 128 131 189
0.98207 -3.21815 1.26520 128 124 190
0.96526 -3.22737 1.24698 229 251 251
0.91714 -3.18588 1.26488 189 192 227
0.91845 -3.20843 1.26558 231 243 246
0.90847 -3.22168 1.26610 230 251 251
0.88829 -3.22638 1.26647 205 226 239
0.87158 -3.23555 1.24835 137 152 201
0.86579 -3.22908 1.26679 165 181 217
0.85690 -3.24337 1.26734 131 152 201
0.84573 -3.25577 1.26785 131 154 197
0.83341 -3.26723 1.26835 141 164 200
0.81664 -3.27643 1.25017 150 171 207
0.79617 -3.51186 1.27647 146 176 210
0.81362 -3.50228 1.29540 146 173 205
0.81397 -3.50419 1.27604 153 181 210
0.79582 -3.50995 1.29583 146 173 206
0.79800 -3.53791 1.27728 136 163 200
0.80122 -3.56551 1.27811 126 146 184
0.79272 -3.58223 1.27873 114 134 186
0.81757 -3.63090 1.28000 95 95 177
0.79735 -3.63679 1.28041 82 80 162
0.78412 -3.64942 1.28095 112 138 198
0.78637 -3.67716 1.28180 144 174 209
0.76806 -3.68504 1.28224 144 171 205
0.76116 -3.73023 1.28375 137 168 206
0.77996 -3.72427 1.26325 145 175 211
0.76153 -3.73221 1.26370 143 171 209
0.75136 -3.74677 1.28437 132 155 177
0.77473 -3.79670 1.28570 89 97 108
0.79890 -3.84798 1.28706 75 62 71
0.78042 -3.85812 1.26702 78 75 84
0.80404 -3.88048 1.28803 77 73 76
0.78545 -3.89067 1.26788 63 64 77
0.81001 -3.91413 1.28903 76 84 80
0.82959 -3.96212 1.29034 85 94 88
0.86480 -4.05553 1.29291 78 81 88
0.86519 -4.05763 1.27162 79 74 88
0.84561 -4.06606 1.27209 78 72 81
0.86762 -4.11672 1.29481 72 71 82
0.84823 -4.12735 1.27379 94 82 79
0.85189 -4.34340 1.30214 88 84 89
0.83184 -4.35440 1.28039 108 127 119
0.83582 -4.35711 1.30274 94 92 91
0.82210 -4.37355 1.30341 102 112 101
0.80743 -4.42134 1.30508 92 97 102
0.78720 -4.43243 1.28314 107 106 92
0.78860 -4.43230 1.30563 106 113 113
0.78009 -4.45525 1.30644 116 127 122
0.74913 -4.48535 1.30772 113 128 140
0.75965 -4.53127 1.30906 89 91 98
0.74440 -4.58115 1.31080 89 94 85
0.74482 -4.58340 1.28792 92 94 88
0.72377 -4.59246 1.28843 90 89 96
0.73995 -4.61024 1.31177 83 82 81
0.73439 -4.63826 1.31271 84 80 85
0.74142 -4.68195 1.31402 77 73 68
0.73274 -4.74258 1.31603 73 68 50
0.72588 -4.88083 1.32047 79 76 76
0.74826 -4.87373 1.29606 76 79 86
0.72631 -4.88318 1.29660 86 85 85
0.71667 -4.90667 1.32138 69 64 67
0.71485 -4.94230 1.32253 122 134 92
0.70746 -4.97104 1.32351 93 108 115
0.69218 -4.98969 1.32427 85 93 100
0.67390 -5.00451 1.32493 93 103 94
0.66374 -5.03022 1.32585 111 114 122
0.64795 -5.04862 1.32660 132 142 156
0.62602 -5.06065 1.30283 156 160 166
0.61419 -5.08283 1.32804 149 151 150
0.59425 -5.09591 1.32867 132 134 135
0.57487 -5.10980 1.32932 136 141 138
0.55437 -5.12220 1.32993 145 146 145
0.53234 -5.13428 1.30604 156 155 155
0.26848 -5.25757 1.33728 133 139 130
0.29055 -5.24547 1.36120 134 134 120
0.29099 -5.24788 1.33673 136 139 132
0.29144 -5.25029 1.31225 143 143 137
0.26804 -5.25516 1.36175 131 134 123
0.24642 -5.26967 1.31335 147 154 134
0.23104 -5.24414 1.33725 136 146 136
0.20906 -5.25620 1.31343 141 146 138
0.15372 -5.21236 1.33708 140 148 142
0.15415 -5.21474 1.31293 136 143 136
0.12487 -5.21140 1.33736 131 129 114
0.07575 -5.17791 1.33683 89 72 66
0.05389 -5.18761 1.33737 43 35 36
0.03563 -5.20317 1.33806 38 53 76
0.02185 -5.22615 1.33893 92 96 113
-0.08682 -5.09278 1.33589 156 168 176
-0.09853 -5.11837 1.33682 196 197 188
-0.12055 -5.12535 1.36082 205 196 183
-0.12012 -5.12767 1.33735 207 195 182
-0.36531 -4.93417 1.33387 216 204 173
-0.34424 -4.92749 1.31090 208 198 176
-0.38640 -4.94231 1.33435 174 155 123
-0.40727 -4.95084 1.33485 135 110 78
-0.43965 -4.93870 1.33481 73 62 39
-0.46335 -4.94190 1.33517 45 35 26
-0.48432 -4.94855 1.35802 32 35 34
-0.48391 -4.95075 1.33567 36 36 29
-0.48351 -4.95296 1.31332 36 38 30
-0.53009 -5.25316 1.34571 26 30 19
-0.50908 -5.24164 1.36849 32 34 25
-0.50865 -5.24394 1.34519 29 32 27
-0.55110 -5.26469 1.32293 16 19 10
-0.60952 -5.35614 1.34982 19 12 15
-0.58787 -5.34682 1.34929 19 15 12
-0.62465 -5.37893 1.35070 25 17 19
-0.62958 -5.42328 1.35215 41 43 44
-0.64109 -5.45443 1.35326 82 81 72
-0.65675 -5.47717 1.35415 106 112 86
-0.67827 -5.48898 1.33081 118 122 111
-0.67556 -5.49338 1.35486 117 126 104
-0.69711 -5.50520 1.33150 116 120 116
-0.73833 -5.58746 1.35851 115 122 122
-0.71570 -5.58028 1.33384 117 119 121
-0.73789 -5.58983 1.33438 118 115 117
-2.19902 -4.05948 1.32594 75 64 61
-2.21583 -4.06136 1.32618 85 89 75
-2.22821 -4.07970 1.32689 88 93 80
-2.23475 -4.12063 1.32825 68 58 84
-2.24400 -4.15210 1.32934 46 28 45
-2.78953 -3.24989 1.30671 74 78 131
-2.77756 -3.24333 1.31969 149 169 197
-2.77732 -3.24463 1.30641 15 32 73
-2.77708 -3.24594 1.29313 19 26 25
-2.78977 -3.24858 1.31998 197 209 207
-2.80150 -3.25646 1.29373 15 25 68
-2.81638 -3.16906 1.30444 137 146 182
-2.82854 -3.17291 1.31770 229 217 201
-2.82830 -3.17419 1.30473 189 202 194
-2.82807 -3.17547 1.29177 60 59 104
-2.93932 -3.10237 1.30366 242 239 233
-2.92754 -3.09864 1.29081 220 208 189
-2.93909 -3.10361 1.29109 217 207 199
-2.95065 -3.10859 1.29137 230 218 210
-2.95226 -3.09707 1.30363 248 249 250
-2.96401 -3.10080 1.31644 254 254 254
-2.96356 -3.10327 1.29138 241 232 230
1.19091 -3.03254 1.23873 130 62 100
1.20808 -3.02709 1.22001 169 126 157
1.17440 -3.04159 1.22083 246 244 230
1.19306 -3.05406 1.23931 169 126 137
1.16336 -3.05168 1.23961 218 197 181
1.15137 -3.10315 1.24120 205 210 233
1.13400 -3.11019 1.24162 190 194 234
1.11843 -3.11862 1.24204 178 195 230
1.09943 -3.12439 1.24244 173 188 217
1.07245 -3.12386 1.24275 146 156 194
1.07358 -3.14549 1.24335 139 123 171
1.03443 -3.13521 1.24354 166 167 201
1.01781 -3.14432 1.22552 144 153 200
0.97499 -3.17121 1.24528 155 156 216
0.95834 -3.18034 1.22722 230 250 250
0.95117 -3.17292 1.24561 182 188 226
0.92986 -3.17662 1.24598 220 233 239
0.91541 -3.20743 1.24702 211 232 244
0.87684 -3.19666 1.24719 174 192 218
0.86025 -3.20576 1.22919 147 165 194
0.87836 -3.21953 1.24782 140 161 199
0.86060 -3.24807 1.24884 143 157 201
0.86094 -3.24990 1.23028 151 171 204
0.84387 -3.25725 1.23070 153 174 206
0.84654 -3.25800 1.24929 146 164 204
0.82979 -3.26719 1.23114 155 180 208
0.83685 -3.27175 1.24980 149 169 206
0.82007 -3.28095 1.23161 156 181 209
0.80072 -3.46955 1.25582 158 183 221
0.81805 -3.46004 1.27460 155 177 212
0.81839 -3.46194 1.25539 164 183 219
0.80037 -3.46765 1.27503 155 181 212
0.79828 -3.49126 1.25646 149 170 204
0.83059 -3.54549 1.25759 125 138 178
0.82881 -3.56837 1.25826 90 98 147
0.83141 -3.59556 1.25900 72 78 112
0.81366 -3.60530 1.23975 63 75 106
0.82311 -3.61265 1.25958 53 59 112
0.81486 -3.62992 1.26017 36 38 112
0.79703 -3.63970 1.24083 43 56 91
0.80025 -3.64119 1.26066 27 43 107
0.78807 -3.65485 1.26120 59 68 139
0.79280 -3.68503 1.26199 133 165 198
0.78799 -3.70615 1.26264 149 180 209
0.76996 -3.71604 1.24310 156 179 207
0.75532 -3.75234 1.26435 138 167 194
0.77417 -3.74636 1.24379 151 178 207
0.75751 -3.78105 1.26513 109 133 141
0.79607 -3.84677 1.26651 86 73 64
0.80381 -3.93725 1.26897 72 71 77
0.82331 -3.93106 1.24771 71 78 75
0.78506 -3.94753 1.24864 84 85 94
0.83167 -3.99417 1.27024 81 80 95
0.81271 -4.00457 1.24968 89 86 97
0.86239 -4.32532 1.27920 79 83 67
0.88239 -4.31435 1.30089 75 81 78
0.88280 -4.31654 1.27871 75 89 74
0.85523 -4.34886 1.27995 98 110 113
0.82773 -4.38164 1.28121 115 111 105
0.82352 -4.40903 1.28204 110 102 97
0.81817 -4.43536 1.28285 112 110 89
0.80338 -4.48398 1.28440 96 90 100
0.78297 -4.49518 1.26227 84 83 77
0.79906 -4.51220 1.28525 85 75 108
0.77927 -4.52251 1.28578 92 105 109
0.75878 -4.53375 1.26356 82 83 83
0.76634 -4.54095 1.28646 89 96 81
0.75965 -4.56693 1.28727 91 88 70
0.73904 -4.57824 1.26493 99 97 92
0.74721 -4.65562 1.28992 89 94 98
0.76890 -4.64874 1.26627 92 91 94
0.74786 -4.69162 1.29093 80 76 80
0.75288 -4.73338 1.29205 51 57 53
0.73178 -4.74495 1.26917 65 50 59
0.73497 -4.74714 1.29265 53 56 35
0.73333 -4.78128 1.29364 66 69 71
0.71168 -4.79060 1.29416 70 75 87
0.71210 -4.79292 1.27063 67 78 85
0.72779 -4.92277 1.29770 79 80 86
0.75030 -4.91563 1.27315 81 79 87
0.71812 -4.94834 1.29853 128 149 118
0.70067 -4.96399 1.29919 101 98 121
0.68562 -4.98289 1.29991 95 100 118
0.66284 -4.99169 1.30043 124 132 124
0.64107 -5.00362 1.27683 145 151 148
0.65677 -5.02275 1.30138 135 149 150
0.63491 -5.03473 1.27769 154 158 139
0.64072 -5.04072 1.30208 150 159 158
0.61883 -5.05273 1.27835 150 148 153
0.60425 -5.07110 1.30339 165 162 165
0.58037 -5.07865 1.30389 130 125 137
0.55844 -5.09068 1.28012 126 114 119
0.56167 -5.09335 1.30453 125 125 136
0.54489 -5.11079 1.30523 143 147 149
0.27206 -5.26480 1.31290 146 149 134
0.27250 -5.26721 1.28841 153 161 137
0.24997 -5.27691 1.28895 150 156 134
0.12489 -5.21312 1.31324 134 137 121
0.14750 -5.20595 1.28859 141 142 131
0.08058 -5.18728 1.31305 107 103 90
0.05989 -5.19893 1.31363 62 55 48
0.02612 -5.18938 1.31377 37 27 30
0.00837 -5.20574 1.31445 30 25 41
-0.00096 -5.23611 1.31542 42 57 94
-0.03939 -5.21840 1.31539 121 131 164
-0.12182 -5.12642 1.31380 186 188 194
-0.14382 -5.13339 1.33778 207 194 180
-0.14340 -5.13571 1.31432 205 198 178
-0.34421 -4.97258 1.31217 214 201 179
-0.32299 -4.96586 1.28905 207 199 177
-0.34380 -4.97481 1.28955 209 202 183
-0.36698 -4.97806 1.31260 193 176 145
-0.39492 -4.97429 1.31284 142 118 80
-0.40952 -4.99424 1.31358 92 81 48
-0.45334 -4.96150 1.31319 50 40 23
-0.47355 -4.97259 1.29127 33 38 32
-0.50902 -5.24470 1.32186 22 25 29
-0.48802 -5.23318 1.34463 33 33 34
-0.48760 -5.23548 1.32134 30 30 36
-0.50860 -5.24700 1.29856 17 18 19
-0.53003 -5.25622 1.29908 17 17 13
-0.52779 -5.25914 1.32249 18 22 17
-0.54881 -5.27067 1.29970 17 17 11
-0.59436 -5.33510 1.32545 24 21 17
-0.57276 -5.32581 1.32492 21 16 17
-0.60555 -5.36571 1.32645 38 37 29
-0.61003 -5.41064 1.32777 70 67 59
-0.62935 -5.42521 1.32842 102 105 84
-0.64757 -5.44220 1.32912 119 127 104
-0.66374 -5.46372 1.32992 121 128 108
-0.68521 -5.47549 1.30665 122 123 106
-2.17143 -4.03456 1.30799 108 103 88
-2.15627 -4.02624 1.32443 98 98 82
-2.15597 -4.02790 1.30762 106 107 98
-2.15566 -4.02956 1.29081 104 107 99
-2.17112 -4.03621 1.29118 105 108 100
-2.18659 -4.04231 1.30840 96 92 67
-2.19949 -4.05831 1.30900 82 78 54
-2.21248 -4.07428 1.30961 72 69 55
-2.22243 -4.10192 1.31051 60 62 61
-2.23309 -4.12744 1.31136 53 55 58
-2.24845 -4.13587 1.29471 51 48 40
-2.24591 -4.14522 1.31202 49 51 44
-2.26215 -4.14988 1.31235 44 31 37
-2.27863 -4.15351 1.31265 34 28 29
-2.29463 -4.15858 1.33009 24 31 29
-2.29401 -4.16194 1.29598 42 47 33
-2.29475 -4.15853 1.31299 30 30 25
-2.31074 -4.16360 1.33042 29 28 36
-2.31012 -4.16696 1.29633 40 43 46
-3.04714 -3.11070 1.29261 251 254 247
-3.03593 -3.10455 1.30476 254 254 254
-3.03571 -3.10578 1.29233 254 254 254
1.18697 -3.03115 1.22040 219 205 198
1.20413 -3.02571 1.20170 244 239 232
1.17048 -3.04019 1.20252 254 254 252
1.15600 -3.04766 1.22123 252 251 246
1.15633 -3.04946 1.20293 254 254 254
1.13949 -3.05671 1.20334 254 254 253
1.14577 -3.05993 1.22168 254 250 251
1.15567 -3.08767 1.22223 195 216 232
1.14093 -3.09668 1.22266 138 160 193
1.12291 -3.10317 1.22306 171 194 215
1.10708 -3.11135 1.22348 194 190 209
1.09246 -3.12050 1.22391 157 133 185
1.07582 -3.12962 1.20586 189 204 223
1.08057 -3.13181 1.22435 135 120 182
1.04446 -3.12398 1.22465 175 176 209
1.02123 -3.12624 1.22502 178 200 229
1.00467 -3.13533 1.20706 180 186 227
0.97785 -3.15400 1.22630 180 187 224
0.99478 -3.14671 1.22589 144 143 191
0.94662 -3.14962 1.22662 220 232 246
0.93019 -3.17844 1.22756 216 232 245
0.90010 -3.17481 1.22788 186 195 232
0.88354 -3.18389 1.20993 151 167 199
0.88666 -3.18496 1.22832 150 168 213
0.87009 -3.19405 1.21035 154 172 195
0.87876 -3.19980 1.22879 140 161 196
0.86215 -3.20891 1.21079 156 174 198
0.82022 -3.44150 1.23559 163 190 211
0.83748 -3.43204 1.25431 159 178 206
0.83783 -3.43392 1.23517 164 189 209
0.80855 -3.45451 1.23608 157 179 203
0.83108 -3.49906 1.23688 131 150 181
0.84258 -3.53385 1.23758 102 106 160
0.82501 -3.54348 1.21853 52 51 113
0.85012 -3.56528 1.23826 71 63 126
0.83244 -3.57497 1.21910 54 60 102
0.84258 -3.58287 1.23880 49 48 104
0.82486 -3.59259 1.21959 59 71 113
0.83277 -3.59844 1.23932 62 62 109
0.81501 -3.60818 1.22007 59 74 118
0.81525 -3.63189 1.24039 55 61 99
0.79039 -3.65869 1.24139 33 57 115
0.78637 -3.68038 1.24199 104 132 175
0.79565 -3.71526 1.24273 153 182 207
0.76049 -3.75912 1.24430 147 174 201
0.77937 -3.75313 1.22372 161 184 211
0.74447 -3.76958 1.24478 144 159 170
0.78655 -3.83879 1.24592 97 102 92
0.79875 -3.87841 1.24674 75 73 80
0.79544 -3.93029 1.24807 80 83 80
0.77673 -3.94055 1.22778 85 83 92
0.85344 -4.28602 1.25611 69 80 81
0.87371 -4.27729 1.25562 85 95 103
0.83357 -4.29691 1.23457 77 73 84
0.85171 -4.31525 1.25686 78 79 80
0.84886 -4.34351 1.25760 93 99 100
0.82882 -4.35450 1.23588 106 95 89
0.83711 -4.36205 1.25822 108 110 108
0.84130 -4.39871 1.25908 120 128 135
0.83111 -4.41940 1.25973 140 148 150
0.81046 -4.42829 1.26023 153 157 140
0.80145 -4.45059 1.26091 119 122 104
0.81137 -4.49501 1.26188 91 89 82
0.78751 -4.53395 1.26317 82 85 73
0.78793 -4.53620 1.24040 75 78 71
0.76598 -4.57624 1.26451 91 88 80
0.74535 -4.58756 1.24214 102 101 103
0.75964 -4.67250 1.26699 94 93 100
0.75637 -4.70381 1.26781 91 88 85
0.75141 -4.73335 1.26861 82 77 62
0.74257 -4.79462 1.27026 69 70 71
0.71598 -4.90938 1.27347 78 70 93
0.73842 -4.90226 1.24900 84 79 91
0.71321 -4.94379 1.27436 132 146 130
0.69671 -4.96063 1.27500 118 110 123
0.67729 -4.97374 1.27559 118 128 135
0.65556 -4.98566 1.25204 140 145 151
0.66030 -4.99013 1.27623 135 138 142
0.63855 -5.00206 1.25265 147 152 156
0.58726 -5.04975 1.27871 156 150 160
0.60998 -5.04255 1.25395 153 147 144
0.58770 -5.05214 1.25449 151 143 147
0.57011 -5.06637 1.27936 149 149 155
0.52773 -5.08868 1.28049 138 137 144
0.51129 -5.10653 1.28116 149 155 168
0.48850 -5.11376 1.30600 155 156 159
0.48894 -5.11615 1.28170 152 159 163
0.48938 -5.11855 1.25740 156 160 154
0.37160 -5.19868 1.28535 155 162 148
0.39449 -5.19142 1.26040 150 151 151
0.37205 -5.20109 1.26094 160 166 160
0.34960 -5.21075 1.26149 161 168 156
0.35204 -5.21265 1.28596 149 154 148
0.32913 -5.21991 1.31094 138 140 140
0.33002 -5.22473 1.26209 158 163 151
0.12435 -5.21394 1.28910 142 141 125
0.14695 -5.20678 1.26446 148 148 128
0.12478 -5.21632 1.26500 148 145 129
0.09484 -5.21176 1.28945 141 136 109
0.07685 -5.22794 1.29010 120 111 80
0.04552 -5.22256 1.29039 96 85 39
0.00959 -5.20939 1.29056 71 52 19
-0.00034 -5.23878 1.29142 39 25 44
-0.04331 -5.21352 1.29138 56 61 91
-0.06213 -5.22820 1.29200 130 137 162
-0.15791 -5.11274 1.29044 181 188 172
-0.17981 -5.11968 1.31432 211 196 170
-0.21776 -5.05651 1.28986 201 197 177
-0.23940 -5.06338 1.31345 209 195 175
-0.23898 -5.06565 1.29038 207 196 177
-0.37353 -4.96801 1.28979 208 188 158
-0.35238 -4.96131 1.26673 209 200 180
-0.38890 -4.98649 1.29046 145 123 98
-0.40982 -4.99520 1.29096 103 92 61
-0.44346 -4.98086 1.29106 49 40 27
-0.46374 -4.99198 1.26907 34 39 38
-0.48204 -5.19748 1.29697 27 33 25
-0.46115 -5.18602 1.31962 33 39 35
-0.46073 -5.18831 1.29645 31 39 29
-0.48246 -5.19520 1.32014 32 36 34
-0.50293 -5.20894 1.27432 18 22 13
-0.49563 -5.22150 1.29775 22 24 24
-0.51657 -5.23299 1.27504 18 22 14
-0.55922 -5.30192 1.30062 20 15 13
-0.57572 -5.32130 1.30132 29 24 21
-0.58038 -5.36495 1.30247 49 56 42
-0.59874 -5.38114 1.30312 85 93 73
-0.61899 -5.39353 1.30371 108 113 93
-0.64030 -5.40521 1.28061 125 131 113
-0.63532 -5.41417 1.30444 122 130 109
-0.65667 -5.42588 1.28130 129 138 122
-0.64998 -5.43857 1.30525 127 138 117
-0.67138 -5.45030 1.28204 137 136 121
-0.66494 -5.46259 1.30605 130 135 116
-2.19029 -4.02956 1.29128 101 108 95
-2.17457 -4.02458 1.27414 101 107 98
-2.20632 -4.03395 1.29161 91 97 79
-2.21302 -4.07282 1.29266 69 68 49
-2.22164 -4.10539 1.29359 46 45 35
-2.23453 -4.12247 1.29419 43 42 37
-2.26601 -4.13518 1.29493 56 57 56
-2.26571 -4.13686 1.27793 48 57 55
-2.28135 -4.14359 1.27831 46 55 39
-2.28109 -4.14419 1.29536 48 53 39
-3.03577 -3.10438 1.27984 250 254 244
1.10919 -3.05365 1.20373 248 247 245
1.12630 -3.04822 1.18507 254 254 254
1.10952 -3.05545 1.18548 254 254 253
1.12649 -3.08712 1.20419 184 217 217
1.11216 -3.09640 1.20460 146 181 187
1.09737 -3.10535 1.20502 154 173 201
1.07457 -3.10804 1.20542 172 195 222
1.03901 -3.12121 1.20624 190 188 212
1.02244 -3.13030 1.18827 205 221 239
1.02291 -3.12912 1.20665 173 171 214
0.97542 -3.13265 1.20744 214 226 239
0.96084 -3.14174 1.20786 229 248 249
0.94763 -3.15198 1.20828 220 236 251
0.93192 -3.16020 1.20869 188 203 238
0.91537 -3.16928 1.19075 149 167 195
0.91469 -3.16718 1.20910 154 173 215
0.89815 -3.17625 1.19116 154 175 193
0.89834 -3.17488 1.20951 146 164 203
0.88179 -3.18396 1.19157 159 177 200
0.84313 -3.41687 1.21554 169 195 212
0.86034 -3.40743 1.23420 162 181 212
0.86069 -3.40931 1.21511 172 189 211
0.84279 -3.41499 1.23463 164 184 211
0.83031 -3.42871 1.21599 158 191 205
0.83087 -3.45276 1.21650 132 158 189
0.86333 -3.50620 1.21715 108 115 167
0.84582 -3.51580 1.19817 80 99 145
0.85067 -3.51867 1.21761 81 84 133
0.84993 -3.54224 1.21813 57 59 118
0.81836 -3.63647 1.22063 53 68 102
0.83692 -3.63059 1.20040 60 60 107
0.80763 -3.65149 1.22111 48 56 98
0.78976 -3.66129 1.20173 47 57 102
0.79310 -3.66292 1.22158 39 49 103
0.78611 -3.68174 1.22209 65 71 138
0.80200 -3.72310 1.22273 145 174 206
0.78873 -3.73615 1.22321 165 186 211
0.77062 -3.74608 1.20358 173 193 211
0.76627 -3.76651 1.22421 156 182 211
0.76664 -3.76849 1.20405 171 190 209
0.74189 -3.79529 1.22519 110 128 138
0.80857 -3.89004 1.22622 67 66 72
0.78997 -3.90024 1.20605 70 64 66
0.79580 -3.90456 1.22672 62 72 70
0.78638 -3.92261 1.22725 82 94 97
0.76771 -3.93285 1.20701 82 80 80
0.86613 -4.14982 1.23092 94 93 82
0.88560 -4.13914 1.25203 91 95 99
0.88599 -4.14127 1.23044 85 88 93
0.88638 -4.14340 1.20885 83 86 91
0.86574 -4.14769 1.25251 97 96 84
0.84589 -4.15624 1.25299 89 87 83
0.85676 -4.26051 1.23344 76 78 93
0.87655 -4.24966 1.25489 88 84 103
0.87694 -4.25182 1.23295 85 86 95
0.87734 -4.25399 1.21100 84 90 93
0.83920 -4.33448 1.23529 86 79 93
0.81921 -4.34544 1.21362 113 116 90
0.82496 -4.38201 1.23653 88 93 100
0.83336 -4.42371 1.23730 110 105 108
0.82253 -4.44385 1.23789 107 117 132
0.81762 -4.47096 1.23855 97 105 99
0.81409 -4.49992 1.23922 83 82 83
0.79363 -4.51114 1.21704 68 73 55
0.80548 -4.52322 1.23985 76 77 70
0.78496 -4.53447 1.21761 74 76 63
0.77573 -4.55557 1.24100 75 80 83
0.77451 -4.58816 1.24171 86 87 96
0.75383 -4.59950 1.21930 89 90 99
0.75571 -4.63457 1.24299 94 79 81
0.76661 -4.68276 1.24386 104 117 101
0.74566 -4.69425 1.22115 118 120 102
0.76054 -4.71071 1.24455 106 113 91
0.76492 -4.75179 1.24537 97 92 42
0.76168 -4.78387 1.24611 70 72 44
0.74042 -4.79552 1.22307 66 50 36
0.75158 -4.80768 1.24677 62 64 64
0.74740 -4.83916 1.24751 70 73 82
0.72514 -4.84622 1.27177 74 78 88
0.72557 -4.84856 1.24804 77 76 92
0.72600 -4.85090 1.22431 80 80 88
0.71644 -4.91177 1.24954 81 77 102
0.73888 -4.90465 1.22507 82 75 90
0.70365 -4.93321 1.25019 142 155 150
0.69009 -4.95380 1.25083 151 143 124
0.66842 -4.96568 1.22734 157 164 158
0.66922 -4.96494 1.25139 155 154 150
0.64754 -4.97682 1.22788 151 157 158
0.55802 -5.05156 1.25493 161 163 161
0.54107 -5.06845 1.25554 127 121 122
0.51886 -5.07810 1.25609 137 138 139
0.49215 -5.08145 1.25656 154 157 151
0.47035 -5.09340 1.23292 155 164 150
0.09713 -5.21709 1.26544 149 145 124
0.11970 -5.20994 1.24084 152 147 138
0.07971 -5.23422 1.26607 142 135 114
0.05857 -5.24542 1.26663 136 131 97
0.03269 -5.24888 1.26709 121 116 84
0.00676 -5.25217 1.26755 108 99 94
-0.09523 -5.12869 1.26644 103 102 106
-0.11641 -5.14030 1.24348 131 137 126
-0.07937 -5.20089 1.26775 128 135 136
-0.10562 -5.20285 1.26819 132 147 143
-0.25425 -5.04093 1.26696 193 193 179
-0.27537 -5.05003 1.26748 206 199 177
-0.36576 -4.98323 1.26741 214 199 159
-0.37998 -5.00388 1.26806 153 131 101
-0.40657 -5.00251 1.26844 117 101 68
-0.42760 -5.01105 1.26894 54 49 32
-0.44799 -5.02223 1.24683 39 40 40
-0.46409 -5.13440 1.27214 34 37 29
-0.44337 -5.12304 1.29459 31 40 35
-0.44296 -5.12530 1.27162 34 40 45
-0.46450 -5.13213 1.29511 33 41 34
-0.48480 -5.14576 1.24968 24 22 12
-0.46811 -5.17585 1.27309 28 32 17
-0.48894 -5.18728 1.25050 21 21 10
-0.48051 -5.20188 1.27383 21 26 12
-0.50140 -5.21335 1.25118 22 21 17
-0.54233 -5.28495 1.27655 23 21 14
-0.52084 -5.27570 1.27602 21 22 15
-0.55504 -5.31172 1.27731 34 33 23
-0.56285 -5.34868 1.27823 61 67 55
-0.58825 -5.35042 1.27865 97 103 91
-0.60946 -5.36205 1.25565 122 122 119
-0.60477 -5.37021 1.27932 118 121 108
-0.62602 -5.38186 1.25629 121 122 112
-0.62031 -5.39224 1.28003 121 123 106
-0.64160 -5.40392 1.25694 123 127 116
-2.19644 -4.00795 1.27412 93 99 91
-2.20311 -4.04619 1.27504 67 67 63
-2.21825 -4.05450 1.25862 26 23 28
-2.20392 -4.10702 1.27635 39 34 27
-2.21925 -4.11542 1.25974 26 26 27
-2.22084 -4.10891 1.27665 33 28 24
-2.23557 -4.11903 1.27709 36 39 36
-3.00006 -3.10083 1.26678 223 213 197
-3.01130 -3.10699 1.25460 222 209 190
-3.01309 -3.09245 1.26680 235 224 217
-3.02422 -3.09985 1.26712 242 239 227
1.08135 -3.05391 1.18592 248 247 246
1.09842 -3.04849 1.16731 254 254 254
1.10101 -3.08932 1.18623 170 196 218
1.09747 -3.10698 1.18661 108 118 184
1.07630 -3.11094 1.18703 97 95 188
1.06362 -3.12156 1.18744 99 111 210
1.03194 -3.11715 1.18788 143 162 227
0.99417 -3.12845 1.18871 232 246 248
0.97477 -3.13365 1.18912 228 240 251
0.96467 -3.14639 1.18952 198 207 242
0.94813 -3.15546 1.17159 149 164 204
0.94315 -3.14986 1.18994 160 173 219
0.92662 -3.15892 1.17202 154 172 198
0.92706 -3.15774 1.19035 146 162 204
0.91053 -3.16681 1.17243 159 176 195
0.86565 -3.39215 1.19561 176 192 215
0.88281 -3.38274 1.21421 167 188 212
0.88316 -3.38462 1.19518 177 190 213
0.86531 -3.39028 1.21464 169 188 212
0.85862 -3.40904 1.19603 170 189 205
0.85250 -3.42686 1.19645 150 162 191
0.88025 -3.47542 1.19687 109 118 176
0.86949 -3.48946 1.19730 77 78 152
0.86214 -3.50670 1.19774 79 83 146
0.83586 -3.53081 1.19861 73 89 131
0.81832 -3.54043 1.17959 57 56 113
0.84100 -3.55998 1.19905 62 62 107
0.82301 -3.56772 1.19949 50 58 102
0.82336 -3.56965 1.17993 51 57 110
0.82284 -3.64237 1.20084 60 68 110
0.82320 -3.64432 1.18103 87 92 124
0.81326 -3.65851 1.20129 59 79 119
0.79536 -3.66832 1.18189 57 55 91
0.79032 -3.68744 1.20220 37 56 127
0.78743 -3.71044 1.20266 113 140 192
0.79824 -3.74714 1.20314 169 193 223
0.78009 -3.75709 1.18347 182 196 216
0.76236 -3.79080 1.20453 168 183 206
0.78132 -3.78478 1.18385 177 194 215
0.74181 -3.79683 1.20498 145 161 172
0.79380 -3.87667 1.20556 80 78 84
0.77843 -3.91607 1.20653 88 86 83
0.75980 -3.92629 1.18633 76 73 76
0.86485 -4.15016 1.20933 74 71 82
0.84540 -4.16083 1.18824 69 63 64
0.86977 -4.18524 1.20989 62 66 77
0.86254 -4.20757 1.21041 72 73 88
0.85278 -4.25789 1.21148 65 69 73
0.85768 -4.29414 1.21206 74 70 53
0.83779 -4.30505 1.19050 119 122 86
0.85224 -4.31931 1.21260 88 83 91
0.84277 -4.34021 1.21314 93 95 103
0.82737 -4.38647 1.21423 83 87 89
0.80724 -4.39751 1.19241 79 81 60
0.83141 -4.42325 1.21483 80 81 84
0.81117 -4.43435 1.19288 91 82 83
0.82859 -4.45254 1.21540 89 87 96
0.80826 -4.46369 1.19336 81 84 84
0.82703 -4.48356 1.21599 89 89 93
0.82161 -4.51040 1.21657 78 72 76
0.80111 -4.52164 1.19435 67 79 65
0.77835 -4.56043 1.21819 70 73 62
0.77827 -4.59442 1.21880 80 84 95
0.75692 -4.63780 1.21994 89 74 83
0.73613 -4.64920 1.19739 130 126 104
