ply
format ascii 1.0
element face 0
property list uchar int vertex_indices
element vertex 1241
property float x
property float y
property float z
property uchar diffuse_red
property uchar diffuse_green
property uchar diffuse_blue
end_header
0.00206 -0.41198 -0.72132 254 254 254
0.00895 -0.41443 -0.71793 254 254 254
0.01584 -0.41687 -0.71454 254 254 254
0.02272 -0.41932 -0.71115 254 254 254
0.02960 -0.42177 -0.70777 254 254 254
0.03648 -0.42421 -0.70438 254 254 254
0.04336 -0.42665 -0.70100 254 254 254
0.05023 -0.42910 -0.69762 254 254 254
0.05709 -0.43154 -0.69424 254 254 254
0.06396 -0.43398 -0.69086 254 254 254
0.07082 -0.43642 -0.68749 254 254 254
0.07768 -0.43885 -0.68411 254 254 254
0.08453 -0.44129 -0.68074 254 254 254
0.09138 -0.44373 -0.67737 254 254 254
0.09823 -0.44616 -0.67400 254 254 254
0.10508 -0.44859 -0.67063 254 254 254
0.11192 -0.45102 -0.66726 254 254 254
0.11876 -0.45345 -0.66389 254 254 254
0.12560 -0.45588 -0.66053 254 254 254
0.13243 -0.45831 -0.65717 254 254 254
0.13926 -0.46074 -0.65381 254 254 254
0.14608 -0.46317 -0.65045 254 254 254
0.15291 -0.46559 -0.64709 254 254 254
0.15973 -0.46802 -0.64374 254 254 254
0.16654 -0.47044 -0.64038 254 254 254
0.17336 -0.47286 -0.63703 254 254 254
0.23454 -0.49460 -0.60692 254 254 254
0.24132 -0.49702 -0.60359 254 254 254
0.24810 -0.49942 -0.60025 254 254 254
0.25487 -0.50183 -0.59691 254 254 254
0.26164 -0.50424 -0.59358 254 254 254
0.26841 -0.50665 -0.59025 254 254 254
0.27518 -0.50905 -0.58692 254 254 254
0.28194 -0.51145 -0.58359 254 254 254
0.28870 -0.51386 -0.58027 254 254 254
0.29546 -0.51626 -0.57694 254 254 254
0.30221 -0.51866 -0.57362 254 254 254
0.30896 -0.52106 -0.57030 254 254 254
0.31571 -0.52346 -0.56698 254 254 254
0.32246 -0.52585 -0.56366 254 254 254
0.32920 -0.52825 -0.56034 254 254 254
0.33594 -0.53065 -0.55702 254 254 254
0.34267 -0.53304 -0.55371 254 254 254
0.34940 -0.53543 -0.55040 254 254 254
0.35613 -0.53782 -0.54709 254 254 254
0.36286 -0.54021 -0.54378 254 254 254
0.36958 -0.54260 -0.54047 254 254 254
0.37630 -0.54499 -0.53716 254 254 254
0.38302 -0.54738 -0.53386 254 254 254
0.38973 -0.54976 -0.53055 254 254 254
0.39644 -0.55215 -0.52725 254 254 254
0.40315 -0.55453 -0.52395 254 254 254
0.40985 -0.55692 -0.52065 254 254 254
0.41655 -0.55930 -0.51735 254 254 254
0.42325 -0.56168 -0.51406 254 254 254
0.42994 -0.56406 -0.51076 254 254 254
0.43663 -0.56644 -0.50747 254 254 254
0.44332 -0.56881 -0.50418 254 254 254
0.45001 -0.57119 -0.50089 254 254 254
0.45669 -0.57357 -0.49760 254 254 254
0.46337 -0.57594 -0.49431 254 254 254
0.47005 -0.57831 -0.49103 254 254 254
-0.31031 -0.31167 -0.86438 251 250 252
-0.30330 -0.31416 -0.86094 251 250 252
-0.29630 -0.31665 -0.85749 251 250 251
-0.28930 -0.31913 -0.85405 251 250 251
-0.28230 -0.32162 -0.85061 251 250 251
-0.27531 -0.32410 -0.84717 251 250 251
-0.26832 -0.32658 -0.84374 251 250 251
-0.26133 -0.32906 -0.84030 251 250 251
-0.25435 -0.33154 -0.83687 251 250 251
-0.24737 -0.33402 -0.83344 251 250 251
-0.24039 -0.33650 -0.83001 251 250 251
-0.23342 -0.33897 -0.82658 251 250 251
-0.22645 -0.34145 -0.82315 252 250 251
-0.21949 -0.34392 -0.81972 252 250 251
-0.21252 -0.34639 -0.81630 252 250 251
-0.20556 -0.34886 -0.81288 252 250 251
-0.19861 -0.35133 -0.80946 252 251 251
-0.19165 -0.35380 -0.80604 252 251 251
-0.18470 -0.35627 -0.80262 252 251 252
-0.17776 -0.35874 -0.79920 252 252 252
-0.17081 -0.36120 -0.79579 252 252 252
-0.16387 -0.36367 -0.79238 252 252 252
-0.15693 -0.36613 -0.78896 252 252 252
-0.15000 -0.36859 -0.78556 252 252 252
-0.14307 -0.37105 -0.78215 252 252 252
-0.13614 -0.37351 -0.77874 252 252 253
-0.12922 -0.37597 -0.77534 253 253 253
-0.12230 -0.37843 -0.77193 253 253 253
-0.11538 -0.38088 -0.76853 253 253 253
-0.10846 -0.38334 -0.76513 253 253 253
-0.10155 -0.38579 -0.76173 253 253 254
-0.09465 -0.38825 -0.75833 254 254 254
-0.08774 -0.39070 -0.75494 254 254 254
-0.08084 -0.39315 -0.75155 254 254 254
-0.07394 -0.39560 -0.74815 254 254 254
-0.06705 -0.39805 -0.74476 254 254 254
-0.06015 -0.40049 -0.74137 254 254 254
-0.05326 -0.40294 -0.73799 254 254 254
-0.04638 -0.40538 -0.73460 254 254 254
-0.03950 -0.40783 -0.73122 254 254 254
-0.03262 -0.41027 -0.72783 254 254 254
-0.02574 -0.41271 -0.72445 254 254 254
-0.01887 -0.41515 -0.72107 254 254 254
-0.01200 -0.41759 -0.71770 254 254 254
-0.00513 -0.42003 -0.71432 254 254 254
0.00173 -0.42247 -0.71094 254 254 254
0.00859 -0.42490 -0.70757 254 254 254
0.01545 -0.42734 -0.70420 254 254 254
0.02230 -0.42977 -0.70083 254 254 254
0.02915 -0.43220 -0.69746 254 254 254
0.03600 -0.43463 -0.69409 254 254 254
0.04284 -0.43706 -0.69073 254 254 254
0.04968 -0.43949 -0.68736 254 254 254
0.05652 -0.44192 -0.68400 254 254 254
0.06335 -0.44435 -0.68064 254 254 254
0.07019 -0.44677 -0.67728 254 254 254
0.07701 -0.44920 -0.67392 254 254 254
0.08384 -0.45162 -0.67057 254 254 254
0.09066 -0.45404 -0.66721 254 254 254
0.09748 -0.45646 -0.66386 254 254 254
0.10429 -0.45888 -0.66051 254 254 254
0.11111 -0.46130 -0.65716 254 254 254
0.11792 -0.46372 -0.65381 254 254 254
0.12472 -0.46614 -0.65046 254 254 254
0.13152 -0.46855 -0.64712 254 254 254
0.13832 -0.47097 -0.64378 254 254 254
0.14512 -0.47338 -0.64043 254 254 254
0.15191 -0.47579 -0.63709 254 254 254
0.15870 -0.47820 -0.63375 254 254 254
0.21967 -0.49985 -0.60377 254 254 254
0.22643 -0.50225 -0.60045 254 254 254
0.23319 -0.50465 -0.59713 254 254 254
0.23994 -0.50705 -0.59381 254 254 254
0.24669 -0.50944 -0.59049 254 254 254
0.25344 -0.51184 -0.58717 254 254 254
0.26018 -0.51423 -0.58385 254 254 254
0.26692 -0.51663 -0.58054 254 254 254
0.27366 -0.51902 -0.57723 254 254 254
0.28039 -0.52141 -0.57392 254 254 254
0.28712 -0.52380 -0.57061 254 254 254
0.29385 -0.52619 -0.56730 254 254 254
0.30057 -0.52858 -0.56399 254 254 254
0.30730 -0.53096 -0.56069 254 254 254
0.31401 -0.53335 -0.55738 254 254 254
0.32073 -0.53573 -0.55408 254 254 254
0.32744 -0.53812 -0.55078 254 254 254
0.33415 -0.54050 -0.54748 254 254 254
0.34086 -0.54288 -0.54418 254 254 254
0.34756 -0.54526 -0.54089 254 254 254
0.35426 -0.54764 -0.53759 254 254 254
0.36096 -0.55002 -0.53430 254 254 254
0.36765 -0.55239 -0.53101 254 254 254
0.37434 -0.55477 -0.52772 254 254 254
0.38103 -0.55714 -0.52443 254 254 254
0.38771 -0.55952 -0.52114 254 254 254
0.39440 -0.56189 -0.51786 254 254 254
0.40107 -0.56426 -0.51457 254 254 254
0.40775 -0.56663 -0.51129 254 254 254
0.41442 -0.56900 -0.50801 254 254 254
0.42109 -0.57137 -0.50473 254 254 254
0.42776 -0.57373 -0.50145 254 254 254
0.43442 -0.57610 -0.49818 254 254 254
0.44108 -0.57846 -0.49490 254 254 254
0.44774 -0.58083 -0.49163 254 254 254
0.45439 -0.58319 -0.48835 254 254 254
0.46104 -0.58555 -0.48508 254 254 254
-0.31623 -0.32019 -0.85674 251 250 251
-0.30926 -0.32267 -0.85331 251 250 251
-0.30228 -0.32514 -0.84988 251 250 251
-0.29531 -0.32762 -0.84646 251 250 251
-0.28834 -0.33009 -0.84303 251 250 251
-0.28138 -0.33256 -0.83961 251 250 251
-0.27442 -0.33503 -0.83619 251 250 251
-0.26746 -0.33750 -0.83277 251 250 251
-0.26050 -0.33996 -0.82935 251 250 251
-0.25355 -0.34243 -0.82594 251 250 250
-0.24660 -0.34489 -0.82252 251 250 251
-0.23966 -0.34736 -0.81911 251 250 251
-0.23271 -0.34982 -0.81570 251 250 251
-0.22578 -0.35228 -0.81229 252 250 251
-0.21884 -0.35474 -0.80888 252 250 251
-0.21191 -0.35720 -0.80547 252 250 251
-0.20498 -0.35966 -0.80207 252 250 251
-0.19805 -0.36211 -0.79867 252 251 251
-0.19113 -0.36457 -0.79526 252 251 251
-0.18421 -0.36702 -0.79186 252 251 252
-0.17730 -0.36948 -0.78847 252 252 252
-0.17038 -0.37193 -0.78507 252 252 252
-0.16347 -0.37438 -0.78167 252 252 252
-0.15657 -0.37683 -0.77828 252 252 252
-0.14966 -0.37928 -0.77489 252 252 252
-0.14276 -0.38173 -0.77150 252 252 252
-0.13587 -0.38417 -0.76811 252 252 253
-0.12897 -0.38662 -0.76472 253 253 253
-0.12208 -0.38906 -0.76134 253 253 253
-0.11519 -0.39150 -0.75795 253 253 253
-0.10831 -0.39395 -0.75457 253 253 253
-0.10143 -0.39639 -0.75119 253 253 254
-0.09455 -0.39883 -0.74781 254 254 254
-0.08768 -0.40127 -0.74443 254 254 254
-0.08081 -0.40370 -0.74105 254 254 254
-0.07394 -0.40614 -0.73768 254 254 254
-0.06707 -0.40857 -0.73431 254 254 254
-0.06021 -0.41101 -0.73093 254 254 254
-0.05335 -0.41344 -0.72756 254 254 254
-0.04650 -0.41587 -0.72420 254 254 254
-0.03965 -0.41830 -0.72083 254 254 254
-0.03280 -0.42073 -0.71746 254 254 254
-0.02595 -0.42316 -0.71410 254 254 254
-0.01911 -0.42559 -0.71074 254 254 254
-0.01227 -0.42801 -0.70738 254 254 254
-0.00543 -0.43044 -0.70402 254 254 254
0.00140 -0.43286 -0.70066 254 254 254
0.00823 -0.43528 -0.69730 254 254 254
0.01506 -0.43771 -0.69395 254 254 254
0.02188 -0.44013 -0.69060 254 254 254
0.02870 -0.44255 -0.68724 254 254 254
0.03552 -0.44496 -0.68389 254 254 254
0.04233 -0.44738 -0.68055 254 254 254
0.04914 -0.44980 -0.67720 254 254 254
0.05595 -0.45221 -0.67385 254 254 254
0.06275 -0.45463 -0.67051 254 254 254
0.06956 -0.45704 -0.66717 254 254 254
0.07635 -0.45945 -0.66383 254 254 254
0.08315 -0.46186 -0.66049 254 254 254
0.08994 -0.46427 -0.65715 254 254 254
0.09673 -0.46668 -0.65382 254 254 254
0.10352 -0.46908 -0.65048 254 254 254
0.11030 -0.47149 -0.64715 254 254 254
0.11708 -0.47389 -0.64382 254 254 254
0.12386 -0.47630 -0.64049 254 254 254
0.13063 -0.47870 -0.63716 254 254 254
0.13740 -0.48110 -0.63383 254 254 254
0.14417 -0.48350 -0.63051 254 254 254
0.20493 -0.50506 -0.60065 254 254 254
0.21166 -0.50745 -0.59734 254 254 254
0.21840 -0.50983 -0.59403 254 254 254
0.22513 -0.51222 -0.59072 254 254 254
0.23185 -0.51461 -0.58742 254 254 254
0.23858 -0.51699 -0.58411 254 254 254
0.24530 -0.51938 -0.58081 254 254 254
0.25201 -0.52176 -0.57751 254 254 254
0.25873 -0.52414 -0.57421 254 254 254
0.26544 -0.52652 -0.57091 254 254 254
0.27215 -0.52890 -0.56762 254 254 254
0.27885 -0.53128 -0.56432 254 254 254
0.28556 -0.53366 -0.56103 254 254 254
0.29225 -0.53603 -0.55774 254 254 254
0.29895 -0.53841 -0.55445 254 254 254
0.30564 -0.54078 -0.55116 254 254 254
0.31233 -0.54315 -0.54787 254 254 254
0.31902 -0.54553 -0.54459 254 254 254
0.32570 -0.54790 -0.54130 254 254 254
0.33238 -0.55027 -0.53802 254 254 254
0.33906 -0.55263 -0.53474 254 254 254
0.34573 -0.55500 -0.53146 254 254 254
0.35241 -0.55737 -0.52818 254 254 254
0.35907 -0.55973 -0.52490 254 254 254
0.36574 -0.56210 -0.52163 254 254 254
0.37240 -0.56446 -0.51836 254 254 254
0.37906 -0.56682 -0.51508 254 254 254
0.38572 -0.56918 -0.51181 254 254 254
0.39237 -0.57154 -0.50854 254 254 254
0.39902 -0.57390 -0.50528 254 254 254
0.40567 -0.57626 -0.50201 254 254 254
0.41231 -0.57862 -0.49875 254 254 254
0.41895 -0.58097 -0.49548 254 254 254
0.42559 -0.58333 -0.49222 254 254 254
0.43222 -0.58568 -0.48896 254 254 254
0.43886 -0.58803 -0.48570 254 254 254
0.44548 -0.59038 -0.48244 254 254 254
0.45211 -0.59273 -0.47919 254 254 254
-0.32211 -0.32864 -0.84916 251 250 251
-0.31516 -0.33111 -0.84574 251 250 251
-0.30822 -0.33357 -0.84233 251 250 251
-0.30127 -0.33603 -0.83892 251 250 251
-0.29433 -0.33849 -0.83552 251 250 251
-0.28739 -0.34095 -0.83211 251 250 251
-0.28046 -0.34340 -0.82870 251 250 251
-0.27353 -0.34586 -0.82530 251 250 251
-0.26660 -0.34832 -0.82190 251 250 251
-0.25968 -0.35077 -0.81850 251 250 250
-0.25276 -0.35322 -0.81510 251 250 251
-0.24584 -0.35567 -0.81170 251 250 251
-0.23893 -0.35812 -0.80831 251 250 251
-0.23201 -0.36057 -0.80492 252 250 251
-0.22511 -0.36302 -0.80152 252 250 251
-0.21820 -0.36547 -0.79813 252 250 251
-0.21130 -0.36791 -0.79474 252 250 251
-0.20440 -0.37036 -0.79136 252 251 251
-0.19751 -0.37280 -0.78797 252 251 251
-0.19061 -0.37524 -0.78459 252 251 251
-0.18372 -0.37768 -0.78120 252 251 252
-0.17684 -0.38012 -0.77782 252 252 252
-0.16996 -0.38256 -0.77444 252 252 252
-0.16308 -0.38500 -0.77107 252 252 252
-0.15620 -0.38744 -0.76769 252 252 252
-0.14933 -0.38987 -0.76431 252 252 252
-0.14246 -0.39231 -0.76094 252 252 253
-0.13559 -0.39474 -0.75757 253 253 253
-0.12873 -0.39717 -0.75420 253 253 253
-0.12187 -0.39960 -0.75083 253 253 253
-0.11501 -0.40203 -0.74746 253 253 253
-0.10816 -0.40446 -0.74410 253 253 254
-0.10131 -0.40689 -0.74073 254 254 254
-0.09446 -0.40932 -0.73737 254 254 254
-0.08762 -0.41174 -0.73401 254 254 254
-0.08077 -0.41416 -0.73065 254 254 254
-0.07394 -0.41659 -0.72730 254 254 254
-0.06710 -0.41901 -0.72394 254 254 254
-0.06027 -0.42143 -0.72058 254 254 254
-0.05344 -0.42385 -0.71723 254 254 254
-0.04662 -0.42627 -0.71388 254 254 254
-0.03979 -0.42869 -0.71053 254 254 254
-0.03298 -0.43110 -0.70718 254 254 254
-0.02616 -0.43352 -0.70384 254 254 254
-0.01935 -0.43593 -0.70049 254 254 254
-0.01254 -0.43834 -0.69715 254 254 254
-0.00573 -0.44076 -0.69380 254 254 254
0.00107 -0.44317 -0.69046 254 254 254
0.00787 -0.44558 -0.68712 254 254 254
0.01467 -0.44799 -0.68379 254 254 254
0.02146 -0.45039 -0.68045 254 254 254
0.02825 -0.45280 -0.67712 254 254 254
0.03504 -0.45520 -0.67378 254 254 254
0.04183 -0.45761 -0.67045 254 254 254
0.04861 -0.46001 -0.66712 254 254 254
0.05539 -0.46241 -0.66379 254 254 254
0.06216 -0.46481 -0.66047 254 254 254
0.06893 -0.46721 -0.65714 254 254 254
0.07570 -0.46961 -0.65382 254 254 254
0.08247 -0.47201 -0.65050 254 254 254
0.08923 -0.47441 -0.64718 254 254 254
0.09599 -0.47680 -0.64386 254 254 254
0.10275 -0.47920 -0.64054 254 254 254
0.10950 -0.48159 -0.63722 254 254 254
0.11625 -0.48398 -0.63391 254 254 254
0.12300 -0.48637 -0.63060 254 254 254
0.12974 -0.48876 -0.62728 254 254 254
0.19030 -0.51022 -0.59755 254 254 254
0.19701 -0.51260 -0.59425 254 254 254
0.20372 -0.51498 -0.59096 254 254 254
0.21043 -0.51735 -0.58766 254 254 254
0.21713 -0.51973 -0.58437 254 254 254
0.22383 -0.52210 -0.58108 254 254 254
0.23053 -0.52448 -0.57779 254 254 254
0.23722 -0.52685 -0.57451 254 254 254
0.24392 -0.52922 -0.57122 254 254 254
0.25060 -0.53159 -0.56794 254 254 254
0.25729 -0.53396 -0.56465 254 254 254
0.26397 -0.53633 -0.56137 254 254 254
0.27065 -0.53870 -0.55809 254 254 254
0.27733 -0.54106 -0.55481 254 254 254
0.28400 -0.54343 -0.55154 254 254 254
0.29067 -0.54579 -0.54826 254 254 254
0.29734 -0.54815 -0.54499 254 254 254
0.30400 -0.55051 -0.54172 254 254 254
0.31066 -0.55287 -0.53844 254 254 254
0.31732 -0.55523 -0.53518 254 254 254
0.32398 -0.55759 -0.53191 254 254 254
0.33063 -0.55995 -0.52864 254 254 254
0.33728 -0.56230 -0.52538 254 254 254
0.34392 -0.56466 -0.52211 254 254 254
0.35057 -0.56701 -0.51885 254 254 254
0.35721 -0.56937 -0.51559 254 254 254
0.36384 -0.57172 -0.51233 254 254 254
0.37048 -0.57407 -0.50907 254 254 254
0.37711 -0.57642 -0.50582 254 254 254
0.38374 -0.57877 -0.50256 254 254 254
0.39036 -0.58112 -0.49931 254 254 254
0.39698 -0.58346 -0.49606 254 254 254
0.40360 -0.58581 -0.49281 254 254 254
0.41022 -0.58815 -0.48956 254 254 254
0.41683 -0.59049 -0.48631 254 254 254
0.42344 -0.59284 -0.48307 254 254 254
0.43005 -0.59518 -0.47982 254 254 254
0.43665 -0.59752 -0.47658 254 254 254
-0.32794 -0.33703 -0.84164 251 249 251
-0.32102 -0.33948 -0.83824 251 250 251
-0.31410 -0.34193 -0.83485 251 250 251
-0.30718 -0.34437 -0.83145 251 250 251
-0.30027 -0.34682 -0.82806 251 250 251
-0.29336 -0.34927 -0.82467 251 250 251
-0.28645 -0.35171 -0.82128 251 250 251
-0.27955 -0.35416 -0.81789 251 250 251
-0.27265 -0.35660 -0.81451 251 250 251
-0.26575 -0.35904 -0.81112 251 250 250
-0.25886 -0.36148 -0.80774 251 250 251
-0.25197 -0.36392 -0.80436 251 250 251
-0.24508 -0.36636 -0.80098 251 250 251
-0.23820 -0.36879 -0.79760 252 250 251
-0.23132 -0.37123 -0.79423 252 250 251
-0.22444 -0.37366 -0.79085 252 250 251
-0.21757 -0.37610 -0.78748 252 250 251
-0.21070 -0.37853 -0.78411 252 251 251
-0.20383 -0.38096 -0.78074 252 251 251
-0.19696 -0.38339 -0.77737 252 251 251
-0.19010 -0.38582 -0.77400 252 251 252
-0.18324 -0.38825 -0.77064 252 252 252
-0.17639 -0.39068 -0.76727 252 252 252
-0.16953 -0.39310 -0.76391 252 252 252
-0.16269 -0.39553 -0.76055 252 252 252
-0.15584 -0.39795 -0.75719 252 252 252
-0.14900 -0.40037 -0.75383 252 252 252
-0.14216 -0.40279 -0.75048 252 252 253
-0.13532 -0.40521 -0.74712 253 253 253
-0.12849 -0.40763 -0.74377 253 253 253
-0.12166 -0.41005 -0.74042 253 253 253
-0.11483 -0.41247 -0.73707 253 253 254
-0.10801 -0.41488 -0.73372 254 254 254
-0.10119 -0.41730 -0.73037 254 254 254
-0.09437 -0.41971 -0.72703 254 254 254
-0.08755 -0.42212 -0.72369 254 254 254
-0.08074 -0.42454 -0.72034 254 254 254
-0.07393 -0.42695 -0.71700 254 254 254
-0.06713 -0.42935 -0.71366 254 254 254
-0.06033 -0.43176 -0.71033 254 254 254
-0.05353 -0.43417 -0.70699 254 254 254
-0.04673 -0.43657 -0.70366 254 254 254
-0.03994 -0.43898 -0.70032 254 254 254
-0.03315 -0.44138 -0.69699 254 254 254
-0.02637 -0.44379 -0.69366 254 254 254
-0.01958 -0.44619 -0.69033 254 254 254
-0.01280 -0.44859 -0.68701 254 254 254
-0.00603 -0.45099 -0.68368 254 254 254
0.00075 -0.45338 -0.68036 254 254 254
0.00752 -0.45578 -0.67703 254 254 254
0.01429 -0.45818 -0.67371 254 254 254
0.02105 -0.46057 -0.67039 254 254 254
0.02781 -0.46296 -0.66708 254 254 254
0.03457 -0.46536 -0.66376 254 254 254
0.04133 -0.46775 -0.66045 254 254 254
0.04808 -0.47014 -0.65713 254 254 254
0.05483 -0.47253 -0.65382 254 254 254
0.06157 -0.47492 -0.65051 254 254 254
0.06831 -0.47730 -0.64720 254 254 254
0.07505 -0.47969 -0.64390 254 254 254
0.08179 -0.48207 -0.64059 254 254 254
0.08852 -0.48446 -0.63729 254 254 254
0.09525 -0.48684 -0.63398 254 254 254
0.10198 -0.48922 -0.63068 254 254 254
0.10871 -0.49160 -0.62738 254 254 254
0.11543 -0.49398 -0.62409 254 254 254
0.12215 -0.49636 -0.62079 254 254 254
0.17578 -0.51535 -0.59447 254 254 254
0.18247 -0.51771 -0.59119 254 254 254
0.18916 -0.52008 -0.58791 254 254 254
0.19584 -0.52245 -0.58463 254 254 254
0.20252 -0.52481 -0.58135 254 254 254
0.20920 -0.52718 -0.57807 254 254 254
0.21588 -0.52954 -0.57480 254 254 254
0.22255 -0.53190 -0.57152 254 254 254
0.22922 -0.53426 -0.56825 254 254 254
0.23588 -0.53662 -0.56498 254 254 254
0.24255 -0.53898 -0.56171 254 254 254
0.24921 -0.54134 -0.55844 254 254 254
0.25586 -0.54370 -0.55518 254 254 254
0.26252 -0.54605 -0.55191 254 254 254
0.26917 -0.54841 -0.54865 254 254 254
0.27582 -0.55076 -0.54539 254 254 254
0.28246 -0.55311 -0.54213 254 254 254
0.28910 -0.55546 -0.53887 254 254 254
0.29574 -0.55781 -0.53561 254 254 254
0.30238 -0.56016 -0.53235 254 254 254
0.30901 -0.56251 -0.52910 254 254 254
0.31564 -0.56486 -0.52585 254 254 254
0.32227 -0.56720 -0.52259 254 254 254
0.32889 -0.56955 -0.51934 254 254 254
0.33551 -0.57189 -0.51609 254 254 254
0.34213 -0.57424 -0.51285 254 254 254
0.34874 -0.57658 -0.50960 254 254 254
0.35536 -0.57892 -0.50636 254 254 254
0.36196 -0.58126 -0.50311 254 254 254
0.36857 -0.58360 -0.49987 254 254 254
0.37517 -0.58593 -0.49663 254 254 254
0.38177 -0.58827 -0.49340 254 254 254
0.38837 -0.59060 -0.49016 254 254 254
0.39496 -0.59294 -0.48692 254 254 254
0.40155 -0.59527 -0.48369 254 254 254
0.40814 -0.59760 -0.48046 254 254 254
0.41473 -0.59994 -0.47723 254 254 254
0.42131 -0.60227 -0.47400 254 254 254
0.42789 -0.60459 -0.47077 254 254 254
-0.33372 -0.34534 -0.83418 251 249 251
-0.32683 -0.34777 -0.83080 251 250 251
-0.31994 -0.35021 -0.82742 251 250 251
-0.31305 -0.35265 -0.82404 251 250 251
-0.30616 -0.35508 -0.82067 251 250 251
-0.29928 -0.35752 -0.81729 251 250 251
-0.29240 -0.35995 -0.81392 251 250 251
-0.28552 -0.36238 -0.81055 251 250 251
-0.27865 -0.36481 -0.80718 251 250 251
-0.27178 -0.36724 -0.80381 251 250 251
-0.26491 -0.36967 -0.80044 251 250 251
-0.25805 -0.37210 -0.79708 251 250 251
-0.25119 -0.37452 -0.79372 251 250 251
-0.24433 -0.37695 -0.79035 252 250 251
-0.23748 -0.37937 -0.78699 252 250 251
-0.23063 -0.38180 -0.78363 252 250 251
-0.22378 -0.38422 -0.78028 252 250 251
-0.21694 -0.38664 -0.77692 252 251 251
-0.21010 -0.38906 -0.77356 252 251 251
-0.20326 -0.39148 -0.77021 252 251 251
-0.19642 -0.39389 -0.76686 252 251 251
-0.18959 -0.39631 -0.76351 252 251 252
-0.18276 -0.39872 -0.76016 252 252 252
-0.17594 -0.40114 -0.75682 252 252 252
-0.16912 -0.40355 -0.75347 252 252 252
-0.16230 -0.40596 -0.75013 252 252 252
-0.15548 -0.40837 -0.74678 252 252 252
-0.14867 -0.41078 -0.74344 252 252 253
-0.14186 -0.41319 -0.74011 253 253 253
-0.13505 -0.41560 -0.73677 253 253 253
-0.12825 -0.41800 -0.73343 253 253 253
-0.12145 -0.42041 -0.73010 253 253 253
-0.11465 -0.42281 -0.72676 253 253 254
-0.10786 -0.42522 -0.72343 254 254 254
-0.10107 -0.42762 -0.72010 254 254 254
-0.09428 -0.43002 -0.71677 254 254 254
-0.08749 -0.43242 -0.71345 254 254 254
-0.08071 -0.43482 -0.71012 254 254 254
-0.07393 -0.43721 -0.70680 254 254 254
-0.06716 -0.43961 -0.70348 254 254 254
-0.06039 -0.44200 -0.70016 254 254 254
-0.05362 -0.44440 -0.69684 254 254 254
-0.04685 -0.44679 -0.69352 254 254 254
-0.04009 -0.44918 -0.69020 254 254 254
-0.03333 -0.45157 -0.68689 254 254 254
-0.02657 -0.45396 -0.68358 254 254 254
-0.01982 -0.45635 -0.68026 254 254 254
-0.01307 -0.45874 -0.67695 254 254 254
-0.00632 -0.46113 -0.67364 254 254 254
0.00043 -0.46351 -0.67034 254 254 254
0.00717 -0.46589 -0.66703 254 254 254
0.01391 -0.46828 -0.66373 254 254 254
0.02064 -0.47066 -0.66043 254 254 254
0.02737 -0.47304 -0.65712 254 254 254
0.03410 -0.47542 -0.65382 254 254 254
0.04083 -0.47780 -0.65053 254 254 254
0.04755 -0.48018 -0.64723 254 254 254
0.05427 -0.48255 -0.64394 254 254 254
0.06099 -0.48493 -0.64064 254 254 254
0.06770 -0.48730 -0.63735 254 254 254
0.07441 -0.48968 -0.63406 254 254 254
0.08112 -0.49205 -0.63077 254 254 254
0.08782 -0.49442 -0.62748 254 254 254
0.09453 -0.49679 -0.62420 254 254 254
0.10122 -0.49916 -0.62091 254 254 254
0.10792 -0.50153 -0.61763 254 254 254
0.16804 -0.52279 -0.58815 254 254 254
0.17471 -0.52515 -0.58488 254 254 254
0.18137 -0.52750 -0.58162 254 254 254
0.18803 -0.52986 -0.57835 254 254 254
0.19468 -0.53221 -0.57509 254 254 254
0.20134 -0.53456 -0.57182 254 254 254
0.20799 -0.53692 -0.56856 254 254 254
0.21463 -0.53927 -0.56530 254 254 254
0.22128 -0.54162 -0.56205 254 254 254
0.22792 -0.54396 -0.55879 254 254 254
0.23455 -0.54631 -0.55554 254 254 254
0.24119 -0.54866 -0.55228 254 254 254
0.24782 -0.55100 -0.54903 254 254 254
0.25445 -0.55335 -0.54578 254 254 254
0.26108 -0.55569 -0.54253 254 254 254
0.26770 -0.55803 -0.53928 254 254 254
0.27432 -0.56038 -0.53604 254 254 254
0.28093 -0.56272 -0.53279 254 254 254
0.28755 -0.56505 -0.52955 254 254 254
0.29416 -0.56739 -0.52631 254 254 254
0.30077 -0.56973 -0.52307 254 254 254
0.30737 -0.57206 -0.51983 254 254 254
0.31397 -0.57440 -0.51659 254 254 254
0.32057 -0.57673 -0.51336 254 254 254
0.32717 -0.57907 -0.51012 254 254 254
0.33376 -0.58140 -0.50689 254 254 254
0.34035 -0.58373 -0.50366 254 254 254
0.34694 -0.58606 -0.50043 254 254 254
0.35352 -0.58839 -0.49720 254 254 254
0.36010 -0.59071 -0.49398 254 254 254
0.36668 -0.59304 -0.49075 254 254 254
0.37325 -0.59537 -0.48753 254 254 254
0.37983 -0.59769 -0.48430 254 254 254
0.38640 -0.60001 -0.48108 254 254 254
0.39296 -0.60233 -0.47786 254 254 254
0.39953 -0.60466 -0.47465 254 254 254
0.40609 -0.60698 -0.47143 254 254 254
0.41264 -0.60929 -0.46821 254 254 254
0.41920 -0.61161 -0.46500 254 254 254
-0.33946 -0.35358 -0.82679 251 249 251
-0.33259 -0.35600 -0.82342 251 249 251
-0.32572 -0.35843 -0.82006 251 250 251
-0.31886 -0.36085 -0.81670 251 250 251
-0.31200 -0.36328 -0.81334 251 250 251
-0.30515 -0.36570 -0.80998 251 250 251
-0.29830 -0.36812 -0.80662 251 250 251
-0.29145 -0.37054 -0.80326 251 250 251
-0.28460 -0.37296 -0.79991 251 250 251
-0.27776 -0.37538 -0.79656 251 250 251
-0.27092 -0.37779 -0.79321 251 250 251
-0.26408 -0.38021 -0.78986 251 250 251
-0.25725 -0.38262 -0.78651 251 250 251
-0.25042 -0.38504 -0.78316 251 250 251
-0.24359 -0.38745 -0.77982 251 250 251
-0.23677 -0.38986 -0.77647 252 250 251
-0.22995 -0.39227 -0.77313 252 250 251
-0.22313 -0.39468 -0.76979 252 250 251
-0.21632 -0.39709 -0.76645 252 251 251
-0.20950 -0.39949 -0.76311 252 251 251
-0.20270 -0.40190 -0.75978 252 251 251
-0.19589 -0.40430 -0.75644 252 251 252
-0.18909 -0.40670 -0.75311 252 252 252
-0.18229 -0.40911 -0.74978 252 252 252
-0.17549 -0.41151 -0.74645 252 252 252
-0.16870 -0.41391 -0.74312 252 252 252
-0.16191 -0.41631 -0.73979 252 252 252
-0.15513 -0.41870 -0.73647 252 252 253
-0.14834 -0.42110 -0.73314 253 253 253
-0.14156 -0.42350 -0.72982 253 253 253
-0.13479 -0.42589 -0.72650 253 253 253
-0.12801 -0.42828 -0.72318 253 253 253
-0.12124 -0.43068 -0.71986 253 253 254
-0.11447 -0.43307 -0.71655 254 254 254
-0.10771 -0.43546 -0.71323 254 254 254
-0.10095 -0.43785 -0.70992 254 254 254
-0.09419 -0.44023 -0.70661 254 254 254
-0.08743 -0.44262 -0.70330 254 254 254
-0.08068 -0.44501 -0.69999 254 254 254
-0.07393 -0.44739 -0.69668 254 254 254
-0.06718 -0.44978 -0.69338 254 254 254
-0.06044 -0.45216 -0.69007 254 254 254
-0.05370 -0.45454 -0.68677 254 254 254
-0.04696 -0.45692 -0.68347 254 254 254
-0.04023 -0.45930 -0.68017 254 254 254
-0.03350 -0.46168 -0.67687 254 254 254
-0.02677 -0.46405 -0.67358 254 254 254
-0.02005 -0.46643 -0.67028 254 254 254
-0.01333 -0.46880 -0.66699 254 254 254
-0.00661 -0.47118 -0.66370 254 254 254
0.00011 -0.47355 -0.66041 254 254 254
0.00682 -0.47592 -0.65712 254 254 254
0.01353 -0.47829 -0.65383 254 254 254
0.02024 -0.48066 -0.65054 254 254 254
0.02694 -0.48303 -0.64726 254 254 254
0.03364 -0.48540 -0.64397 254 254 254
0.04034 -0.48776 -0.64069 254 254 254
0.04703 -0.49013 -0.63741 254 254 254
0.05372 -0.49249 -0.63413 254 254 254
0.06041 -0.49486 -0.63086 254 254 254
0.06709 -0.49722 -0.62758 254 254 254
0.07378 -0.49958 -0.62431 254 254 254
0.08046 -0.50194 -0.62104 254 254 254
0.08713 -0.50430 -0.61776 254 254 254
0.09380 -0.50665 -0.61449 254 254 254
0.15372 -0.52783 -0.58513 254 254 254
0.16037 -0.53017 -0.58188 254 254 254
0.16701 -0.53252 -0.57863 254 254 254
0.17364 -0.53486 -0.57537 254 254 254
0.18028 -0.53721 -0.57212 254 254 254
0.18691 -0.53955 -0.56887 254 254 254
0.19353 -0.54189 -0.56563 254 254 254
0.20016 -0.54423 -0.56238 254 254 254
0.20678 -0.54657 -0.55914 254 254 254
0.21340 -0.54891 -0.55589 254 254 254
0.22001 -0.55125 -0.55265 254 254 254
0.22663 -0.55358 -0.54941 254 254 254
0.23324 -0.55592 -0.54617 254 254 254
0.23984 -0.55825 -0.54294 254 254 254
0.24645 -0.56059 -0.53970 254 254 254
0.25305 -0.56292 -0.53647 254 254 254
0.25965 -0.56525 -0.53323 254 254 254
0.26624 -0.56758 -0.53000 254 254 254
0.27283 -0.56991 -0.52677 254 254 254
0.27942 -0.57224 -0.52354 254 254 254
0.28601 -0.57456 -0.52032 254 254 254
0.29259 -0.57689 -0.51709 254 254 254
0.29917 -0.57921 -0.51387 254 254 254
0.30575 -0.58154 -0.51064 254 254 254
0.31232 -0.58386 -0.50742 254 254 254
0.31889 -0.58618 -0.50420 254 254 254
0.32546 -0.58850 -0.50098 254 254 254
0.33202 -0.59082 -0.49777 254 254 254
0.33859 -0.59314 -0.49455 254 254 254
0.34515 -0.59546 -0.49134 254 254 254
0.35170 -0.59777 -0.48813 254 254 254
0.35826 -0.60009 -0.48492 254 254 254
0.36481 -0.60240 -0.48171 254 254 254
0.37135 -0.60472 -0.47850 254 254 254
0.37790 -0.60703 -0.47529 254 254 254
0.38444 -0.60934 -0.47209 254 254 254
0.39098 -0.61165 -0.46888 254 254 254
0.39751 -0.61396 -0.46568 254 254 254
0.40405 -0.61627 -0.46248 254 254 254
0.41058 -0.61858 -0.45928 254 254 254
-0.34514 -0.36175 -0.81946 251 249 251
-0.33830 -0.36417 -0.81611 251 249 251
-0.33146 -0.36658 -0.81276 251 249 251
-0.32463 -0.36899 -0.80941 251 250 251
-0.31780 -0.37140 -0.80607 251 250 251
-0.31097 -0.37381 -0.80272 251 250 251
-0.30414 -0.37622 -0.79938 251 250 251
-0.29732 -0.37863 -0.79604 251 250 251
-0.29050 -0.38104 -0.79270 251 250 251
-0.28369 -0.38344 -0.78936 251 250 251
-0.27687 -0.38585 -0.78603 251 250 251
-0.27006 -0.38825 -0.78269 251 250 251
-0.26326 -0.39066 -0.77936 251 250 251
-0.25645 -0.39306 -0.77603 251 250 251
-0.24965 -0.39546 -0.77270 251 250 251
-0.24286 -0.39786 -0.76937 252 250 251
-0.23606 -0.40025 -0.76604 252 250 251
-0.22927 -0.40265 -0.76272 252 250 251
-0.22248 -0.40505 -0.75939 252 251 251
-0.21570 -0.40744 -0.75607 252 251 251
-0.20892 -0.40984 -0.75275 252 251 251
-0.20214 -0.41223 -0.74943 252 251 251
-0.19536 -0.41462 -0.74612 252 251 252
-0.18859 -0.41701 -0.74280 252 252 252
-0.18182 -0.41940 -0.73948 252 252 252
-0.17505 -0.42179 -0.73617 252 252 252
-0.16829 -0.42418 -0.73286 252 252 252
-0.16153 -0.42656 -0.72955 252 252 252
-0.15477 -0.42895 -0.72624 252 252 253
-0.14802 -0.43133 -0.72293 253 253 253
-0.14127 -0.43371 -0.71963 253 253 253
-0.13452 -0.43610 -0.71632 253 253 253
-0.12778 -0.43848 -0.71302 253 253 254
-0.12103 -0.44086 -0.70972 254 254 254
-0.11430 -0.44323 -0.70642 254 254 254
-0.10756 -0.44561 -0.70312 254 254 254
-0.10083 -0.44799 -0.69983 254 254 254
-0.09410 -0.45036 -0.69653 254 254 254
-0.08737 -0.45274 -0.69324 254 254 254
-0.08065 -0.45511 -0.68995 254 254 254
-0.07393 -0.45748 -0.68666 254 254 254
-0.06721 -0.45985 -0.68337 254 254 254
-0.06050 -0.46222 -0.68008 254 254 254
-0.05379 -0.46459 -0.67679 254 254 254
-0.04708 -0.46696 -0.67351 254 254 254
-0.04037 -0.46933 -0.67022 254 254 254
-0.03367 -0.47169 -0.66694 254 254 254
-0.02697 -0.47406 -0.66366 254 254 254
-0.02028 -0.47642 -0.66038 254 254 254
-0.01358 -0.47878 -0.65711 254 254 254
-0.00690 -0.48114 -0.65383 254 254 254
-0.00021 -0.48350 -0.65056 254 254 254
0.00648 -0.48586 -0.64728 254 254 254
0.01316 -0.48822 -0.64401 254 254 254
0.01983 -0.49058 -0.64074 254 254 254
0.02651 -0.49293 -0.63748 254 254 254
0.03318 -0.49529 -0.63421 254 254 254
0.03985 -0.49764 -0.63094 254 254 254
0.04651 -0.50000 -0.62768 254 254 254
0.05318 -0.50235 -0.62442 254 254 254
0.05984 -0.50470 -0.62116 254 254 254
0.06649 -0.50705 -0.61790 254 254 254
0.07315 -0.50940 -0.61464 254 254 254
0.07980 -0.51174 -0.61138 254 254 254
0.08644 -0.51409 -0.60813 254 254 254
0.13951 -0.53282 -0.58214 254 254 254
0.14614 -0.53516 -0.57890 254 254 254
0.15275 -0.53750 -0.57566 254 254 254
0.15937 -0.53983 -0.57242 254 254 254
0.16598 -0.54216 -0.56918 254 254 254
0.17259 -0.54450 -0.56595 254 254 254
0.17919 -0.54683 -0.56271 254 254 254
0.18580 -0.54916 -0.55948 254 254 254
0.19239 -0.55149 -0.55625 254 254 254
0.19899 -0.55382 -0.55302 254 254 254
0.20559 -0.55614 -0.54979 254 254 254
0.21218 -0.55847 -0.54656 254 254 254
0.21876 -0.56080 -0.54334 254 254 254
0.22535 -0.56312 -0.54011 254 254 254
0.23193 -0.56544 -0.53689 254 254 254
0.23851 -0.56777 -0.53367 254 254 254
0.24508 -0.57009 -0.53045 254 254 254
0.25166 -0.57241 -0.52723 254 254 254
0.25823 -0.57473 -0.52401 254 254 254
0.26479 -0.57704 -0.52080 254 254 254
0.27136 -0.57936 -0.51758 254 254 254
0.27792 -0.58168 -0.51437 254 254 254
0.28448 -0.58399 -0.51116 254 254 254
0.29103 -0.58631 -0.50795 254 254 254
0.29759 -0.58862 -0.50474 254 254 254
0.30413 -0.59093 -0.50153 254 254 254
0.31068 -0.59324 -0.49833 254 254 254
0.31722 -0.59555 -0.49513 254 254 254
0.32377 -0.59786 -0.49192 254 254 254
0.33030 -0.60017 -0.48872 254 254 254
0.33684 -0.60247 -0.48552 254 254 254
0.34337 -0.60478 -0.48232 254 254 254
0.34990 -0.60708 -0.47913 254 254 254
0.35642 -0.60939 -0.47593 254 254 254
0.36295 -0.61169 -0.47274 254 254 254
0.36947 -0.61399 -0.46954 254 254 254
0.37598 -0.61629 -0.46635 254 254 254
0.38250 -0.61859 -0.46316 254 254 254
0.38901 -0.62089 -0.45998 254 254 254
0.39552 -0.62319 -0.45679 254 254 254
-0.35078 -0.36986 -0.81218 251 249 251
-0.34397 -0.37226 -0.80885 251 249 251
-0.33716 -0.37466 -0.80552 251 249 251
-0.33035 -0.37706 -0.80218 251 249 251
-0.32354 -0.37946 -0.79885 251 250 251
-0.31674 -0.38186 -0.79553 251 250 251
-0.30994 -0.38426 -0.79220 251 250 251
-0.30315 -0.38666 -0.78887 251 250 251
-0.29635 -0.38905 -0.78555 251 250 251
-0.28956 -0.39145 -0.78223 251 250 251
-0.28278 -0.39384 -0.77891 251 250 251
-0.27600 -0.39623 -0.77559 251 250 251
-0.26922 -0.39862 -0.77227 251 250 251
-0.26244 -0.40101 -0.76895 251 250 251
-0.25566 -0.40340 -0.76564 251 250 251
-0.24889 -0.40579 -0.76233 251 250 251
-0.24213 -0.40817 -0.75902 252 250 251
-0.23536 -0.41056 -0.75571 252 250 251
-0.22860 -0.41294 -0.75240 252 250 251
-0.22184 -0.41533 -0.74909 252 251 251
-0.21509 -0.41771 -0.74578 252 251 251
-0.20833 -0.42009 -0.74248 252 251 251
-0.20158 -0.42247 -0.73918 252 251 252
-0.19484 -0.42485 -0.73588 252 252 252
-0.18809 -0.42723 -0.73258 252 252 252
-0.18135 -0.42961 -0.72928 252 252 252
-0.17462 -0.43198 -0.72598 252 252 252
-0.16788 -0.43436 -0.72269 252 252 252
-0.16115 -0.43673 -0.71939 252 252 253
-0.15442 -0.43910 -0.71610 253 253 253
-0.14770 -0.44147 -0.71281 253 253 253
-0.14098 -0.44384 -0.70952 253 253 253
-0.13426 -0.44621 -0.70623 253 253 253
-0.12754 -0.44858 -0.70295 253 253 254
-0.12083 -0.45095 -0.69966 254 254 254
-0.11412 -0.45331 -0.69638 254 254 254
-0.10741 -0.45568 -0.69310 254 254 254
-0.10071 -0.45804 -0.68982 254 254 254
-0.09401 -0.46041 -0.68654 254 254 254
-0.08731 -0.46277 -0.68326 254 254 254
-0.08062 -0.46513 -0.67999 254 254 254
-0.07393 -0.46749 -0.67671 254 254 254
-0.06724 -0.46985 -0.67344 254 254 254
-0.06055 -0.47220 -0.67017 254 254 254
-0.05387 -0.47456 -0.66690 254 254 254
-0.04719 -0.47692 -0.66363 254 254 254
-0.04052 -0.47927 -0.66036 254 254 254
-0.03384 -0.48162 -0.65710 254 254 254
-0.02717 -0.48398 -0.65383 254 254 254
-0.02051 -0.48633 -0.65057 254 254 254
-0.01384 -0.48868 -0.64731 254 254 254
-0.00718 -0.49103 -0.64405 254 254 254
-0.00052 -0.49337 -0.64079 254 254 254
0.00613 -0.49572 -0.63754 254 254 254
0.01279 -0.49807 -0.63428 254 254 254
0.01943 -0.50041 -0.63103 254 254 254
0.02608 -0.50275 -0.62778 254 254 254
0.03272 -0.50510 -0.62453 254 254 254
0.03936 -0.50744 -0.62128 254 254 254
0.04600 -0.50978 -0.61803 254 254 254
0.05264 -0.51212 -0.61478 254 254 254
0.05927 -0.51446 -0.61154 254 254 254
0.06589 -0.51679 -0.60830 254 254 254
0.07252 -0.51913 -0.60505 254 254 254
0.12541 -0.53778 -0.57917 254 254 254
0.13201 -0.54011 -0.57594 254 254 254
0.13861 -0.54244 -0.57272 254 254 254
0.14520 -0.54476 -0.56949 254 254 254
0.15179 -0.54708 -0.56627 254 254 254
0.15838 -0.54941 -0.56304 254 254 254
0.16496 -0.55173 -0.55982 254 254 254
0.17154 -0.55405 -0.55660 254 254 254
0.17812 -0.55637 -0.55338 254 254 254
0.18469 -0.55869 -0.55017 254 254 254
0.19127 -0.56100 -0.54695 254 254 254
0.19783 -0.56332 -0.54373 254 254 254
0.20440 -0.56564 -0.54052 254 254 254
0.21096 -0.56795 -0.53731 254 254 254
0.21752 -0.57026 -0.53410 254 254 254
0.22408 -0.57258 -0.53089 254 254 254
0.23063 -0.57489 -0.52769 254 254 254
0.23719 -0.57720 -0.52448 254 254 254
0.24373 -0.57951 -0.52128 254 254 254
0.25028 -0.58181 -0.51807 254 254 254
0.25682 -0.58412 -0.51487 254 254 254
0.26336 -0.58643 -0.51167 254 254 254
0.26990 -0.58873 -0.50847 254 254 254
0.27643 -0.59104 -0.50528 254 254 254
0.28296 -0.59334 -0.50208 254 254 254
0.28949 -0.59564 -0.49889 254 254 254
0.29601 -0.59794 -0.49569 254 254 254
0.30254 -0.60024 -0.49250 254 254 254
0.30906 -0.60254 -0.48931 254 254 254
0.31557 -0.60484 -0.48612 254 254 254
0.32209 -0.60714 -0.48294 254 254 254
0.32860 -0.60943 -0.47975 254 254 254
0.33510 -0.61173 -0.47657 254 254 254
0.34161 -0.61402 -0.47338 254 254 254
0.34811 -0.61631 -0.47020 254 254 254
0.35461 -0.61860 -0.46702 254 254 254
0.36110 -0.62090 -0.46384 254 254 254
0.36760 -0.62318 -0.46067 254 254 254
0.37409 -0.62547 -0.45749 254 254 254
0.38057 -0.62776 -0.45432 254 254 254
0.38706 -0.63005 -0.45114 254 254 254
-0.35637 -0.37790 -0.80497 251 249 251
-0.34959 -0.38029 -0.80165 251 249 251
-0.34280 -0.38268 -0.79833 251 249 251
-0.33602 -0.38507 -0.79502 251 249 251
-0.32924 -0.38746 -0.79170 251 250 251
-0.32247 -0.38985 -0.78839 251 250 251
-0.31569 -0.39223 -0.78508 251 250 251
-0.30893 -0.39462 -0.78177 251 250 251
-0.30216 -0.39700 -0.77846 251 250 251
-0.29540 -0.39938 -0.77515 251 250 251
-0.28864 -0.40176 -0.77185 251 250 251
-0.28188 -0.40414 -0.76854 251 250 251
-0.27513 -0.40652 -0.76524 251 250 250
-0.26837 -0.40890 -0.76194 251 250 251
-0.26163 -0.41128 -0.75864 251 250 251
-0.25488 -0.41366 -0.75534 251 250 251
-0.24814 -0.41603 -0.75204 252 250 251
-0.24140 -0.41841 -0.74875 252 250 251
-0.23467 -0.42078 -0.74546 252 250 251
-0.22793 -0.42315 -0.74216 252 251 251
-0.22120 -0.42552 -0.73887 252 251 251
-0.21448 -0.42789 -0.73558 252 251 251
-0.20776 -0.43026 -0.73230 252 251 251
-0.20103 -0.43263 -0.72901 252 251 252
-0.19432 -0.43499 -0.72573 252 252 252
-0.18760 -0.43736 -0.72244 252 252 252
-0.18089 -0.43972 -0.71916 252 252 252
-0.17418 -0.44209 -0.71588 252 252 252
-0.16748 -0.44445 -0.71260 252 252 253
-0.16078 -0.44681 -0.70932 253 253 253
-0.15408 -0.44917 -0.70605 253 253 253
-0.14738 -0.45153 -0.70277 253 253 253
-0.14069 -0.45389 -0.69950 253 253 253
-0.13400 -0.45624 -0.69623 253 253 254
-0.12731 -0.45860 -0.69296 254 254 254
-0.12063 -0.46095 -0.68969 254 254 254
-0.11395 -0.46331 -0.68643 254 254 254
-0.10727 -0.46566 -0.68316 254 254 254
-0.10059 -0.46801 -0.67990 254 254 254
-0.09392 -0.47036 -0.67663 254 254 254
-0.08725 -0.47271 -0.67337 254 254 254
-0.08059 -0.47506 -0.67011 254 254 254
-0.07393 -0.47741 -0.66686 254 254 254
-0.06727 -0.47975 -0.66360 254 254 254
-0.06061 -0.48210 -0.66034 254 254 254
-0.05396 -0.48444 -0.65709 254 254 254
-0.04730 -0.48679 -0.65384 254 254 254
-0.04066 -0.48913 -0.65059 254 254 254
-0.03401 -0.49147 -0.64734 254 254 254
-0.02737 -0.49381 -0.64409 254 254 254
-0.02073 -0.49615 -0.64084 254 254 254
-0.01410 -0.49849 -0.63760 254 254 254
-0.00746 -0.50082 -0.63436 254 254 254
-0.00083 -0.50316 -0.63111 254 254 254
0.00579 -0.50549 -0.62787 254 254 254
0.01242 -0.50783 -0.62463 254 254 254
0.01904 -0.51016 -0.62140 254 254 254
0.02566 -0.51249 -0.61816 254 254 254
0.03227 -0.51482 -0.61493 254 254 254
0.03888 -0.51715 -0.61169 254 254 254
0.04549 -0.51948 -0.60846 254 254 254
0.05210 -0.52181 -0.60523 254 254 254
0.05870 -0.52413 -0.60200 254 254 254
0.06530 -0.52646 -0.59878 254 254 254
0.11142 -0.54270 -0.57622 254 254 254
0.11800 -0.54502 -0.57301 254 254 254
0.12457 -0.54734 -0.56979 254 254 254
0.13114 -0.54965 -0.56658 254 254 254
0.13771 -0.55197 -0.56337 254 254 254
0.14427 -0.55428 -0.56016 254 254 254
0.15084 -0.55659 -0.55695 254 254 254
0.15740 -0.55890 -0.55374 254 254 254
0.16395 -0.56121 -0.55054 254 254 254
0.17050 -0.56352 -0.54733 254 254 254
0.17705 -0.56583 -0.54413 254 254 254
0.18360 -0.56813 -0.54093 254 254 254
0.19015 -0.57044 -0.53773 254 254 254
0.19669 -0.57274 -0.53453 254 254 254
0.20323 -0.57505 -0.53133 254 254 254
0.20976 -0.57735 -0.52814 254 254 254
0.21629 -0.57965 -0.52494 254 254 254
0.22282 -0.58195 -0.52175 254 254 254
0.22935 -0.58425 -0.51856 254 254 254
0.23587 -0.58655 -0.51537 254 254 254
0.24239 -0.58885 -0.51218 254 254 254
0.24891 -0.59114 -0.50899 254 254 254
0.25543 -0.59344 -0.50581 254 254 254
0.26194 -0.59573 -0.50262 254 254 254
0.26845 -0.59803 -0.49944 254 254 254
0.27496 -0.60032 -0.49626 254 254 254
0.28146 -0.60261 -0.49308 254 254 254
0.28796 -0.60490 -0.48990 254 254 254
0.29446 -0.60719 -0.48672 254 254 254
0.30095 -0.60948 -0.48355 254 254 254
0.30744 -0.61176 -0.48037 254 254 254
0.31393 -0.61405 -0.47720 254 254 254
0.32042 -0.61633 -0.47403 254 254 254
0.32690 -0.61862 -0.47086 254 254 254
0.33338 -0.62090 -0.46769 254 254 254
0.33986 -0.62318 -0.46452 254 254 254
0.34634 -0.62546 -0.46135 254 254 254
0.35281 -0.62774 -0.45819 254 254 254
0.35928 -0.63002 -0.45503 254 254 254
0.36574 -0.63230 -0.45186 254 254 254
0.37221 -0.63458 -0.44870 254 254 254
0.37867 -0.63685 -0.44555 254 254 254
-0.36192 -0.38588 -0.79781 251 249 251
-0.35516 -0.38826 -0.79451 251 249 251
-0.34840 -0.39063 -0.79121 251 249 251
-0.34165 -0.39301 -0.78791 251 249 251
-0.33490 -0.39539 -0.78461 251 249 251
-0.32815 -0.39776 -0.78131 251 249 251
-0.32140 -0.40014 -0.77801 251 249 251
-0.31466 -0.40251 -0.77472 251 250 251
-0.30792 -0.40488 -0.77142 251 250 251
-0.30118 -0.40726 -0.76813 251 250 251
-0.29445 -0.40963 -0.76484 251 250 251
-0.28772 -0.41199 -0.76155 251 250 251
-0.28099 -0.41436 -0.75826 251 250 251
-0.27426 -0.41673 -0.75498 251 250 251
-0.26754 -0.41910 -0.75169 251 250 251
-0.26082 -0.42146 -0.74841 251 250 251
-0.25411 -0.42382 -0.74513 251 250 251
-0.24739 -0.42619 -0.74185 252 250 251
-0.24068 -0.42855 -0.73857 252 250 251
-0.23398 -0.43091 -0.73529 252 250 251
-0.22727 -0.43327 -0.73202 252 251 251
-0.22057 -0.43563 -0.72874 252 251 251
-0.21388 -0.43798 -0.72547 252 251 251
-0.20718 -0.44034 -0.72220 252 251 252
-0.20049 -0.44269 -0.71893 252 252 252
-0.19380 -0.44505 -0.71566 252 252 252
-0.18712 -0.44740 -0.71239 252 252 252
-0.18043 -0.44975 -0.70913 252 252 252
-0.17375 -0.45210 -0.70586 252 252 252
-0.16708 -0.45445 -0.70260 252 252 253
-0.16041 -0.45680 -0.69934 253 253 253
-0.15373 -0.45915 -0.69608 253 253 253
-0.14707 -0.46150 -0.69282 253 253 253
-0.14040 -0.46384 -0.68957 253 253 254
-0.13374 -0.46619 -0.68631 254 254 254
-0.12708 -0.46853 -0.68306 254 254 254
-0.12043 -0.47087 -0.67981 254 254 254
-0.11378 -0.47322 -0.67656 254 254 254
-0.10713 -0.47556 -0.67331 254 254 254
-0.10048 -0.47790 -0.67006 254 254 254
-0.09384 -0.48023 -0.66681 254 254 254
-0.08720 -0.48257 -0.66357 254 254 254
-0.08056 -0.48491 -0.66032 254 254 254
-0.07392 -0.48724 -0.65708 254 254 254
-0.06729 -0.48958 -0.65384 254 254 254
-0.06066 -0.49191 -0.65060 254 254 254
-0.05404 -0.49424 -0.64736 254 254 254
-0.04742 -0.49657 -0.64413 254 254 254
-0.04080 -0.49890 -0.64089 254 254 254
-0.03418 -0.50123 -0.63766 254 254 254
-0.02757 -0.50356 -0.63443 254 254 254
-0.02096 -0.50589 -0.63120 254 254 254
-0.01435 -0.50821 -0.62797 254 254 254
-0.00774 -0.51054 -0.62474 254 254 254
-0.00114 -0.51286 -0.62152 254 254 254
0.00546 -0.51518 -0.61829 254 254 254
0.01205 -0.51750 -0.61507 254 254 254
0.01865 -0.51982 -0.61185 254 254 254
0.02524 -0.52214 -0.60863 254 254 254
0.03182 -0.52446 -0.60541 254 254 254
0.03841 -0.52678 -0.60219 254 254 254
0.04499 -0.52910 -0.59897 254 254 254
0.05157 -0.53141 -0.59576 254 254 254
0.05814 -0.53373 -0.59255 254 254 254
0.09753 -0.54759 -0.57330 254 254 254
0.10409 -0.54990 -0.57010 254 254 254
0.11064 -0.55220 -0.56689 254 254 254
0.11719 -0.55451 -0.56369 254 254 254
0.12374 -0.55681 -0.56050 254 254 254
0.13028 -0.55911 -0.55730 254 254 254
0.13682 -0.56142 -0.55410 254 254 254
0.14336 -0.56372 -0.55091 254 254 254
0.14989 -0.56602 -0.54771 254 254 254
0.15642 -0.56832 -0.54452 254 254 254
0.16295 -0.57061 -0.54133 254 254 254
0.16948 -0.57291 -0.53814 254 254 254
0.17600 -0.57521 -0.53496 254 254 254
0.18252 -0.57750 -0.53177 254 254 254
0.18904 -0.57979 -0.52859 254 254 254
0.19555 -0.58209 -0.52540 254 254 254
0.20206 -0.58438 -0.52222 254 254 254
0.20857 -0.58667 -0.51904 254 254 254
0.21507 -0.58896 -0.51586 254 254 254
0.22158 -0.59125 -0.51268 254 254 254
0.22808 -0.59354 -0.50951 254 254 254
0.23457 -0.59582 -0.50633 254 254 254
0.24107 -0.59811 -0.50316 254 254 254
0.24756 -0.60039 -0.49999 254 254 254
0.25405 -0.60268 -0.49682 254 254 254
0.26053 -0.60496 -0.49365 254 254 254
0.26701 -0.60724 -0.49048 254 254 254
0.27349 -0.60952 -0.48732 254 254 254
0.27997 -0.61180 -0.48415 254 254 254
0.28644 -0.61408 -0.48099 254 254 254
0.29291 -0.61636 -0.47783 254 254 254
0.29938 -0.61863 -0.47466 254 254 254
0.30585 -0.62091 -0.47151 254 254 254
0.31231 -0.62318 -0.46835 254 254 254
0.31877 -0.62546 -0.46519 254 254 254
0.32522 -0.62773 -0.46204 254 254 254
0.33168 -0.63000 -0.45888 254 254 254
0.33813 -0.63227 -0.45573 254 254 254
0.34458 -0.63454 -0.45258 254 254 254
0.35102 -0.63681 -0.44943 254 254 254
0.35746 -0.63908 -0.44628 254 254 254
0.36390 -0.64134 -0.44314 254 254 254
0.37034 -0.64361 -0.43999 254 254 254
-0.36743 -0.39379 -0.79072 251 249 251
-0.36069 -0.39616 -0.78743 251 249 251
-0.35396 -0.39852 -0.78414 251 249 251
-0.34723 -0.40089 -0.78085 251 249 251
-0.34050 -0.40325 -0.77757 251 249 251
-0.33378 -0.40562 -0.77429 251 249 251
-0.32706 -0.40798 -0.77100 251 249 251
-0.32034 -0.41034 -0.76772 251 249 251
-0.31363 -0.41270 -0.76445 251 250 251
-0.30692 -0.41506 -0.76117 251 250 251
-0.30021 -0.41742 -0.75789 251 250 251
-0.29350 -0.41978 -0.75462 251 250 251
-0.28680 -0.42214 -0.75135 251 250 251
-0.28010 -0.42449 -0.74807 251 250 250
-0.27341 -0.42685 -0.74480 251 250 251
-0.26671 -0.42920 -0.74154 251 250 251
-0.26002 -0.43155 -0.73827 251 250 251
-0.25334 -0.43390 -0.73500 252 250 251
-0.24665 -0.43625 -0.73174 252 250 251
-0.23997 -0.43860 -0.72848 252 250 251
-0.23330 -0.44095 -0.72522 252 251 251
-0.22662 -0.44330 -0.72196 252 251 251
-0.21995 -0.44565 -0.71870 252 251 251
-0.21328 -0.44799 -0.71544 252 251 252
-0.20661 -0.45033 -0.71219 252 252 252
-0.19995 -0.45268 -0.70893 252 252 252
-0.19329 -0.45502 -0.70568 252 252 252
-0.18663 -0.45736 -0.70243 252 252 252
-0.17998 -0.45970 -0.69918 252 252 252
-0.17333 -0.46204 -0.69593 252 252 253
-0.16668 -0.46438 -0.69269 253 253 253
-0.16004 -0.46671 -0.68944 253 253 253
-0.15339 -0.46905 -0.68620 253 253 253
-0.14676 -0.47138 -0.68296 253 253 253
-0.14012 -0.47372 -0.67972 253 253 254
-0.13349 -0.47605 -0.67648 254 254 254
-0.12686 -0.47838 -0.67324 254 254 254
-0.12023 -0.48071 -0.67000 254 254 254
-0.11360 -0.48304 -0.66677 254 254 254
-0.10698 -0.48537 -0.66354 254 254 254
-0.10037 -0.48770 -0.66030 254 254 254
-0.09375 -0.49002 -0.65707 254 254 254
-0.08714 -0.49235 -0.65384 254 254 254
-0.08053 -0.49467 -0.65062 254 254 254
-0.07392 -0.49699 -0.64739 254 254 254
-0.06732 -0.49932 -0.64417 254 254 254
-0.06072 -0.50164 -0.64094 254 254 254
-0.05412 -0.50396 -0.63772 254 254 254
-0.04753 -0.50628 -0.63450 254 254 254
-0.04093 -0.50859 -0.63128 254 254 254
-0.03435 -0.51091 -0.62806 254 254 254
-0.02776 -0.51323 -0.62485 254 254 254
-0.02118 -0.51554 -0.62163 254 254 254
-0.01460 -0.51785 -0.61842 254 254 254
-0.00802 -0.52017 -0.61521 254 254 254
-0.00145 -0.52248 -0.61200 254 254 254
0.00512 -0.52479 -0.60879 254 254 254
0.01169 -0.52710 -0.60558 254 254 254
0.01826 -0.52941 -0.60238 254 254 254
0.02482 -0.53172 -0.59917 254 254 254
0.03138 -0.53402 -0.59597 254 254 254
0.03794 -0.53633 -0.59277 254 254 254
0.04449 -0.53863 -0.58957 254 254 254
0.05104 -0.54094 -0.58637 254 254 254
0.05759 -0.54324 -0.58317 254 254 254
0.08375 -0.55244 -0.57040 254 254 254
0.09028 -0.55473 -0.56721 254 254 254
0.09681 -0.55703 -0.56402 254 254 254
0.10334 -0.55933 -0.56083 254 254 254
0.10987 -0.56162 -0.55764 254 254 254
0.11639 -0.56391 -0.55446 254 254 254
0.12291 -0.56621 -0.55127 254 254 254
0.12942 -0.56850 -0.54809 254 254 254
0.13593 -0.57079 -0.54491 254 254 254
0.14244 -0.57308 -0.54173 254 254 254
0.14895 -0.57536 -0.53856 254 254 254
0.15546 -0.57765 -0.53538 254 254 254
0.16196 -0.57994 -0.53220 254 254 254
0.16846 -0.58222 -0.52903 254 254 254
0.17495 -0.58451 -0.52586 254 254 254
0.18144 -0.58679 -0.52269 254 254 254
0.18793 -0.58907 -0.51952 254 254 254
0.19442 -0.59135 -0.51635 254 254 254
0.20091 -0.59363 -0.51319 254 254 254
0.20739 -0.59591 -0.51002 254 254 254
0.21386 -0.59819 -0.50686 254 254 254
0.22034 -0.60047 -0.50370 254 254 254
0.22681 -0.60274 -0.50053 254 254 254
0.23328 -0.60502 -0.49737 254 254 254
0.23975 -0.60729 -0.49422 254 254 254
0.24621 -0.60957 -0.49106 254 254 254
0.25267 -0.61184 -0.48791 254 254 254
0.25913 -0.61411 -0.48475 254 254 254
0.26559 -0.61638 -0.48160 254 254 254
0.27204 -0.61865 -0.47845 254 254 254
0.27849 -0.62092 -0.47530 254 254 254
0.28494 -0.62318 -0.47215 254 254 254
0.29138 -0.62545 -0.46900 254 254 254
0.29782 -0.62771 -0.46586 254 254 254
0.30426 -0.62998 -0.46271 254 254 254
0.31070 -0.63224 -0.45957 254 254 254
0.31713 -0.63450 -0.45643 254 254 254
0.32356 -0.63676 -0.45329 254 254 254
0.32999 -0.63902 -0.45015 254 254 254
0.33641 -0.64128 -0.44701 254 254 254
0.34283 -0.64354 -0.44388 254 254 254
0.34925 -0.64580 -0.44074 254 254 254
0.35567 -0.64805 -0.43761 254 254 254
0.36208 -0.65031 -0.43448 254 254 254
-0.37288 -0.40163 -0.78368 251 249 251
-0.36617 -0.40399 -0.78040 251 249 251
-0.35947 -0.40635 -0.77713 251 249 251
-0.35277 -0.40870 -0.77386 251 249 251
-0.34606 -0.41106 -0.77059 251 249 251
-0.33937 -0.41341 -0.76732 251 249 251
-0.33267 -0.41576 -0.76405 251 249 251
-0.32598 -0.41811 -0.76079 251 249 251
-0.31929 -0.42046 -0.75752 251 250 251
-0.31261 -0.42281 -0.75426 251 250 251
-0.30593 -0.42516 -0.75100 251 250 251
-0.29925 -0.42750 -0.74774 251 250 251
-0.29257 -0.42985 -0.74448 251 250 251
-0.28590 -0.43219 -0.74123 251 250 251
