ply
format ascii 1.0
element face 0
property list uchar int vertex_indices
element vertex 1318
property float x
property float y
property float z
property uchar diffuse_red
property uchar diffuse_green
property uchar diffuse_blue
end_header
0.72230 -4.03576 2.26686 118 98 92
0.71637 -4.05039 2.27457 118 99 86
0.71042 -4.06506 2.28230 120 98 86
0.70445 -4.07977 2.29005 118 96 87
0.69847 -4.09452 2.29782 115 94 85
1.10074 -3.11509 1.76609 137 119 95
1.09580 -3.12729 1.77250 137 120 99
1.09085 -3.13952 1.77892 137 121 100
1.08588 -3.15178 1.78536 137 118 93
1.08091 -3.16407 1.79181 135 119 88
1.07591 -3.17639 1.79829 133 117 85
1.07091 -3.18875 1.80477 135 119 83
1.03042 -3.28873 1.85729 132 116 92
1.02530 -3.30138 1.86393 134 117 94
0.75706 -3.96372 2.21177 119 97 89
0.75121 -3.97817 2.21936 119 96 91
0.74534 -3.99266 2.22697 119 96 88
0.73946 -4.00719 2.23460 119 96 87
0.73355 -4.02177 2.24226 118 98 85
0.72764 -4.03638 2.24993 119 99 90
0.72170 -4.05103 2.25763 118 98 95
0.71575 -4.06573 2.26534 117 97 89
0.70978 -4.08046 2.27308 121 95 86
0.70380 -4.09524 2.28084 119 94 86
0.69780 -4.11006 2.28862 113 94 86
1.09632 -3.13866 1.76263 137 119 100
1.09136 -3.15094 1.76906 137 120 103
1.08638 -3.16325 1.77550 138 118 93
1.08139 -3.17559 1.78196 136 117 89
1.07638 -3.18796 1.78844 132 116 87
1.07136 -3.20037 1.79494 135 118 84
1.03076 -3.30077 1.84750 132 117 91
1.02562 -3.31346 1.85415 134 118 93
0.75658 -3.97868 2.20241 120 98 85
0.75070 -3.99320 2.21001 120 98 86
0.74482 -4.00776 2.21763 119 99 84
0.73891 -4.02236 2.22527 119 99 83
0.73299 -4.03699 2.23294 119 99 83
0.72705 -4.05168 2.24062 119 99 86
0.72110 -4.06640 2.24833 119 98 89
0.71513 -4.08116 2.25606 118 97 88
0.70914 -4.09596 2.26381 119 95 86
0.70314 -4.11081 2.27158 116 94 84
0.69712 -4.12569 2.27937 111 93 79
1.09187 -3.16242 1.75914 136 119 98
1.08688 -3.17478 1.76559 137 119 95
1.08187 -3.18717 1.77206 135 116 91
1.07685 -3.19960 1.77854 133 116 88
1.07182 -3.21205 1.78504 132 117 88
1.03110 -3.31287 1.83766 133 117 90
1.02595 -3.32562 1.84431 133 117 96
0.75609 -3.99374 2.19299 119 99 81
0.75019 -4.00832 2.20060 118 100 85
0.74429 -4.02295 2.20823 117 99 87
0.73836 -4.03761 2.21589 119 99 84
0.73242 -4.05232 2.22356 120 101 85
0.72647 -4.06707 2.23126 118 101 88
0.72049 -4.08186 2.23898 118 98 89
0.71450 -4.09669 2.24672 117 96 87
0.70850 -4.11156 2.25448 117 95 86
0.70247 -4.12647 2.26226 114 94 84
1.08738 -3.18638 1.75562 138 118 99
1.08236 -3.19883 1.76210 136 115 92
1.07732 -3.21130 1.76859 136 114 89
1.07228 -3.22381 1.77509 132 114 92
1.03144 -3.32504 1.82775 131 117 92
1.02628 -3.33784 1.83441 135 117 99
0.75559 -4.00889 2.18351 118 100 81
0.74968 -4.02354 2.19113 116 100 79
0.74376 -4.03823 2.19878 118 100 81
0.73781 -4.05297 2.20644 121 100 84
0.73185 -4.06774 2.21413 122 101 82
0.72588 -4.08256 2.22183 120 100 79
0.71988 -4.09741 2.22956 119 98 79
0.71387 -4.11231 2.23731 115 96 78
0.70785 -4.12725 2.24509 114 94 81
1.08285 -3.21055 1.75207 133 113 93
1.07780 -3.22307 1.75857 136 114 93
1.07274 -3.23563 1.76508 131 115 96
1.03179 -3.33728 1.81780 131 115 93
1.02661 -3.35014 1.82446 137 117 97
0.75510 -4.02414 2.17397 119 99 84
0.74917 -4.03886 2.18160 117 100 82
0.74322 -4.05362 2.18926 119 101 86
0.73726 -4.06842 2.19693 120 102 88
0.73128 -4.08326 2.20463 120 103 81
0.72528 -4.09814 2.21235 119 100 77
0.71927 -4.11307 2.22009 118 97 76
0.71324 -4.12804 2.22785 114 96 75
0.70719 -4.14305 2.23564 112 95 81
1.07828 -3.23491 1.74850 134 116 93
1.07320 -3.24752 1.75502 131 116 94
1.03214 -3.34960 1.80778 130 114 96
1.02695 -3.36251 1.81445 136 116 98
0.76053 -4.02474 2.15675 119 100 84
0.75460 -4.03948 2.16437 120 99 77
0.74865 -4.05427 2.17202 119 100 78
0.74268 -4.06910 2.17968 119 101 86
0.73670 -4.08397 2.18737 118 101 86
0.73070 -4.09888 2.19507 118 99 83
0.72469 -4.11383 2.20280 118 96 81
0.71865 -4.12883 2.21056 115 93 76
0.71260 -4.14387 2.21833 113 92 75
1.07876 -3.24682 1.73837 133 117 93
1.07367 -3.25948 1.74489 130 116 93
1.03249 -3.36199 1.79770 128 112 92
0.76598 -4.02534 2.13947 119 100 82
0.76005 -4.04011 2.14708 118 99 84
0.75410 -4.05492 2.15471 118 99 83
0.74813 -4.06978 2.16237 118 100 86
0.74214 -4.08467 2.17004 119 100 91
0.73614 -4.09961 2.17774 118 99 84
0.73012 -4.11459 2.18546 116 98 81
0.72409 -4.12962 2.19320 115 95 79
0.71803 -4.14468 2.20096 113 92 78
1.07924 -3.25880 1.72817 131 118 97
1.07414 -3.27151 1.73470 131 116 96
0.76552 -4.04074 2.12973 120 98 83
0.75956 -4.05558 2.13735 119 97 85
0.75359 -4.07046 2.14499 119 98 82
0.74760 -4.08538 2.15266 118 98 83
0.74160 -4.10035 2.16034 119 98 87
0.73558 -4.11536 2.16805 120 98 81
0.72954 -4.13041 2.17578 117 97 77
0.72348 -4.14550 2.18353 113 94 76
0.71741 -4.16064 2.19131 110 90 78
1.07973 -3.27085 1.71792 133 116 93
0.76505 -4.05624 2.11993 119 97 88
0.75907 -4.07115 2.12756 119 96 92
0.75308 -4.08610 2.13521 118 97 86
0.74707 -4.10109 2.14289 117 99 82
0.74105 -4.11613 2.15058 118 97 81
0.73501 -4.13121 2.15830 119 96 77
0.72895 -4.14633 2.16604 116 96 74
0.72287 -4.16149 2.17380 113 93 71
0.71678 -4.17670 2.18159 110 90 72
0.77055 -4.05690 2.10244 119 99 78
0.76457 -4.07183 2.11006 116 97 84
0.75858 -4.08681 2.11770 117 96 89
0.75257 -4.10183 2.12537 119 97 85
0.74654 -4.11690 2.13305 118 97 82
0.74050 -4.13201 2.14076 118 97 81
0.73444 -4.14715 2.14849 117 96 77
0.72836 -4.16235 2.15624 115 95 73
0.72226 -4.17759 2.16401 111 92 71
0.77009 -4.07252 2.09250 117 96 74
0.76410 -4.08753 2.10013 117 95 78
0.75809 -4.10258 2.10779 117 97 84
0.75205 -4.11767 2.11546 117 96 84
0.74601 -4.13281 2.12316 117 95 80
0.73994 -4.14798 2.13087 115 95 82
0.73386 -4.16321 2.13861 115 95 78
0.72776 -4.17847 2.14637 112 94 75
0.72164 -4.19378 2.15416 108 90 73
1.03954 -3.41183 1.73972 125 108 91
1.03427 -3.42504 1.74641 128 112 95
0.99698 -3.51849 1.79377 138 119 98
0.99160 -3.53199 1.80061 136 118 95
0.77563 -4.07322 2.07488 114 95 74
0.76964 -4.08825 2.08250 113 95 71
0.76362 -4.10333 2.09014 116 95 77
0.75759 -4.11845 2.09780 118 96 81
0.75154 -4.13361 2.10549 116 96 82
0.74547 -4.14882 2.11319 114 96 79
0.73938 -4.16407 2.12092 115 95 80
0.73328 -4.17936 2.12867 115 93 77
0.72716 -4.19470 2.13645 111 91 73
1.05045 -3.39819 1.71592 134 116 94
1.04519 -3.41139 1.72259 126 111 88
1.03992 -3.42461 1.72927 127 110 95
1.03464 -3.43788 1.73597 132 114 95
1.02934 -3.45118 1.74268 135 119 92
1.00262 -3.51822 1.77654 140 119 101
0.99724 -3.53174 1.78337 138 121 105
0.77519 -4.08897 2.06481 115 95 77
0.76917 -4.10408 2.07244 115 94 74
0.76314 -4.11923 2.08009 116 95 76
0.75709 -4.13442 2.08776 116 95 80
0.75101 -4.14965 2.09545 114 96 83
0.74493 -4.16493 2.10317 113 95 79
0.73882 -4.18025 2.11091 113 94 79
0.73270 -4.19562 2.11867 113 92 78
0.72656 -4.21103 2.12645 110 90 78
1.05612 -3.39772 1.69875 126 108 96
1.05086 -3.41094 1.70540 129 112 96
1.04559 -3.42419 1.71207 130 111 90
1.04030 -3.43747 1.71875 133 113 96
1.03500 -3.45079 1.72546 136 116 97
1.02969 -3.46415 1.73218 138 119 97
1.01365 -3.50444 1.75246 139 120 95
1.00828 -3.51795 1.75926 142 119 93
1.00289 -3.53149 1.76608 141 120 98
0.78077 -4.08970 2.04705 114 94 81
0.77475 -4.10483 2.05467 114 95 80
0.76871 -4.12001 2.06230 114 95 76
0.76265 -4.13523 2.06997 114 94 72
0.75658 -4.15049 2.07765 114 94 75
0.75049 -4.16580 2.08535 113 94 82
0.74438 -4.18115 2.09308 114 93 78
0.73825 -4.19655 2.10083 113 93 74
0.73211 -4.21199 2.10860 112 91 74
1.04068 -3.45041 1.70818 136 117 98
1.03537 -3.46379 1.71489 138 119 99
1.03004 -3.47721 1.72162 140 120 100
1.02469 -3.49066 1.72837 139 121 101
1.01396 -3.51767 1.74192 140 121 95
1.00857 -3.53123 1.74872 142 121 93
0.78034 -4.10559 2.03683 116 94 79
0.77430 -4.12079 2.04446 114 95 80
0.76824 -4.13604 2.05211 114 94 79
0.76217 -4.15133 2.05978 113 95 75
0.75607 -4.16667 2.06747 112 94 77
0.74996 -4.18205 2.07519 112 93 80
0.74383 -4.19747 2.08292 113 92 79
0.73768 -4.21294 2.09068 112 91 76
0.73152 -4.22846 2.09847 110 91 79
1.07276 -3.38355 1.65761 141 126 103
1.06752 -3.39677 1.66422 142 128 102
1.06226 -3.41003 1.67085 141 126 99
1.05698 -3.42333 1.67749 141 122 98
1.05169 -3.43666 1.68416 138 119 98
1.04639 -3.45002 1.69084 137 119 100
1.04107 -3.46342 1.69754 138 123 99
1.03574 -3.47686 1.70426 141 125 97
1.03039 -3.49034 1.71099 142 125 99
1.02503 -3.50385 1.71775 140 123 101
1.01965 -3.51740 1.72452 140 121 98
1.00886 -3.54460 1.73812 142 122 94
0.78596 -4.10635 2.01894 114 93 77
0.77991 -4.12158 2.02655 115 93 78
0.77385 -4.13686 2.03419 114 94 78
0.76777 -4.15218 2.04185 114 93 78
0.76168 -4.16754 2.04953 114 93 78
0.75556 -4.18295 2.05723 113 93 76
0.74943 -4.19840 2.06495 112 92 76
0.74328 -4.21390 2.07270 111 92 81
0.73711 -4.22945 2.08047 110 90 76
1.06798 -3.40958 1.65349 145 130 114
1.06271 -3.42289 1.66012 147 130 109
1.05741 -3.43625 1.66677 147 129 105
1.05211 -3.44963 1.67344 145 126 103
1.04679 -3.46306 1.68013 143 125 103
1.04146 -3.47652 1.68684 143 126 102
1.03611 -3.49001 1.69356 144 128 100
1.03075 -3.50355 1.70030 144 127 100
1.02537 -3.51712 1.70706 141 125 100
1.01998 -3.53072 1.71384 141 123 97
1.01457 -3.54437 1.72064 141 124 94
1.00372 -3.57177 1.73429 137 120 95
0.78554 -4.12237 2.00858 113 93 80
0.77948 -4.13768 2.01620 115 93 80
0.77340 -4.15303 2.02385 114 93 75
0.76730 -4.16842 2.03152 114 92 71
0.76118 -4.18386 2.03921 116 91 73
0.75505 -4.19934 2.04692 114 92 75
0.74889 -4.21487 2.05466 111 93 73
0.74272 -4.23044 2.06241 110 92 77
0.73653 -4.24606 2.07019 110 89 73
1.07373 -3.40912 1.63607 142 128 109
1.02571 -3.53047 1.69631 143 126 102
1.02030 -3.54414 1.70309 143 124 98
1.01488 -3.55784 1.70990 142 124 95
1.00944 -3.57158 1.71672 140 122 93
0.99853 -3.59918 1.73042 135 117 94
0.99304 -3.61303 1.73730 131 116 90
0.78513 -4.13850 1.99815 113 92 81
0.77904 -4.15388 2.00579 113 92 81
0.77294 -4.16930 2.01344 113 92 76
0.76682 -4.18477 2.02112 114 92 73
0.76068 -4.20028 2.02882 114 91 77
0.75453 -4.21584 2.03654 112 92 79
0.74835 -4.23144 2.04429 110 93 73
0.74216 -4.24709 2.05206 109 91 74
0.73595 -4.26278 2.05985 110 90 72
1.07421 -3.42203 1.62520 142 130 110
1.02606 -3.54390 1.68549 144 126 102
1.02063 -3.55763 1.69228 144 124 98
1.01519 -3.57140 1.69909 142 122 95
1.00974 -3.58520 1.70592 137 121 93
1.00427 -3.59904 1.71277 135 118 94
0.99329 -3.62683 1.72652 130 112 82
0.98778 -3.64079 1.73342 128 110 91
0.79080 -4.13932 1.98004 111 92 71
0.78471 -4.15473 1.98766 111 92 75
0.77861 -4.17018 1.99530 112 93 75
0.77248 -4.18568 2.00297 113 93 72
0.76634 -4.20122 2.01066 113 92 73
0.76018 -4.21681 2.01837 114 92 75
0.75401 -4.23244 2.02610 113 92 78
0.74781 -4.24812 2.03386 111 92 73
0.74160 -4.26384 2.04163 109 91 73
1.07470 -3.43501 1.61426 142 131 110
1.02640 -3.55742 1.67461 146 126 103
1.02096 -3.57121 1.68140 141 124 98
1.01551 -3.58503 1.68822 136 121 93
1.01004 -3.59890 1.69505 134 118 91
1.00455 -3.61280 1.70191 132 115 91
0.99905 -3.62674 1.70878 130 111 90
0.98801 -3.65474 1.72258 127 109 90
0.98246 -3.66880 1.72951 126 108 90
0.86822 -3.95835 1.87224 124 100 83
0.86233 -3.97326 1.87959 122 100 82
0.79649 -4.14015 1.96186 113 92 67
0.79040 -4.15559 1.96946 111 92 69
0.78429 -4.17107 1.97710 112 93 74
0.77816 -4.18659 1.98475 112 93 78
0.77202 -4.20216 1.99242 113 93 74
0.76586 -4.21778 2.00012 114 92 69
0.75968 -4.23344 2.00784 114 91 73
0.75348 -4.24915 2.01559 113 91 79
0.74727 -4.26491 2.02335 111 91 71
0.74103 -4.28071 2.03114 110 91 77
1.02675 -3.57102 1.66365 139 116 91
1.01034 -3.61268 1.68412 129 114 93
1.00484 -3.62665 1.69098 128 112 93
0.99932 -3.64065 1.69786 127 111 90
0.99379 -3.65469 1.70475 127 110 89
0.98268 -3.68289 1.71861 125 109 92
0.97710 -3.69705 1.72556 125 108 88
0.87396 -3.95884 1.85415 122 102 83
0.86807 -3.97378 1.86148 122 102 82
0.86217 -3.98877 1.86884 122 101 80
0.85625 -4.00379 1.87622 121 99 80
0.85031 -4.01886 1.88362 120 97 78
0.84436 -4.03397 1.89105 118 97 77
0.83839 -4.04913 1.89849 118 96 78
0.83240 -4.06432 1.90596 116 95 75
0.82640 -4.07957 1.91344 114 94 74
0.82037 -4.09485 1.92095 115 94 75
0.81433 -4.11019 1.92848 115 93 76
0.80827 -4.12556 1.93603 115 92 73
0.80220 -4.14098 1.94361 114 92 69
0.79611 -4.15645 1.95120 113 91 69
0.79000 -4.17196 1.95882 113 92 70
0.78387 -4.18751 1.96646 113 93 75
0.77772 -4.20311 1.97413 114 93 77
0.77156 -4.21876 1.98181 113 93 74
0.76537 -4.23445 1.98952 114 93 69
0.75917 -4.25019 1.99725 115 92 73
0.75295 -4.26598 2.00500 113 91 78
0.74672 -4.28181 2.01278 111 90 73
1.00512 -3.64058 1.67998 125 110 90
0.99959 -3.65465 1.68687 126 110 85
0.99404 -3.66875 1.69377 127 109 87
0.98847 -3.68290 1.70069 126 108 89
0.97730 -3.71131 1.71460 124 108 84
0.97169 -3.72557 1.72158 124 106 80
0.87972 -3.95934 1.83599 121 103 81
0.87383 -3.97431 1.84331 121 102 84
0.86792 -3.98932 1.85066 122 101 83
0.86200 -4.00437 1.85803 121 99 79
0.85606 -4.01946 1.86542 121 98 80
0.85011 -4.03460 1.87283 121 97 77
0.84413 -4.04979 1.88026 119 96 74
0.83814 -4.06501 1.88771 117 95 75
0.83214 -4.08029 1.89518 113 93 72
0.82611 -4.09560 1.90268 111 93 73
0.82007 -4.11096 1.91020 112 92 76
0.81401 -4.12637 1.91773 114 91 71
0.80793 -4.14182 1.92530 115 92 69
0.80184 -4.15731 1.93288 112 92 71
0.79572 -4.17285 1.94048 110 91 67
0.78959 -4.18843 1.94811 111 92 70
0.78344 -4.20407 1.95576 112 93 79
0.77727 -4.21974 1.96343 112 93 81
0.77109 -4.23546 1.97113 111 93 78
0.76488 -4.25123 1.97885 111 93 72
0.75866 -4.26705 1.98659 113 92 68
0.75242 -4.28291 1.99435 112 91 72
1.00541 -3.65460 1.66892 123 107 91
0.99986 -3.66873 1.67581 124 108 89
0.99429 -3.68290 1.68272 125 108 89
0.98871 -3.69711 1.68965 124 107 90
0.98311 -3.71136 1.69660 123 108 88
0.97187 -3.73998 1.71055 123 106 81
0.96622 -3.75434 1.71756 122 104 78
0.89723 -3.92998 1.80321 124 104 83
0.89137 -3.94489 1.81048 124 104 82
0.88550 -3.95984 1.81777 123 103 80
0.87961 -3.97483 1.82508 121 102 81
0.87370 -3.98987 1.83241 121 101 87
0.86778 -4.00495 1.83977 122 99 84
0.86184 -4.02007 1.84714 121 97 78
0.85588 -4.03524 1.85454 119 97 77
0.84990 -4.05045 1.86195 120 96 72
0.84391 -4.06571 1.86939 118 94 70
0.83790 -4.08101 1.87686 115 94 73
0.83187 -4.09635 1.88434 113 93 71
0.82583 -4.11174 1.89184 110 92 74
0.81976 -4.12717 1.89937 111 91 80
0.81368 -4.14265 1.90692 112 91 77
0.80758 -4.15818 1.91449 112 91 75
0.80147 -4.17375 1.92208 110 92 76
0.79533 -4.18936 1.92969 110 91 70
0.78918 -4.20502 1.93733 112 91 72
0.78301 -4.22073 1.94499 112 92 76
0.77682 -4.23648 1.95267 112 92 77
0.77062 -4.25228 1.96038 111 93 79
0.76439 -4.26813 1.96810 112 92 74
0.75815 -4.28402 1.97585 113 91 67
0.75189 -4.29996 1.98363 111 91 67
1.00013 -3.68290 1.66468 122 106 95
0.99454 -3.69714 1.67160 123 107 90
0.98894 -3.71141 1.67853 123 106 87
0.98333 -3.72572 1.68549 121 107 86
0.97770 -3.74008 1.69246 121 106 85
0.96639 -3.76891 1.70647 121 103 80
0.96071 -3.78338 1.71350 122 101 79
0.95502 -3.79790 1.72056 122 101 79
0.94931 -3.81246 1.72763 121 103 81
0.94358 -3.82706 1.73472 121 103 84
0.93784 -3.84170 1.74184 122 103 86
0.93208 -3.85638 1.74897 123 103 85
0.92630 -3.87110 1.75612 123 103 86
0.92051 -3.88587 1.76330 123 102 86
0.91470 -3.90068 1.77049 122 103 82
0.90888 -3.91553 1.77771 121 104 78
0.90304 -3.93042 1.78494 121 103 81
0.89718 -3.94536 1.79220 123 103 83
0.89130 -3.96033 1.79948 123 103 83
0.88541 -3.97536 1.80678 122 103 81
0.87950 -3.99042 1.81410 120 101 82
0.87357 -4.00553 1.82144 120 100 84
0.86763 -4.02068 1.82880 120 98 80
0.86167 -4.03588 1.83618 119 97 75
0.85569 -4.05112 1.84359 118 97 75
0.84970 -4.06640 1.85101 119 96 72
0.84368 -4.08173 1.85846 118 94 73
0.83765 -4.09710 1.86593 115 92 75
0.83160 -4.11252 1.87342 113 90 73
0.82554 -4.12798 1.88094 109 90 72
0.81946 -4.14349 1.88847 109 90 73
0.81335 -4.15905 1.89603 110 91 72
0.80724 -4.17464 1.90361 110 92 71
0.80110 -4.19029 1.91121 110 92 72
0.79494 -4.20598 1.91883 111 91 68
0.78877 -4.22172 1.92648 112 91 72
0.78258 -4.23750 1.93415 111 92 78
0.77637 -4.25333 1.94184 111 93 75
0.77014 -4.26921 1.94955 111 92 77
0.76390 -4.28513 1.95729 111 92 74
0.75763 -4.30110 1.96505 111 91 68
0.75135 -4.31712 1.97283 110 90 69
0.99480 -3.71146 1.66041 123 105 87
0.98918 -3.72580 1.66735 123 105 85
0.98355 -3.74018 1.67431 122 104 89
0.97790 -3.75460 1.68129 121 103 86
0.97224 -3.76906 1.68829 120 102 81
0.96086 -3.79811 1.70235 120 100 86
0.95515 -3.81269 1.70941 121 101 83
0.94942 -3.82731 1.71649 121 102 82
0.94368 -3.84198 1.72359 122 103 88
0.93792 -3.85669 1.73071 124 103 96
0.93214 -3.87144 1.73785 125 103 89
0.92634 -3.88623 1.74501 124 103 83
0.92053 -3.90107 1.75219 123 103 82
0.91471 -3.91595 1.75939 123 103 82
0.90886 -3.93087 1.76662 122 102 83
0.90300 -3.94583 1.77386 122 101 83
0.89712 -3.96083 1.78113 123 102 83
0.89123 -3.97588 1.78841 123 102 82
0.88532 -3.99098 1.79572 123 101 77
0.87939 -4.00611 1.80304 121 100 72
0.87344 -4.02129 1.81039 120 98 76
0.86748 -4.03652 1.81776 119 96 79
0.86150 -4.05179 1.82515 117 96 80
0.85550 -4.06710 1.83257 116 96 78
0.84949 -4.08246 1.84000 116 96 72
0.84345 -4.09786 1.84746 115 93 74
0.83740 -4.11331 1.85494 114 91 78
0.83134 -4.12880 1.86244 113 90 79
0.82525 -4.14433 1.86996 111 89 75
0.81915 -4.15992 1.87750 110 90 71
0.81302 -4.17555 1.88507 112 91 69
0.80688 -4.19122 1.89265 112 92 68
0.80073 -4.20694 1.90026 112 92 68
0.79455 -4.22271 1.90790 112 91 65
0.78836 -4.23852 1.91555 111 91 70
0.78215 -4.25438 1.92323 111 92 77
0.77591 -4.27029 1.93093 111 92 75
0.76966 -4.28625 1.93866 111 92 75
0.76340 -4.30225 1.94640 110 92 73
0.75711 -4.31830 1.95417 109 92 69
0.98942 -3.74028 1.65609 122 104 85
0.98377 -3.75473 1.66306 121 103 87
0.97811 -3.76922 1.67004 119 102 84
0.97243 -3.78374 1.67705 118 101 78
0.96673 -3.79831 1.68408 119 102 74
0.95528 -3.82757 1.69819 119 102 82
0.94954 -3.84227 1.70528 121 103 81
0.94377 -3.85700 1.71238 122 104 87
0.93799 -3.87178 1.71951 123 103 93
0.93220 -3.88660 1.72666 123 102 88
0.92639 -3.90146 1.73383 122 102 83
0.92056 -3.91636 1.74102 123 102 80
0.91471 -3.93131 1.74823 123 102 80
0.90885 -3.94630 1.75546 121 102 81
0.90297 -3.96134 1.76271 122 102 82
0.89707 -3.97641 1.76998 123 102 83
0.89116 -3.99153 1.77727 122 101 83
0.88523 -4.00670 1.78458 121 99 79
0.87928 -4.02191 1.79192 120 98 75
0.87331 -4.03716 1.79928 118 98 79
0.86733 -4.05246 1.80665 117 96 79
0.86133 -4.06780 1.81405 116 96 79
0.85531 -4.08318 1.82147 115 96 77
0.84928 -4.09862 1.82892 115 95 70
0.84322 -4.11409 1.83638 114 91 72
0.83715 -4.12961 1.84387 112 90 76
0.83107 -4.14518 1.85138 110 91 77
0.82496 -4.16079 1.85891 109 90 77
0.81883 -4.17645 1.86646 110 90 76
0.81269 -4.19216 1.87403 112 90 73
0.80653 -4.20791 1.88163 113 92 68
0.80035 -4.22371 1.88925 113 91 67
0.79416 -4.23955 1.89689 112 92 68
0.78794 -4.25544 1.90456 110 93 72
0.78171 -4.27138 1.91224 110 93 75
0.77545 -4.28737 1.91995 112 92 74
0.76918 -4.30340 1.92769 111 92 72
0.76289 -4.31948 1.93544 109 91 71
0.75659 -4.33561 1.94322 108 90 70
0.98400 -3.76937 1.65174 120 104 85
0.97831 -3.78393 1.65873 120 102 80
0.97261 -3.79852 1.66574 121 101 78
0.96690 -3.81316 1.67278 121 101 77
0.96117 -3.82783 1.67983 121 101 80
0.94965 -3.85731 1.69399 122 102 75
0.94387 -3.87212 1.70111 123 103 83
0.93807 -3.88697 1.70824 122 103 88
0.93226 -3.90185 1.71540 121 102 85
0.92643 -3.91679 1.72257 120 102 84
0.92058 -3.93176 1.72977 121 102 81
0.91471 -3.94678 1.73698 123 102 81
0.90883 -3.96184 1.74422 122 103 84
0.90293 -3.97695 1.75148 122 103 83
0.89702 -3.99209 1.75876 122 102 82
0.89108 -4.00729 1.76606 120 100 81
0.88513 -4.02252 1.77338 120 98 79
0.87917 -4.03780 1.78072 120 97 78
0.87318 -4.05313 1.78809 118 97 80
0.86718 -4.06850 1.79547 116 96 79
0.86116 -4.08392 1.80288 116 95 79
0.85512 -4.09938 1.81031 115 95 80
0.84907 -4.11488 1.81776 113 95 76
0.84299 -4.13043 1.82523 112 92 72
0.83690 -4.14603 1.83273 110 91 70
0.83079 -4.16167 1.84024 108 91 69
0.82467 -4.17736 1.84778 107 91 71
0.81852 -4.19310 1.85534 109 90 71
0.81236 -4.20888 1.86293 111 90 66
0.80618 -4.22471 1.87053 112 92 61
0.79998 -4.24058 1.87816 111 92 67
0.79376 -4.25650 1.88581 111 92 73
0.78752 -4.27247 1.89348 110 92 70
0.78127 -4.28849 1.90118 110 93 71
0.77499 -4.30456 1.90890 111 91 73
0.76870 -4.32067 1.91664 110 91 69
0.76239 -4.33683 1.92441 108 90 66
0.75606 -4.35304 1.93220 107 90 67
0.97852 -3.79873 1.64734 120 101 81
0.97280 -3.81339 1.65436 121 102 82
0.96707 -3.82809 1.66140 121 101 84
0.96132 -3.84284 1.66846 122 102 84
0.95555 -3.85763 1.67554 123 103 80
0.94397 -3.88733 1.68976 123 103 80
0.93815 -3.90225 1.69690 123 103 83
0.93232 -3.91721 1.70406 121 103 83
0.92647 -3.93221 1.71124 121 102 81
0.92060 -3.94726 1.71845 122 102 77
0.91472 -3.96235 1.72567 123 103 79
0.90882 -3.97748 1.73291 122 102 84
0.90290 -3.99266 1.74018 121 102 83
0.89696 -4.00788 1.74747 121 101 81
0.89101 -4.02314 1.75477 120 100 79
0.88504 -4.03845 1.76210 120 98 79
0.87905 -4.05381 1.76945 119 97 77
0.87305 -4.06921 1.77682 116 97 74
0.86703 -4.08465 1.78422 115 96 74
0.86099 -4.10014 1.79163 116 95 74
0.85493 -4.11567 1.79907 114 94 76
0.84885 -4.13126 1.80653 111 93 76
0.84276 -4.14688 1.81401 110 91 72
0.83665 -4.16255 1.82151 109 90 67
0.83052 -4.17827 1.82904 108 89 66
0.82437 -4.19404 1.83658 107 89 70
0.81820 -4.20985 1.84415 108 88 74
0.81202 -4.22571 1.85175 109 90 72
0.80582 -4.24162 1.85936 110 90 67
0.79960 -4.25757 1.86700 110 90 71
0.79336 -4.27357 1.87466 110 91 76
0.78710 -4.28962 1.88234 110 91 71
0.78082 -4.30572 1.89005 109 91 73
0.77453 -4.32186 1.89777 108 90 76
0.76821 -4.33805 1.90553 108 90 70
0.76188 -4.35430 1.91330 107 89 67
0.97299 -3.82836 1.64291 121 101 82
0.96724 -3.84313 1.64995 122 99 82
0.96147 -3.85794 1.65702 123 100 84
0.95569 -3.87280 1.66410 123 102 85
0.94989 -3.88770 1.67121 123 102 88
0.93823 -3.91763 1.68548 123 102 83
0.93238 -3.93266 1.69265 123 101 82
0.92651 -3.94774 1.69984 121 100 81
0.92063 -3.96285 1.70705 121 101 79
0.91472 -3.97801 1.71428 122 102 79
0.90880 -3.99322 1.72153 121 102 78
0.90286 -4.00847 1.72880 120 102 79
0.89691 -4.02376 1.73610 121 100 80
0.89094 -4.03910 1.74341 120 97 79
0.88495 -4.05448 1.75075 120 96 78
0.87894 -4.06991 1.75811 117 96 72
0.87292 -4.08539 1.76549 114 96 68
0.86687 -4.10091 1.77289 113 96 68
0.86081 -4.11647 1.78031 114 94 70
0.85473 -4.13208 1.78776 113 92 75
0.84864 -4.14774 1.79522 111 91 74
0.84252 -4.16344 1.80271 110 88 72
0.83639 -4.17919 1.81022 108 87 68
0.83024 -4.19498 1.81776 108 87 66
0.82407 -4.21083 1.82531 108 87 72
0.81789 -4.22672 1.83289 108 88 77
0.81168 -4.24265 1.84049 108 88 76
0.80546 -4.25864 1.84811 109 88 72
0.79922 -4.27467 1.85576 110 88 76
0.79295 -4.29075 1.86343 110 88 79
0.78667 -4.30688 1.87112 110 88 76
0.78038 -4.32306 1.87883 109 88 77
0.77406 -4.33928 1.88657 106 90 77
0.76772 -4.35556 1.89433 106 89 71
0.97319 -3.84342 1.63138 117 102 82
0.96741 -3.85826 1.63843 118 100 82
0.96163 -3.87315 1.64550 120 101 83
0.95582 -3.88807 1.65259 121 102 85
0.95000 -3.90304 1.65971 123 102 88
0.94417 -3.91806 1.66684 123 102 89
0.93831 -3.93312 1.67399 122 102 88
0.93244 -3.94822 1.68117 121 100 85
0.92655 -3.96336 1.68836 121 99 81
0.92065 -3.97855 1.69558 120 100 81
0.91473 -3.99379 1.70282 118 101 84
0.90879 -4.00906 1.71008 117 101 80
0.90283 -4.02439 1.71736 118 102 79
0.89686 -4.03975 1.72466 119 100 81
0.89086 -4.05517 1.73198 119 97 81
0.88485 -4.07062 1.73932 118 95 82
0.87883 -4.08613 1.74669 115 95 77
0.87278 -4.10167 1.75408 112 94 73
0.86672 -4.11727 1.76148 112 93 75
0.86064 -4.13291 1.76891 112 92 76
0.85454 -4.14860 1.77637 111 90 78
0.84842 -4.16433 1.78384 110 89 75
0.84229 -4.18011 1.79134 108 86 73
0.83614 -4.19593 1.79886 107 86 70
0.82996 -4.21181 1.80640 106 86 66
0.82378 -4.22773 1.81396 105 85 73
0.81757 -4.24370 1.82155 104 87 79
0.81134 -4.25971 1.82916 104 88 78
0.80510 -4.27578 1.83679 106 87 71
0.79883 -4.29189 1.84445 109 86 74
0.79255 -4.30805 1.85212 108 87 76
0.78625 -4.32426 1.85982 108 87 73
0.77993 -4.34051 1.86755 108 88 74
0.77359 -4.35682 1.87530 106 88 74
0.76723 -4.37318 1.88307 106 87 71
0.96759 -3.87349 1.62683 117 101 86
0.96178 -3.88845 1.63391 118 102 85
0.95596 -3.90344 1.64101 120 103 83
0.95012 -3.91849 1.64813 121 103 84
0.94427 -3.93357 1.65527 120 102 84
0.93839 -3.94870 1.66243 119 102 82
0.93250 -3.96387 1.66961 118 101 81
0.92660 -3.97909 1.67681 119 100 80
0.92067 -3.99435 1.68403 119 100 80
0.91473 -4.00966 1.69128 115 99 83
0.90877 -4.02501 1.69854 113 98 81
0.90279 -4.04041 1.70583 114 100 79
0.89680 -4.05585 1.71314 117 100 78
0.89079 -4.07134 1.72047 117 97 78
0.88476 -4.08687 1.72782 116 95 81
0.81724 -4.26079 1.81013 96 83 73
0.81100 -4.27689 1.81775 95 83 74
0.80473 -4.29303 1.82539 97 82 70
0.79844 -4.30922 1.83306 99 83 72
0.79214 -4.32546 1.84074 100 85 72
0.78582 -4.34175 1.84845 102 86 69
0.77947 -4.35809 1.85618 104 87 71
0.77311 -4.37448 1.86394 106 86 72
0.96194 -3.90384 1.62224 117 100 83
0.95610 -3.91891 1.62935 119 102 82
0.95024 -3.93403 1.63647 119 102 83
0.94437 -3.94919 1.64362 117 101 86
0.93848 -3.96439 1.65079 115 100 82
0.93257 -3.97963 1.65797 114 99 80
0.92664 -3.99492 1.66518 116 98 81
0.92070 -4.01026 1.67241 116 98 80
0.91473 -4.02564 1.67966 113 98 79
0.90876 -4.04106 1.68694 111 98 76
0.90276 -4.05653 1.69423 110 98 72
0.89675 -4.07205 1.70155 112 98 72
0.89071 -4.08761 1.70888 113 96 72
0.88466 -4.10322 1.71624 112 93 76
1.44177 -2.49159 1.45000 138 117 106
1.43275 -2.49786 1.45538 142 122 116
1.42374 -2.50412 1.46075 145 126 121
1.41475 -2.51037 1.46612 148 130 115
1.40578 -2.51661 1.47147 152 131 114
1.47170 -2.48299 1.42356 148 128 105
1.46261 -2.48930 1.42899 150 128 104
1.45354 -2.49561 1.43441 150 126 105
1.44447 -2.50190 1.43983 151 125 106
1.43543 -2.50818 1.44523 153 127 107
1.42639 -2.51446 1.45063 153 129 110
1.41737 -2.52072 1.45602 153 131 107
1.40836 -2.52697 1.46140 155 132 106
1.52955 -2.45518 1.38033 156 134 115
1.52035 -2.46156 1.38584 154 133 112
1.51115 -2.46794 1.39134 152 132 111
1.50198 -2.47430 1.39683 150 132 113
1.49281 -2.48065 1.40231 150 132 111
1.48366 -2.48700 1.40778 150 130 109
1.47453 -2.49333 1.41324 150 130 108
1.46540 -2.49966 1.41870 150 129 105
1.45629 -2.50597 1.42414 150 128 101
1.44720 -2.51228 1.42958 151 128 104
1.54184 -2.45910 1.36425 154 135 111
1.53259 -2.46551 1.36979 155 134 113
1.52335 -2.47190 1.37532 154 133 113
1.51412 -2.47829 1.38085 151 132 111
1.50491 -2.48467 1.38636 151 132 110
1.49572 -2.49103 1.39187 151 132 108
1.54493 -2.46949 1.35361 155 137 110
1.53564 -2.47591 1.35918 157 136 112
1.52637 -2.48232 1.36474 156 133 112
1.51711 -2.48872 1.37029 153 133 112
1.50787 -2.49511 1.37583 152 133 112
1.54803 -2.47994 1.34290 155 137 114
1.53871 -2.48637 1.34850 155 136 117
1.52941 -2.49280 1.35408 155 135 115
1.52012 -2.49921 1.35966 153 133 110
1.55116 -2.49047 1.33212 153 137 108
1.54181 -2.49691 1.33774 153 136 112
1.53247 -2.50335 1.34335 153 134 113
1.52315 -2.50977 1.34896 153 132 106
1.55431 -2.50106 1.32127 153 138 109
1.54492 -2.50752 1.32691 154 136 110
1.53555 -2.51397 1.33255 154 133 113
1.52619 -2.52041 1.33818 154 131 109
1.55748 -2.51172 1.31034 153 137 113
1.54806 -2.51820 1.31602 156 135 109
1.53865 -2.52466 1.32168 156 132 108
1.52926 -2.53111 1.32734 154 131 108
1.56067 -2.52246 1.29934 154 138 115
1.55122 -2.52895 1.30504 154 136 112
1.54178 -2.53542 1.31074 154 133 110
1.53235 -2.54189 1.31642 153 132 108
1.56388 -2.53327 1.28827 154 137 111
1.55439 -2.53977 1.29400 153 136 109
1.54492 -2.54626 1.29972 153 134 109
1.53546 -2.55273 1.30543 153 133 110
1.57666 -2.53763 1.27135 152 137 113
1.56712 -2.54415 1.27712 154 137 109
1.55759 -2.55066 1.28288 153 136 107
1.54809 -2.55717 1.28863 152 134 108
1.53859 -2.56366 1.29437 152 132 108
1.57995 -2.54857 1.26010 151 135 110
1.57037 -2.55511 1.26589 153 135 111
1.56082 -2.56163 1.27168 152 135 113
1.55127 -2.56815 1.27746 151 133 111
1.54175 -2.57465 1.28323 151 131 105
1.58326 -2.55959 1.24877 153 136 111
1.57365 -2.56614 1.25459 154 134 112
1.56406 -2.57268 1.26041 154 134 114
1.55448 -2.57921 1.26622 153 133 110
1.58660 -2.57068 1.23736 154 136 115
1.57695 -2.57724 1.24321 155 134 117
1.56733 -2.58380 1.24906 154 132 116
1.55771 -2.59034 1.25490 153 131 109
1.58996 -2.58185 1.22587 151 135 112
1.58028 -2.58843 1.23176 154 134 115
1.57061 -2.59499 1.23763 152 132 112
1.56096 -2.60155 1.24350 151 130 104
1.59334 -2.59310 1.21431 150 133 111
1.58362 -2.59969 1.22022 154 134 116
1.57392 -2.60627 1.22613 152 132 110
1.56424 -2.61283 1.23202 151 131 103
1.59675 -2.60442 1.20267 151 133 110
1.58699 -2.61102 1.20861 153 134 111
1.57726 -2.61762 1.21454 151 133 106
1.56754 -2.62420 1.22047 150 132 102
1.60998 -2.60919 1.18496 143 132 114
1.60018 -2.61582 1.19094 154 134 111
1.59039 -2.62244 1.19691 154 134 106
1.58061 -2.62905 1.20288 151 132 104
1.57086 -2.63564 1.20883 151 132 104
1.61347 -2.62066 1.17312 142 133 115
1.60363 -2.62730 1.17913 153 136 112
1.59380 -2.63393 1.18514 153 135 109
1.58399 -2.64055 1.19113 152 132 104
1.57420 -2.64716 1.19711 152 132 104
1.61699 -2.63221 1.16120 142 132 116
1.60711 -2.63886 1.16724 153 136 112
1.59724 -2.64551 1.17328 152 136 109
1.58740 -2.65214 1.17930 150 133 105
1.62053 -2.64384 1.14920 142 132 114
1.61061 -2.65051 1.15527 152 136 111
1.60071 -2.65717 1.16134 151 135 107
1.59082 -2.66381 1.16739 150 133 103
1.62409 -2.65555 1.13711 141 131 112
1.61414 -2.66223 1.14321 151 135 110
1.60420 -2.66890 1.14931 151 134 107
1.59428 -2.67557 1.15540 150 131 103
1.62768 -2.66734 1.12493 141 130 110
1.61769 -2.67404 1.13107 151 134 109
1.60771 -2.68072 1.13720 150 133 109
1.59775 -2.68740 1.14332 150 131 105
1.63129 -2.67922 1.11267 141 131 108
1.62126 -2.68593 1.11884 151 135 110
1.61125 -2.69263 1.12500 151 133 110
1.60125 -2.69932 1.13115 149 131 106
1.63494 -2.69118 1.10033 142 132 110
1.62487 -2.69791 1.10653 151 134 110
1.61481 -2.70462 1.11272 150 133 109
1.60478 -2.71132 1.11890 148 131 107
1.63860 -2.70323 1.08789 142 131 108
1.62849 -2.70997 1.09412 150 133 107
1.61840 -2.71669 1.10035 149 132 104
1.60833 -2.72341 1.10656 148 131 104
1.64230 -2.71536 1.07536 142 132 105
1.63215 -2.72211 1.08163 150 134 104
1.62202 -2.72885 1.08789 150 132 99
1.61190 -2.73559 1.09413 149 130 102
1.64602 -2.72758 1.06275 143 131 106
1.63583 -2.73435 1.06905 150 133 103
1.62566 -2.74110 1.07534 150 131 101
1.61550 -2.74785 1.08162 149 130 106
1.64976 -2.73989 1.05004 142 128 101
1.63953 -2.74667 1.05638 150 130 101
1.62932 -2.75344 1.06270 149 130 104
1.61913 -2.76020 1.06901 148 130 109
1.65354 -2.75229 1.03725 142 129 101
1.64327 -2.75908 1.04361 149 130 103
1.63302 -2.76587 1.04997 148 131 106
1.62279 -2.77264 1.05632 148 131 106
1.65734 -2.76478 1.02435 143 130 104
1.64703 -2.77159 1.03076 149 131 108
1.63674 -2.77838 1.03715 148 131 109
1.62647 -2.78517 1.04353 148 131 108
1.66117 -2.77736 1.01137 142 131 102
1.65082 -2.78418 1.01781 148 131 106
1.64049 -2.79099 1.02423 147 131 109
1.63017 -2.79779 1.03064 148 130 109
1.66502 -2.79003 0.99829 143 131 100
1.65463 -2.79686 1.00476 148 131 104
1.64426 -2.80369 1.01122 147 131 107
1.63391 -2.81050 1.01767 148 131 107
1.66891 -2.80279 0.98511 145 131 103
1.65848 -2.80964 0.99162 148 131 107
1.64806 -2.81648 0.99811 146 131 108
1.63767 -2.82331 1.00460 148 132 106
1.67282 -2.81565 0.97184 144 131 107
1.66235 -2.82252 0.97838 147 131 106
1.65189 -2.82937 0.98491 146 131 104
1.64146 -2.83621 0.99143 147 131 102
1.67676 -2.82860 0.95847 145 132 113
1.66625 -2.83548 0.96504 148 131 109
1.65575 -2.84235 0.97161 147 130 103
1.64527 -2.84921 0.97816 148 130 100
1.68074 -2.84166 0.94500 142 131 111
1.67018 -2.84855 0.95161 147 131 107
1.65964 -2.85543 0.95821 146 130 104
1.64912 -2.86230 0.96480 147 130 103
1.68474 -2.85480 0.93142 141 130 116
1.67414 -2.86171 0.93807 148 131 108
1.66356 -2.86861 0.94471 147 130 103
1.65299 -2.87549 0.95134 146 129 102
1.68877 -2.86805 0.91775 141 131 108
1.67813 -2.87497 0.92444 148 130 102
1.66750 -2.88188 0.93111 148 129 103
1.65690 -2.88878 0.93777 147 129 107
1.69283 -2.88139 0.90397 141 131 110
1.68215 -2.88833 0.91070 147 130 103
1.67148 -2.89526 0.91741 146 128 103
1.66083 -2.90217 0.92411 146 128 106
1.69693 -2.89484 0.89009 141 131 106
1.68619 -2.90179 0.89685 146 131 102
1.67548 -2.90873 0.90360 144 130 104
1.66479 -2.91566 0.91034 144 128 105
1.70105 -2.90839 0.87611 143 131 105
1.69027 -2.91536 0.88291 148 130 104
1.67952 -2.92231 0.88969 146 129 107
1.66878 -2.92925 0.89647 145 128 108
1.70521 -2.92204 0.86202 144 129 106
1.69439 -2.92902 0.86885 149 129 107
1.68358 -2.93599 0.87568 148 127 107
1.67280 -2.94294 0.88249 146 127 105
1.70939 -2.93580 0.84782 142 129 105
1.69853 -2.94279 0.85469 148 128 104
1.68768 -2.94977 0.86156 147 127 103
1.67685 -2.95674 0.86841 145 127 102
1.71361 -2.94966 0.83351 142 129 102
1.70270 -2.95667 0.84042 145 127 101
1.69181 -2.96366 0.84733 145 127 102
1.68094 -2.97065 0.85422 144 128 102
1.71786 -2.96363 0.81909 140 129 106
1.70691 -2.97065 0.82604 145 127 103
1.68505 -2.98466 0.83992 144 128 107
1.72215 -2.97770 0.80456 140 128 105
1.71114 -2.98474 0.81156 144 126 104
1.68920 -2.99878 0.82551 142 128 106
1.72646 -2.99188 0.78992 140 128 103
1.71542 -2.99894 0.79695 142 125 102
1.73082 -3.00618 0.77516 139 126 101
1.71972 -3.01325 0.78224 141 124 99
1.73520 -3.02059 0.76029 140 125 99
1.72406 -3.02767 0.76741 140 123 95
1.73962 -3.03511 0.74530 138 124 102
1.72843 -3.04220 0.75246 139 122 97
1.74407 -3.04974 0.73020 137 125 102
1.73283 -3.05685 0.73740 139 123 98
1.74856 -3.06449 0.71497 136 125 95
1.73728 -3.07161 0.72221 140 124 97
1.75309 -3.07936 0.69963 137 126 93
1.74175 -3.08649 0.70691 140 124 96
1.75765 -3.09434 0.68416 139 127 96
1.74626 -3.10149 0.69149 141 124 95
1.76225 -3.10945 0.66856 139 127 96
1.75081 -3.11661 0.67594 140 124 93
1.76688 -3.12467 0.65285 137 126 96
1.75540 -3.13185 0.66026 138 123 91
1.77155 -3.14002 0.63700 137 125 98
1.76002 -3.14722 0.64447 137 123 92
1.77626 -3.15549 0.62103 137 124 96
1.76468 -3.16271 0.62854 137 122 92
1.78101 -3.17109 0.60493 137 124 98
1.76937 -3.17832 0.61248 138 122 92
1.78580 -3.18682 0.58869 137 123 100
1.77411 -3.19406 0.59629 140 122 93
1.79062 -3.20267 0.57233 136 123 101
1.77888 -3.20993 0.57997 138 122 94
1.79549 -3.21866 0.55583 135 123 97
1.78369 -3.22593 0.56352 137 121 91
1.80040 -3.23478 0.53919 135 124 99
1.78855 -3.24206 0.54693 137 121 95
1.80534 -3.25103 0.52241 135 124 102
1.79344 -3.25833 0.53020 135 122 96
1.81033 -3.26742 0.50550 135 122 97
1.79837 -3.27473 0.51334 136 122 91
1.81536 -3.28394 0.48844 136 123 96
1.80335 -3.29127 0.49633 136 123 92
1.82043 -3.30060 0.47124 136 123 100
1.80836 -3.30794 0.47918 138 122 95
1.82555 -3.31741 0.45389 140 124 104
1.81342 -3.32476 0.46188 140 121 99
1.83070 -3.33435 0.43640 139 124 100
1.81852 -3.34172 0.44444 136 122 98
1.83591 -3.35144 0.41876 139 124 99
1.84115 -3.36868 0.40097 138 123 100
1.84644 -3.38606 0.38302 138 122 104
1.85178 -3.40360 0.36492 138 123 103
1.85716 -3.42128 0.34667 136 123 103
1.86259 -3.43912 0.32825 137 123 102
1.86807 -3.45712 0.30968 138 123 99
1.87360 -3.47527 0.29094 138 123 99
1.87917 -3.49358 0.27203 138 122 99
1.88479 -3.51206 0.25296 139 122 102
1.89047 -3.53070 0.23372 140 122 103
1.89619 -3.54950 0.21431 140 121 97
1.90197 -3.56848 0.19472 140 122 96
1.90779 -3.58762 0.17496 140 122 101
1.91367 -3.60694 0.15502 140 122 100
2.77531 -3.60724 0.11923 145 147 130
2.76251 -3.58414 0.09879 130 139 129
2.74931 -3.59503 0.10804 134 140 125
2.74981 -3.56123 0.07852 130 130 126
2.73668 -3.57209 0.08774 129 126 122
2.72356 -3.58294 0.09696 126 129 117
2.73722 -3.53852 0.05842 129 132 125
2.72415 -3.54935 0.06762 127 131 127
2.71109 -3.56016 0.07680 131 136 128
2.69805 -3.57096 0.08598 134 145 126
2.72474 -3.51601 0.03850 140 147 120
2.71173 -3.52680 0.04766 134 134 126
2.69873 -3.53757 0.05682 134 137 129
2.68575 -3.54834 0.06597 133 143 122
2.67278 -3.55910 0.07510 137 137 119
2.71236 -3.49368 0.01874 143 153 139
2.69942 -3.50444 0.02788 140 137 123
2.68648 -3.51518 0.03700 131 130 121
2.67356 -3.52591 0.04612 137 135 128
2.66065 -3.53663 0.05523 130 131 124
2.64775 -3.54735 0.06433 139 141 124
2.63486 -3.55805 0.07342 144 145 133
2.41776 -3.73835 0.22660 141 143 128
2.40510 -3.74887 0.23553 135 137 118
2.70009 -3.47154 -0.00085 141 144 129
2.68720 -3.48226 0.00826 140 145 140
2.67433 -3.49297 0.01736 143 143 125
2.66147 -3.50367 0.02645 132 131 126
2.64862 -3.51436 0.03553 144 149 126
2.63578 -3.52504 0.04460 145 142 131
2.62295 -3.53570 0.05366 145 144 127
2.61014 -3.54636 0.06271 143 139 124
2.59734 -3.55701 0.07176 142 146 132
2.58455 -3.56764 0.08079 147 148 130
2.48271 -3.65235 0.15276 149 148 124
2.47003 -3.66289 0.16172 147 144 125
2.45737 -3.67342 0.17067 146 148 124
2.44472 -3.68395 0.17960 137 140 124
2.43208 -3.69446 0.18853 136 144 131
2.41946 -3.70496 0.19746 139 145 133
2.40685 -3.71545 0.20637 144 146 134
2.39425 -3.72593 0.21527 140 138 120
2.38166 -3.73640 0.22417 133 134 108
2.36908 -3.74686 0.23305 143 143 125
2.73936 -3.40674 -0.05668 164 160 142
2.72649 -3.41747 -0.04757 155 153 134
2.71362 -3.42819 -0.03846 147 148 132
2.70076 -3.43889 -0.02936 146 146 134
2.68792 -3.44959 -0.02028 145 144 130
2.67509 -3.46027 -0.01120 144 146 126
2.66228 -3.47095 -0.00213 138 144 145
2.64948 -3.48161 0.00693 147 146 147
2.63668 -3.49227 0.01599 141 131 126
2.62391 -3.50291 0.02503 143 146 128
2.61114 -3.51355 0.03406 143 145 140
2.59839 -3.52417 0.04309 147 151 142
2.58565 -3.53478 0.05210 145 145 134
2.57292 -3.54538 0.06111 139 145 138
2.56020 -3.55598 0.07011 143 145 140
2.54750 -3.56656 0.07910 147 149 142
2.53481 -3.57713 0.08808 146 150 143
2.52213 -3.58769 0.09706 150 151 136
2.50947 -3.59824 0.10602 152 150 134
2.49681 -3.60878 0.11497 150 146 139
2.48417 -3.61931 0.12392 148 148 140
2.47154 -3.62983 0.13286 149 151 139
2.45893 -3.64034 0.14179 153 150 137
2.44632 -3.65084 0.15071 150 147 137
2.43373 -3.66133 0.15962 144 144 132
2.42115 -3.67180 0.16852 138 139 124
2.40858 -3.68227 0.17742 135 137 127
2.39603 -3.69273 0.18630 132 139 133
2.38348 -3.70318 0.19518 130 135 136
2.37095 -3.71362 0.20405 136 138 123
2.35844 -3.72404 0.21290 133 137 115
2.34593 -3.73446 0.22176 131 133 119
2.72706 -3.38510 -0.07583 145 145 136
2.71424 -3.39580 -0.06675 153 148 143
2.70143 -3.40648 -0.05767 150 145 133
2.68864 -3.41716 -0.04860 140 136 130
2.67586 -3.42782 -0.03954 143 148 135
2.66309 -3.43847 -0.03049 146 148 134
2.65033 -3.44911 -0.02145 149 148 138
2.63759 -3.45974 -0.01242 144 147 138
2.62485 -3.47036 -0.00339 145 142 135
2.61213 -3.48097 0.00562 135 135 127
2.59943 -3.49157 0.01463 137 135 126
2.58673 -3.50216 0.02363 138 136 124
2.57405 -3.51274 0.03261 141 142 134
2.56138 -3.52331 0.04159 142 144 131
2.54872 -3.53387 0.05057 140 143 136
2.53608 -3.54442 0.05953 144 147 135
2.52345 -3.55496 0.06848 144 141 132
2.51083 -3.56548 0.07743 148 147 140
2.49822 -3.57600 0.08636 154 155 146
2.48562 -3.58651 0.09529 153 155 145
2.47304 -3.59701 0.10421 154 158 145
2.46047 -3.60749 0.11312 149 153 144
2.44791 -3.61797 0.12202 141 146 144
2.43536 -3.62844 0.13091 147 150 148
2.42283 -3.63889 0.13980 150 152 147
2.41031 -3.64934 0.14867 148 147 134
2.39780 -3.65977 0.15754 146 145 125
2.38530 -3.67020 0.16640 138 140 119
2.37281 -3.68062 0.17525 134 135 120
2.36034 -3.69102 0.18409 145 145 137
2.34788 -3.70142 0.19292 147 153 143
2.33543 -3.71180 0.20175 141 142 121
2.32299 -3.72218 0.21056 143 137 120
2.71485 -3.36365 -0.09482 153 150 134
2.70209 -3.37431 -0.08577 143 138 139
2.68935 -3.38496 -0.07672 140 138 138
2.67661 -3.39560 -0.06768 142 144 133
2.66389 -3.40623 -0.05865 141 140 130
2.65118 -3.41685 -0.04962 145 142 137
2.63848 -3.42745 -0.04061 144 142 132
2.62579 -3.43805 -0.03161 151 151 134
2.61312 -3.44864 -0.02261 142 147 135
2.60046 -3.45922 -0.01362 142 146 134
2.58781 -3.46978 -0.00465 126 129 114
2.57517 -3.48034 0.00432 131 135 122
2.56255 -3.49089 0.01329 140 141 127
2.54994 -3.50142 0.02224 137 144 123
2.53734 -3.51195 0.03118 136 136 119
2.52475 -3.52246 0.04012 139 140 137
2.51218 -3.53297 0.04904 146 149 142
2.49961 -3.54346 0.05796 139 142 136
2.48706 -3.55395 0.06687 137 143 141
2.47453 -3.56442 0.07577 141 149 148
2.46200 -3.57489 0.08466 145 150 152
2.44949 -3.58534 0.09354 152 159 152
2.43698 -3.59579 0.10242 151 160 147
2.42449 -3.60622 0.11128 144 147 142
2.41202 -3.61664 0.12014 147 146 139
2.39955 -3.62706 0.12899 149 146 138
2.38710 -3.63746 0.13783 145 147 137
2.37466 -3.64786 0.14666 141 144 133
2.36223 -3.65824 0.15548 139 143 126
2.34981 -3.66861 0.16430 147 148 130
2.33740 -3.67898 0.17310 150 159 145
2.32501 -3.68933 0.18190 154 158 142
2.31263 -3.69967 0.19069 142 146 121
2.30026 -3.71001 0.19947 142 138 122
2.28790 -3.72033 0.20824 130 131 110
2.27555 -3.73065 0.21701 127 130 116
2.66468 -3.37422 -0.08660 141 138 127
2.65202 -3.38482 -0.07759 137 140 129
2.63937 -3.39540 -0.06860 138 137 127
2.62673 -3.40598 -0.05961 145 154 137
2.61410 -3.41654 -0.05064 145 138 115
2.60148 -3.42709 -0.04167 144 142 128
2.58888 -3.43764 -0.03271 127 131 131
2.57629 -3.44817 -0.02376 135 132 126
2.56371 -3.45870 -0.01482 133 129 116
2.55115 -3.46921 -0.00588 136 141 123
2.53859 -3.47971 0.00304 145 145 128
2.52605 -3.49020 0.01196 137 141 129
2.51352 -3.50069 0.02086 133 134 126
2.50100 -3.51116 0.02976 140 144 132
2.48850 -3.52162 0.03865 149 154 136
2.47600 -3.53207 0.04753 149 150 136
2.46352 -3.54252 0.05641 145 148 139
2.45105 -3.55295 0.06527 140 147 141
2.43859 -3.56337 0.07413 144 152 146
2.42615 -3.57378 0.08297 151 157 149
2.41371 -3.58419 0.09181 147 150 138
2.40129 -3.59458 0.10064 142 145 135
2.38888 -3.60496 0.10947 148 150 142
2.37649 -3.61533 0.11828 150 150 140
2.36410 -3.62569 0.12708 145 147 137
2.35173 -3.63604 0.13588 139 142 131
2.33936 -3.64639 0.14467 139 142 124
2.32701 -3.65672 0.15345 152 155 131
2.31468 -3.66704 0.16222 145 149 146
2.30235 -3.67735 0.17098 149 150 139
2.29004 -3.68766 0.17974 133 137 132
2.27773 -3.69795 0.18848 143 142 124
2.26544 -3.70823 0.19722 133 136 109
2.25316 -3.71850 0.20595 125 124 107
2.62765 -3.37413 -0.08742 142 143 129
2.61507 -3.38467 -0.07846 140 134 129
2.60250 -3.39521 -0.06951 147 157 143
2.58994 -3.40573 -0.06057 153 157 132
2.57740 -3.41624 -0.05164 145 141 132
2.56486 -3.42674 -0.04272 136 142 135
2.55234 -3.43723 -0.03380 142 146 134
2.53983 -3.44771 -0.02490 135 133 130
2.52734 -3.45818 -0.01600 137 142 131
2.51485 -3.46864 -0.00711 146 148 136
2.50238 -3.47909 0.00177 143 148 143
2.48992 -3.48953 0.01064 140 144 136
2.47747 -3.49996 0.01950 130 136 134
2.46503 -3.51038 0.02836 134 137 131
2.45261 -3.52079 0.03720 141 142 135
2.44019 -3.53119 0.04604 144 145 141
2.42779 -3.54158 0.05487 144 148 144
2.41540 -3.55196 0.06369 145 150 143
2.40302 -3.56233 0.07250 146 151 142
2.39066 -3.57269 0.08131 142 147 137
2.37830 -3.58304 0.09010 139 144 135
2.36596 -3.59338 0.09889 146 152 139
2.35363 -3.60371 0.10767 148 150 135
2.34131 -3.61403 0.11644 145 148 129
2.32901 -3.62434 0.12520 145 148 133
2.31671 -3.63464 0.13395 146 148 129
2.30443 -3.64493 0.14270 149 149 131
2.29216 -3.65521 0.15143 137 137 140
2.27990 -3.66549 0.16016 148 149 137
2.26765 -3.67575 0.16888 144 150 137
2.25541 -3.68600 0.17759 145 150 137
2.24319 -3.69624 0.18629 135 140 124
2.23098 -3.70647 0.19499 121 123 101
2.59100 -3.37405 -0.08823 148 141 134
2.57850 -3.38453 -0.07932 149 152 142
2.56601 -3.39501 -0.07042 151 154 145
2.55353 -3.40548 -0.06152 147 151 138
2.54107 -3.41594 -0.05263 151 152 144
2.52861 -3.42639 -0.04375 147 144 140
2.51617 -3.43682 -0.03488 138 135 137
2.50374 -3.44725 -0.02602 145 145 137
2.49133 -3.45767 -0.01717 150 149 138
2.47892 -3.46808 -0.00833 143 143 145
2.46653 -3.47848 0.00051 140 142 139
2.45415 -3.48886 0.00934 137 137 137
2.44178 -3.49924 0.01816 140 139 133
2.42942 -3.50961 0.02697 141 145 135
2.41707 -3.51997 0.03577 143 146 139
2.40474 -3.53031 0.04456 148 148 138
2.39242 -3.54065 0.05335 142 140 135
2.38011 -3.55098 0.06213 137 139 135
2.36781 -3.56130 0.07089 140 142 138
2.35552 -3.57161 0.07965 142 139 135
2.34325 -3.58191 0.08841 145 147 133
2.33098 -3.59220 0.09715 143 149 136
2.31873 -3.60248 0.10589 146 151 134
2.30649 -3.61275 0.11461 152 152 136
2.29426 -3.62300 0.12333 151 154 134
2.28205 -3.63325 0.13204 146 146 132
2.26984 -3.64349 0.14074 136 138 138
2.25765 -3.65372 0.14944 143 148 139
2.24547 -3.66395 0.15812 142 149 133
2.23330 -3.67416 0.16680 139 143 134
2.22114 -3.68436 0.17547 135 137 121
2.20899 -3.69455 0.18413 132 132 104
2.55471 -3.37396 -0.08904 144 141 141
2.54229 -3.38439 -0.08017 148 151 142
2.52988 -3.39482 -0.07131 145 145 134
2.51749 -3.40524 -0.06246 150 154 143
2.50510 -3.41564 -0.05362 145 139 141
2.49273 -3.42604 -0.04478 141 141 136
2.48037 -3.43642 -0.03595 142 144 136
2.46802 -3.44680 -0.02714 149 145 140
2.45568 -3.45716 -0.01833 152 152 149
2.44335 -3.46752 -0.00953 147 147 141
2.43104 -3.47787 -0.00074 147 146 138
2.41874 -3.48820 0.00805 149 150 138
2.40645 -3.49853 0.01682 152 153 136
2.39417 -3.50884 0.02559 150 150 137
2.38190 -3.51915 0.03435 153 151 136
2.36964 -3.52945 0.04310 150 150 135
2.35740 -3.53974 0.05184 141 138 132
2.34517 -3.55001 0.06058 140 135 131
2.33295 -3.56028 0.06930 144 142 135
2.32074 -3.57054 0.07802 148 145 135
2.30854 -3.58079 0.08673 145 148 140
2.29635 -3.59102 0.09543 148 152 143
2.28418 -3.60125 0.10412 155 157 141
2.27202 -3.61147 0.11281 150 154 133
2.25987 -3.62168 0.12148 144 144 130
2.24773 -3.63188 0.13015 135 137 129
2.23560 -3.64207 0.13881 138 139 136
2.22348 -3.65225 0.14746 137 138 132
2.21138 -3.66242 0.15610 134 136 130
2.19928 -3.67258 0.16474 136 138 122
2.18720 -3.68273 0.17337 134 120 105
2.51879 -3.37387 -0.08983 155 159 143
2.50645 -3.38426 -0.08101 142 139 137
2.49412 -3.39463 -0.07219 141 151 136
2.48180 -3.40499 -0.06339 143 136 134
2.46949 -3.41535 -0.05459 138 144 133
2.45720 -3.42569 -0.04580 135 138 134
2.44492 -3.43603 -0.03701 148 146 138
2.43265 -3.44635 -0.02824 150 150 143
2.42039 -3.45666 -0.01948 144 145 138
2.40814 -3.46697 -0.01072 144 144 134
2.39590 -3.47726 -0.00197 149 147 140
2.38368 -3.48755 0.00677 152 148 139
2.37147 -3.49782 0.01550 149 147 140
2.35926 -3.50809 0.02423 149 148 139
2.34707 -3.51834 0.03294 149 151 139
2.33490 -3.52859 0.04165 142 142 133
2.32273 -3.53883 0.05035 137 136 128
2.31057 -3.54905 0.05904 138 141 133
2.29843 -3.55927 0.06773 140 141 136
2.28630 -3.56948 0.07640 144 147 139
2.27418 -3.57967 0.08507 148 148 141
2.26207 -3.58986 0.09373 152 153 139
2.24997 -3.60004 0.10238 149 152 133
2.23788 -3.61021 0.11102 146 144 130
2.22581 -3.62037 0.11965 140 138 126
2.21375 -3.63052 0.12828 138 138 140
2.20169 -3.64066 0.13689 144 144 142
2.18965 -3.65079 0.14550 136 136 132
2.17762 -3.66091 0.15411 139 140 126
2.16561 -3.67102 0.16270 134 126 111
2.15360 -3.68112 0.17128 132 135 127
2.49550 -3.36345 -0.09941 145 151 140
2.48322 -3.37379 -0.09062 148 145 135
2.47096 -3.38412 -0.08184 139 142 135
2.45871 -3.39444 -0.07307 152 152 140
2.44647 -3.40475 -0.06431 138 138 127
2.43424 -3.41506 -0.05555 134 141 135
2.42202 -3.42535 -0.04680 140 139 128
2.40982 -3.43563 -0.03806 143 148 137
2.39763 -3.44591 -0.02933 143 144 135
2.38544 -3.45617 -0.02061 140 138 136
2.37327 -3.46642 -0.01190 146 146 150
2.36112 -3.47667 -0.00319 150 145 147
2.34897 -3.48690 0.00551 150 148 146
2.33683 -3.49712 0.01420 147 148 141
2.32471 -3.50734 0.02288 142 145 132
2.31259 -3.51755 0.03155 135 140 125
2.30049 -3.52774 0.04022 131 136 122
2.28840 -3.53793 0.04888 134 136 126
2.27632 -3.54810 0.05752 137 137 130
2.26426 -3.55827 0.06616 143 146 139
2.25220 -3.56843 0.07480 146 146 141
2.24015 -3.57858 0.08342 147 145 135
2.22812 -3.58871 0.09204 147 147 133
2.21610 -3.59884 0.10065 144 145 131
2.20409 -3.60896 0.10925 140 142 124
2.19209 -3.61907 0.11784 133 132 128
2.18010 -3.62917 0.12642 139 140 139
2.16812 -3.63926 0.13500 135 138 131
2.15616 -3.64934 0.14357 138 135 125
2.14420 -3.65942 0.15213 136 138 118
2.13226 -3.66948 0.16068 132 136 131
2.47242 -3.35312 -0.10891 136 138 139
2.46021 -3.36342 -0.10015 149 150 135
2.44801 -3.37371 -0.09141 139 133 129
2.43583 -3.38399 -0.08267 151 156 142
2.42365 -3.39426 -0.07394 141 139 128
2.41149 -3.40452 -0.06522 138 151 130
2.39934 -3.41477 -0.05650 134 137 120
2.38720 -3.42501 -0.04780 135 140 131
2.37507 -3.43524 -0.03910 133 138 129
2.36295 -3.44547 -0.03041 133 130 126
