ply
format ascii 1.0
element face 0
property list uchar int vertex_indices
element vertex 1285
property float x
property float y
property float z
property uchar diffuse_red
property uchar diffuse_green
property uchar diffuse_blue
end_header
-1.53137 -4.60013 0.63826 90 90 90
-1.54391 -4.60592 0.64192 88 87 87
-1.55643 -4.61171 0.64558 85 89 87
-1.56895 -4.61750 0.64924 82 87 92
-1.58145 -4.62328 0.65289 86 86 88
-1.59395 -4.62906 0.65654 88 87 86
-1.60644 -4.63484 0.66019 91 89 86
-1.61892 -4.64061 0.66384 90 91 79
-1.63140 -4.64637 0.66748 89 90 74
-1.64386 -4.65214 0.67112 86 88 79
-1.65632 -4.65790 0.67476 83 87 78
-1.66877 -4.66365 0.67840 88 90 87
-1.68121 -4.66941 0.68204 89 89 91
-1.69364 -4.67515 0.68567 87 88 95
-1.70607 -4.68090 0.68930 81 87 84
-1.71849 -4.68664 0.69293 87 86 78
-1.73089 -4.69238 0.69655 89 85 81
-1.74329 -4.69811 0.70017 81 82 77
-1.75569 -4.70384 0.70379 79 79 69
-1.76807 -4.70956 0.70741 82 78 66
-1.78044 -4.71529 0.71103 85 82 78
-1.79281 -4.72100 0.71464 83 82 82
-1.80517 -4.72672 0.71825 76 80 71
-1.81752 -4.73243 0.72186 77 79 71
-1.82986 -4.73814 0.72546 76 74 77
-1.84220 -4.74384 0.72907 67 67 72
-1.85452 -4.74954 0.73267 61 69 63
-1.86684 -4.75523 0.73627 66 72 60
-1.87915 -4.76093 0.73987 70 71 62
-1.89145 -4.76661 0.74346 73 70 65
2.06564 -2.92104 -0.42559 128 127 137
2.05064 -2.92797 -0.42120 128 128 140
2.03566 -2.93491 -0.41682 134 135 140
2.02069 -2.94183 -0.41244 138 135 135
2.00573 -2.94876 -0.40807 139 134 135
1.99078 -2.95567 -0.40370 142 140 147
1.97585 -2.96259 -0.39933 142 142 152
1.96092 -2.96949 -0.39496 143 142 148
1.94600 -2.97640 -0.39060 147 145 148
1.93110 -2.98329 -0.38624 149 148 145
1.91620 -2.99019 -0.38188 139 140 134
1.90132 -2.99707 -0.37753 134 134 135
1.88644 -3.00396 -0.37318 139 138 145
1.87158 -3.01083 -0.36883 144 144 151
1.85673 -3.01771 -0.36449 149 149 150
1.84189 -3.02457 -0.36015 156 156 155
1.82706 -3.03144 -0.35581 159 158 157
1.81224 -3.03829 -0.35148 159 158 157
1.79743 -3.04515 -0.34715 155 157 157
1.78263 -3.05200 -0.34282 155 157 159
1.76784 -3.05884 -0.33849 151 155 161
1.75307 -3.06568 -0.33417 164 162 164
1.73830 -3.07251 -0.32985 173 173 172
1.72355 -3.07934 -0.32554 158 163 166
1.70880 -3.08616 -0.32122 155 158 161
1.69407 -3.09298 -0.31691 149 153 162
1.67934 -3.09979 -0.31261 164 167 163
1.66463 -3.10660 -0.30831 167 171 177
1.64993 -3.11340 -0.30401 164 162 157
1.63523 -3.12020 -0.29971 167 166 158
1.62055 -3.12700 -0.29541 166 162 159
1.60588 -3.13379 -0.29112 170 168 159
1.59122 -3.14057 -0.28684 162 164 159
1.57657 -3.14735 -0.28255 159 160 165
1.56193 -3.15412 -0.27827 160 162 159
1.54730 -3.16089 -0.27399 164 166 161
1.53269 -3.16766 -0.26972 173 173 163
1.51808 -3.17442 -0.26544 159 162 164
1.50348 -3.18117 -0.26117 157 161 158
1.48889 -3.18792 -0.25691 161 164 165
1.47432 -3.19467 -0.25264 166 167 163
1.45975 -3.20141 -0.24838 155 159 161
1.44520 -3.20814 -0.24413 159 159 158
1.43065 -3.21487 -0.23987 161 160 157
1.41611 -3.22160 -0.23562 161 163 164
1.40159 -3.22832 -0.23137 168 168 175
1.38708 -3.23504 -0.22713 166 166 169
1.37257 -3.24175 -0.22289 157 160 160
1.35808 -3.24846 -0.21865 152 157 159
1.34360 -3.25516 -0.21441 160 164 169
1.32912 -3.26186 -0.21018 163 167 171
1.31466 -3.26855 -0.20595 161 164 166
1.30021 -3.27524 -0.20172 160 163 170
1.28577 -3.28192 -0.19750 164 170 174
1.27134 -3.28860 -0.19328 166 172 174
1.25691 -3.29527 -0.18906 156 159 164
1.24250 -3.30194 -0.18485 150 150 160
1.22810 -3.30860 -0.18063 156 155 164
1.21371 -3.31526 -0.17643 160 161 164
1.19933 -3.32192 -0.17222 157 160 163
1.18496 -3.32857 -0.16802 154 157 161
1.17060 -3.33521 -0.16382 158 160 159
1.15625 -3.34185 -0.15962 157 162 158
1.14191 -3.34849 -0.15543 151 156 157
1.12758 -3.35512 -0.15124 150 151 154
1.11327 -3.36174 -0.14705 153 152 153
1.09896 -3.36836 -0.14286 155 157 159
1.08466 -3.37498 -0.13868 154 156 156
1.07037 -3.38159 -0.13450 146 151 151
1.05609 -3.38820 -0.13033 151 156 162
1.04182 -3.39480 -0.12615 157 163 168
1.02757 -3.40140 -0.12198 152 156 159
1.01332 -3.40799 -0.11782 145 148 153
0.99908 -3.41458 -0.11365 151 158 154
0.98485 -3.42117 -0.10949 148 152 162
0.97063 -3.42775 -0.10533 148 151 161
0.95643 -3.43432 -0.10118 155 155 164
0.94223 -3.44089 -0.09702 145 146 154
0.92804 -3.44746 -0.09288 146 150 150
0.91386 -3.45402 -0.08873 152 159 161
0.89969 -3.46057 -0.08459 152 167 166
0.88554 -3.46713 -0.08044 155 159 164
0.87139 -3.47367 -0.07631 157 159 163
0.85725 -3.48021 -0.07217 151 155 159
0.84312 -3.48675 -0.06804 155 155 161
-0.26907 -4.00142 0.25724 117 123 129
-0.28242 -4.00759 0.26115 126 132 130
-0.29575 -4.01377 0.26505 125 130 121
-0.30908 -4.01993 0.26894 113 121 115
-0.32240 -4.02609 0.27284 111 116 110
-0.36230 -4.04456 0.28451 129 137 131
-0.37558 -4.05070 0.28839 136 137 139
-1.01543 -4.34679 0.47553 109 115 103
-1.02826 -4.35273 0.47928 114 114 101
-1.04109 -4.35867 0.48304 102 102 103
-1.05392 -4.36460 0.48679 107 107 110
-1.06673 -4.37053 0.49053 113 111 112
-1.07953 -4.37646 0.49428 109 111 99
-1.09233 -4.38238 0.49802 104 106 93
-1.10512 -4.38830 0.50176 101 104 91
-1.11789 -4.39421 0.50550 102 110 99
-1.13066 -4.40012 0.50923 102 102 99
-1.14343 -4.40602 0.51296 98 101 94
-1.15618 -4.41193 0.51669 106 105 103
-1.16892 -4.41782 0.52042 112 113 108
-1.18166 -4.42372 0.52415 108 104 104
-1.19439 -4.42961 0.52787 107 104 102
-1.20710 -4.43549 0.53159 111 111 104
-1.21981 -4.44137 0.53531 106 104 99
-1.23252 -4.44725 0.53902 102 98 91
-1.24521 -4.45312 0.54273 94 95 85
-1.25789 -4.45899 0.54644 91 92 87
-1.27057 -4.46486 0.55015 95 95 91
-1.28324 -4.47072 0.55386 100 101 96
-1.29590 -4.47658 0.55756 103 105 97
-1.30855 -4.48243 0.56126 103 102 93
-1.32119 -4.48829 0.56496 100 98 96
-1.33383 -4.49413 0.56865 100 102 104
-1.34645 -4.49997 0.57234 102 107 100
-1.35907 -4.50581 0.57603 104 106 93
-1.37168 -4.51165 0.57972 102 101 92
-1.38428 -4.51748 0.58341 101 97 91
-1.39687 -4.52330 0.58709 98 97 97
-1.40945 -4.52913 0.59077 100 100 103
-1.42203 -4.53495 0.59445 104 106 101
-1.43460 -4.54076 0.59812 103 105 93
-1.44716 -4.54657 0.60180 100 100 94
-1.45971 -4.55238 0.60547 98 98 93
-1.47225 -4.55819 0.60913 97 98 87
-1.48478 -4.56399 0.61280 96 97 82
-1.49731 -4.56978 0.61646 95 95 91
-1.50982 -4.57557 0.62012 94 93 92
-1.52233 -4.58136 0.62378 91 93 89
-1.53483 -4.58715 0.62744 91 92 90
-1.54732 -4.59293 0.63109 89 88 87
-1.55981 -4.59870 0.63474 85 82 89
-1.57228 -4.60448 0.63839 91 91 97
-1.58475 -4.61025 0.64204 91 89 95
-1.59721 -4.61601 0.64568 90 90 94
-1.60966 -4.62177 0.64932 90 91 88
-1.62210 -4.62753 0.65296 88 89 80
-1.63454 -4.63329 0.65660 90 92 74
-1.64696 -4.63904 0.66023 89 91 84
-1.65938 -4.64478 0.66387 89 92 87
-1.67179 -4.65052 0.66750 94 93 89
-1.68419 -4.65626 0.67112 92 92 91
-1.69659 -4.66200 0.67475 89 90 94
-1.70897 -4.66773 0.67837 85 89 88
-1.72135 -4.67346 0.68199 87 88 86
-1.73372 -4.67918 0.68561 85 88 79
-1.74608 -4.68490 0.68922 79 83 72
-1.75843 -4.69062 0.69283 83 82 64
-1.77077 -4.69633 0.69644 88 82 73
-1.78311 -4.70204 0.70005 85 81 80
-1.79544 -4.70774 0.70366 83 82 84
-1.80776 -4.71344 0.70726 81 83 80
-1.82007 -4.71914 0.71086 83 84 84
-1.83238 -4.72483 0.71446 80 82 85
-1.84467 -4.73052 0.71806 78 78 76
-1.85696 -4.73621 0.72165 74 77 71
-1.86924 -4.74189 0.72524 78 79 69
-1.88151 -4.74757 0.72883 79 77 65
-1.89377 -4.75325 0.73242 72 73 65
2.04968 -2.91255 -0.43380 127 125 136
2.03475 -2.91947 -0.42943 132 132 137
2.01982 -2.92638 -0.42506 137 136 137
2.00491 -2.93329 -0.42069 139 136 134
1.99000 -2.94019 -0.41633 138 136 136
1.97511 -2.94709 -0.41197 139 140 144
1.96023 -2.95398 -0.40761 144 145 145
1.94536 -2.96086 -0.40326 147 145 143
1.93050 -2.96775 -0.39891 143 141 143
1.91565 -2.97462 -0.39456 144 142 140
1.90081 -2.98150 -0.39021 141 140 136
1.88598 -2.98836 -0.38587 142 143 141
1.87116 -2.99523 -0.38153 147 147 151
1.85636 -3.00208 -0.37720 151 152 155
1.84156 -3.00894 -0.37287 152 151 154
1.82677 -3.01578 -0.36854 155 154 154
1.81200 -3.02263 -0.36421 159 159 156
1.79724 -3.02947 -0.35989 163 164 155
1.78248 -3.03630 -0.35557 158 158 158
1.76774 -3.04313 -0.35125 158 158 157
1.75301 -3.04995 -0.34694 151 151 151
1.73828 -3.05677 -0.34263 161 159 165
1.72357 -3.06358 -0.33832 168 165 168
1.70887 -3.07039 -0.33402 166 164 165
1.69418 -3.07719 -0.32972 160 160 165
1.67950 -3.08399 -0.32542 154 157 167
1.66483 -3.09079 -0.32112 165 173 170
1.65017 -3.09757 -0.31683 165 169 173
1.63553 -3.10436 -0.31254 164 166 161
1.62089 -3.11114 -0.30826 169 169 165
1.60626 -3.11791 -0.30397 164 163 163
1.59164 -3.12468 -0.29970 164 165 165
1.57704 -3.13145 -0.29542 160 161 165
1.56244 -3.13821 -0.29115 155 158 163
1.54786 -3.14496 -0.28688 153 157 159
1.53328 -3.15171 -0.28261 157 160 163
1.51872 -3.15846 -0.27834 172 174 162
1.50416 -3.16520 -0.27408 157 160 159
1.48962 -3.17193 -0.26982 154 156 160
1.47509 -3.17866 -0.26557 159 168 168
1.46056 -3.18539 -0.26132 168 173 168
1.44605 -3.19211 -0.25707 167 175 170
1.43155 -3.19883 -0.25282 169 173 163
1.41706 -3.20554 -0.24858 161 163 165
1.40258 -3.21225 -0.24434 159 161 165
1.38810 -3.21895 -0.24010 161 158 165
1.37364 -3.22564 -0.23587 160 161 165
1.35919 -3.23234 -0.23164 157 161 161
1.34475 -3.23902 -0.22741 152 158 161
1.33032 -3.24571 -0.22319 153 157 160
1.31590 -3.25239 -0.21896 149 154 164
1.30149 -3.25906 -0.21474 150 154 161
1.28709 -3.26573 -0.21053 151 155 161
1.27270 -3.27239 -0.20632 158 165 161
1.25833 -3.27905 -0.20211 161 165 163
1.24396 -3.28571 -0.19790 150 149 157
1.22960 -3.29236 -0.19370 148 148 154
1.21525 -3.29900 -0.18949 154 154 158
1.20091 -3.30564 -0.18530 159 158 165
1.18658 -3.31228 -0.18110 156 156 168
1.17227 -3.31891 -0.17691 151 151 164
1.15796 -3.32554 -0.17272 160 163 161
1.14366 -3.33216 -0.16853 160 167 159
1.12937 -3.33877 -0.16435 144 151 153
1.11510 -3.34539 -0.16017 142 146 147
1.10083 -3.35199 -0.15599 149 149 157
1.08657 -3.35860 -0.15182 149 153 164
1.07233 -3.36520 -0.14765 150 155 154
1.05809 -3.37179 -0.14348 139 145 142
1.04386 -3.37838 -0.13931 147 151 159
1.02964 -3.38496 -0.13515 157 159 167
1.01544 -3.39154 -0.13099 154 158 156
1.00124 -3.39812 -0.12684 146 150 151
0.98705 -3.40469 -0.12268 153 152 155
0.97288 -3.41125 -0.11853 150 150 155
0.95871 -3.41781 -0.11438 140 145 160
0.94455 -3.42437 -0.11024 149 150 163
0.93041 -3.43092 -0.10610 145 148 157
0.91627 -3.43747 -0.10196 146 153 154
0.90214 -3.44401 -0.09782 151 156 161
0.88803 -3.45055 -0.09369 149 159 165
0.87392 -3.45708 -0.08956 148 151 155
0.85982 -3.46361 -0.08543 150 149 151
0.84573 -3.47014 -0.08131 153 161 163
0.83166 -3.47666 -0.07719 160 166 168
-0.27667 -3.98996 0.24731 127 134 134
-0.28997 -3.99612 0.25121 128 132 134
-0.30326 -4.00227 0.25510 124 131 118
-0.31654 -4.00842 0.25899 112 122 117
-0.32981 -4.01457 0.26287 109 109 109
-0.34308 -4.02071 0.26675 122 125 125
-0.36958 -4.03299 0.27451 125 135 124
-0.38281 -4.03912 0.27839 124 124 129
-1.03333 -4.34039 0.46885 114 118 106
-1.04612 -4.34632 0.47259 103 106 100
-1.05890 -4.35224 0.47633 107 109 108
-1.07167 -4.35815 0.48007 114 114 107
-1.08444 -4.36406 0.48381 111 110 103
-1.09719 -4.36997 0.48754 106 105 98
-1.10993 -4.37587 0.49128 98 98 93
-1.12267 -4.38177 0.49501 108 112 106
-1.13540 -4.38766 0.49873 107 110 101
-1.14812 -4.39356 0.50246 104 107 101
-1.16083 -4.39944 0.50618 114 115 108
-1.17353 -4.40533 0.50990 116 115 108
-1.18623 -4.41121 0.51361 110 105 106
-1.19892 -4.41708 0.51733 106 107 103
-1.21159 -4.42295 0.52104 106 109 105
-1.22426 -4.42882 0.52475 103 101 97
-1.23692 -4.43468 0.52846 98 96 90
-1.24957 -4.44054 0.53216 94 96 87
-1.26222 -4.44640 0.53586 93 95 89
-1.27485 -4.45225 0.53956 96 97 94
-1.28748 -4.45810 0.54326 99 101 100
-1.30010 -4.46394 0.54695 102 104 100
-1.31271 -4.46978 0.55065 104 103 99
-1.32531 -4.47562 0.55433 103 100 100
-1.33791 -4.48145 0.55802 103 101 104
-1.35049 -4.48728 0.56171 102 104 101
-1.36307 -4.49310 0.56539 101 105 96
-1.37564 -4.49893 0.56907 102 102 97
-1.38820 -4.50474 0.57275 101 98 98
-1.40075 -4.51056 0.57642 100 102 101
-1.41329 -4.51637 0.58009 102 103 99
-1.42583 -4.52217 0.58376 101 104 94
-1.43835 -4.52797 0.58743 103 105 93
-1.45087 -4.53377 0.59110 104 103 99
-1.46338 -4.53956 0.59476 100 101 97
-1.47588 -4.54535 0.59842 98 101 91
-1.48838 -4.55114 0.60208 98 102 89
-1.50086 -4.55692 0.60573 101 103 95
-1.51334 -4.56270 0.60939 101 100 98
-1.52581 -4.56848 0.61304 95 96 93
-1.53827 -4.57425 0.61668 95 94 93
-1.55072 -4.58001 0.62033 94 91 90
-1.56317 -4.58578 0.62397 86 83 90
-1.57560 -4.59154 0.62761 90 90 92
-1.58803 -4.59729 0.63125 93 93 93
-1.60045 -4.60304 0.63489 97 97 97
-1.61286 -4.60879 0.63852 94 93 93
-1.62526 -4.61454 0.64215 90 91 87
-1.63766 -4.62028 0.64578 90 91 79
-1.65004 -4.62601 0.64941 91 91 85
-1.66242 -4.63175 0.65303 92 94 94
-1.67479 -4.63748 0.65666 97 97 96
-1.68716 -4.64320 0.66028 92 93 90
-1.69951 -4.64892 0.66389 90 91 90
-1.71186 -4.65464 0.66751 87 86 88
-1.72419 -4.66036 0.67112 85 86 85
-1.73652 -4.66607 0.67473 81 86 79
-1.74885 -4.67177 0.67834 81 87 76
-1.76116 -4.67747 0.68194 86 89 73
-1.77346 -4.68317 0.68555 86 85 83
-1.78576 -4.68887 0.68915 86 85 88
-1.79805 -4.69456 0.69274 85 85 85
-1.81033 -4.70025 0.69634 83 85 84
-1.82261 -4.70593 0.69993 81 84 86
-1.83487 -4.71161 0.70352 80 83 86
-1.84713 -4.71729 0.70711 85 83 82
-1.85938 -4.72296 0.71070 82 84 86
-1.87162 -4.72863 0.71428 79 84 82
-1.88385 -4.73430 0.71787 68 77 66
-1.89608 -4.73996 0.72144 63 72 56
2.03384 -2.90412 -0.44196 130 128 139
2.01896 -2.91102 -0.43760 140 140 140
2.00409 -2.91791 -0.43324 142 143 140
1.98923 -2.92479 -0.42888 141 139 135
1.97438 -2.93168 -0.42453 136 136 133
1.95955 -2.93855 -0.42018 137 141 145
1.94472 -2.94543 -0.41584 144 146 148
1.92990 -2.95229 -0.41150 146 146 148
1.91510 -2.95916 -0.40716 139 138 145
1.90030 -2.96601 -0.40282 136 135 145
1.88552 -2.97287 -0.39849 140 137 145
1.87075 -2.97971 -0.39416 144 146 147
1.85599 -2.98656 -0.38983 147 149 153
1.84123 -2.99339 -0.38551 146 148 155
1.82649 -3.00023 -0.38119 146 146 156
1.81176 -3.00705 -0.37687 153 151 155
1.79704 -3.01388 -0.37256 153 155 155
1.78233 -3.02069 -0.36824 155 157 151
1.76763 -3.02751 -0.36394 152 152 158
1.75295 -3.03432 -0.35963 161 159 155
1.73827 -3.04112 -0.35533 153 153 148
1.72360 -3.04792 -0.35103 159 158 165
1.70894 -3.05471 -0.34673 164 160 166
1.69430 -3.06150 -0.34244 170 163 163
1.67966 -3.06828 -0.33815 163 161 163
1.66504 -3.07506 -0.33387 156 154 162
1.65042 -3.08184 -0.32958 161 164 162
1.63582 -3.08861 -0.32530 161 164 160
1.62122 -3.09537 -0.32102 161 167 166
1.60664 -3.10213 -0.31675 159 158 167
1.59207 -3.10889 -0.31248 153 145 152
1.57750 -3.11564 -0.30821 154 155 162
1.56295 -3.12238 -0.30394 151 152 162
1.54841 -3.12912 -0.29968 150 151 155
1.53388 -3.13586 -0.29542 146 148 159
1.51935 -3.14259 -0.29117 155 155 164
1.50484 -3.14932 -0.28691 163 166 164
1.49034 -3.15604 -0.28266 158 169 169
1.47585 -3.16275 -0.27842 155 162 166
1.46137 -3.16946 -0.27417 156 166 166
1.44690 -3.17617 -0.26993 165 176 169
1.43244 -3.18287 -0.26569 169 174 171
1.41799 -3.18957 -0.26146 170 173 163
1.40356 -3.19626 -0.25723 159 161 159
1.38913 -3.20295 -0.25300 154 160 162
1.37471 -3.20963 -0.24877 148 147 157
1.36030 -3.21631 -0.24455 149 149 163
1.34590 -3.22299 -0.24033 155 158 168
1.33151 -3.22966 -0.23611 160 164 167
1.31714 -3.23632 -0.23190 159 160 156
1.30277 -3.24298 -0.22769 149 153 159
1.28841 -3.24963 -0.22348 146 150 150
1.27407 -3.25628 -0.21928 144 148 148
1.25973 -3.26293 -0.21507 145 150 148
1.24540 -3.26957 -0.21087 154 153 152
1.23109 -3.27621 -0.20668 161 157 155
1.21678 -3.28284 -0.20249 164 163 154
1.20248 -3.28946 -0.19830 161 162 157
1.18820 -3.29609 -0.19411 159 160 165
1.17392 -3.30270 -0.18992 156 156 168
1.15965 -3.30932 -0.18574 152 152 164
1.14540 -3.31592 -0.18156 160 160 161
1.13115 -3.32253 -0.17739 161 164 160
1.11692 -3.32913 -0.17322 144 150 156
1.10269 -3.33572 -0.16905 143 147 154
1.08847 -3.34231 -0.16488 151 154 159
1.07427 -3.34889 -0.16072 147 152 157
1.06007 -3.35547 -0.15656 147 154 148
1.04589 -3.36205 -0.15240 139 149 142
1.03171 -3.36862 -0.14824 146 151 152
1.01755 -3.37519 -0.14409 156 154 155
1.00339 -3.38175 -0.13994 158 162 153
0.98924 -3.38830 -0.13580 147 152 154
0.97511 -3.39486 -0.13165 146 146 152
0.96098 -3.40140 -0.12751 149 147 153
0.94687 -3.40795 -0.12338 142 146 155
0.93276 -3.41448 -0.11924 147 150 152
0.91866 -3.42102 -0.11511 143 151 151
0.90458 -3.42755 -0.11098 141 146 149
0.89050 -3.43407 -0.10686 150 155 160
0.87643 -3.44059 -0.10273 149 154 160
0.86238 -3.44711 -0.09861 137 134 147
0.84833 -3.45362 -0.09450 137 137 140
0.83429 -3.46013 -0.09038 142 157 163
0.82027 -3.46663 -0.08627 159 164 167
-0.28421 -3.97857 0.23744 131 136 140
-0.29747 -3.98471 0.24133 131 133 141
-0.31072 -3.99085 0.24521 126 129 126
-0.32395 -3.99699 0.24909 125 135 139
-0.33718 -4.00312 0.25297 118 111 118
-0.35040 -4.00925 0.25684 127 134 123
-0.36361 -4.01537 0.26071 125 127 126
-0.39000 -4.02761 0.26845 120 120 123
-1.05112 -4.33404 0.46222 107 108 103
-1.06386 -4.33995 0.46595 111 117 107
-1.07659 -4.34585 0.46968 120 121 108
-1.08931 -4.35174 0.47341 118 117 102
-1.10202 -4.35764 0.47713 112 114 101
-1.11472 -4.36352 0.48086 102 106 95
-1.12742 -4.36941 0.48458 106 108 98
-1.14011 -4.37529 0.48830 103 107 96
-1.15279 -4.38117 0.49201 105 107 103
-1.16546 -4.38704 0.49573 116 119 107
-1.17812 -4.39291 0.49944 116 112 106
-1.19077 -4.39877 0.50315 110 108 104
-1.20342 -4.40463 0.50685 108 110 105
-1.21605 -4.41049 0.51056 107 112 106
-1.22868 -4.41635 0.51426 102 102 98
-1.24130 -4.42219 0.51796 97 98 91
-1.25391 -4.42804 0.52165 98 102 91
-1.26652 -4.43388 0.52535 98 100 92
-1.27911 -4.43972 0.52904 99 97 94
-1.29170 -4.44555 0.53273 97 97 95
-1.30427 -4.45138 0.53641 97 100 99
-1.31684 -4.45721 0.54010 103 103 102
-1.32941 -4.46303 0.54378 105 103 100
-1.34196 -4.46885 0.54746 103 99 98
-1.35450 -4.47467 0.55114 102 99 98
-1.36704 -4.48048 0.55481 100 103 99
-1.37957 -4.48628 0.55848 101 101 104
-1.39209 -4.49209 0.56215 99 98 107
-1.40460 -4.49789 0.56582 99 101 106
-1.41710 -4.50368 0.56948 105 105 100
-1.42960 -4.50947 0.57315 101 102 91
-1.44209 -4.51526 0.57681 103 103 93
-1.45456 -4.52105 0.58046 105 105 101
-1.46703 -4.52682 0.58412 103 102 100
-1.47950 -4.53260 0.58777 98 100 93
-1.49195 -4.53837 0.59142 96 99 94
-1.50440 -4.54414 0.59507 100 101 100
-1.51683 -4.54991 0.59871 101 101 102
-1.52926 -4.55567 0.60236 97 96 94
-1.54168 -4.56143 0.60600 96 94 93
-1.55410 -4.56718 0.60963 99 96 91
-1.56650 -4.57293 0.61327 92 92 93
-1.57890 -4.57868 0.61690 89 94 97
-1.59129 -4.58442 0.62053 92 98 99
-1.60367 -4.59016 0.62416 94 97 95
-1.61604 -4.59589 0.62779 93 93 95
-1.62840 -4.60162 0.63141 92 92 92
-1.64076 -4.60735 0.63503 88 92 85
-1.65311 -4.61307 0.63865 90 93 87
-1.66545 -4.61879 0.64227 91 94 93
-1.67778 -4.62451 0.64588 90 94 91
-1.69010 -4.63022 0.64950 84 89 82
-1.70242 -4.63593 0.65311 89 90 90
-1.71472 -4.64163 0.65671 92 88 92
-1.72702 -4.64733 0.66032 85 87 81
-1.73931 -4.65303 0.66392 79 86 79
-1.75160 -4.65872 0.66752 84 88 86
-1.76387 -4.66441 0.67112 90 91 89
-1.77614 -4.67010 0.67471 93 89 89
-1.78840 -4.67578 0.67831 89 88 89
-1.80065 -4.68146 0.68190 83 84 85
-1.81289 -4.68714 0.68549 82 83 76
-1.82513 -4.69281 0.68907 81 80 72
-1.83735 -4.69847 0.69265 79 79 79
-1.84957 -4.70414 0.69624 82 83 78
-1.86178 -4.70980 0.69981 83 83 81
-1.87399 -4.71545 0.70339 81 81 78
-1.88618 -4.72111 0.70697 78 81 72
-1.89837 -4.72676 0.71054 76 81 70
1.98846 -2.90949 -0.44136 145 148 150
1.97366 -2.91636 -0.43702 146 146 145
1.95886 -2.92322 -0.43268 139 140 137
1.94408 -2.93008 -0.42834 135 143 146
1.92931 -2.93693 -0.42401 138 142 153
1.91455 -2.94378 -0.41968 137 139 154
1.89980 -2.95062 -0.41535 138 140 149
1.88506 -2.95746 -0.41103 139 140 155
1.87033 -2.96429 -0.40671 139 140 155
1.85562 -2.97112 -0.40239 138 139 143
1.84091 -2.97794 -0.39807 142 142 142
1.82621 -2.98476 -0.39376 144 146 153
1.81153 -2.99157 -0.38945 147 149 158
1.79685 -2.99838 -0.38515 155 151 159
1.78218 -3.00518 -0.38084 152 151 157
1.76753 -3.01198 -0.37654 148 148 146
1.75288 -3.01878 -0.37225 148 151 155
1.73825 -3.02557 -0.36795 161 161 154
1.72363 -3.03235 -0.36366 160 160 156
1.70901 -3.03913 -0.35938 161 157 165
1.69441 -3.04590 -0.35509 160 157 166
1.67982 -3.05267 -0.35081 167 165 164
1.66524 -3.05944 -0.34653 165 167 167
1.65067 -3.06620 -0.34226 159 159 161
1.63610 -3.07295 -0.33798 157 157 163
1.62155 -3.07970 -0.33371 156 159 160
1.60701 -3.08645 -0.32945 158 162 166
1.59248 -3.09319 -0.32519 156 154 163
1.57796 -3.09992 -0.32093 150 142 149
1.56345 -3.10665 -0.31667 153 152 158
1.54896 -3.11338 -0.31241 144 147 158
1.53447 -3.12010 -0.30816 148 155 155
1.51999 -3.12682 -0.30392 146 144 163
1.50552 -3.13353 -0.29967 161 159 162
1.49106 -3.14024 -0.29543 159 158 164
1.47661 -3.14694 -0.29119 161 176 172
1.46218 -3.15363 -0.28695 159 166 169
1.44775 -3.16033 -0.28272 153 164 162
1.43333 -3.16702 -0.27849 163 171 169
1.41893 -3.17370 -0.27426 165 169 175
1.40453 -3.18038 -0.27004 162 165 158
1.39014 -3.18705 -0.26582 153 154 151
1.37577 -3.19372 -0.26160 158 158 159
1.36140 -3.20038 -0.25739 155 153 161
1.34705 -3.20704 -0.25317 153 151 161
1.33270 -3.21370 -0.24896 158 157 165
1.31836 -3.22035 -0.24476 163 165 166
1.30404 -3.22699 -0.24056 164 163 155
1.28972 -3.23363 -0.23636 160 164 157
1.27542 -3.24027 -0.23216 155 157 148
1.26112 -3.24690 -0.22796 149 153 149
1.24684 -3.25353 -0.22377 143 149 147
1.23256 -3.26015 -0.21958 150 150 147
1.21830 -3.26677 -0.21540 163 164 155
1.20404 -3.27338 -0.21122 166 168 157
1.18980 -3.27999 -0.20704 160 164 157
1.17556 -3.28659 -0.20286 156 158 157
1.16134 -3.29319 -0.19869 156 158 162
1.14712 -3.29979 -0.19452 155 158 165
1.13292 -3.30638 -0.19035 155 154 161
1.11873 -3.31296 -0.18618 156 157 161
1.10454 -3.31954 -0.18202 149 155 163
1.09037 -3.32612 -0.17786 146 151 161
1.07620 -3.33269 -0.17371 154 154 157
1.06205 -3.33925 -0.16956 151 156 154
1.04790 -3.34581 -0.16541 150 159 150
1.03377 -3.35237 -0.16126 145 153 148
1.01964 -3.35892 -0.15711 148 153 153
1.00553 -3.36547 -0.15297 154 159 158
0.99142 -3.37202 -0.14883 155 161 155
0.97733 -3.37855 -0.14470 144 148 156
0.96324 -3.38509 -0.14057 136 137 149
0.94917 -3.39162 -0.13644 149 149 163
0.93510 -3.39814 -0.13231 153 157 160
0.92104 -3.40466 -0.12819 152 157 149
0.90700 -3.41118 -0.12406 140 148 147
0.89296 -3.41769 -0.11995 142 143 146
0.87894 -3.42420 -0.11583 152 157 163
0.86492 -3.43070 -0.11172 154 156 160
0.85091 -3.43720 -0.10761 147 147 156
0.83691 -3.44369 -0.10350 147 155 157
0.82293 -3.45018 -0.09940 143 155 159
0.80895 -3.45666 -0.09530 157 164 153
-0.29171 -3.96726 0.22764 122 129 125
-0.30492 -3.97338 0.23151 128 132 131
-0.31813 -3.97951 0.23539 124 125 130
-0.33132 -3.98563 0.23926 120 129 134
-0.34450 -3.99174 0.24313 123 129 125
-0.35768 -3.99786 0.24699 127 134 127
-1.09415 -4.33950 0.46307 116 115 106
-1.10682 -4.34538 0.46679 116 120 109
-1.11948 -4.35125 0.47050 111 117 101
-1.13214 -4.35712 0.47422 108 114 97
-1.14478 -4.36299 0.47793 103 109 94
-1.15742 -4.36885 0.48164 103 108 98
-1.17005 -4.37471 0.48534 112 117 102
-1.18267 -4.38057 0.48904 113 117 108
-1.19528 -4.38642 0.49275 110 113 107
-1.20789 -4.39226 0.49644 112 115 106
-1.22049 -4.39811 0.50014 110 116 101
-1.23307 -4.40395 0.50383 103 105 94
-1.24565 -4.40978 0.50752 96 98 87
-1.25822 -4.41561 0.51121 103 107 87
-1.27079 -4.42144 0.51490 103 103 89
-1.28334 -4.42727 0.51858 99 97 92
-1.29589 -4.43309 0.52226 95 96 94
-1.30842 -4.43890 0.52594 94 97 97
-1.32095 -4.44472 0.52962 100 101 100
-1.33348 -4.45052 0.53329 103 104 97
-1.34599 -4.45633 0.53696 102 101 94
-1.35849 -4.46213 0.54063 102 100 95
-1.37099 -4.46793 0.54430 102 103 99
-1.38348 -4.47372 0.54796 104 103 106
-1.39596 -4.47951 0.55162 102 103 108
-1.40843 -4.48529 0.55528 101 103 106
-1.42089 -4.49108 0.55894 102 103 101
-1.43335 -4.49685 0.56259 101 99 95
-1.44580 -4.50263 0.56624 105 104 95
-1.45823 -4.50840 0.56989 107 110 99
-1.47066 -4.51416 0.57354 105 106 98
-1.48309 -4.51993 0.57719 96 97 90
-1.49550 -4.52569 0.58083 93 93 93
-1.50791 -4.53144 0.58447 99 96 105
-1.52031 -4.53719 0.58811 98 98 105
-1.53270 -4.54294 0.59174 95 94 91
-1.54508 -4.54868 0.59537 93 91 87
-1.55745 -4.55442 0.59900 94 95 88
-1.56982 -4.56016 0.60263 92 95 95
-1.58217 -4.56589 0.60626 91 98 100
-1.59452 -4.57162 0.60988 90 97 101
-1.60686 -4.57735 0.61350 91 95 91
-1.61920 -4.58307 0.61712 93 95 94
-1.63152 -4.58879 0.62074 96 96 101
-1.64384 -4.59450 0.62435 92 95 95
-1.65615 -4.60021 0.62796 92 95 92
-1.66845 -4.60592 0.63157 91 96 87
-1.68074 -4.61162 0.63518 86 91 83
-1.69303 -4.61732 0.63878 84 89 80
-1.70530 -4.62301 0.64238 88 91 89
-1.71757 -4.62870 0.64598 91 91 89
-1.72983 -4.63439 0.64958 86 87 76
-1.74209 -4.64008 0.65318 80 84 74
-1.75433 -4.64576 0.65677 85 88 90
-1.76657 -4.65143 0.66036 90 91 92
-1.77880 -4.65710 0.66395 92 90 88
-1.79102 -4.66277 0.66753 87 89 81
-1.80323 -4.66844 0.67112 80 83 77
-1.81543 -4.67410 0.67470 84 83 81
-1.82763 -4.67976 0.67828 84 80 78
-1.83982 -4.68541 0.68185 79 78 77
-1.85200 -4.69106 0.68543 78 82 83
-1.86417 -4.69671 0.68900 82 84 84
-1.87634 -4.70235 0.69257 80 82 80
-1.88849 -4.70799 0.69613 79 79 83
-1.90064 -4.71363 0.69970 75 78 79
1.97294 -2.90114 -0.44944 144 146 155
1.95819 -2.90798 -0.44510 146 147 153
1.94345 -2.91483 -0.44078 140 142 143
1.92872 -2.92166 -0.43645 135 140 143
1.91401 -2.92850 -0.43213 137 141 154
1.89930 -2.93532 -0.42781 137 140 156
1.88461 -2.94215 -0.42349 141 142 150
1.86992 -2.94896 -0.41918 146 146 156
1.85525 -2.95578 -0.41487 139 142 157
1.84059 -2.96258 -0.41056 134 132 145
1.82593 -2.96939 -0.40626 141 138 140
1.81129 -2.97619 -0.40196 146 145 147
1.79666 -2.98298 -0.39766 149 149 148
1.78204 -2.98977 -0.39337 152 152 155
1.76743 -2.99655 -0.38908 145 144 154
1.75282 -3.00333 -0.38479 140 138 139
1.73823 -3.01010 -0.38050 149 152 153
1.72365 -3.01687 -0.37622 158 160 158
1.70908 -3.02364 -0.37194 164 163 163
1.69453 -3.03040 -0.36767 165 159 167
1.67998 -3.03715 -0.36339 158 156 164
1.66544 -3.04390 -0.35912 158 161 163
1.65091 -3.05065 -0.35485 161 164 164
1.63639 -3.05739 -0.35059 161 166 161
1.62188 -3.06412 -0.34633 159 161 164
1.60739 -3.07085 -0.34207 158 162 167
1.59290 -3.07758 -0.33782 161 163 168
1.57842 -3.08430 -0.33357 161 162 164
1.56396 -3.09102 -0.32932 159 161 160
1.54950 -3.09773 -0.32507 159 158 165
1.53505 -3.10443 -0.32083 151 154 170
1.52062 -3.11114 -0.31659 157 166 165
1.50619 -3.11783 -0.31235 155 152 170
1.49178 -3.12453 -0.30812 165 170 167
1.47737 -3.13122 -0.30389 159 161 167
1.46298 -3.13790 -0.29966 160 169 168
1.44859 -3.14458 -0.29543 160 164 171
1.43422 -3.15125 -0.29121 155 162 162
1.41985 -3.15792 -0.28699 161 161 163
1.40550 -3.16458 -0.28278 161 162 168
1.39115 -3.17124 -0.27856 159 166 156
1.37682 -3.17790 -0.27435 150 150 153
1.36250 -3.18455 -0.27015 158 157 159
1.34818 -3.19119 -0.26594 161 161 160
1.33388 -3.19784 -0.26174 161 161 160
1.31958 -3.20447 -0.25754 158 159 161
1.30530 -3.21110 -0.25335 154 156 160
1.29103 -3.21773 -0.24916 160 159 158
1.27676 -3.22435 -0.24497 165 168 164
1.26251 -3.23097 -0.24078 161 163 157
1.24827 -3.23758 -0.23660 155 160 156
1.23403 -3.24419 -0.23242 152 158 151
1.21981 -3.25079 -0.22824 154 156 148
1.20560 -3.25739 -0.22406 157 160 156
1.19139 -3.26399 -0.21989 158 163 160
1.17720 -3.27058 -0.21572 159 165 160
1.16302 -3.27716 -0.21156 162 164 155
1.14884 -3.28374 -0.20739 161 162 159
1.13468 -3.29032 -0.20323 156 160 166
1.12052 -3.29689 -0.19908 150 153 161
1.10638 -3.30346 -0.19492 147 152 160
1.09225 -3.31002 -0.19077 149 155 164
1.07812 -3.31658 -0.18662 153 159 164
1.06401 -3.32313 -0.18248 159 160 161
1.04990 -3.32968 -0.17834 156 160 160
1.03581 -3.33622 -0.17420 154 161 151
1.02173 -3.34276 -0.17006 152 157 150
1.00765 -3.34929 -0.16593 149 155 155
0.99359 -3.35582 -0.16180 149 158 164
0.97953 -3.36235 -0.15767 151 155 160
0.96549 -3.36887 -0.15354 147 150 160
0.95145 -3.37539 -0.14942 136 136 146
0.93743 -3.38190 -0.14530 151 157 163
0.92341 -3.38840 -0.14118 151 156 159
0.90940 -3.39491 -0.13707 149 151 148
0.89541 -3.40140 -0.13296 138 142 145
0.88142 -3.40790 -0.12885 143 144 143
0.86744 -3.41439 -0.12475 150 155 164
0.85348 -3.42087 -0.12064 154 156 159
0.83952 -3.42735 -0.11654 152 157 162
0.82557 -3.43383 -0.11245 163 165 165
0.81164 -3.44030 -0.10836 149 155 157
-0.29917 -3.95601 0.21789 114 116 112
-0.31233 -3.96213 0.22176 123 130 126
-0.32549 -3.96823 0.22563 120 124 128
-1.09896 -4.32733 0.45280 110 109 111
-1.11159 -4.33320 0.45651 114 117 113
-1.12421 -4.33906 0.46022 110 114 104
-1.13683 -4.34491 0.46392 109 114 100
-1.14943 -4.35077 0.46762 108 113 95
-1.16203 -4.35662 0.47132 103 105 89
-1.17462 -4.36246 0.47502 106 106 98
-1.18720 -4.36830 0.47871 107 112 112
-1.19977 -4.37414 0.48241 107 112 112
-1.22489 -4.38580 0.48979 111 116 100
-1.23744 -4.39163 0.49347 105 108 95
-1.24998 -4.39745 0.49715 97 99 87
-1.26251 -4.40327 0.50083 102 105 85
-1.27503 -4.40908 0.50451 103 104 89
-1.28754 -4.41489 0.50819 100 101 95
-1.30005 -4.42070 0.51186 100 102 101
-1.31255 -4.42650 0.51553 101 104 104
-1.32504 -4.43230 0.51920 102 104 103
-1.33752 -4.43809 0.52286 100 104 100
-1.34999 -4.44388 0.52653 101 105 99
-1.36246 -4.44967 0.53019 104 106 98
-1.37491 -4.45545 0.53385 104 105 97
-1.38736 -4.46123 0.53750 104 102 98
-1.39980 -4.46701 0.54116 102 101 98
-1.41224 -4.47278 0.54481 99 102 101
-1.42466 -4.47855 0.54846 96 99 99
-1.43707 -4.48431 0.55211 96 97 97
-1.44948 -4.49007 0.55575 103 101 99
-1.46188 -4.49583 0.55939 102 105 102
-1.47427 -4.50158 0.56303 97 102 99
-1.48666 -4.50733 0.56667 91 92 88
-1.49903 -4.51308 0.57030 89 92 92
-1.51140 -4.51882 0.57393 96 97 106
-1.52376 -4.52456 0.57756 97 100 106
-1.53611 -4.53029 0.58119 95 98 91
-1.54845 -4.53602 0.58482 91 93 86
-1.56079 -4.54175 0.58844 87 92 88
-1.57311 -4.54747 0.59206 88 93 94
-1.58543 -4.55319 0.59568 89 94 94
-1.59774 -4.55891 0.59929 87 91 92
-1.61004 -4.56462 0.60291 90 94 87
-1.62234 -4.57032 0.60652 94 96 95
-1.63462 -4.57603 0.61013 101 99 107
-1.64690 -4.58173 0.61373 99 99 100
-1.65917 -4.58743 0.61734 95 97 95
-1.67144 -4.59312 0.62094 93 96 87
-1.68369 -4.59881 0.62454 87 92 85
-1.69594 -4.60449 0.62813 84 87 88
-1.70817 -4.61018 0.63173 85 91 92
-1.72040 -4.61585 0.63532 88 93 91
-1.73263 -4.62153 0.63891 85 88 85
-1.74484 -4.62720 0.64250 79 81 77
-1.75705 -4.63287 0.64608 83 88 86
-1.76925 -4.63853 0.64967 85 90 85
-1.78144 -4.64419 0.65325 89 91 87
-1.79362 -4.64985 0.65682 88 90 80
-1.80579 -4.65550 0.66040 86 85 77
-1.81796 -4.66115 0.66397 85 83 82
-1.83012 -4.66679 0.66754 84 81 79
-1.84227 -4.67243 0.67111 75 78 72
-1.85441 -4.67807 0.67468 70 79 75
-1.86655 -4.68371 0.67824 73 80 76
-1.87868 -4.68934 0.68181 74 79 77
-1.89080 -4.69496 0.68537 78 80 80
-1.90291 -4.70058 0.68892 79 78 75
1.95752 -2.89284 -0.45745 143 147 153
1.94282 -2.89966 -0.45313 144 148 154
1.92814 -2.90649 -0.44882 140 144 147
1.91347 -2.91330 -0.44450 138 140 143
1.89881 -2.92012 -0.44019 142 142 148
1.88416 -2.92692 -0.43589 143 142 151
1.86952 -2.93373 -0.43158 143 143 150
1.85489 -2.94052 -0.42728 147 145 154
1.84027 -2.94732 -0.42298 141 143 157
1.82566 -2.95411 -0.41869 140 141 155
1.81106 -2.96089 -0.41439 152 152 150
1.79647 -2.96767 -0.41010 151 148 143
1.78189 -2.97444 -0.40582 151 147 139
1.76732 -2.98121 -0.40153 154 157 151
1.75277 -2.98797 -0.39725 145 146 156
1.73822 -2.99473 -0.39298 141 141 148
1.72368 -3.00149 -0.38870 154 155 158
1.70915 -3.00824 -0.38443 158 158 159
1.69464 -3.01498 -0.38016 161 161 165
1.68013 -3.02172 -0.37590 162 160 169
1.66564 -3.02846 -0.37164 156 160 164
1.65115 -3.03519 -0.36738 157 158 160
1.63668 -3.04191 -0.36312 158 157 158
1.62221 -3.04864 -0.35887 158 161 155
1.60776 -3.05535 -0.35462 158 159 155
1.59331 -3.06206 -0.35037 162 162 169
1.57888 -3.06877 -0.34613 169 170 174
1.56445 -3.07547 -0.34189 164 165 168
1.55004 -3.08217 -0.33765 164 167 167
1.53564 -3.08886 -0.33342 164 163 172
1.52124 -3.09555 -0.32918 167 171 183
1.50686 -3.10223 -0.32496 169 172 169
1.49249 -3.10891 -0.32073 164 164 170
1.47812 -3.11559 -0.31651 166 172 170
1.46377 -3.12225 -0.31229 159 162 167
1.44943 -3.12892 -0.30807 155 158 169
1.43510 -3.13558 -0.30386 159 157 165
1.42077 -3.14223 -0.29965 159 158 162
1.40646 -3.14888 -0.29544 167 162 159
1.39216 -3.15553 -0.29123 158 157 157
1.37787 -3.16217 -0.28703 157 161 159
1.36358 -3.16881 -0.28283 154 156 159
1.34931 -3.17544 -0.27863 157 161 161
1.33505 -3.18207 -0.27444 158 163 160
1.32080 -3.18869 -0.27025 160 162 161
1.30655 -3.19530 -0.26606 156 158 162
1.29232 -3.20192 -0.26188 148 152 159
1.27810 -3.20853 -0.25770 152 155 158
1.26389 -3.21513 -0.25352 160 161 162
1.24969 -3.22173 -0.24934 160 161 160
1.23549 -3.22832 -0.24517 151 156 157
1.22131 -3.23491 -0.24100 148 153 151
1.20714 -3.24150 -0.23683 155 157 153
1.19298 -3.24808 -0.23267 157 158 161
1.17882 -3.25465 -0.22851 156 157 162
1.16468 -3.26123 -0.22435 161 164 162
1.15055 -3.26779 -0.22020 164 166 159
1.13643 -3.27435 -0.21604 159 157 158
1.12231 -3.28091 -0.21189 152 155 161
1.10821 -3.28747 -0.20775 147 154 161
1.09412 -3.29401 -0.20360 143 152 160
1.08003 -3.30056 -0.19946 145 151 160
1.06596 -3.30710 -0.19533 152 157 162
1.05190 -3.31363 -0.19119 160 159 163
1.03784 -3.32016 -0.18706 156 159 163
1.02380 -3.32669 -0.18293 152 157 156
1.00976 -3.33321 -0.17880 157 161 157
0.99574 -3.33973 -0.17468 157 160 160
0.98172 -3.34624 -0.17056 146 152 156
0.96772 -3.35274 -0.16644 147 150 148
0.95372 -3.35925 -0.16233 149 152 161
0.93974 -3.36575 -0.15822 135 131 143
0.92576 -3.37224 -0.15411 150 156 151
0.91180 -3.37873 -0.15000 139 140 149
0.89784 -3.38521 -0.14590 139 141 142
0.88389 -3.39169 -0.14180 141 141 145
0.86996 -3.39817 -0.13770 137 141 146
0.85603 -3.40464 -0.13360 143 148 156
0.84211 -3.41111 -0.12951 154 160 157
0.82820 -3.41757 -0.12542 159 162 161
0.81430 -3.42403 -0.12134 168 165 161
0.80042 -3.43048 -0.11725 142 154 159
-0.30657 -3.94484 0.20821 114 124 121
-0.31969 -3.95094 0.21207 117 122 126
-1.12891 -4.32694 0.44999 103 109 100
-1.14149 -4.33278 0.45369 107 112 103
-1.15405 -4.33862 0.45738 110 115 101
-1.16661 -4.34445 0.46107 107 107 89
-1.17916 -4.35029 0.46476 103 98 98
-1.21675 -4.36775 0.47582 106 110 110
-1.22927 -4.37357 0.47950 109 110 105
-1.24178 -4.37938 0.48317 107 107 102
-1.25427 -4.38519 0.48685 103 103 95
-1.26677 -4.39099 0.49052 101 103 92
-1.27925 -4.39679 0.49419 103 103 94
-1.29172 -4.40259 0.49786 104 104 101
-1.30419 -4.40838 0.50152 107 108 105
-1.31665 -4.41417 0.50519 109 111 108
-1.32910 -4.41995 0.50885 105 107 109
-1.34154 -4.42574 0.51250 102 102 104
-1.35397 -4.43151 0.51616 105 104 100
-1.36640 -4.43729 0.51981 108 105 99
-1.37881 -4.44306 0.52346 105 105 99
-1.39122 -4.44882 0.52711 101 102 97
-1.40362 -4.45458 0.53076 97 97 96
-1.41602 -4.46034 0.53440 97 96 96
-1.42840 -4.46610 0.53804 92 93 94
-1.44078 -4.47185 0.54168 91 95 97
-1.45315 -4.47759 0.54532 99 100 108
-1.46551 -4.48334 0.54895 98 98 108
-1.47786 -4.48908 0.55258 93 95 101
-1.49020 -4.49481 0.55621 91 92 94
-1.50254 -4.50055 0.55984 89 93 95
-1.51487 -4.50627 0.56346 92 96 100
-1.52719 -4.51200 0.56709 94 100 99
-1.53950 -4.51772 0.57071 95 99 92
-1.55180 -4.52344 0.57432 91 95 90
-1.56410 -4.52915 0.57794 87 92 90
-1.57639 -4.53486 0.58155 90 92 91
-1.58867 -4.54056 0.58516 87 92 86
-1.60094 -4.54627 0.58877 84 88 84
-1.61320 -4.55196 0.59238 88 92 88
-1.62546 -4.55766 0.59598 91 92 97
-1.63771 -4.56335 0.59958 98 97 107
-1.64995 -4.56904 0.60318 99 100 106
-1.66218 -4.57472 0.60678 94 97 102
-1.67440 -4.58040 0.61037 91 94 89
-1.68662 -4.58608 0.61396 89 90 86
-1.69883 -4.59175 0.61755 83 85 87
-1.71103 -4.59742 0.62114 82 87 89
-1.72322 -4.60308 0.62472 85 89 87
-1.73540 -4.60874 0.62830 86 88 88
-1.74758 -4.61440 0.63188 83 85 84
-1.75975 -4.62006 0.63546 85 89 92
-1.77191 -4.62571 0.63904 83 88 88
-1.78406 -4.63135 0.64261 88 88 87
-1.79621 -4.63700 0.64618 87 86 80
-1.80834 -4.64264 0.64975 84 83 78
-1.82047 -4.64827 0.65332 82 81 83
-1.83259 -4.65390 0.65688 81 81 86
-1.84471 -4.65953 0.66044 78 81 81
-1.85681 -4.66516 0.66400 74 79 79
-1.86891 -4.67078 0.66756 68 79 85
-1.88100 -4.67640 0.67111 71 80 83
-1.89308 -4.68201 0.67466 72 79 78
-1.90516 -4.68762 0.67821 73 73 73
1.94220 -2.88459 -0.46542 146 149 157
1.92756 -2.89140 -0.46111 144 147 153
1.91293 -2.89820 -0.45680 141 145 150
1.89831 -2.90500 -0.45250 144 147 145
1.88371 -2.91179 -0.44820 145 144 142
1.86911 -2.91858 -0.44391 142 139 143
1.85452 -2.92536 -0.43961 141 140 150
1.83995 -2.93214 -0.43532 148 146 151
1.82538 -2.93891 -0.43104 143 144 153
1.81083 -2.94568 -0.42675 146 147 153
1.79628 -2.95245 -0.42247 158 158 154
1.78175 -2.95921 -0.41819 154 152 147
1.76722 -2.96596 -0.41392 155 151 143
1.75271 -2.97271 -0.40965 160 157 151
1.73820 -2.97945 -0.40538 156 155 161
1.72371 -2.98619 -0.40111 153 153 158
1.70922 -2.99293 -0.39685 158 157 159
1.69475 -2.99966 -0.39259 156 156 157
1.68029 -3.00639 -0.38833 154 157 159
1.66583 -3.01311 -0.38408 152 155 162
1.65139 -3.01982 -0.37983 149 152 160
1.63696 -3.02653 -0.37558 161 161 164
1.62254 -3.03324 -0.37134 160 163 167
1.60812 -3.03994 -0.36710 153 156 151
1.59372 -3.04664 -0.36286 150 154 147
1.57933 -3.05333 -0.35862 152 153 168
1.56495 -3.06002 -0.35439 163 166 174
1.55058 -3.06670 -0.35016 164 162 169
1.53622 -3.07338 -0.34593 163 163 168
1.52186 -3.08005 -0.34171 163 161 166
1.50752 -3.08672 -0.33749 170 175 178
1.49319 -3.09339 -0.33327 167 166 166
1.47887 -3.10005 -0.32905 163 166 163
1.46456 -3.10670 -0.32484 163 166 166
1.45026 -3.11335 -0.32063 156 155 165
1.43597 -3.12000 -0.31643 157 159 165
1.42169 -3.12664 -0.31222 163 156 159
1.40742 -3.13328 -0.30802 163 161 163
1.39316 -3.13991 -0.30383 171 165 162
1.37890 -3.14653 -0.29963 155 152 161
1.36466 -3.15316 -0.29544 157 157 169
1.35043 -3.15977 -0.29125 162 165 170
1.33621 -3.16639 -0.28707 162 163 162
1.32200 -3.17300 -0.28289 162 164 163
1.30780 -3.17960 -0.27871 165 165 162
1.29361 -3.18620 -0.27453 161 162 163
1.27943 -3.19279 -0.27036 155 160 164
1.26526 -3.19938 -0.26619 153 158 160
1.25110 -3.20597 -0.26202 155 158 157
1.23695 -3.21255 -0.25785 158 160 159
1.22280 -3.21912 -0.25369 150 152 156
1.20867 -3.22570 -0.24953 146 146 151
1.19455 -3.23226 -0.24538 153 157 158
1.18044 -3.23883 -0.24122 159 162 168
1.16634 -3.24538 -0.23707 159 158 166
1.15224 -3.25194 -0.23292 158 160 159
1.13816 -3.25848 -0.22878 154 155 157
1.12409 -3.26503 -0.22464 149 149 157
1.11003 -3.27157 -0.22050 149 151 155
1.09597 -3.27810 -0.21636 150 153 157
1.08193 -3.28463 -0.21223 153 157 162
1.06790 -3.29116 -0.20810 152 155 158
1.05387 -3.29768 -0.20397 151 151 154
1.03986 -3.30420 -0.19985 150 148 154
1.02586 -3.31071 -0.19573 149 152 157
1.01186 -3.31722 -0.19161 147 152 157
0.99788 -3.32372 -0.18749 153 155 162
0.98390 -3.33022 -0.18338 161 164 166
0.96994 -3.33671 -0.17927 151 156 152
0.95598 -3.34320 -0.17516 148 150 138
0.94204 -3.34969 -0.17106 149 154 156
0.92810 -3.35617 -0.16696 138 136 149
0.91417 -3.36264 -0.16286 150 158 152
0.90026 -3.36912 -0.15876 141 142 155
0.88635 -3.37558 -0.15467 136 138 143
0.87245 -3.38205 -0.15058 146 148 149
0.85857 -3.38850 -0.14649 150 155 158
0.84469 -3.39496 -0.14241 153 152 158
0.83082 -3.40141 -0.13832 158 168 160
0.81696 -3.40785 -0.13424 163 165 158
0.80311 -3.41429 -0.13017 157 161 160
-1.13358 -4.31490 0.43983 96 100 95
-1.14612 -4.32072 0.44352 105 107 102
-1.15864 -4.32655 0.44720 112 113 106
-1.17116 -4.33237 0.45089 116 112 96
-1.18367 -4.33818 0.45457 106 102 99
-1.22114 -4.35561 0.46560 103 106 109
-1.23362 -4.36141 0.46927 106 105 106
-1.24609 -4.36721 0.47294 107 107 105
-1.25855 -4.37300 0.47660 107 105 98
-1.27100 -4.37880 0.48027 101 102 92
-1.28344 -4.38458 0.48393 100 103 94
-1.29587 -4.39036 0.48759 103 103 100
-1.30830 -4.39614 0.49125 106 105 102
-1.32072 -4.40192 0.49490 106 107 105
-1.33313 -4.40769 0.49856 105 106 107
-1.34553 -4.41346 0.50221 105 105 104
-1.35793 -4.41922 0.50585 107 103 97
-1.37031 -4.42498 0.50950 105 100 98
-1.38269 -4.43074 0.51314 101 101 103
-1.39506 -4.43649 0.51678 102 103 105
-1.40742 -4.44224 0.52042 102 102 102
-1.41978 -4.44798 0.52406 100 101 95
-1.43212 -4.45372 0.52769 94 92 93
-1.44446 -4.45946 0.53132 92 91 101
-1.45679 -4.46519 0.53495 99 102 113
-1.46911 -4.47092 0.53858 100 100 109
-1.48142 -4.47665 0.54220 99 100 103
-1.49373 -4.48237 0.54582 100 101 98
-1.50603 -4.48809 0.54944 96 100 95
-1.51832 -4.49380 0.55306 94 95 95
-1.53060 -4.49951 0.55667 91 95 95
-1.54287 -4.50522 0.56029 93 96 95
-1.55514 -4.51093 0.56390 91 94 94
-1.56739 -4.51663 0.56750 90 92 98
-1.57964 -4.52232 0.57111 95 97 97
-1.59188 -4.52801 0.57471 91 94 85
-1.60412 -4.53370 0.57831 88 93 84
-1.61634 -4.53939 0.58191 90 92 92
-1.62856 -4.54507 0.58551 86 90 97
-1.64077 -4.55075 0.58910 93 96 100
-1.65297 -4.55642 0.59269 96 100 101
-1.66517 -4.56209 0.59628 91 93 98
-1.67735 -4.56776 0.59987 89 91 87
-1.68953 -4.57342 0.60345 93 91 83
-1.70170 -4.57908 0.60703 88 87 84
-1.71386 -4.58474 0.61061 88 87 85
-1.72602 -4.59039 0.61419 87 86 85
-1.73816 -4.59604 0.61776 86 88 86
-1.75030 -4.60168 0.62134 85 87 87
-1.76243 -4.60732 0.62491 85 86 90
-1.77456 -4.61296 0.62847 83 85 83
-1.78667 -4.61859 0.63204 84 85 83
-1.79878 -4.62422 0.63560 86 85 86
-1.81088 -4.62985 0.63916 84 83 82
-1.82297 -4.63547 0.64272 81 81 81
-1.83505 -4.64109 0.64628 78 79 76
-1.84713 -4.64671 0.64983 77 81 75
-1.85920 -4.65232 0.65338 78 80 81
-1.87126 -4.65793 0.65693 77 80 85
-1.88331 -4.66353 0.66048 80 80 85
-1.89535 -4.66913 0.66403 79 79 79
-1.90739 -4.67473 0.66757 79 76 78
1.92698 -2.87640 -0.47333 150 146 156
1.91240 -2.88319 -0.46903 147 145 151
1.89782 -2.88997 -0.46474 146 147 150
1.88326 -2.89675 -0.46045 150 152 151
1.86871 -2.90352 -0.45616 147 151 148
1.85416 -2.91029 -0.45188 142 146 148
1.83963 -2.91705 -0.44759 143 146 154
1.82511 -2.92381 -0.44332 147 148 150
1.81059 -2.93057 -0.43904 142 144 149
1.79609 -2.93732 -0.43477 144 145 149
1.78160 -2.94406 -0.43050 155 154 154
1.76712 -2.95080 -0.42623 154 151 153
1.75265 -2.95753 -0.42197 152 150 149
1.73819 -2.96426 -0.41771 154 151 149
1.72373 -2.97099 -0.41345 157 156 156
1.70929 -2.97771 -0.40920 156 155 155
1.69486 -2.98443 -0.40494 154 151 156
1.68044 -2.99114 -0.40070 151 154 154
1.66603 -2.99784 -0.39645 146 152 152
1.65163 -3.00455 -0.39221 146 152 154
1.63724 -3.01124 -0.38797 143 146 153
1.62286 -3.01794 -0.38373 159 159 164
1.60849 -3.02462 -0.37950 161 166 171
1.59413 -3.03131 -0.37527 147 153 152
1.57978 -3.03798 -0.37104 143 148 148
1.56544 -3.04466 -0.36681 142 147 163
1.55111 -3.05133 -0.36259 158 157 168
1.53679 -3.05799 -0.35837 166 165 168
1.52248 -3.06465 -0.35416 167 166 165
1.50818 -3.07131 -0.34995 163 161 161
1.49389 -3.07796 -0.34574 167 168 168
1.47961 -3.08460 -0.34153 161 159 163
1.46535 -3.09124 -0.33732 157 152 149
1.45109 -3.09788 -0.33312 159 163 161
1.43684 -3.10451 -0.32893 151 151 161
1.42260 -3.11114 -0.32473 160 161 162
1.40837 -3.11776 -0.32054 172 169 165
1.39415 -3.12438 -0.31635 170 172 166
1.37994 -3.13099 -0.31216 169 167 170
1.36574 -3.13760 -0.30798 157 153 169
1.35155 -3.14420 -0.30380 163 161 174
1.33737 -3.15080 -0.29962 168 172 172
1.32320 -3.15740 -0.29545 168 169 163
1.30904 -3.16399 -0.29127 169 168 167
1.29489 -3.17057 -0.28711 170 168 165
1.28075 -3.17715 -0.28294 168 168 163
1.26662 -3.18373 -0.27878 162 166 168
1.25250 -3.19030 -0.27462 152 157 162
1.23839 -3.19687 -0.27046 151 155 161
1.22429 -3.20343 -0.26631 161 164 163
1.21020 -3.20999 -0.26215 161 162 159
1.19612 -3.21654 -0.25801 153 152 153
1.18204 -3.22309 -0.25386 154 156 158
1.16798 -3.22963 -0.24972 162 163 170
1.15393 -3.23617 -0.24558 162 163 168
1.13989 -3.24271 -0.24144 156 158 157
1.12586 -3.24924 -0.23731 149 151 152
1.11183 -3.25576 -0.23318 150 155 155
1.09782 -3.26228 -0.22905 154 156 155
1.08382 -3.26880 -0.22492 156 154 155
1.06983 -3.27531 -0.22080 160 160 161
1.05584 -3.28182 -0.21668 158 158 157
1.04187 -3.28833 -0.21256 152 152 148
1.02790 -3.29482 -0.20845 144 144 146
1.01395 -3.30132 -0.20434 142 145 150
1.00001 -3.30781 -0.20023 144 149 151
0.98607 -3.31429 -0.19612 150 152 160
0.97214 -3.32077 -0.19202 152 154 160
0.95823 -3.32725 -0.18792 152 153 152
0.94432 -3.33372 -0.18382 154 156 150
0.93043 -3.34019 -0.17973 150 155 152
0.91654 -3.34665 -0.17564 144 146 149
0.90266 -3.35311 -0.17155 150 157 158
0.88879 -3.35956 -0.16746 156 160 166
0.87494 -3.36601 -0.16338 147 149 157
0.86109 -3.37246 -0.15930 153 155 153
0.84725 -3.37890 -0.15522 157 160 161
0.83342 -3.38534 -0.15115 161 158 163
0.81960 -3.39177 -0.14708 157 161 166
0.80579 -3.39820 -0.14301 156 158 155
-1.18815 -4.32616 0.44443 108 107 95
-1.21306 -4.33775 0.45177 103 104 99
-1.22551 -4.34354 0.45544 101 103 104
-1.23794 -4.34933 0.45910 105 106 108
-1.25037 -4.35512 0.46277 106 106 103
-1.26279 -4.36090 0.46643 104 102 96
-1.27520 -4.36667 0.47008 99 99 91
-1.28761 -4.37244 0.47374 96 100 95
-1.30000 -4.37821 0.47739 99 103 100
-1.31239 -4.38398 0.48104 103 106 102
-1.32477 -4.38974 0.48468 102 103 99
-1.33714 -4.39550 0.48833 105 107 99
-1.34950 -4.40125 0.49197 108 112 99
-1.36186 -4.40700 0.49561 106 106 95
-1.37421 -4.41275 0.49925 101 99 96
-1.38654 -4.41849 0.50288 98 98 102
-1.39887 -4.42423 0.50652 103 102 107
-1.41120 -4.42996 0.51015 106 105 104
-1.42351 -4.43569 0.51378 104 108 96
-1.43582 -4.44142 0.51740 101 101 100
-1.44812 -4.44714 0.52103 101 97 106
-1.46041 -4.45287 0.52465 99 105 105
-1.47269 -4.45858 0.52826 97 101 101
-1.48497 -4.46429 0.53188 99 103 102
-1.49723 -4.47000 0.53550 102 108 99
-1.50949 -4.47571 0.53911 101 107 95
-1.52174 -4.48141 0.54272 100 99 93
-1.53399 -4.48711 0.54632 95 95 98
-1.54622 -4.49280 0.54993 97 97 100
-1.55845 -4.49849 0.55353 93 92 94
-1.57067 -4.50418 0.55713 91 92 96
-1.58288 -4.50986 0.56073 96 98 94
-1.59508 -4.51554 0.56432 96 96 89
-1.60728 -4.52122 0.56792 95 96 90
-1.61946 -4.52689 0.57151 92 96 97
-1.63164 -4.53256 0.57509 87 92 97
-1.64382 -4.53822 0.57868 88 91 88
-1.65598 -4.54388 0.58226 89 90 89
-1.66814 -4.54954 0.58585 87 87 86
-1.68028 -4.55519 0.58942 85 88 84
-1.69242 -4.56084 0.59300 90 90 81
-1.70456 -4.56649 0.59658 88 89 86
-1.71668 -4.57213 0.60015 88 89 89
-1.72880 -4.57777 0.60372 87 87 86
-1.74091 -4.58341 0.60728 85 87 79
-1.75301 -4.58904 0.61085 86 87 86
-1.76510 -4.59467 0.61441 85 87 86
-1.77719 -4.60029 0.61797 81 85 84
-1.78926 -4.60591 0.62153 80 81 87
-1.80133 -4.61153 0.62509 86 84 90
-1.81340 -4.61714 0.62864 85 84 87
-1.82545 -4.62275 0.63219 83 82 85
-1.83750 -4.62836 0.63574 77 79 78
-1.84954 -4.63396 0.63929 72 80 76
-1.86157 -4.63956 0.64283 78 81 84
-1.87359 -4.64516 0.64638 80 79 87
-1.88561 -4.65075 0.64992 78 77 85
-1.89761 -4.65634 0.65345 75 76 76
-1.90961 -4.66192 0.65699 74 76 71
1.92641 -2.86149 -0.48548 137 138 147
1.91187 -2.86826 -0.48119 152 149 153
1.89734 -2.87503 -0.47690 151 149 152
1.88282 -2.88179 -0.47262 150 153 151
1.86831 -2.88855 -0.46834 149 151 154
1.85381 -2.89531 -0.46407 143 149 151
1.83932 -2.90206 -0.45979 139 147 150
1.82484 -2.90880 -0.45552 145 151 159
1.81037 -2.91554 -0.45125 149 151 157
1.79591 -2.92227 -0.44699 148 152 156
1.78146 -2.92900 -0.44273 152 153 153
1.76702 -2.93573 -0.43847 159 160 156
1.75259 -2.94245 -0.43422 156 155 157
1.73817 -2.94916 -0.42996 146 146 154
1.72376 -2.95588 -0.42571 150 149 151
1.70936 -2.96258 -0.42147 159 158 154
1.69497 -2.96928 -0.41722 160 161 156
1.68060 -2.97598 -0.41298 156 156 160
1.66623 -2.98267 -0.40875 149 154 153
1.65187 -2.98936 -0.40451 145 148 148
1.63752 -2.99604 -0.40028 145 150 153
1.62318 -3.00272 -0.39605 146 152 155
1.60885 -3.00939 -0.39183 158 158 162
1.59454 -3.01606 -0.38760 165 163 164
1.58023 -3.02273 -0.38338 155 157 160
1.56593 -3.02939 -0.37917 148 147 156
1.55164 -3.03604 -0.37495 149 149 164
1.53737 -3.04269 -0.37074 164 159 165
1.52310 -3.04934 -0.36654 172 172 170
1.50884 -3.05598 -0.36233 170 169 168
1.49459 -3.06261 -0.35813 167 167 165
1.48035 -3.06925 -0.35393 165 165 167
1.46613 -3.07587 -0.34973 160 158 164
1.45191 -3.08249 -0.34554 152 146 144
