ply
format ascii 1.0
element face 0
property list uchar int vertex_indices
element vertex 1317
property float x
property float y
property float z
property uchar diffuse_red
property uchar diffuse_green
property uchar diffuse_blue
end_header
-1.07204 -5.50387 1.36927 78 78 76
-1.08582 -5.51012 1.37277 79 76 80
-1.09958 -5.51636 1.37626 76 72 78
-1.11333 -5.52260 1.37975 72 73 83
-1.12707 -5.52883 1.38324 75 73 76
-1.14080 -5.53505 1.38672 77 75 82
-1.15451 -5.54127 1.39020 77 73 85
0.89203 -4.59351 0.85484 120 121 107
0.87634 -4.60063 0.85883 118 119 117
0.86067 -4.60775 0.86282 115 117 117
0.84501 -4.61486 0.86680 113 117 119
0.82937 -4.62197 0.87078 116 118 122
0.81375 -4.62906 0.87475 122 120 122
0.79814 -4.63615 0.87872 122 120 111
0.78255 -4.64323 0.88268 128 131 124
0.76698 -4.65031 0.88665 124 130 132
0.75142 -4.65738 0.89060 120 113 121
0.73587 -4.66444 0.89456 119 124 120
0.72034 -4.67149 0.89851 126 126 128
0.70483 -4.67853 0.90245 119 121 120
0.68934 -4.68557 0.90639 120 123 125
0.67386 -4.69260 0.91033 119 123 127
0.65839 -4.69963 0.91426 118 120 119
0.64294 -4.70665 0.91819 108 109 117
0.62751 -4.71365 0.92212 120 129 130
0.61209 -4.72066 0.92604 122 118 110
0.59669 -4.72765 0.92996 127 128 116
0.58131 -4.73464 0.93387 129 132 118
0.56594 -4.74162 0.93778 123 130 123
0.55058 -4.74860 0.94168 126 130 128
0.53524 -4.75556 0.94559 128 126 125
0.51992 -4.76252 0.94948 121 122 122
0.50461 -4.76948 0.95338 118 119 116
0.48932 -4.77642 0.95727 121 120 113
0.47404 -4.78336 0.96115 118 119 112
0.45878 -4.79029 0.96503 117 117 115
0.44353 -4.79722 0.96891 120 119 120
0.42830 -4.80413 0.97278 120 116 122
0.41309 -4.81104 0.97665 120 110 120
0.39789 -4.81795 0.98052 116 112 114
0.38271 -4.82485 0.98438 112 115 114
0.36754 -4.83174 0.98824 112 116 113
0.35238 -4.83862 0.99209 114 115 117
0.33725 -4.84549 0.99594 111 108 113
0.32212 -4.85236 0.99979 110 108 106
0.30702 -4.85922 1.00363 119 121 118
0.29192 -4.86608 1.00747 125 123 127
0.27685 -4.87293 1.01131 125 123 125
0.26178 -4.87977 1.01514 122 113 111
0.24674 -4.88660 1.01897 117 109 107
0.23171 -4.89343 1.02279 118 115 111
0.21669 -4.90025 1.02661 118 116 110
0.20169 -4.90706 1.03042 118 115 115
0.18670 -4.91387 1.03423 120 117 111
0.17173 -4.92067 1.03804 121 121 113
0.15677 -4.92746 1.04185 116 116 116
0.14183 -4.93425 1.04565 111 106 113
0.12691 -4.94103 1.04944 111 110 104
0.11200 -4.94780 1.05324 115 113 114
0.09710 -4.95457 1.05702 120 116 113
0.08222 -4.96133 1.06081 117 113 112
0.06735 -4.96808 1.06459 120 115 107
0.05250 -4.97483 1.06837 106 102 101
0.03766 -4.98156 1.07214 104 101 102
0.02284 -4.98830 1.07591 121 116 112
0.00803 -4.99502 1.07968 120 117 109
-0.00676 -5.00174 1.08344 114 103 114
-0.02154 -5.00845 1.08720 115 116 110
-0.03630 -5.01516 1.09095 123 120 96
-0.05105 -5.02186 1.09470 116 108 96
-0.06578 -5.02855 1.09845 110 108 106
-0.08050 -5.03523 1.10220 104 112 108
-0.09520 -5.04191 1.10593 113 118 112
-0.10989 -5.04859 1.10967 114 117 108
-0.12457 -5.05525 1.11340 107 99 92
-0.13923 -5.06191 1.11713 107 111 101
-0.15387 -5.06856 1.12086 113 112 104
-0.16850 -5.07521 1.12458 108 104 99
-0.18312 -5.08185 1.12830 102 100 93
-0.19772 -5.08848 1.13201 98 95 90
-0.21231 -5.09510 1.13572 93 92 88
-0.22688 -5.10172 1.13943 94 92 97
-0.24144 -5.10834 1.14313 93 88 92
-0.25599 -5.11494 1.14683 91 87 92
-0.27052 -5.12154 1.15052 97 91 97
-0.28503 -5.12813 1.15422 97 92 92
-0.29953 -5.13472 1.15790 97 95 85
-0.31402 -5.14130 1.16159 92 93 88
-0.32849 -5.14787 1.16527 91 91 82
-0.54388 -5.24570 1.22005 83 85 77
-0.55813 -5.25217 1.22368 86 85 78
-0.57236 -5.25864 1.22730 83 86 76
-0.58658 -5.26510 1.23091 80 84 73
-0.60078 -5.27155 1.23452 82 81 68
-0.61497 -5.27799 1.23813 85 84 66
-0.62915 -5.28443 1.24174 89 89 63
-0.64331 -5.29087 1.24534 82 84 70
-0.65746 -5.29729 1.24894 79 80 82
-0.67160 -5.30371 1.25254 85 85 85
-0.68572 -5.31013 1.25613 89 86 84
-0.69983 -5.31654 1.25972 84 84 76
-0.71392 -5.32294 1.26330 78 83 74
-0.72800 -5.32933 1.26688 86 86 80
-0.74207 -5.33572 1.27046 91 87 76
-0.75612 -5.34210 1.27403 84 81 78
-0.77016 -5.34848 1.27761 85 82 83
-0.78419 -5.35485 1.28117 83 82 80
-0.79820 -5.36122 1.28474 80 79 78
-0.81220 -5.36757 1.28830 80 82 82
-0.82618 -5.37393 1.29185 79 81 83
-0.84015 -5.38027 1.29541 85 83 77
-0.85411 -5.38661 1.29896 80 79 70
-0.86805 -5.39295 1.30250 76 73 66
-0.88199 -5.39927 1.30605 72 73 66
-0.89590 -5.40559 1.30959 85 83 76
-0.90981 -5.41191 1.31312 87 83 78
-0.92370 -5.41822 1.31666 87 84 79
-0.93757 -5.42452 1.32019 76 75 78
-0.95144 -5.43082 1.32371 79 80 78
-0.96529 -5.43711 1.32723 83 80 73
-0.97912 -5.44339 1.33075 83 79 82
-0.99295 -5.44967 1.33427 83 81 84
-1.00676 -5.45594 1.33778 86 82 81
-1.02055 -5.46221 1.34129 82 81 74
-1.03434 -5.46847 1.34480 79 76 76
-1.04811 -5.47473 1.34830 81 78 75
-1.06186 -5.48097 1.35180 74 74 80
-1.07561 -5.48722 1.35529 77 79 75
-1.08934 -5.49345 1.35879 77 77 79
-1.10305 -5.49968 1.36227 76 73 74
-1.11676 -5.50591 1.36576 77 77 83
-1.13045 -5.51213 1.36924 78 73 77
-1.14413 -5.51834 1.37272 73 71 79
-1.15779 -5.52454 1.37620 73 71 76
0.88107 -4.57909 0.84183 117 117 116
0.86545 -4.58620 0.84581 118 121 120
0.84984 -4.59330 0.84979 118 119 121
0.83424 -4.60039 0.85377 117 119 122
0.81867 -4.60748 0.85774 117 118 122
0.80310 -4.61456 0.86170 126 124 118
0.78756 -4.62163 0.86566 123 119 110
0.77203 -4.62869 0.86962 125 126 126
0.75652 -4.63575 0.87357 124 130 131
0.74102 -4.64280 0.87752 123 122 118
0.72554 -4.64984 0.88147 116 112 114
0.71007 -4.65687 0.88541 120 123 127
0.69462 -4.66390 0.88935 114 118 120
0.67918 -4.67092 0.89328 118 119 124
0.66376 -4.67793 0.89721 128 125 125
0.64836 -4.68494 0.90114 125 120 117
0.63297 -4.69194 0.90506 107 112 119
0.61760 -4.69893 0.90898 123 132 126
0.60224 -4.70591 0.91289 124 121 124
0.58690 -4.71289 0.91680 133 131 127
0.57158 -4.71986 0.92071 135 136 130
0.55627 -4.72683 0.92461 121 122 126
0.54097 -4.73378 0.92851 122 120 129
0.52570 -4.74073 0.93240 126 124 130
0.51043 -4.74767 0.93629 120 121 122
0.49518 -4.75461 0.94018 120 122 120
0.47995 -4.76154 0.94406 127 126 122
0.46473 -4.76846 0.94794 125 121 123
0.44953 -4.77537 0.95181 121 118 123
0.43435 -4.78228 0.95568 121 122 121
0.41918 -4.78918 0.95955 122 122 119
0.40402 -4.79608 0.96341 124 121 120
0.38888 -4.80296 0.96727 119 118 116
0.37375 -4.80984 0.97113 116 111 103
0.35864 -4.81671 0.97498 116 111 101
0.34355 -4.82358 0.97882 114 113 111
0.32847 -4.83044 0.98267 114 109 111
0.31341 -4.83729 0.98651 122 118 109
0.29836 -4.84413 0.99034 126 125 117
0.28332 -4.85097 0.99417 129 127 124
0.26830 -4.85780 0.99800 127 125 125
0.25330 -4.86463 1.00182 120 114 109
0.23831 -4.87145 1.00564 115 113 104
0.22334 -4.87826 1.00946 114 113 109
0.20838 -4.88506 1.01327 111 108 109
0.19344 -4.89186 1.01708 116 117 116
0.17851 -4.89865 1.02089 119 118 116
0.16359 -4.90543 1.02469 113 117 103
0.14869 -4.91221 1.02848 114 113 102
0.13381 -4.91898 1.03228 109 111 109
0.11894 -4.92574 1.03607 113 115 110
0.10409 -4.93250 1.03985 117 117 121
0.08925 -4.93925 1.04364 124 122 116
0.07442 -4.94599 1.04741 120 113 113
0.05961 -4.95273 1.05119 126 119 108
0.04482 -4.95946 1.05496 128 127 101
0.03004 -4.96618 1.05873 114 111 104
0.01527 -4.97289 1.06249 120 114 108
0.00052 -4.97960 1.06625 117 116 109
-0.01422 -4.98631 1.07000 116 115 113
-0.02894 -4.99300 1.07376 106 98 95
-0.04365 -4.99969 1.07750 121 116 108
-0.05834 -5.00637 1.08125 120 112 106
-0.07302 -5.01305 1.08499 111 102 107
-0.08768 -5.01972 1.08873 101 98 106
-0.10233 -5.02638 1.09246 115 117 115
-0.11696 -5.03304 1.09619 114 116 107
-0.13158 -5.03969 1.09992 105 105 101
-0.14619 -5.04633 1.10364 106 106 107
-0.16078 -5.05297 1.10736 112 115 110
-0.17535 -5.05960 1.11107 107 103 102
-0.18992 -5.06622 1.11478 100 99 96
-0.20446 -5.07284 1.11849 98 95 94
-0.21900 -5.07945 1.12219 99 97 96
-0.23351 -5.08605 1.12589 102 99 102
-0.24802 -5.09265 1.12959 98 92 89
-0.26251 -5.09924 1.13328 91 86 85
-0.27698 -5.10582 1.13697 90 87 87
-0.29145 -5.11240 1.14066 94 89 90
-0.30589 -5.11897 1.14434 92 93 92
-0.32033 -5.12554 1.14802 91 96 97
-0.33475 -5.13209 1.15169 90 92 85
-0.34915 -5.13865 1.15537 78 78 72
-0.52091 -5.21677 1.19914 88 88 83
-0.53513 -5.22324 1.20276 86 87 81
-0.54934 -5.22970 1.20638 86 85 83
-0.56353 -5.23616 1.21000 87 84 80
-0.57771 -5.24261 1.21362 85 87 79
-0.59188 -5.24905 1.21723 83 89 75
-0.60603 -5.25549 1.22083 83 84 67
-0.62017 -5.26192 1.22444 83 85 68
-0.63430 -5.26834 1.22804 89 89 68
-0.64841 -5.27476 1.23163 84 81 75
-0.66251 -5.28117 1.23523 82 79 82
-0.67659 -5.28758 1.23882 89 88 81
-0.69066 -5.29398 1.24240 90 87 84
-0.70472 -5.30037 1.24598 87 85 82
-0.71876 -5.30676 1.24956 82 85 77
-0.73279 -5.31314 1.25314 86 89 77
-0.74681 -5.31952 1.25671 92 89 77
-0.76081 -5.32588 1.26028 87 83 78
-0.77480 -5.33225 1.26385 87 82 84
-0.78877 -5.33860 1.26741 85 80 80
-0.80273 -5.34495 1.27097 82 79 80
-0.81668 -5.35130 1.27452 82 83 90
-0.83062 -5.35764 1.27807 86 82 94
-0.84454 -5.36397 1.28162 83 80 81
-0.85844 -5.37029 1.28516 79 78 76
-0.87234 -5.37661 1.28870 80 79 75
-0.88622 -5.38293 1.29224 84 79 79
-0.90009 -5.38924 1.29578 86 84 84
-0.91394 -5.39554 1.29931 86 83 76
-0.92778 -5.40183 1.30284 89 83 75
-0.94161 -5.40812 1.30636 87 83 85
-0.95542 -5.41440 1.30988 85 82 82
-0.96922 -5.42068 1.31340 87 82 81
-0.98301 -5.42695 1.31691 82 79 83
-0.99679 -5.43322 1.32042 84 82 85
-1.01055 -5.43948 1.32393 83 79 83
-1.02429 -5.44573 1.32743 80 75 73
-1.03803 -5.45198 1.33093 79 77 81
-1.05175 -5.45822 1.33443 86 82 83
-1.06546 -5.46445 1.33792 84 82 88
-1.07915 -5.47068 1.34141 83 79 81
-1.09283 -5.47690 1.34490 76 74 85
-1.10650 -5.48312 1.34838 75 73 79
-1.12016 -5.48933 1.35186 74 74 78
-1.13380 -5.49554 1.35534 78 70 78
-1.14743 -5.50174 1.35882 72 66 76
-1.16105 -5.50793 1.36229 71 67 67
0.88577 -4.55769 0.82494 115 116 118
0.87019 -4.56478 0.82892 123 123 125
0.85463 -4.57187 0.83289 124 127 126
0.83908 -4.57895 0.83686 124 124 122
0.82355 -4.58603 0.84083 119 118 122
0.80803 -4.59309 0.84479 114 115 120
0.79254 -4.60015 0.84875 117 120 119
0.77705 -4.60721 0.85270 120 130 118
0.76158 -4.61425 0.85665 119 121 120
0.74613 -4.62129 0.86060 121 123 123
0.73069 -4.62832 0.86454 125 127 113
0.71527 -4.63534 0.86848 114 113 114
0.69987 -4.64236 0.87241 118 124 119
0.68448 -4.64937 0.87634 111 114 114
0.66910 -4.65637 0.88027 117 121 124
0.65375 -4.66337 0.88419 124 128 122
0.63840 -4.67036 0.88811 124 119 120
0.62308 -4.67734 0.89202 115 121 121
0.60776 -4.68431 0.89593 130 135 122
0.59247 -4.69128 0.89984 124 124 127
0.57719 -4.69824 0.90374 118 117 127
0.56192 -4.70519 0.90764 121 118 123
0.54667 -4.71214 0.91153 118 118 120
0.53144 -4.71908 0.91543 119 116 124
0.51622 -4.72601 0.91931 123 123 126
0.50101 -4.73293 0.92319 123 127 123
0.48583 -4.73985 0.92707 125 129 127
0.47065 -4.74676 0.93095 132 133 124
0.45549 -4.75367 0.93482 127 126 123
0.44035 -4.76056 0.93869 120 116 121
0.42522 -4.76745 0.94255 116 105 109
0.41011 -4.77434 0.94641 114 104 111
0.39502 -4.78121 0.95026 118 114 121
0.37993 -4.78808 0.95412 119 115 120
0.36487 -4.79494 0.95796 122 119 119
0.34982 -4.80180 0.96181 124 125 118
0.33478 -4.80865 0.96565 116 116 115
0.31976 -4.81549 0.96948 116 117 114
0.30475 -4.82233 0.97332 129 131 122
0.28976 -4.82915 0.97714 126 127 126
0.27478 -4.83597 0.98097 121 121 121
0.25982 -4.84279 0.98479 120 123 114
0.24488 -4.84960 0.98861 117 110 105
0.22995 -4.85640 0.99242 114 116 117
0.21503 -4.86319 0.99623 119 125 122
0.20013 -4.86998 1.00003 124 124 108
0.18524 -4.87676 1.00384 124 122 113
0.17037 -4.88353 1.00763 126 122 114
0.15551 -4.89030 1.01143 123 119 109
0.14067 -4.89706 1.01522 123 118 106
0.12584 -4.90381 1.01900 113 114 102
0.11103 -4.91056 1.02279 117 111 100
0.09623 -4.91730 1.02657 117 120 118
0.08145 -4.92403 1.03034 121 122 115
0.06668 -4.93076 1.03411 115 112 114
0.05193 -4.93748 1.03788 126 127 113
0.03719 -4.94419 1.04164 128 130 124
0.02246 -4.95090 1.04540 110 110 120
0.00775 -4.95760 1.04916 119 119 120
-0.00694 -4.96429 1.05291 117 101 97
-0.02162 -4.97098 1.05666 112 104 108
-0.03629 -4.97766 1.06041 104 100 100
-0.05094 -4.98433 1.06415 111 107 111
-0.06558 -4.99100 1.06789 116 115 111
-0.08020 -4.99766 1.07162 119 116 114
-0.09481 -5.00431 1.07535 112 114 107
-0.10940 -5.01096 1.07908 117 109 111
-0.12398 -5.01760 1.08280 112 104 103
-0.13855 -5.02423 1.08652 109 106 98
-0.15310 -5.03086 1.09024 107 104 106
-0.16763 -5.03748 1.09395 102 101 109
-0.18215 -5.04410 1.09766 101 97 102
-0.19666 -5.05070 1.10136 97 98 104
-0.21115 -5.05731 1.10506 100 100 99
-0.22563 -5.06390 1.10876 101 101 97
-0.24010 -5.07049 1.11246 104 98 93
-0.25455 -5.07707 1.11615 99 92 78
-0.26898 -5.08365 1.11983 91 89 84
-0.28341 -5.09021 1.12352 90 89 89
-0.29781 -5.09678 1.12720 94 91 91
-0.31221 -5.10333 1.13087 91 93 90
-0.32659 -5.10988 1.13454 89 94 93
-0.34095 -5.11643 1.13821 89 91 85
-0.35531 -5.12296 1.14188 84 88 80
-0.36964 -5.12949 1.14554 83 86 85
-0.51225 -5.19445 1.18196 90 90 92
-0.52643 -5.20090 1.18558 90 89 88
-0.54060 -5.20736 1.18920 83 86 81
-0.55476 -5.21381 1.19281 81 85 85
-0.56890 -5.22025 1.19642 82 82 78
-0.58303 -5.22668 1.20003 80 80 72
-0.59714 -5.23311 1.20364 80 82 79
-0.61125 -5.23954 1.20724 78 81 71
-0.62533 -5.24595 1.21084 77 82 71
-0.63941 -5.25236 1.21443 82 82 78
-0.65347 -5.25877 1.21802 84 80 78
-0.66752 -5.26516 1.22161 86 83 78
-0.68155 -5.27156 1.22519 91 90 81
-0.69557 -5.27794 1.22877 92 88 91
-0.70957 -5.28432 1.23235 89 86 90
-0.72357 -5.29069 1.23592 84 83 78
-0.73755 -5.29706 1.23949 83 82 77
-0.75151 -5.30342 1.24306 85 83 83
-0.76546 -5.30978 1.24662 85 81 82
-0.77940 -5.31613 1.25018 91 84 85
-0.79333 -5.32247 1.25374 88 80 79
-0.80724 -5.32880 1.25729 83 80 74
-0.82114 -5.33513 1.26084 82 83 85
-0.83502 -5.34146 1.26438 88 81 89
-0.84889 -5.34778 1.26793 85 77 85
-0.86275 -5.35409 1.27147 82 78 83
-0.87659 -5.36039 1.27500 85 83 84
-0.89043 -5.36669 1.27853 92 87 89
-0.90424 -5.37299 1.28206 89 85 96
-0.91805 -5.37927 1.28559 86 83 83
-0.93184 -5.38556 1.28911 85 81 83
-0.94562 -5.39183 1.29263 87 83 92
-0.95938 -5.39810 1.29614 87 83 86
-0.97313 -5.40437 1.29965 85 83 83
-0.98687 -5.41062 1.30316 73 72 72
-1.00060 -5.41687 1.30667 79 80 85
-1.01431 -5.42312 1.31017 80 78 91
-1.02801 -5.42936 1.31367 77 71 82
-1.04169 -5.43559 1.31716 77 73 85
-1.05537 -5.44182 1.32066 86 79 85
-1.06903 -5.44804 1.32414 84 77 89
-1.08267 -5.45426 1.32763 82 75 84
-1.09631 -5.46047 1.33111 75 71 82
-1.10993 -5.46667 1.33459 73 73 76
-1.12354 -5.47287 1.33806 71 70 73
-1.13713 -5.47906 1.34154 76 72 84
-1.15071 -5.48525 1.34500 76 69 79
-1.16428 -5.49143 1.34847 77 72 73
0.89044 -4.53642 0.80815 116 120 124
0.87491 -4.54350 0.81212 120 124 120
0.85939 -4.55058 0.81609 127 132 123
0.84389 -4.55765 0.82006 123 126 126
0.82840 -4.56471 0.82402 122 121 120
0.81293 -4.57177 0.82798 116 115 117
0.79748 -4.57881 0.83194 111 113 115
0.78204 -4.58586 0.83589 105 109 111
0.76662 -4.59289 0.83983 112 122 113
0.75121 -4.59992 0.84378 112 114 107
0.73582 -4.60694 0.84771 117 123 129
0.72045 -4.61395 0.85165 129 127 124
0.70509 -4.62096 0.85558 121 118 120
0.68974 -4.62795 0.85951 122 124 121
0.67441 -4.63495 0.86343 120 124 120
0.65910 -4.64193 0.86735 120 119 124
0.64380 -4.64891 0.87126 121 123 123
0.62852 -4.65588 0.87517 125 129 127
0.61325 -4.66284 0.87908 123 124 115
0.59800 -4.66980 0.88298 126 127 125
0.58276 -4.67675 0.88688 129 133 140
0.56754 -4.68369 0.89078 119 121 123
0.55233 -4.69063 0.89467 117 116 112
0.53714 -4.69755 0.89855 114 115 112
0.52197 -4.70448 0.90244 115 110 112
0.50681 -4.71139 0.90632 120 118 118
0.49166 -4.71830 0.91019 123 126 119
0.47653 -4.72520 0.91406 124 125 121
0.46142 -4.73209 0.91793 121 117 117
0.44632 -4.73898 0.92179 117 117 119
0.43124 -4.74586 0.92565 123 126 123
0.41617 -4.75273 0.92951 117 115 117
0.40111 -4.75960 0.93336 111 104 116
0.38607 -4.76646 0.93721 115 113 118
0.37105 -4.77331 0.94105 115 117 116
0.35604 -4.78015 0.94489 119 118 117
0.34105 -4.78699 0.94873 121 117 117
0.32607 -4.79382 0.95256 117 118 113
0.31111 -4.80065 0.95639 119 123 113
0.29616 -4.80747 0.96022 124 125 116
0.28122 -4.81428 0.96404 121 119 110
0.26631 -4.82108 0.96786 115 113 110
0.25140 -4.82788 0.97167 113 119 121
0.23651 -4.83467 0.97548 116 117 108
0.22164 -4.84146 0.97929 118 116 115
0.20678 -4.84823 0.98309 117 114 121
0.19193 -4.85500 0.98689 116 110 116
0.17710 -4.86177 0.99068 117 118 121
0.16229 -4.86852 0.99447 125 125 124
0.14749 -4.87528 0.99826 124 119 116
0.13270 -4.88202 1.00204 123 118 113
0.11793 -4.88876 1.00582 109 108 114
0.10318 -4.89549 1.00960 118 119 108
0.08843 -4.90221 1.01337 123 122 117
0.07371 -4.90893 1.01714 120 115 107
0.05899 -4.91564 1.02090 101 103 97
0.04430 -4.92234 1.02467 104 105 109
0.02961 -4.92904 1.02842 114 112 112
0.01494 -4.93573 1.03218 106 105 110
0.00029 -4.94241 1.03593 115 110 120
-0.01435 -4.94909 1.03967 121 115 101
-0.02898 -4.95576 1.04342 101 99 101
-0.04359 -4.96242 1.04715 100 98 101
-0.05818 -4.96908 1.05089 115 110 104
-0.07277 -4.97573 1.05462 116 110 116
-0.08733 -4.98238 1.05835 121 117 123
-0.10189 -4.98902 1.06207 111 106 107
-0.11643 -4.99565 1.06579 103 105 106
-0.13095 -5.00227 1.06951 110 109 108
-0.14546 -5.00889 1.07322 115 115 102
-0.15996 -5.01550 1.07693 109 109 105
-0.17444 -5.02211 1.08064 99 101 105
-0.18891 -5.02870 1.08434 99 100 95
-0.20336 -5.03530 1.08804 99 102 102
-0.21780 -5.04188 1.09173 107 105 98
-0.23223 -5.04846 1.09542 101 101 97
-0.24664 -5.05503 1.09911 95 94 96
-0.26103 -5.06160 1.10280 93 95 86
-0.27542 -5.06816 1.10648 94 96 89
-0.28978 -5.07471 1.11015 94 94 93
-0.30414 -5.08126 1.11383 91 92 92
-0.31848 -5.08780 1.11750 93 95 95
-0.33281 -5.09434 1.12116 91 94 92
-0.34712 -5.10086 1.12482 88 92 86
-0.36142 -5.10739 1.12848 86 91 83
-0.37570 -5.11390 1.13214 87 91 81
-0.38997 -5.12041 1.13579 92 89 80
-0.48948 -5.16580 1.16125 89 91 87
-0.50364 -5.17225 1.16487 89 90 85
-0.51779 -5.17871 1.16849 87 88 84
-0.53192 -5.18515 1.17211 85 86 81
-0.54604 -5.19159 1.17572 79 83 73
-0.56014 -5.19802 1.17933 78 83 77
-0.57423 -5.20445 1.18294 79 80 80
-0.58831 -5.21087 1.18654 82 79 78
-0.60237 -5.21729 1.19014 86 83 83
-0.61642 -5.22369 1.19373 85 83 81
-0.63046 -5.23010 1.19733 85 83 79
-0.64448 -5.23649 1.20091 85 82 85
-0.65849 -5.24288 1.20450 85 82 84
-0.67249 -5.24927 1.20808 84 83 82
-0.68647 -5.25564 1.21166 86 86 88
-0.70044 -5.26201 1.21523 89 86 92
-0.71440 -5.26838 1.21880 85 84 88
-0.72834 -5.27474 1.22237 82 82 84
-0.74227 -5.28109 1.22594 86 82 87
-0.75618 -5.28744 1.22950 86 84 91
-0.77009 -5.29378 1.23305 88 85 86
-0.78397 -5.30011 1.23661 94 87 85
-0.79785 -5.30644 1.24016 89 83 83
-0.81171 -5.31276 1.24371 85 83 77
-0.82556 -5.31908 1.24725 83 82 79
-0.83939 -5.32539 1.25079 85 81 84
-0.85322 -5.33170 1.25433 86 77 87
-0.86702 -5.33799 1.25786 84 79 83
-0.88082 -5.34429 1.26139 84 79 82
-0.89460 -5.35057 1.26492 87 81 87
-0.90837 -5.35685 1.26844 85 82 89
-0.92213 -5.36312 1.27196 85 83 83
-0.93587 -5.36939 1.27548 85 81 80
-0.94960 -5.37565 1.27899 86 83 88
-0.96331 -5.38191 1.28250 90 83 86
-0.97702 -5.38816 1.28601 83 80 71
-0.99071 -5.39440 1.28951 66 62 52
-1.00438 -5.40064 1.29301 71 77 72
-1.01805 -5.40688 1.29650 75 73 82
-1.03170 -5.41310 1.30000 73 70 80
-1.04534 -5.41932 1.30349 74 71 88
-1.05896 -5.42554 1.30697 80 77 92
-1.07257 -5.43174 1.31046 82 74 86
-1.08617 -5.43795 1.31394 77 70 81
-1.09976 -5.44414 1.31741 72 69 76
-1.11333 -5.45033 1.32089 71 66 69
-1.12689 -5.45652 1.32436 69 63 62
-1.14044 -5.46270 1.32782 69 71 80
-1.15397 -5.46887 1.33129 74 73 79
-1.16749 -5.47504 1.33475 77 74 75
0.87960 -4.52235 0.79544 114 116 126
0.86412 -4.52941 0.79940 115 116 123
0.84867 -4.53647 0.80337 120 125 120
0.83323 -4.54352 0.80732 118 120 122
0.81780 -4.55057 0.81128 121 119 120
0.80240 -4.55761 0.81523 118 117 116
0.78700 -4.56464 0.81918 117 120 114
0.77162 -4.57166 0.82312 116 120 110
0.75626 -4.57868 0.82706 116 121 113
0.74092 -4.58569 0.83099 106 112 112
0.72559 -4.59269 0.83492 112 115 129
0.71027 -4.59968 0.83885 122 125 130
0.69497 -4.60667 0.84277 125 123 126
0.67969 -4.61365 0.84669 127 132 124
0.66442 -4.62063 0.85061 130 133 127
0.64916 -4.62759 0.85452 128 132 125
0.63392 -4.63455 0.85842 125 125 125
0.61870 -4.64150 0.86233 129 132 127
0.60349 -4.64845 0.86623 125 129 122
0.58830 -4.65539 0.87012 120 129 131
0.57312 -4.66232 0.87401 135 143 135
0.55796 -4.66925 0.87790 121 129 120
0.54281 -4.67616 0.88178 114 122 114
0.52768 -4.68307 0.88566 110 110 113
0.51257 -4.68998 0.88954 114 107 114
0.49747 -4.69688 0.89341 117 119 121
0.48238 -4.70377 0.89728 121 122 124
0.46731 -4.71065 0.90114 122 120 122
0.45225 -4.71753 0.90500 121 116 117
0.43721 -4.72439 0.90886 118 118 116
0.42219 -4.73126 0.91271 115 118 119
0.40717 -4.73811 0.91656 112 113 116
0.39218 -4.74496 0.92041 118 114 114
0.37720 -4.75180 0.92425 125 124 119
0.36223 -4.75864 0.92808 121 123 120
0.34728 -4.76547 0.93192 118 113 118
0.33234 -4.77229 0.93575 115 112 115
0.31742 -4.77910 0.93957 111 107 113
0.30252 -4.78591 0.94340 112 110 115
0.28763 -4.79271 0.94721 116 112 114
0.27275 -4.79951 0.95103 119 112 111
0.25789 -4.80630 0.95484 116 118 110
0.24304 -4.81308 0.95864 110 116 123
0.22821 -4.81985 0.96245 117 120 115
0.21339 -4.82662 0.96625 120 116 118
0.19859 -4.83338 0.97004 118 115 115
0.18380 -4.84013 0.97383 111 115 112
0.16903 -4.84688 0.97762 105 111 119
0.15427 -4.85362 0.98141 122 118 120
0.13952 -4.86036 0.98519 122 116 118
0.12479 -4.86708 0.98896 115 116 121
0.11008 -4.87380 0.99274 118 120 129
0.09538 -4.88052 0.99651 124 126 122
0.08069 -4.88723 1.00027 132 130 123
0.06602 -4.89393 1.00403 118 112 111
0.05136 -4.90062 1.00779 111 99 106
0.03672 -4.90731 1.01154 110 102 111
0.02209 -4.91399 1.01529 115 115 116
0.00748 -4.92066 1.01904 117 119 113
-0.00712 -4.92733 1.02279 119 113 124
-0.02171 -4.93399 1.02652 126 119 122
-0.03628 -4.94065 1.03026 111 108 101
-0.05083 -4.94730 1.03399 107 103 104
-0.06538 -4.95394 1.03772 118 111 105
-0.07990 -4.96057 1.04145 116 107 113
-0.09442 -4.96720 1.04517 120 112 106
-0.10892 -4.97382 1.04888 107 103 91
-0.12340 -4.98044 1.05260 97 104 108
-0.13787 -4.98705 1.05631 117 121 115
-0.15233 -4.99365 1.06002 120 123 101
-0.16677 -5.00025 1.06372 109 110 107
-0.18120 -5.00684 1.06742 107 109 106
-0.19561 -5.01342 1.07111 107 112 98
-0.21001 -5.02000 1.07481 115 119 104
-0.22440 -5.02657 1.07849 122 117 110
-0.23877 -5.03313 1.08218 107 102 103
-0.25313 -5.03969 1.08586 102 97 98
-0.26747 -5.04624 1.08954 94 95 91
-0.28180 -5.05278 1.09321 93 96 92
-0.29612 -5.05932 1.09688 97 97 97
-0.31042 -5.06585 1.10055 92 91 88
-0.32471 -5.07238 1.10421 94 91 90
-0.33898 -5.07890 1.10787 91 91 89
-0.35324 -5.08541 1.11153 88 93 84
-0.36749 -5.09192 1.11518 90 94 83
-0.38172 -5.09842 1.11883 90 94 82
-0.39594 -5.10491 1.12248 96 94 87
-0.41014 -5.11140 1.12612 96 90 86
-0.43851 -5.12436 1.13339 86 86 86
-0.45267 -5.13083 1.13702 85 86 85
-0.46682 -5.13729 1.14065 85 84 84
-0.48096 -5.14374 1.14427 87 88 88
-0.49508 -5.15019 1.14789 93 93 91
-0.50919 -5.15664 1.15151 90 89 82
-0.52328 -5.16307 1.15513 84 87 77
-0.53737 -5.16951 1.15874 84 85 82
-0.55143 -5.17593 1.16234 84 85 85
-0.56549 -5.18235 1.16595 86 85 87
-0.57953 -5.18876 1.16955 82 83 84
-0.59355 -5.19517 1.17314 81 83 83
-0.60757 -5.20157 1.17674 83 83 80
-0.62157 -5.20796 1.18032 86 83 78
-0.63555 -5.21435 1.18391 88 82 81
-0.64953 -5.22073 1.18749 83 80 81
-0.66349 -5.22711 1.19107 81 80 81
-0.67743 -5.23348 1.19465 84 84 85
-0.69136 -5.23984 1.19822 90 90 91
-0.70528 -5.24620 1.20179 92 88 93
-0.71919 -5.25255 1.20535 85 84 83
-0.73308 -5.25889 1.20892 80 81 80
-0.74696 -5.26523 1.21247 84 82 82
-0.76082 -5.27156 1.21603 85 83 90
-0.77468 -5.27789 1.21958 87 86 87
-0.78852 -5.28421 1.22313 91 85 83
-0.80234 -5.29053 1.22667 85 83 83
-0.81615 -5.29683 1.23022 79 79 81
-0.82995 -5.30314 1.23375 78 74 84
-0.84374 -5.30943 1.23729 83 82 90
-0.85751 -5.31572 1.24082 86 83 91
-0.87127 -5.32201 1.24435 84 82 80
-0.88502 -5.32829 1.24787 82 81 76
-0.89875 -5.33456 1.25139 77 78 88
-0.91247 -5.34082 1.25491 82 81 85
-0.92618 -5.34708 1.25842 88 84 80
-0.93987 -5.35334 1.26194 82 82 71
-0.95355 -5.35959 1.26544 83 80 87
-0.96722 -5.36583 1.26895 92 87 92
-0.98088 -5.37207 1.27245 84 79 77
-0.99452 -5.37830 1.27595 76 71 66
-1.00815 -5.38452 1.27944 74 73 65
-1.02176 -5.39074 1.28293 73 68 75
-1.03536 -5.39695 1.28642 70 69 76
-1.04895 -5.40316 1.28990 73 70 86
-1.06253 -5.40936 1.29339 79 75 88
-1.07610 -5.41556 1.29686 84 76 82
-1.08965 -5.42174 1.30034 80 74 75
-1.10319 -5.42793 1.30381 75 70 71
-1.11671 -5.43410 1.30728 66 60 66
-1.13022 -5.44028 1.31074 65 60 61
-1.14372 -5.44644 1.31420 65 63 71
-1.15721 -5.45260 1.31766 71 70 75
-1.17068 -5.45876 1.32112 71 72 67
0.88425 -4.50133 0.77885 120 117 116
0.86883 -4.50838 0.78281 118 113 123
0.85342 -4.51543 0.78677 119 118 124
0.83802 -4.52247 0.79073 116 122 123
0.82264 -4.52950 0.79468 114 119 121
0.80728 -4.53653 0.79863 120 122 120
0.79193 -4.54355 0.80257 119 120 122
0.77660 -4.55056 0.80651 121 124 122
0.76128 -4.55757 0.81044 126 129 121
0.74598 -4.56456 0.81437 126 131 126
0.73069 -4.57156 0.81830 121 125 122
0.71542 -4.57854 0.82222 117 114 118
0.70017 -4.58552 0.82614 125 134 131
0.68493 -4.59249 0.83006 132 132 130
0.66970 -4.59945 0.83397 126 132 129
0.65449 -4.60641 0.83788 133 138 138
0.63930 -4.61336 0.84178 132 135 127
0.62412 -4.62030 0.84568 128 129 124
0.60896 -4.62723 0.84958 126 122 116
0.59381 -4.63416 0.85347 117 116 107
0.57867 -4.64108 0.85735 113 114 112
0.56355 -4.64800 0.86124 116 118 115
0.54845 -4.65490 0.86512 122 134 125
0.53336 -4.66180 0.86899 123 119 114
0.51829 -4.66870 0.87287 124 124 124
0.50323 -4.67558 0.87674 127 126 133
0.48819 -4.68246 0.88060 121 119 128
0.47316 -4.68934 0.88446 123 121 121
0.45815 -4.69620 0.88832 124 119 111
0.44315 -4.70306 0.89217 128 125 119
0.42817 -4.70991 0.89602 126 130 124
0.41320 -4.71676 0.89986 119 126 121
0.39825 -4.72360 0.90371 116 122 118
0.38331 -4.73043 0.90754 118 119 117
0.36838 -4.73726 0.91138 119 119 118
0.35347 -4.74407 0.91521 117 114 116
0.33858 -4.75089 0.91903 108 102 110
0.32370 -4.75769 0.92286 102 99 108
0.30884 -4.76449 0.92667 108 109 113
0.29399 -4.77128 0.93049 112 113 114
0.27915 -4.77806 0.93430 116 115 118
0.26433 -4.78484 0.93811 120 120 117
0.24953 -4.79161 0.94191 118 120 114
0.23474 -4.79838 0.94571 115 111 114
0.21996 -4.80514 0.94951 114 111 106
0.20520 -4.81189 0.95330 114 109 108
0.19045 -4.81863 0.95709 114 111 115
0.17572 -4.82537 0.96087 110 109 116
0.16100 -4.83210 0.96465 116 121 117
0.14630 -4.83882 0.96843 121 121 120
0.13161 -4.84554 0.97220 117 110 114
0.11694 -4.85225 0.97597 108 109 115
0.10228 -4.85896 0.97974 115 117 123
0.08763 -4.86566 0.98350 120 115 121
0.07300 -4.87235 0.98726 124 111 120
0.05838 -4.87903 0.99102 121 116 113
0.04378 -4.88571 0.99477 121 119 112
0.02919 -4.89238 0.99851 114 104 119
0.01462 -4.89905 1.00226 118 113 123
0.00006 -4.90570 1.00600 119 122 115
-0.01448 -4.91236 1.00974 116 114 111
-0.02901 -4.91900 1.01347 111 104 109
-0.04353 -4.92564 1.01720 100 104 103
-0.05803 -4.93227 1.02092 108 115 101
-0.07252 -4.93890 1.02464 106 106 108
-0.08699 -4.94552 1.02836 107 109 104
-0.10145 -4.95213 1.03208 112 106 97
-0.11590 -4.95874 1.03579 111 108 89
-0.13033 -4.96534 1.03950 112 114 104
-0.14475 -4.97193 1.04320 115 114 110
-0.15915 -4.97852 1.04690 113 106 100
-0.17354 -4.98510 1.05060 105 104 111
-0.18791 -4.99167 1.05429 106 107 103
-0.20227 -4.99824 1.05798 102 100 89
-0.21662 -5.00480 1.06166 112 113 102
-0.23095 -5.01136 1.06535 116 109 113
-0.24527 -5.01791 1.06902 110 102 105
-0.25958 -5.02445 1.07270 112 105 93
-0.27387 -5.03098 1.07637 98 94 89
-0.28814 -5.03751 1.08004 92 89 87
-0.30241 -5.04404 1.08370 98 92 96
-0.31666 -5.05055 1.08736 99 93 93
-0.33089 -5.05706 1.09102 96 94 94
-0.34511 -5.06357 1.09467 92 94 89
-0.35932 -5.07007 1.09832 91 94 80
-0.37352 -5.07656 1.10197 91 94 82
-0.38770 -5.08304 1.10561 88 91 85
-0.40186 -5.08952 1.10925 96 93 91
-0.41602 -5.09599 1.11289 98 93 90
-0.43015 -5.10246 1.11652 93 90 90
-0.44428 -5.10892 1.12015 90 89 90
-0.45839 -5.11537 1.12377 88 87 91
-0.47249 -5.12182 1.12740 83 89 88
-0.48657 -5.12826 1.13101 84 91 87
-0.50065 -5.13470 1.13463 92 91 86
-0.51470 -5.14113 1.13824 86 85 77
-0.52875 -5.14755 1.14185 83 84 77
-0.54278 -5.15397 1.14545 86 86 83
-0.55679 -5.16038 1.14905 88 85 86
-0.57080 -5.16678 1.15265 89 85 86
-0.58479 -5.17318 1.15625 87 84 82
-0.59876 -5.17957 1.15984 85 85 81
-0.61273 -5.18596 1.16342 86 86 82
-0.62667 -5.19234 1.16701 87 85 81
-0.64061 -5.19871 1.17059 88 84 83
-0.65453 -5.20508 1.17416 86 84 81
-0.66844 -5.21144 1.17774 83 83 82
-0.68234 -5.21779 1.18131 82 85 85
-0.69622 -5.22414 1.18487 85 86 86
-0.71009 -5.23049 1.18844 84 84 85
-0.72395 -5.23682 1.19200 86 85 82
-0.73779 -5.24315 1.19555 87 85 73
-0.75162 -5.24948 1.19910 88 86 71
-0.76543 -5.25580 1.20265 87 89 89
-0.77924 -5.26211 1.20620 87 88 88
-0.79303 -5.26842 1.20974 87 76 68
-0.80680 -5.27472 1.21328 79 71 61
-0.82057 -5.28101 1.21682 69 66 82
-0.83432 -5.28730 1.22035 74 70 80
-0.84805 -5.29358 1.22388 85 80 85
-0.86178 -5.29986 1.22740 81 85 76
-0.87549 -5.30613 1.23093 83 86 80
-0.88919 -5.31239 1.23444 88 86 80
-0.90287 -5.31865 1.23796 86 84 93
-0.91654 -5.32491 1.24147 85 82 81
-0.93020 -5.33115 1.24498 88 86 75
-0.94385 -5.33739 1.24849 80 80 74
-0.95748 -5.34363 1.25199 80 78 83
-0.97110 -5.34986 1.25549 85 84 87
-0.98471 -5.35608 1.25898 80 81 85
-0.99830 -5.36230 1.26248 79 82 75
-1.01188 -5.36851 1.26597 78 74 56
-1.02545 -5.37471 1.26945 74 71 75
-1.03900 -5.38091 1.27293 74 74 85
-1.05255 -5.38711 1.27641 77 73 82
-1.06608 -5.39329 1.27989 80 76 80
-1.07959 -5.39948 1.28336 82 78 82
-1.09310 -5.40565 1.28683 80 78 75
-1.10659 -5.41182 1.29030 76 77 71
-1.12007 -5.41799 1.29376 66 69 67
-1.13353 -5.42414 1.29722 69 66 64
-1.14699 -5.43030 1.30067 72 63 63
-1.16043 -5.43644 1.30413 77 70 75
-1.17385 -5.44258 1.30758 71 70 60
0.87350 -4.48748 0.76633 116 114 112
0.85814 -4.49452 0.77028 117 116 120
0.84279 -4.50154 0.77423 119 121 122
0.82745 -4.50857 0.77818 118 116 119
0.81214 -4.51558 0.78212 117 119 113
0.79683 -4.52259 0.78606 122 126 121
0.78154 -4.52959 0.79000 124 122 127
0.76627 -4.53659 0.79393 121 122 126
0.75101 -4.54357 0.79786 119 117 129
0.73577 -4.55055 0.80178 129 129 142
0.72054 -4.55753 0.80570 138 139 137
0.70533 -4.56449 0.80961 121 117 128
0.69014 -4.57145 0.81353 128 136 140
0.67496 -4.57840 0.81743 136 141 137
0.65979 -4.58535 0.82134 121 119 128
0.64464 -4.59229 0.82524 127 137 132
0.62950 -4.59922 0.82913 127 133 125
0.61438 -4.60614 0.83303 125 129 122
0.59928 -4.61306 0.83691 119 118 115
0.58419 -4.61997 0.84080 108 112 104
0.56911 -4.62688 0.84468 107 111 106
0.55405 -4.63377 0.84855 101 107 112
0.53901 -4.64066 0.85243 118 128 129
0.46401 -4.67501 0.87173 132 132 128
0.44905 -4.68186 0.87558 129 128 119
0.43411 -4.68870 0.87943 130 132 115
0.41919 -4.69554 0.88327 128 131 115
0.40428 -4.70236 0.88711 119 125 122
0.38938 -4.70919 0.89094 121 126 127
0.37450 -4.71600 0.89477 125 127 124
0.35963 -4.72281 0.89860 124 124 122
0.34478 -4.72961 0.90242 119 123 120
0.32994 -4.73641 0.90624 119 126 120
0.31512 -4.74319 0.91006 125 129 115
0.30031 -4.74998 0.91387 124 120 103
0.28552 -4.75675 0.91767 115 108 111
0.27074 -4.76352 0.92148 118 117 125
0.25598 -4.77028 0.92528 121 125 120
0.24123 -4.77703 0.92908 117 116 117
0.22649 -4.78378 0.93287 119 114 111
0.21177 -4.79052 0.93666 115 114 107
0.19707 -4.79726 0.94044 114 115 105
0.18238 -4.80399 0.94422 116 111 108
0.16770 -4.81071 0.94800 105 105 111
0.15304 -4.81742 0.95178 114 119 113
0.13839 -4.82413 0.95555 125 121 120
0.12376 -4.83083 0.95931 122 121 113
0.10914 -4.83753 0.96308 116 115 109
0.09453 -4.84421 0.96683 115 115 115
0.07994 -4.85090 0.97059 119 118 113
0.06536 -4.85757 0.97434 125 123 112
0.05080 -4.86424 0.97809 120 117 110
0.03626 -4.87090 0.98184 115 118 111
0.02172 -4.87756 0.98558 118 113 117
0.00720 -4.88421 0.98931 128 129 118
-0.00730 -4.89085 0.99305 122 124 115
-0.02179 -4.89749 0.99678 114 118 105
-0.03627 -4.90411 1.00050 109 105 107
-0.05073 -4.91074 1.00423 106 105 109
-0.06518 -4.91735 1.00794 116 117 101
-0.07961 -4.92396 1.01166 117 122 102
-0.09403 -4.93057 1.01537 115 110 97
-0.10844 -4.93717 1.01908 125 117 114
-0.12283 -4.94376 1.02278 121 115 102
-0.13721 -4.95034 1.02648 118 114 107
-0.15157 -4.95692 1.03018 116 114 110
-0.16592 -4.96349 1.03388 112 104 112
-0.18026 -4.97006 1.03757 116 115 116
-0.19458 -4.97661 1.04125 113 110 107
-0.20889 -4.98317 1.04493 104 106 101
-0.22318 -4.98971 1.04861 115 119 104
-0.23746 -4.99625 1.05229 116 118 112
-0.25173 -5.00279 1.05596 110 110 105
-0.26598 -5.00931 1.05963 113 110 93
-0.28022 -5.01583 1.06330 105 100 91
-0.29444 -5.02235 1.06696 99 93 89
-0.30865 -5.02886 1.07061 98 92 95
-0.32285 -5.03536 1.07427 98 92 98
-0.33703 -5.04185 1.07792 97 95 97
-0.35120 -5.04834 1.08157 94 95 94
-0.36536 -5.05482 1.08521 94 94 88
-0.37950 -5.06130 1.08885 94 96 89
-0.39363 -5.06777 1.09249 95 96 93
-0.40775 -5.07424 1.09612 98 96 100
-0.42185 -5.08069 1.09975 95 93 96
-0.43594 -5.08714 1.10338 92 94 97
-0.45001 -5.09359 1.10700 92 90 88
-0.46407 -5.10003 1.11062 87 83 80
-0.47812 -5.10646 1.11423 78 84 74
-0.49215 -5.11289 1.11785 79 88 77
-0.50617 -5.11931 1.12146 86 88 83
-0.52018 -5.12572 1.12506 87 89 80
-0.53417 -5.13213 1.12866 89 89 81
-0.54815 -5.13853 1.13226 89 85 83
-0.56212 -5.14493 1.13586 85 83 82
-0.57607 -5.15132 1.13945 86 85 88
-0.59001 -5.15770 1.14304 88 85 88
-0.60394 -5.16408 1.14662 86 85 81
-0.61785 -5.17045 1.15020 85 88 82
-0.63175 -5.17682 1.15378 91 88 86
-0.64563 -5.18318 1.15735 94 87 87
-0.65951 -5.18953 1.16092 90 86 86
-0.67337 -5.19588 1.16449 85 85 86
-0.68721 -5.20222 1.16806 81 85 85
-0.70104 -5.20855 1.17162 81 83 79
-0.71486 -5.21488 1.17517 78 80 74
-0.72867 -5.22121 1.17873 84 83 83
-0.74246 -5.22752 1.18228 92 85 79
-0.75624 -5.23383 1.18582 91 88 79
-0.77001 -5.24014 1.18937 88 89 85
-0.78377 -5.24644 1.19291 85 85 84
-0.79751 -5.25273 1.19644 80 69 76
-0.81123 -5.25902 1.19998 75 74 72
-0.82495 -5.26530 1.20351 79 79 89
-0.83865 -5.27157 1.20704 85 79 84
-0.85234 -5.27784 1.21056 92 86 91
-0.86601 -5.28410 1.21408 88 84 80
-0.87968 -5.29036 1.21760 85 89 84
-0.89333 -5.29661 1.22111 85 85 75
-0.90696 -5.30286 1.22462 85 81 87
-0.92059 -5.30909 1.22813 82 81 82
-0.93420 -5.31533 1.23163 80 84 69
-0.94780 -5.32155 1.23513 77 79 70
-0.96138 -5.32778 1.23863 77 77 79
-0.97495 -5.33399 1.24212 82 81 84
-0.98851 -5.34020 1.24561 80 81 87
-1.00206 -5.34640 1.24910 81 82 81
-1.01559 -5.35260 1.25258 82 81 70
-1.02911 -5.35879 1.25606 79 79 74
-1.04262 -5.36498 1.25954 75 76 79
-1.05612 -5.37116 1.26301 80 76 72
-1.06960 -5.37734 1.26648 83 77 69
-1.08307 -5.38350 1.26995 90 82 82
-1.09653 -5.38967 1.27341 82 77 76
-1.10997 -5.39582 1.27687 77 79 72
-1.12340 -5.40198 1.28033 75 75 62
-1.13682 -5.40812 1.28378 79 77 72
-1.15023 -5.41426 1.28724 80 76 76
-1.16362 -5.42039 1.29068 85 80 81
-1.17700 -5.42652 1.29413 80 78 67
0.89348 -4.45967 0.74599 119 122 119
0.87815 -4.46670 0.74994 118 118 113
0.86283 -4.47373 0.75389 116 120 114
0.84752 -4.48075 0.75784 117 120 118
0.83223 -4.48776 0.76178 119 117 118
0.81696 -4.49476 0.76572 123 119 119
0.80170 -4.50176 0.76966 123 128 118
0.78646 -4.50875 0.77359 126 131 126
0.77123 -4.51573 0.77752 130 130 129
0.75602 -4.52271 0.78144 127 132 131
0.74082 -4.52968 0.78536 124 128 128
0.72563 -4.53664 0.78928 133 137 140
0.71047 -4.54360 0.79319 141 140 140
0.69531 -4.55055 0.79710 135 133 139
0.68018 -4.55749 0.80100 133 141 146
0.66506 -4.56442 0.80490 133 134 132
0.64995 -4.57135 0.80880 124 116 129
0.63486 -4.57827 0.81269 124 127 126
0.61978 -4.58518 0.81658 118 125 124
0.60472 -4.59209 0.82046 119 126 121
0.58967 -4.59899 0.82434 118 114 118
0.57464 -4.60588 0.82822 115 120 118
0.55962 -4.61277 0.83209 114 112 114
0.54462 -4.61965 0.83596 112 114 118
0.52963 -4.62652 0.83982 117 122 126
0.51466 -4.63339 0.84369 126 132 135
0.44002 -4.66762 0.86294 127 127 123
0.42514 -4.67444 0.86677 122 125 119
0.41027 -4.68126 0.87061 122 123 119
0.39541 -4.68807 0.87444 124 131 127
0.38058 -4.69488 0.87827 129 135 133
0.36575 -4.70167 0.88209 131 135 135
0.35094 -4.70847 0.88591 126 129 125
0.33615 -4.71525 0.88972 117 118 113
0.32136 -4.72203 0.89354 115 119 119
0.30660 -4.72880 0.89734 125 129 123
0.29185 -4.73556 0.90115 126 123 117
0.27711 -4.74232 0.90495 118 115 119
0.26239 -4.74907 0.90875 124 128 117
0.24768 -4.75582 0.91254 121 118 110
0.23298 -4.76256 0.91633 108 106 111
0.21831 -4.76929 0.92011 112 110 112
0.20364 -4.77601 0.92390 117 114 111
0.18899 -4.78273 0.92768 124 122 113
0.17435 -4.78944 0.93145 128 119 108
0.15973 -4.79615 0.93522 111 104 104
0.14513 -4.80285 0.93899 110 105 111
0.13053 -4.80954 0.94275 125 122 123
0.11595 -4.81622 0.94651 120 116 108
0.10139 -4.82290 0.95027 99 100 93
0.08684 -4.82957 0.95402 108 109 114
0.07230 -4.83624 0.95777 118 116 122
0.05778 -4.84290 0.96151 121 119 121
0.04327 -4.84955 0.96525 116 112 104
0.02878 -4.85620 0.96899 109 109 99
0.01430 -4.86284 0.97273 117 112 116
-0.00016 -4.86947 0.97646 133 132 121
-0.01461 -4.87610 0.98018 117 111 110
-0.02905 -4.88272 0.98391 114 101 96
-0.04347 -4.88933 0.98763 105 104 107
-0.05788 -4.89594 0.99134 111 107 112
-0.07228 -4.90254 0.99506 122 115 105
-0.08666 -4.90913 0.99876 122 117 105
-0.10102 -4.91572 1.00247 112 112 100
-0.11538 -4.92230 1.00617 116 106 111
-0.12971 -4.92888 1.00987 122 117 108
-0.14404 -4.93545 1.01356 119 118 108
-0.15835 -4.94201 1.01725 122 115 107
-0.17265 -4.94857 1.02094 113 103 107
-0.18693 -4.95512 1.02462 107 106 105
-0.20120 -4.96166 1.02830 111 107 113
-0.21546 -4.96820 1.03198 115 109 106
-0.22970 -4.97473 1.03565 109 107 103
-0.24392 -4.98125 1.03932 105 102 100
-0.25814 -4.98777 1.04299 104 103 102
-0.27234 -4.99428 1.04665 103 99 95
-0.28653 -5.00079 1.05031 102 99 96
-0.30070 -5.00729 1.05396 104 100 98
-0.31486 -5.01378 1.05762 103 99 98
-0.32900 -5.02027 1.06126 101 98 98
-0.34313 -5.02675 1.06491 100 98 95
-0.35725 -5.03322 1.06855 101 99 91
-0.37136 -5.03969 1.07219 98 96 89
-0.38545 -5.04615 1.07582 93 96 90
-0.39953 -5.05261 1.07945 97 100 92
-0.41359 -5.05905 1.08308 99 98 96
-0.42764 -5.06550 1.08670 93 82 93
-0.44168 -5.07193 1.09032 90 86 90
-0.45570 -5.07836 1.09394 90 87 78
-0.46971 -5.08479 1.09755 87 78 78
-0.48371 -5.09121 1.10116 85 83 82
-0.49769 -5.09762 1.10477 87 89 83
-0.51166 -5.10403 1.10837 91 91 83
-0.52562 -5.11043 1.11197 93 91 77
-0.53956 -5.11682 1.11557 91 88 79
-0.55349 -5.12321 1.11916 86 85 81
-0.56740 -5.12959 1.12275 83 82 75
-0.58131 -5.13596 1.12633 87 84 80
-0.59520 -5.14233 1.12992 89 86 87
-0.60907 -5.14870 1.13349 84 81 83
-0.62294 -5.15505 1.13707 83 84 85
-0.63679 -5.16141 1.14064 93 94 95
-0.65062 -5.16775 1.14421 100 94 98
-0.66445 -5.17409 1.14777 95 89 91
-0.67826 -5.18042 1.15134 89 87 89
-0.69205 -5.18675 1.15489 87 88 92
-0.70584 -5.19307 1.15845 86 86 90
-0.71961 -5.19938 1.16200 83 81 81
-0.73336 -5.20569 1.16555 84 84 85
-0.74711 -5.21200 1.16909 92 88 88
-0.76084 -5.21829 1.17263 89 87 87
-0.77456 -5.22458 1.17617 85 83 85
-0.78826 -5.23087 1.17971 82 81 84
-0.80196 -5.23715 1.18324 78 76 79
-0.81564 -5.24342 1.18677 72 69 74
-0.82930 -5.24969 1.19029 79 79 81
-0.84296 -5.25595 1.19381 83 78 76
-0.85660 -5.26220 1.19733 84 81 86
-0.87022 -5.26845 1.20084 83 81 82
-0.88384 -5.27470 1.20435 82 83 75
-0.89744 -5.28093 1.20786 76 78 63
-0.91103 -5.28716 1.21137 81 78 86
-0.92460 -5.29339 1.21487 86 82 84
-0.93817 -5.29961 1.21837 80 75 71
-0.95172 -5.30582 1.22186 74 74 61
-0.96526 -5.31203 1.22535 70 71 77
-0.97878 -5.31823 1.22884 76 78 88
-0.99229 -5.32443 1.23232 86 83 92
-1.00579 -5.33062 1.23581 83 80 83
-1.01928 -5.33680 1.23928 81 80 73
-1.03275 -5.34298 1.24276 81 77 66
-1.04621 -5.34916 1.24623 74 73 77
-1.05966 -5.35532 1.24970 81 77 75
-1.07310 -5.36148 1.25316 82 80 76
-1.08652 -5.36764 1.25663 84 81 78
-1.09993 -5.37379 1.26008 77 76 72
-1.11333 -5.37993 1.26354 77 79 79
-1.12671 -5.38607 1.26699 77 76 74
-1.14009 -5.39220 1.27044 82 77 80
-1.15345 -5.39833 1.27389 82 78 87
-1.16679 -5.40445 1.27733 87 80 88
-1.18013 -5.41057 1.28077 82 77 73
0.88277 -4.44606 0.73366 123 125 126
0.86749 -4.45307 0.73761 123 124 117
0.85223 -4.46008 0.74155 122 124 117
0.83699 -4.46708 0.74549 122 125 120
0.82176 -4.47407 0.74942 124 123 121
0.80654 -4.48106 0.75335 126 128 122
0.79134 -4.48804 0.75728 125 129 123
0.77616 -4.49501 0.76121 127 128 126
0.76099 -4.50198 0.76512 129 130 129
0.74583 -4.50893 0.76904 130 133 132
0.73069 -4.51589 0.77295 128 136 124
0.71557 -4.52283 0.77686 133 140 128
0.70046 -4.52977 0.78076 137 140 127
0.68537 -4.53670 0.78466 143 140 131
0.67029 -4.54362 0.78856 131 129 134
0.65522 -4.55054 0.79245 131 127 133
0.64018 -4.55745 0.79634 130 129 135
0.62514 -4.56435 0.80023 126 124 127
0.61012 -4.57125 0.80411 121 121 126
0.59512 -4.57814 0.80798 123 126 125
0.58013 -4.58502 0.81186 121 122 130
0.56516 -4.59190 0.81573 125 134 140
0.55020 -4.59876 0.81959 122 124 125
0.53525 -4.60563 0.82345 127 126 123
0.52032 -4.61248 0.82731 117 121 122
0.50541 -4.61933 0.83116 120 122 133
0.41623 -4.66028 0.85421 123 115 112
0.40141 -4.66708 0.85804 123 117 112
0.38662 -4.67388 0.86186 122 119 112
0.37183 -4.68067 0.86568 121 120 116
0.35706 -4.68745 0.86950 121 124 119
0.34231 -4.69422 0.87331 122 125 116
0.32757 -4.70099 0.87712 126 128 113
0.31285 -4.70775 0.88092 126 124 116
0.29814 -4.71451 0.88472 127 121 127
0.28344 -4.72125 0.88852 128 129 133
0.26876 -4.72799 0.89231 125 130 130
0.25409 -4.73473 0.89610 127 129 115
0.23944 -4.74146 0.89989 128 128 107
0.22480 -4.74818 0.90367 117 116 114
0.21018 -4.75489 0.90745 116 115 115
0.19557 -4.76160 0.91123 120 115 117
0.18097 -4.76830 0.91500 121 118 122
0.16639 -4.77500 0.91876 121 122 117
0.15182 -4.78169 0.92253 114 118 107
0.13727 -4.78837 0.92629 112 118 113
0.12273 -4.79505 0.93005 119 129 123
0.10821 -4.80172 0.93380 117 113 108
0.09370 -4.80838 0.93755 108 106 99
0.07920 -4.81503 0.94129 115 112 108
0.06472 -4.82168 0.94504 118 113 117
0.05025 -4.82833 0.94877 119 121 117
0.03580 -4.83496 0.95251 119 123 110
0.02136 -4.84159 0.95624 111 115 109
0.00693 -4.84822 0.95997 119 115 114
-0.00748 -4.85484 0.96369 120 114 115
-0.02188 -4.86145 0.96741 109 114 117
-0.03626 -4.86805 0.97113 117 123 117
-0.05063 -4.87465 0.97484 108 106 111
-0.06498 -4.88124 0.97855 114 120 109
-0.07932 -4.88783 0.98226 114 110 114
-0.09365 -4.89440 0.98596 115 112 112
-0.10797 -4.90098 0.98966 108 108 100
-0.12227 -4.90754 0.99335 114 112 111
-0.13655 -4.91410 0.99704 121 123 116
-0.15082 -4.92066 1.00073 115 115 105
-0.16508 -4.92720 1.00441 123 117 111
-0.17933 -4.93374 1.00809 113 104 111
-0.19356 -4.94028 1.01177 103 104 112
-0.20777 -4.94681 1.01545 111 118 123
-0.22198 -4.95333 1.01912 115 111 105
-0.23617 -4.95984 1.02278 105 102 103
-0.25034 -4.96635 1.02645 103 104 101
-0.26451 -4.97286 1.03010 108 104 102
-0.27865 -4.97935 1.03376 103 100 95
-0.29279 -4.98584 1.03741 102 102 97
-0.30691 -4.99233 1.04106 106 104 104
-0.32102 -4.99881 1.04471 107 105 103
-0.33511 -5.00528 1.04835 104 107 97
-0.34919 -5.01174 1.05199 102 100 95
-0.36326 -5.01820 1.05562 98 96 94
-0.37731 -5.02466 1.05925 95 96 89
-0.39135 -5.03110 1.06288 95 97 88
-0.40538 -5.03754 1.06651 100 97 88
-0.41939 -5.04398 1.07013 101 95 93
-0.43339 -5.05041 1.07374 92 90 93
-0.44738 -5.05683 1.07736 88 91 89
-0.46135 -5.06324 1.08097 84 85 72
-0.47531 -5.06965 1.08458 84 84 78
-0.48926 -5.07606 1.08818 87 88 91
-0.50319 -5.08246 1.09178 90 87 86
-0.51711 -5.08885 1.09538 93 88 86
-0.53102 -5.09523 1.09897 100 96 94
-0.54491 -5.10161 1.10256 98 94 91
-0.55879 -5.10798 1.10615 90 86 85
-0.57266 -5.11435 1.10973 86 85 80
-0.58651 -5.12071 1.11331 85 86 81
-0.60035 -5.12707 1.11688 84 87 84
-0.61418 -5.13342 1.12046 85 86 85
-0.62799 -5.13976 1.12403 86 88 87
-0.64179 -5.14610 1.12759 90 94 91
-0.65558 -5.15243 1.13115 96 96 95
-0.66935 -5.15875 1.13471 96 93 91
-0.68311 -5.16507 1.13827 91 88 86
-0.69686 -5.17138 1.14182 88 85 83
-0.71060 -5.17769 1.14537 86 81 81
-0.72432 -5.18399 1.14892 81 78 81
-0.73803 -5.19029 1.15246 76 79 80
-0.75172 -5.19657 1.15600 81 82 84
-0.76541 -5.20286 1.15953 83 82 83
-0.77908 -5.20913 1.16307 83 84 87
-0.79273 -5.21540 1.16659 80 83 88
-0.80638 -5.22167 1.17012 84 82 82
-0.82001 -5.22793 1.17364 82 79 83
-0.83363 -5.23418 1.17716 85 80 85
-0.84723 -5.24043 1.18068 83 78 79
-0.86082 -5.24667 1.18419 81 80 81
-0.87440 -5.25291 1.18770 80 77 80
-0.88797 -5.25914 1.19120 83 79 80
-0.90152 -5.26536 1.19471 84 82 76
-0.91507 -5.27158 1.19820 87 79 87
-0.92859 -5.27779 1.20170 92 87 89
-0.94211 -5.28400 1.20519 84 72 77
-0.95561 -5.29020 1.20868 78 76 73
-0.96910 -5.29639 1.21217 68 74 80
-0.98258 -5.30258 1.21565 72 78 85
-0.99605 -5.30876 1.21913 85 85 82
-1.00950 -5.31494 1.22260 84 81 84
-1.02294 -5.32111 1.22608 82 78 78
-1.03637 -5.32728 1.22955 84 77 75
-1.04978 -5.33344 1.23301 79 75 77
-1.06318 -5.33959 1.23648 80 76 74
-1.07657 -5.34574 1.23994 80 79 86
-1.08995 -5.35188 1.24339 81 79 77
-1.10331 -5.35802 1.24685 79 75 81
-1.11666 -5.36415 1.25030 79 81 91
-1.13000 -5.37027 1.25374 78 77 81
-1.14333 -5.37639 1.25719 83 79 81
-1.15664 -5.38250 1.26063 81 80 84
-1.16995 -5.38861 1.26406 80 81 79
-1.18324 -5.39471 1.26750 79 78 71
0.88736 -4.42554 0.71747 124 125 127
0.87212 -4.43254 0.72142 125 127 128
0.85691 -4.43953 0.72536 125 127 124
0.84171 -4.44652 0.72929 125 125 124
0.82652 -4.45351 0.73322 126 129 131
0.81135 -4.46048 0.73715 129 134 132
0.79619 -4.46745 0.74107 128 132 126
0.78105 -4.47441 0.74499 128 130 123
0.76593 -4.48137 0.74891 131 132 129
0.75082 -4.48831 0.75282 133 136 135
0.73572 -4.49525 0.75673 137 138 131
0.72064 -4.50219 0.76063 134 140 127
0.70558 -4.50911 0.76453 134 139 129
0.69053 -4.51603 0.76843 132 140 129
0.67549 -4.52295 0.77232 138 137 131
0.66047 -4.52985 0.77621 132 127 132
0.64546 -4.53675 0.78009 138 135 139
0.63047 -4.54365 0.78398 135 136 136
0.61550 -4.55053 0.78785 129 128 132
0.60054 -4.55741 0.79173 126 125 137
0.58559 -4.56428 0.79560 128 126 130
0.57066 -4.57115 0.79946 125 121 130
0.55574 -4.57801 0.80332 128 132 138
0.54084 -4.58486 0.80718 121 123 118
0.52595 -4.59170 0.81103 124 118 98
0.51108 -4.59854 0.81489 119 115 112
0.49622 -4.60537 0.81873 125 124 128
0.48138 -4.61220 0.82257 126 126 134
0.46655 -4.61902 0.82641 121 126 126
0.39262 -4.65300 0.84555 128 130 119
0.37788 -4.65978 0.84937 120 123 116
0.36315 -4.66655 0.85318 119 123 126
0.34844 -4.67332 0.85699 116 126 127
0.33374 -4.68008 0.86079 119 127 123
0.31906 -4.68683 0.86460 128 134 129
0.30439 -4.69357 0.86839 129 137 131
0.28973 -4.70031 0.87219 130 135 127
0.27509 -4.70704 0.87598 129 130 129
0.26047 -4.71377 0.87976 121 124 122
0.24585 -4.72049 0.88355 118 124 111
0.23126 -4.72720 0.88733 121 124 112
0.21667 -4.73390 0.89110 118 120 118
0.20210 -4.74060 0.89487 119 121 122
0.18755 -4.74729 0.89864 122 118 125
0.17301 -4.75398 0.90241 120 117 122
0.15848 -4.76066 0.90617 115 113 115
0.14397 -4.76733 0.90992 109 102 104
0.12947 -4.77400 0.91368 105 105 104
0.11498 -4.78066 0.91743 113 116 119
0.10051 -4.78731 0.92117 115 109 114
0.08606 -4.79396 0.92492 109 103 110
0.07162 -4.80060 0.92865 122 120 108
0.05719 -4.80723 0.93239 120 120 112
0.04277 -4.81386 0.93612 118 121 112
0.02837 -4.82048 0.93985 120 124 114
0.01399 -4.82709 0.94357 120 125 117
-0.00038 -4.83370 0.94729 125 123 103
-0.01474 -4.84030 0.95101 116 114 101
-0.02909 -4.84690 0.95472 112 110 111
-0.04342 -4.85349 0.95843 121 114 113
-0.05773 -4.86007 0.96214 119 112 115
-0.07204 -4.86664 0.96584 118 119 122
-0.08632 -4.87321 0.96954 103 108 121
-0.10060 -4.87978 0.97324 106 116 124
-0.11486 -4.88633 0.97693 112 111 109
-0.12911 -4.89289 0.98062 114 115 113
-0.14334 -4.89943 0.98430 119 118 114
-0.15756 -4.90597 0.98799 118 120 111
-0.17177 -4.91250 0.99166 113 115 114
-0.18596 -4.91902 0.99534 103 96 112
-0.20014 -4.92554 0.99901 96 99 106
-0.21431 -4.93206 1.00268 112 113 115
-0.22846 -4.93856 1.00634 122 116 108
-0.24259 -4.94506 1.01000 116 113 113
