ply
format ascii 1.0
element face 0
property list uchar int vertex_indices
element vertex 1259
property float x
property float y
property float z
property uchar diffuse_red
property uchar diffuse_green
property uchar diffuse_blue
end_header
0.04829 -0.35903 -0.73569 254 254 254
0.05567 -0.36173 -0.73227 254 254 254
0.06304 -0.36442 -0.72886 254 254 254
0.07041 -0.36712 -0.72545 254 254 254
0.07777 -0.36981 -0.72204 254 254 254
0.08513 -0.37250 -0.71864 254 254 254
0.09248 -0.37518 -0.71523 254 254 254
0.09983 -0.37787 -0.71184 254 254 254
0.10716 -0.38055 -0.70844 254 254 254
0.11450 -0.38323 -0.70505 254 254 254
0.12182 -0.38591 -0.70166 254 254 254
0.12914 -0.38858 -0.69827 254 254 254
0.13645 -0.39126 -0.69489 254 254 254
0.14376 -0.39393 -0.69150 254 254 254
0.15106 -0.39660 -0.68813 254 254 254
0.15836 -0.39926 -0.68475 254 254 254
0.16565 -0.40193 -0.68138 254 254 254
0.17293 -0.40459 -0.67801 254 254 254
0.18020 -0.40725 -0.67464 254 254 254
0.18747 -0.40991 -0.67127 254 254 254
0.19474 -0.41256 -0.66791 254 254 254
0.20200 -0.41522 -0.66455 254 254 254
0.20925 -0.41787 -0.66120 254 254 254
0.21649 -0.42052 -0.65785 254 254 254
0.22373 -0.42316 -0.65449 254 254 254
0.23097 -0.42581 -0.65115 254 254 254
0.23820 -0.42845 -0.64780 254 254 254
0.29580 -0.44950 -0.62115 254 254 254
0.30297 -0.45213 -0.61783 254 254 254
0.31014 -0.45475 -0.61451 254 254 254
-0.03951 -0.33869 -0.76515 254 254 254
-0.03208 -0.34140 -0.76172 254 254 254
-0.02467 -0.34411 -0.75829 254 254 254
-0.01726 -0.34681 -0.75487 254 254 254
-0.00985 -0.34951 -0.75145 254 254 254
-0.00245 -0.35221 -0.74803 254 254 254
0.00494 -0.35491 -0.74461 254 254 254
0.01232 -0.35760 -0.74120 254 254 254
0.01970 -0.36030 -0.73779 254 254 254
0.02707 -0.36299 -0.73438 254 254 254
0.03444 -0.36567 -0.73098 254 254 254
0.04180 -0.36836 -0.72758 254 254 254
0.04916 -0.37104 -0.72418 254 254 254
0.05650 -0.37372 -0.72078 254 254 254
0.06384 -0.37640 -0.71739 254 254 254
0.07118 -0.37908 -0.71400 254 254 254
0.07851 -0.38175 -0.71061 254 254 254
0.08583 -0.38443 -0.70723 254 254 254
0.09315 -0.38710 -0.70385 254 254 254
0.10046 -0.38976 -0.70047 254 254 254
0.10777 -0.39243 -0.69709 254 254 254
0.11506 -0.39509 -0.69372 254 254 254
0.12236 -0.39775 -0.69035 254 254 254
0.12964 -0.40041 -0.68698 254 254 254
0.13692 -0.40307 -0.68362 254 254 254
0.14420 -0.40572 -0.68026 254 254 254
0.15146 -0.40837 -0.67690 254 254 254
0.15873 -0.41102 -0.67354 254 254 254
0.16598 -0.41367 -0.67019 254 254 254
0.17323 -0.41632 -0.66684 254 254 254
0.18048 -0.41896 -0.66349 254 254 254
0.18771 -0.42160 -0.66015 254 254 254
0.19495 -0.42424 -0.65680 254 254 254
0.20217 -0.42687 -0.65346 254 254 254
0.20939 -0.42951 -0.65013 254 254 254
0.21660 -0.43214 -0.64680 254 254 254
0.22381 -0.43477 -0.64346 254 254 254
0.28841 -0.45834 -0.61361 254 254 254
0.29555 -0.46095 -0.61031 254 254 254
-0.06044 -0.34272 -0.76375 253 253 254
-0.05303 -0.34542 -0.76033 254 254 254
-0.04563 -0.34811 -0.75691 254 254 254
-0.03824 -0.35081 -0.75350 254 254 254
-0.03085 -0.35350 -0.75009 254 254 254
-0.02347 -0.35619 -0.74668 254 254 254
-0.01609 -0.35887 -0.74328 254 254 254
-0.00872 -0.36156 -0.73988 254 254 254
-0.00136 -0.36424 -0.73648 254 254 254
0.00600 -0.36692 -0.73308 254 254 254
0.01335 -0.36960 -0.72969 254 254 254
0.02070 -0.37227 -0.72630 254 254 254
0.02804 -0.37495 -0.72292 254 254 254
0.03537 -0.37762 -0.71953 254 254 254
0.04270 -0.38028 -0.71615 254 254 254
0.05002 -0.38295 -0.71277 254 254 254
0.05733 -0.38562 -0.70940 254 254 254
0.06464 -0.38828 -0.70602 254 254 254
0.07194 -0.39094 -0.70265 254 254 254
0.07924 -0.39359 -0.69929 254 254 254
0.08653 -0.39625 -0.69592 254 254 254
0.09381 -0.39890 -0.69256 254 254 254
0.10109 -0.40155 -0.68920 254 254 254
0.10836 -0.40420 -0.68585 254 254 254
0.11563 -0.40685 -0.68249 254 254 254
0.12289 -0.40949 -0.67914 254 254 254
0.13014 -0.41213 -0.67580 254 254 254
0.13739 -0.41477 -0.67245 254 254 254
0.14463 -0.41741 -0.66911 254 254 254
0.15186 -0.42004 -0.66577 254 254 254
0.15909 -0.42268 -0.66243 254 254 254
0.16632 -0.42531 -0.65910 254 254 254
0.17353 -0.42794 -0.65577 254 254 254
0.18074 -0.43056 -0.65244 254 254 254
0.18795 -0.43319 -0.64912 254 254 254
0.19515 -0.43581 -0.64579 254 254 254
0.20234 -0.43843 -0.64247 254 254 254
0.20953 -0.44105 -0.63916 254 254 254
-0.08124 -0.34672 -0.76236 253 253 253
-0.07385 -0.34941 -0.75895 253 253 253
-0.06646 -0.35210 -0.75554 253 253 253
-0.05908 -0.35478 -0.75214 253 253 253
-0.05171 -0.35746 -0.74874 254 253 254
-0.04434 -0.36014 -0.74535 254 254 254
-0.03698 -0.36281 -0.74196 254 254 254
-0.02963 -0.36549 -0.73857 254 254 254
-0.02228 -0.36816 -0.73518 254 254 254
-0.01494 -0.37083 -0.73180 254 254 254
-0.00760 -0.37350 -0.72842 254 254 254
-0.00027 -0.37616 -0.72504 254 254 254
0.00706 -0.37882 -0.72166 254 254 254
0.01437 -0.38148 -0.71829 254 254 254
0.02168 -0.38414 -0.71492 254 254 254
0.02899 -0.38680 -0.71155 254 254 254
0.03629 -0.38945 -0.70819 254 254 254
0.04358 -0.39210 -0.70483 254 254 254
0.05087 -0.39475 -0.70147 254 254 254
0.05815 -0.39740 -0.69811 254 254 254
0.06543 -0.40004 -0.69476 254 254 254
0.07270 -0.40269 -0.69141 254 254 254
0.07996 -0.40533 -0.68806 254 254 254
0.08722 -0.40797 -0.68472 254 254 254
0.09447 -0.41060 -0.68138 254 254 254
0.10171 -0.41324 -0.67804 254 254 254
0.10895 -0.41587 -0.67470 254 254 254
0.11619 -0.41850 -0.67137 254 254 254
0.12341 -0.42112 -0.66804 254 254 254
0.13063 -0.42375 -0.66471 254 254 254
0.13785 -0.42637 -0.66138 254 254 254
0.14506 -0.42899 -0.65806 254 254 254
0.15226 -0.43161 -0.65474 254 254 254
0.15946 -0.43423 -0.65142 254 254 254
0.16665 -0.43684 -0.64811 254 254 254
0.17383 -0.43945 -0.64480 254 254 254
0.18101 -0.44206 -0.64149 254 254 254
0.18818 -0.44467 -0.63818 254 254 254
0.19535 -0.44728 -0.63488 254 254 254
-0.10929 -0.34802 -0.76437 253 253 253
-0.10191 -0.35070 -0.76097 253 253 253
-0.09453 -0.35338 -0.75758 253 253 253
-0.08716 -0.35605 -0.75418 253 253 253
-0.07980 -0.35872 -0.75079 253 253 253
-0.07244 -0.36139 -0.74741 253 253 253
-0.06509 -0.36406 -0.74402 253 253 253
-0.05774 -0.36673 -0.74064 253 253 253
-0.05040 -0.36939 -0.73726 253 253 254
-0.04307 -0.37205 -0.73389 254 254 254
-0.03574 -0.37471 -0.73052 254 254 254
-0.02842 -0.37737 -0.72715 254 254 254
-0.02110 -0.38002 -0.72378 254 254 254
-0.01379 -0.38267 -0.72042 254 254 254
-0.00649 -0.38533 -0.71705 254 254 254
0.00081 -0.38797 -0.71370 254 254 254
0.00810 -0.39062 -0.71034 254 254 254
0.01538 -0.39326 -0.70699 254 254 254
0.02266 -0.39590 -0.70364 254 254 254
0.02994 -0.39854 -0.70029 254 254 254
0.03720 -0.40118 -0.69695 254 254 254
0.04446 -0.40382 -0.69360 254 254 254
0.05172 -0.40645 -0.69027 254 254 254
0.05897 -0.40908 -0.68693 254 254 254
0.06621 -0.41171 -0.68360 254 254 254
0.07345 -0.41433 -0.68027 254 254 254
0.08068 -0.41696 -0.67694 254 254 254
0.08790 -0.41958 -0.67361 254 254 254
0.09512 -0.42220 -0.67029 254 254 254
0.10233 -0.42482 -0.66697 254 254 254
0.10954 -0.42743 -0.66365 254 254 254
0.11674 -0.43004 -0.66034 254 254 254
0.12393 -0.43265 -0.65703 254 254 254
0.13112 -0.43526 -0.65372 254 254 254
0.13830 -0.43787 -0.65041 254 254 254
0.14548 -0.44047 -0.64711 254 254 254
0.15265 -0.44308 -0.64381 254 254 254
0.15982 -0.44568 -0.64051 254 254 254
0.16698 -0.44827 -0.63722 254 254 254
0.17413 -0.45087 -0.63393 254 254 254
0.18128 -0.45346 -0.63064 254 254 254
-0.13718 -0.34931 -0.76637 252 252 252
-0.12981 -0.35198 -0.76298 252 252 252
-0.12244 -0.35465 -0.75960 252 252 252
-0.11508 -0.35731 -0.75621 252 252 252
-0.10772 -0.35998 -0.75283 252 252 252
-0.10037 -0.36264 -0.74945 252 252 253
-0.09303 -0.36530 -0.74608 253 253 253
-0.08569 -0.36796 -0.74271 253 253 253
-0.07836 -0.37061 -0.73934 253 253 253
-0.07104 -0.37327 -0.73597 253 253 253
-0.06372 -0.37592 -0.73261 253 253 253
-0.05641 -0.37857 -0.72925 253 253 253
-0.04910 -0.38122 -0.72589 253 253 254
-0.04180 -0.38386 -0.72253 254 253 254
-0.03450 -0.38650 -0.71918 254 253 254
-0.02722 -0.38914 -0.71583 254 254 254
-0.01993 -0.39178 -0.71248 254 254 254
-0.01266 -0.39442 -0.70914 254 254 254
-0.00539 -0.39705 -0.70580 254 254 254
0.00188 -0.39968 -0.70246 254 254 254
0.00914 -0.40231 -0.69912 254 254 254
0.01639 -0.40494 -0.69579 254 254 254
0.02363 -0.40756 -0.69246 254 254 254
0.03087 -0.41018 -0.68913 254 254 254
0.03811 -0.41281 -0.68580 254 254 254
0.04534 -0.41542 -0.68248 254 254 254
0.05256 -0.41804 -0.67916 254 254 254
0.05977 -0.42065 -0.67585 254 254 254
0.06698 -0.42327 -0.67253 254 254 254
0.07419 -0.42588 -0.66922 254 254 254
0.08139 -0.42848 -0.66591 254 254 254
0.08858 -0.43109 -0.66261 254 254 254
0.09576 -0.43369 -0.65930 254 254 254
0.10294 -0.43629 -0.65600 254 254 254
0.11012 -0.43889 -0.65270 254 254 254
0.11729 -0.44149 -0.64941 254 254 254
0.12445 -0.44408 -0.64612 254 254 254
0.13161 -0.44668 -0.64283 254 254 254
0.13876 -0.44927 -0.63954 254 254 254
0.14590 -0.45185 -0.63626 254 254 254
0.15304 -0.45444 -0.63298 254 254 254
0.16017 -0.45702 -0.62970 254 254 254
0.16730 -0.45961 -0.62642 254 254 254
-0.16492 -0.35059 -0.76836 252 252 252
-0.15755 -0.35325 -0.76498 252 252 252
-0.15019 -0.35591 -0.76161 252 252 252
-0.14284 -0.35857 -0.75823 252 252 252
-0.13549 -0.36123 -0.75486 252 252 252
-0.12815 -0.36388 -0.75149 252 252 252
-0.12082 -0.36654 -0.74812 252 252 252
-0.11349 -0.36919 -0.74476 252 252 252
-0.10617 -0.37183 -0.74140 252 252 252
-0.09885 -0.37448 -0.73804 253 252 253
-0.09154 -0.37712 -0.73468 253 253 253
-0.08424 -0.37976 -0.73133 253 253 253
-0.07694 -0.38240 -0.72798 253 253 253
-0.06965 -0.38504 -0.72463 253 253 253
-0.06236 -0.38767 -0.72129 253 253 253
-0.05508 -0.39031 -0.71795 253 253 253
-0.04781 -0.39294 -0.71461 253 253 253
-0.04054 -0.39556 -0.71127 253 253 253
-0.03328 -0.39819 -0.70794 253 253 253
-0.02603 -0.40081 -0.70461 253 253 254
-0.01878 -0.40343 -0.70128 254 254 254
-0.01153 -0.40605 -0.69796 254 254 254
-0.00430 -0.40867 -0.69464 254 254 254
0.00294 -0.41129 -0.69132 254 254 254
0.01016 -0.41390 -0.68800 254 254 254
0.01738 -0.41651 -0.68469 254 254 254
0.02459 -0.41912 -0.68137 254 254 254
0.03180 -0.42172 -0.67807 254 254 254
0.03900 -0.42433 -0.67476 254 254 254
0.04620 -0.42693 -0.67146 254 254 254
0.05339 -0.42953 -0.66816 254 254 254
0.06057 -0.43213 -0.66486 254 254 254
0.06775 -0.43472 -0.66156 254 254 254
0.07492 -0.43732 -0.65827 254 254 254
0.08209 -0.43991 -0.65498 254 254 254
0.08925 -0.44250 -0.65170 254 254 254
0.09640 -0.44508 -0.64841 254 254 254
0.10355 -0.44767 -0.64513 254 254 254
0.11069 -0.45025 -0.64185 254 254 254
0.11783 -0.45283 -0.63858 254 254 254
0.12496 -0.45541 -0.63530 254 254 254
0.13209 -0.45799 -0.63203 254 254 254
0.13921 -0.46056 -0.62877 254 254 254
0.14632 -0.46313 -0.62550 254 254 254
0.15343 -0.46570 -0.62224 254 254 254
-0.18514 -0.35452 -0.76697 252 251 252
-0.17779 -0.35717 -0.76360 252 252 252
-0.17045 -0.35982 -0.76024 252 252 252
-0.16311 -0.36247 -0.75687 252 252 252
-0.15578 -0.36512 -0.75351 252 252 252
-0.14845 -0.36776 -0.75015 252 252 252
-0.14113 -0.37040 -0.74680 252 252 252
-0.13382 -0.37304 -0.74345 252 252 252
-0.12651 -0.37568 -0.74010 252 252 252
-0.11921 -0.37832 -0.73675 252 252 252
-0.11192 -0.38095 -0.73341 252 252 252
-0.10463 -0.38358 -0.73006 252 252 252
-0.09735 -0.38621 -0.72673 252 252 252
-0.09007 -0.38884 -0.72339 252 252 253
-0.08280 -0.39146 -0.72006 253 253 253
-0.07553 -0.39408 -0.71673 253 253 253
-0.06827 -0.39670 -0.71340 253 253 253
-0.06102 -0.39932 -0.71007 253 253 253
-0.05377 -0.40194 -0.70675 253 253 253
-0.04653 -0.40455 -0.70343 253 253 253
-0.03930 -0.40716 -0.70012 253 253 253
-0.03207 -0.40977 -0.69680 253 253 253
-0.02485 -0.41238 -0.69349 254 253 254
-0.01763 -0.41498 -0.69018 254 254 254
-0.01042 -0.41759 -0.68688 254 254 254
-0.00321 -0.42019 -0.68357 254 254 254
0.00399 -0.42279 -0.68027 254 254 254
0.01118 -0.42538 -0.67698 254 254 254
0.01837 -0.42798 -0.67368 254 254 254
0.02555 -0.43057 -0.67039 254 254 254
0.03272 -0.43316 -0.66710 254 254 254
0.03989 -0.43575 -0.66381 254 254 254
0.04706 -0.43833 -0.66053 254 254 254
0.05421 -0.44092 -0.65725 254 254 254
0.06137 -0.44350 -0.65397 254 254 254
0.06851 -0.44608 -0.65069 254 254 254
0.07565 -0.44866 -0.64742 254 254 254
0.08279 -0.45123 -0.64415 254 254 254
0.08991 -0.45380 -0.64088 254 254 254
0.09704 -0.45638 -0.63762 254 254 254
0.10415 -0.45894 -0.63436 254 254 254
0.11126 -0.46151 -0.63110 254 254 254
0.11837 -0.46408 -0.62784 254 254 254
0.12547 -0.46664 -0.62458 254 254 254
0.13256 -0.46920 -0.62133 254 254 254
0.13965 -0.47176 -0.61808 254 254 254
-0.27892 -0.33187 -0.79932 252 251 251
-0.27152 -0.33454 -0.79594 252 251 251
-0.26413 -0.33720 -0.79255 252 251 251
-0.25675 -0.33986 -0.78917 252 251 251
-0.24937 -0.34252 -0.78580 252 251 251
-0.24200 -0.34518 -0.78242 252 251 251
-0.23463 -0.34783 -0.77905 252 251 251
-0.22728 -0.35048 -0.77568 252 251 251
-0.21992 -0.35313 -0.77231 252 251 251
-0.21258 -0.35578 -0.76895 252 251 251
-0.20523 -0.35842 -0.76559 252 251 251
-0.19790 -0.36107 -0.76223 252 251 251
-0.19057 -0.36371 -0.75888 252 251 251
-0.18325 -0.36635 -0.75552 252 251 251
-0.17593 -0.36898 -0.75218 252 251 252
-0.16862 -0.37162 -0.74883 252 251 252
-0.16132 -0.37425 -0.74548 252 251 252
-0.15402 -0.37688 -0.74214 252 252 252
-0.14673 -0.37951 -0.73880 252 252 252
-0.13944 -0.38213 -0.73547 252 252 252
-0.13216 -0.38475 -0.73214 252 252 252
-0.12489 -0.38738 -0.72881 252 252 252
-0.11762 -0.38999 -0.72548 252 252 252
-0.11036 -0.39261 -0.72215 252 252 252
-0.10310 -0.39523 -0.71883 252 252 252
-0.09585 -0.39784 -0.71551 252 252 252
-0.08861 -0.40045 -0.71220 253 252 253
-0.08137 -0.40306 -0.70888 253 253 253
-0.07414 -0.40566 -0.70557 253 253 253
-0.06691 -0.40827 -0.70226 253 253 253
-0.05969 -0.41087 -0.69896 253 253 253
-0.05248 -0.41347 -0.69565 253 253 253
-0.04527 -0.41607 -0.69235 253 253 253
-0.03807 -0.41866 -0.68906 253 253 253
-0.03087 -0.42125 -0.68576 253 253 253
-0.02368 -0.42384 -0.68247 253 253 253
-0.01649 -0.42643 -0.67918 254 254 254
-0.00931 -0.42902 -0.67589 254 254 254
-0.00214 -0.43161 -0.67261 254 254 254
0.00503 -0.43419 -0.66933 254 254 254
0.01219 -0.43677 -0.66605 254 254 254
0.01934 -0.43935 -0.66277 254 254 254
0.02649 -0.44192 -0.65950 254 254 254
0.03363 -0.44450 -0.65623 254 254 254
0.04077 -0.44707 -0.65296 254 254 254
-0.34314 -0.31988 -0.81814 252 251 251
-0.33572 -0.32255 -0.81475 252 251 251
-0.32831 -0.32521 -0.81136 252 251 251
-0.32091 -0.32788 -0.80798 252 251 251
-0.31351 -0.33054 -0.80459 252 251 251
-0.30612 -0.33320 -0.80121 252 251 251
-0.29873 -0.33585 -0.79784 252 250 251
-0.29135 -0.33851 -0.79446 252 250 251
-0.28398 -0.34116 -0.79109 252 250 251
-0.27661 -0.34381 -0.78772 252 250 251
-0.26924 -0.34646 -0.78436 252 250 251
-0.26189 -0.34911 -0.78099 252 250 251
-0.25454 -0.35175 -0.77763 252 250 251
-0.24720 -0.35439 -0.77427 252 250 251
-0.23986 -0.35703 -0.77092 252 250 251
-0.23253 -0.35967 -0.76757 252 250 251
-0.22520 -0.36230 -0.76422 252 250 251
-0.21788 -0.36494 -0.76087 252 250 251
-0.21057 -0.36757 -0.75753 252 250 251
-0.20326 -0.37020 -0.75419 252 251 251
-0.19596 -0.37282 -0.75085 252 251 251
-0.18866 -0.37545 -0.74751 252 251 251
-0.18137 -0.37807 -0.74418 252 251 251
-0.17409 -0.38069 -0.74085 252 251 251
-0.16681 -0.38331 -0.73752 252 251 251
-0.15954 -0.38592 -0.73420 252 251 252
-0.15228 -0.38853 -0.73087 252 251 252
-0.14502 -0.39115 -0.72756 252 252 252
-0.13777 -0.39375 -0.72424 252 252 252
-0.13052 -0.39636 -0.72093 252 252 252
-0.12328 -0.39897 -0.71761 252 252 252
-0.11604 -0.40157 -0.71431 252 252 252
-0.10881 -0.40417 -0.71100 252 252 252
-0.10159 -0.40677 -0.70770 252 252 252
-0.09437 -0.40936 -0.70440 252 252 252
-0.08716 -0.41196 -0.70110 252 252 252
-0.07995 -0.41455 -0.69781 252 252 253
-0.07275 -0.41714 -0.69451 253 253 253
-0.06556 -0.41973 -0.69122 253 253 253
-0.05837 -0.42231 -0.68794 253 253 253
-0.05119 -0.42490 -0.68465 253 253 253
-0.04401 -0.42748 -0.68137 253 253 253
-0.03684 -0.43006 -0.67809 253 253 253
-0.02968 -0.43263 -0.67482 253 253 253
-0.02252 -0.43521 -0.67155 253 253 253
-0.01537 -0.43778 -0.66828 254 254 254
-0.00822 -0.44035 -0.66501 254 254 254
-0.00108 -0.44292 -0.66174 254 254 254
0.00606 -0.44549 -0.65848 254 254 254
0.01319 -0.44805 -0.65522 254 254 254
0.02031 -0.45062 -0.65196 254 254 254
0.02743 -0.45318 -0.64871 254 254 254
-0.34794 -0.32921 -0.80984 252 251 251
-0.34055 -0.33186 -0.80646 252 251 251
-0.33316 -0.33451 -0.80309 252 251 251
-0.32579 -0.33716 -0.79972 252 250 251
-0.31842 -0.33981 -0.79636 252 250 251
-0.31105 -0.34245 -0.79300 252 250 251
-0.30369 -0.34510 -0.78963 251 250 251
-0.29634 -0.34774 -0.78628 251 250 251
-0.28899 -0.35038 -0.78292 251 250 251
-0.28165 -0.35301 -0.77957 251 250 251
-0.27432 -0.35564 -0.77622 251 250 251
-0.26699 -0.35828 -0.77287 251 250 251
-0.25967 -0.36091 -0.76953 251 250 251
-0.25235 -0.36353 -0.76619 251 250 251
-0.24504 -0.36616 -0.76285 251 250 251
-0.23774 -0.36878 -0.75952 251 250 251
-0.23044 -0.37140 -0.75618 251 250 251
-0.22314 -0.37402 -0.75285 251 250 251
-0.21586 -0.37664 -0.74953 251 250 251
-0.20858 -0.37925 -0.74620 252 250 251
-0.20130 -0.38186 -0.74288 252 250 251
-0.19404 -0.38447 -0.73956 252 250 251
-0.18677 -0.38708 -0.73625 252 250 251
-0.17952 -0.38969 -0.73293 252 251 251
-0.17227 -0.39229 -0.72962 252 251 251
-0.16502 -0.39489 -0.72631 252 251 251
-0.15778 -0.39749 -0.72301 252 251 251
-0.15055 -0.40009 -0.71970 252 251 251
-0.14332 -0.40268 -0.71640 252 251 252
-0.13610 -0.40528 -0.71311 252 251 252
-0.12889 -0.40787 -0.70981 252 251 252
-0.12168 -0.41046 -0.70652 252 252 252
-0.11448 -0.41304 -0.70323 252 252 252
-0.10728 -0.41563 -0.69995 252 252 252
-0.10009 -0.41821 -0.69666 252 252 252
-0.09290 -0.42079 -0.69338 252 252 252
-0.08572 -0.42337 -0.69010 252 252 252
-0.07855 -0.42594 -0.68683 252 252 253
-0.07138 -0.42852 -0.68355 253 253 253
-0.06422 -0.43109 -0.68028 253 253 253
-0.05706 -0.43366 -0.67702 253 253 253
-0.04991 -0.43623 -0.67375 253 253 253
-0.04277 -0.43879 -0.67049 253 253 253
-0.03563 -0.44135 -0.66723 253 253 253
-0.02850 -0.44392 -0.66397 253 253 253
-0.02137 -0.44648 -0.66072 253 253 253
-0.01425 -0.44903 -0.65747 253 253 254
-0.00713 -0.45159 -0.65422 254 254 254
-0.00003 -0.45414 -0.65097 254 254 254
0.00708 -0.45669 -0.64773 254 254 254
0.01418 -0.45924 -0.64448 254 254 254
-0.35269 -0.33846 -0.80160 252 250 251
-0.34533 -0.34110 -0.79824 252 250 251
-0.33798 -0.34374 -0.79489 252 250 251
-0.33063 -0.34637 -0.79154 251 250 251
-0.32328 -0.34901 -0.78819 251 250 251
-0.31595 -0.35164 -0.78484 251 250 251
-0.30861 -0.35427 -0.78150 251 250 251
-0.30129 -0.35689 -0.77816 251 250 251
-0.29397 -0.35952 -0.77482 251 250 251
-0.28666 -0.36214 -0.77149 251 250 251
-0.27935 -0.36476 -0.76815 251 250 251
-0.27205 -0.36737 -0.76482 251 250 251
-0.26475 -0.36999 -0.76150 251 250 251
-0.25746 -0.37260 -0.75817 251 250 251
-0.25018 -0.37521 -0.75485 251 250 251
-0.24290 -0.37782 -0.75153 251 250 251
-0.23563 -0.38043 -0.74821 251 250 251
-0.22837 -0.38303 -0.74490 251 250 251
-0.22111 -0.38563 -0.74159 251 250 251
-0.21385 -0.38823 -0.73828 251 250 251
-0.20661 -0.39083 -0.73498 252 250 251
-0.19936 -0.39343 -0.73168 251 250 251
-0.19213 -0.39602 -0.72838 252 250 251
-0.18490 -0.39861 -0.72508 252 250 251
-0.17767 -0.40120 -0.72178 252 250 251
-0.17046 -0.40379 -0.71849 252 250 251
-0.16324 -0.40638 -0.71520 252 251 251
-0.15604 -0.40896 -0.71192 252 251 251
-0.14884 -0.41154 -0.70863 252 251 251
-0.14164 -0.41412 -0.70535 252 251 251
-0.13446 -0.41670 -0.70207 252 251 251
-0.12727 -0.41927 -0.69880 252 251 252
-0.12010 -0.42184 -0.69552 252 252 252
-0.11293 -0.42441 -0.69225 252 252 252
-0.10576 -0.42698 -0.68899 252 252 252
-0.09860 -0.42955 -0.68572 252 252 252
-0.09145 -0.43211 -0.68246 252 252 252
-0.08430 -0.43468 -0.67920 252 252 252
-0.07716 -0.43724 -0.67594 252 252 252
-0.07002 -0.43979 -0.67269 252 252 253
-0.06289 -0.44235 -0.66944 253 253 253
-0.05577 -0.44490 -0.66619 253 253 253
-0.04865 -0.44746 -0.66294 253 253 253
-0.04154 -0.45001 -0.65970 253 253 253
-0.03443 -0.45255 -0.65646 253 253 253
-0.02733 -0.45510 -0.65322 253 253 253
-0.02023 -0.45764 -0.64998 253 253 253
-0.01314 -0.46018 -0.64675 253 253 254
-0.00606 -0.46272 -0.64352 254 254 254
0.00102 -0.46526 -0.64029 254 254 254
-0.35741 -0.34765 -0.79343 252 250 251
-0.35008 -0.35027 -0.79009 251 250 251
-0.34275 -0.35289 -0.78675 251 250 251
-0.33543 -0.35551 -0.78342 251 250 251
-0.32811 -0.35813 -0.78008 251 250 251
-0.32080 -0.36075 -0.77676 251 250 251
-0.31350 -0.36336 -0.77343 251 250 251
-0.30620 -0.36597 -0.77010 251 250 251
-0.29891 -0.36858 -0.76678 251 250 251
-0.29162 -0.37119 -0.76346 251 250 251
-0.28434 -0.37380 -0.76015 251 250 251
-0.27707 -0.37640 -0.75683 251 250 251
-0.26980 -0.37900 -0.75352 251 250 251
-0.26254 -0.38160 -0.75022 251 250 251
-0.25528 -0.38420 -0.74691 251 250 251
-0.24803 -0.38679 -0.74361 251 250 251
-0.24078 -0.38938 -0.74031 251 250 251
-0.23355 -0.39197 -0.73701 251 250 251
-0.22631 -0.39456 -0.73372 251 250 251
-0.21909 -0.39715 -0.73043 251 250 250
-0.21187 -0.39973 -0.72714 251 250 251
-0.20465 -0.40231 -0.72385 251 250 251
-0.19744 -0.40489 -0.72057 251 250 251
-0.19024 -0.40747 -0.71729 251 250 251
-0.18304 -0.41005 -0.71401 251 250 251
-0.17585 -0.41262 -0.71073 252 250 251
-0.16866 -0.41519 -0.70746 252 250 251
-0.16148 -0.41776 -0.70419 252 250 251
-0.15431 -0.42033 -0.70092 252 251 251
-0.14714 -0.42289 -0.69766 252 251 251
-0.13998 -0.42546 -0.69439 252 251 251
-0.13282 -0.42802 -0.69114 252 251 251
-0.12567 -0.43058 -0.68788 252 251 252
-0.11853 -0.43313 -0.68462 252 252 252
-0.11139 -0.43569 -0.68137 252 252 252
-0.10425 -0.43824 -0.67812 252 252 252
-0.09713 -0.44079 -0.67488 252 252 252
-0.09001 -0.44334 -0.67163 252 252 252
-0.08289 -0.44589 -0.66839 252 252 252
-0.07578 -0.44843 -0.66515 252 252 252
-0.06867 -0.45097 -0.66192 252 252 253
-0.06158 -0.45351 -0.65868 253 253 253
-0.05448 -0.45605 -0.65545 253 253 253
-0.04740 -0.45859 -0.65223 253 253 253
-0.04031 -0.46112 -0.64900 253 253 253
-0.03324 -0.46366 -0.64578 253 253 253
-0.02617 -0.46619 -0.64256 253 253 253
-0.01910 -0.46871 -0.63934 253 253 253
-0.01205 -0.47124 -0.63612 253 253 253
-0.36210 -0.35675 -0.78532 251 250 251
-0.35479 -0.35936 -0.78200 251 250 251
-0.34749 -0.36197 -0.77868 251 250 251
-0.34019 -0.36458 -0.77536 251 250 250
-0.33290 -0.36718 -0.77204 251 250 251
-0.32562 -0.36978 -0.76873 251 250 251
-0.31834 -0.37238 -0.76542 251 250 251
-0.31107 -0.37498 -0.76211 251 250 251
-0.30381 -0.37758 -0.75881 251 250 251
-0.29655 -0.38017 -0.75551 251 250 251
-0.28929 -0.38276 -0.75221 251 250 251
-0.28205 -0.38535 -0.74891 251 250 251
-0.27480 -0.38794 -0.74562 251 250 251
-0.26757 -0.39052 -0.74232 251 250 251
-0.26034 -0.39311 -0.73904 251 250 251
-0.25312 -0.39569 -0.73575 251 250 251
-0.24590 -0.39827 -0.73247 251 250 251
-0.23868 -0.40084 -0.72919 251 250 251
-0.23148 -0.40342 -0.72591 251 250 251
-0.22428 -0.40599 -0.72263 251 250 251
-0.21708 -0.40856 -0.71936 251 250 251
-0.20990 -0.41113 -0.71609 251 250 251
-0.20271 -0.41369 -0.71282 251 250 251
-0.19554 -0.41626 -0.70956 251 250 251
-0.18836 -0.41882 -0.70629 251 250 251
-0.18120 -0.42138 -0.70303 251 250 251
-0.17404 -0.42394 -0.69978 251 250 251
-0.16689 -0.42649 -0.69652 252 250 251
-0.15974 -0.42905 -0.69327 252 250 251
-0.15260 -0.43160 -0.69002 252 250 251
-0.14546 -0.43415 -0.68678 252 250 251
-0.13833 -0.43670 -0.68353 252 251 251
-0.13120 -0.43924 -0.68029 252 251 251
-0.12408 -0.44178 -0.67705 252 251 251
-0.11697 -0.44433 -0.67382 252 252 252
-0.10986 -0.44687 -0.67058 252 252 252
-0.10276 -0.44940 -0.66735 252 252 252
-0.09567 -0.45194 -0.66413 252 252 252
-0.08858 -0.45447 -0.66090 252 252 252
-0.08149 -0.45700 -0.65768 252 252 252
-0.07441 -0.45953 -0.65446 252 252 252
-0.06734 -0.46206 -0.65124 252 252 252
-0.06027 -0.46458 -0.64802 252 252 253
-0.05321 -0.46711 -0.64481 253 253 253
-0.04615 -0.46963 -0.64160 253 253 253
-0.03910 -0.47215 -0.63840 253 253 253
-0.03206 -0.47466 -0.63519 253 253 253
-0.36674 -0.36579 -0.77728 251 250 251
-0.35946 -0.36839 -0.77397 251 250 251
-0.35219 -0.37098 -0.77067 251 250 250
-0.34492 -0.37357 -0.76737 251 250 250
-0.33766 -0.37616 -0.76407 251 250 251
-0.33040 -0.37875 -0.76077 251 250 251
-0.32315 -0.38134 -0.75748 251 250 251
-0.31590 -0.38392 -0.75419 251 250 251
-0.30867 -0.38650 -0.75090 251 250 251
-0.30143 -0.38908 -0.74761 251 250 251
-0.29421 -0.39166 -0.74433 251 250 251
-0.28699 -0.39423 -0.74105 251 250 251
-0.27977 -0.39681 -0.73777 251 250 251
-0.27256 -0.39938 -0.73449 251 250 251
-0.26536 -0.40195 -0.73122 251 250 251
-0.25816 -0.40451 -0.72795 251 250 251
-0.25097 -0.40708 -0.72468 251 250 251
-0.24378 -0.40964 -0.72142 251 250 251
-0.23660 -0.41220 -0.71816 251 250 251
-0.22943 -0.41476 -0.71490 251 250 251
-0.22226 -0.41732 -0.71164 251 250 251
-0.21510 -0.41987 -0.70839 251 250 250
-0.20794 -0.42243 -0.70514 251 250 250
-0.20079 -0.42498 -0.70189 251 250 251
-0.19365 -0.42752 -0.69864 251 250 251
-0.18651 -0.43007 -0.69540 251 250 251
-0.17937 -0.43262 -0.69216 251 250 251
-0.17224 -0.43516 -0.68892 252 250 251
-0.16512 -0.43770 -0.68568 252 250 251
-0.15801 -0.44024 -0.68245 252 250 251
-0.15090 -0.44277 -0.67922 252 250 251
-0.14379 -0.44531 -0.67599 252 250 251
-0.13669 -0.44784 -0.67276 252 251 251
-0.12960 -0.45037 -0.66954 252 251 251
-0.12251 -0.45290 -0.66632 252 251 252
-0.11543 -0.45542 -0.66310 252 252 252
-0.10835 -0.45795 -0.65989 252 252 252
-0.10128 -0.46047 -0.65668 252 252 252
-0.09422 -0.46299 -0.65347 252 252 252
-0.08716 -0.46550 -0.65026 252 252 252
-0.08010 -0.46802 -0.64706 252 252 252
-0.07306 -0.47053 -0.64385 252 252 252
-0.06601 -0.47305 -0.64065 252 252 252
-0.05898 -0.47556 -0.63746 252 252 253
-0.05195 -0.47806 -0.63426 253 253 253
-0.04492 -0.48057 -0.63107 253 253 253
-0.37135 -0.37475 -0.76930 251 250 250
-0.36409 -0.37734 -0.76601 251 250 250
-0.35685 -0.37992 -0.76272 251 250 250
-0.34961 -0.38249 -0.75944 251 250 251
-0.34237 -0.38507 -0.75616 251 250 251
-0.33514 -0.38765 -0.75287 251 250 251
-0.32792 -0.39022 -0.74960 251 250 251
-0.32070 -0.39279 -0.74632 251 250 251
-0.31349 -0.39536 -0.74305 251 250 251
-0.30628 -0.39792 -0.73978 251 250 251
-0.29908 -0.40048 -0.73651 251 250 251
-0.29189 -0.40305 -0.73325 251 250 251
-0.28470 -0.40561 -0.72999 251 250 251
-0.27752 -0.40816 -0.72673 251 250 251
-0.27034 -0.41072 -0.72347 251 250 251
-0.26317 -0.41327 -0.72022 251 250 251
-0.25600 -0.41582 -0.71696 251 250 251
-0.24884 -0.41837 -0.71372 251 250 251
-0.24169 -0.42092 -0.71047 251 250 251
-0.23454 -0.42347 -0.70723 251 250 251
-0.22740 -0.42601 -0.70398 251 250 251
-0.22026 -0.42855 -0.70075 251 250 251
-0.21313 -0.43109 -0.69751 251 250 251
-0.20601 -0.43363 -0.69428 251 250 250
-0.19889 -0.43616 -0.69105 251 250 250
-0.19177 -0.43869 -0.68782 251 250 251
-0.18466 -0.44122 -0.68459 251 250 251
-0.17756 -0.44375 -0.68137 251 250 251
-0.17047 -0.44628 -0.67815 251 250 251
-0.16338 -0.44881 -0.67493 251 250 251
-0.15629 -0.45133 -0.67172 251 250 251
-0.14921 -0.45385 -0.66851 252 250 251
-0.14214 -0.45637 -0.66530 252 251 251
-0.13507 -0.45888 -0.66209 252 251 251
-0.12801 -0.46140 -0.65888 252 251 251
-0.12095 -0.46391 -0.65568 252 251 252
-0.11390 -0.46642 -0.65248 252 252 252
-0.10685 -0.46893 -0.64929 252 252 252
-0.09981 -0.47144 -0.64609 252 252 252
-0.09278 -0.47394 -0.64290 252 252 252
-0.08575 -0.47644 -0.63971 252 252 252
-0.07873 -0.47894 -0.63652 252 252 252
-0.07171 -0.48144 -0.63334 252 252 252
-0.37592 -0.38365 -0.76139 251 250 250
-0.36869 -0.38622 -0.75811 251 250 251
-0.36147 -0.38878 -0.75484 251 250 251
-0.35426 -0.39135 -0.75157 251 250 251
-0.34705 -0.39391 -0.74830 251 250 251
-0.33985 -0.39647 -0.74504 251 250 251
-0.33265 -0.39903 -0.74178 251 250 251
-0.32546 -0.40159 -0.73852 251 250 251
-0.31827 -0.40414 -0.73526 251 250 251
-0.31109 -0.40669 -0.73201 251 250 251
-0.30392 -0.40924 -0.72876 251 250 251
-0.29675 -0.41179 -0.72551 251 250 251
-0.28959 -0.41434 -0.72226 251 250 251
-0.28243 -0.41688 -0.71902 251 250 251
-0.27528 -0.41942 -0.71578 251 250 251
-0.26813 -0.42196 -0.71254 251 250 251
-0.26099 -0.42450 -0.70930 251 250 251
-0.25386 -0.42704 -0.70607 251 250 251
-0.24673 -0.42957 -0.70284 251 250 251
-0.23961 -0.43210 -0.69961 251 250 251
-0.23249 -0.43463 -0.69639 251 250 251
-0.22538 -0.43716 -0.69317 251 250 251
-0.21828 -0.43968 -0.68995 251 250 251
-0.21118 -0.44221 -0.68673 251 250 251
-0.20409 -0.44473 -0.68351 251 250 251
-0.19700 -0.44725 -0.68030 251 250 251
-0.18992 -0.44977 -0.67709 251 250 251
-0.18284 -0.45228 -0.67388 251 250 251
-0.17577 -0.45480 -0.67068 251 250 251
-0.16870 -0.45731 -0.66748 251 250 251
-0.16164 -0.45982 -0.66428 251 250 251
-0.15459 -0.46232 -0.66108 251 250 251
-0.14754 -0.46483 -0.65789 252 250 251
-0.14050 -0.46733 -0.65469 252 251 251
-0.13346 -0.46984 -0.65151 252 251 251
-0.12643 -0.47233 -0.64832 252 251 251
-0.11940 -0.47483 -0.64513 252 251 252
-0.11238 -0.47733 -0.64195 252 252 252
-0.10537 -0.47982 -0.63877 252 252 252
-0.09836 -0.48231 -0.63560 252 252 252
-0.38045 -0.39247 -0.75354 251 250 251
-0.37325 -0.39503 -0.75028 251 250 251
-0.36606 -0.39758 -0.74702 251 250 251
-0.35887 -0.40013 -0.74377 251 250 251
-0.35169 -0.40268 -0.74051 251 250 251
-0.34451 -0.40523 -0.73727 251 250 251
-0.33734 -0.40777 -0.73402 251 249 251
-0.33018 -0.41031 -0.73078 251 249 251
-0.32302 -0.41286 -0.72754 251 249 251
-0.31586 -0.41539 -0.72430 251 249 251
-0.30872 -0.41793 -0.72106 251 249 251
-0.30157 -0.42047 -0.71783 251 249 251
-0.29444 -0.42300 -0.71460 251 249 251
-0.28731 -0.42553 -0.71137 251 249 251
-0.28018 -0.42806 -0.70815 251 249 251
-0.27306 -0.43058 -0.70492 251 249 251
-0.26595 -0.43311 -0.70170 251 249 251
-0.25884 -0.43563 -0.69849 251 249 251
-0.25174 -0.43815 -0.69527 251 250 251
-0.24464 -0.44067 -0.69206 251 250 251
-0.23755 -0.44319 -0.68885 251 250 251
-0.23047 -0.44570 -0.68564 251 250 251
-0.22339 -0.44821 -0.68244 251 250 251
-0.21631 -0.45072 -0.67924 251 250 251
-0.20924 -0.45323 -0.67604 251 250 251
-0.20218 -0.45574 -0.67284 251 250 251
-0.19513 -0.45824 -0.66965 251 250 250
-0.18807 -0.46075 -0.66645 251 250 251
-0.18103 -0.46325 -0.66326 251 250 251
-0.17399 -0.46574 -0.66008 251 250 251
-0.16695 -0.46824 -0.65689 251 250 251
-0.15993 -0.47074 -0.65371 251 250 251
-0.15290 -0.47323 -0.65053 251 250 251
-0.14588 -0.47572 -0.64736 252 250 251
-0.13887 -0.47821 -0.64418 252 251 251
-0.13187 -0.48069 -0.64101 252 251 251
-0.12487 -0.48318 -0.63784 252 251 251
-0.38496 -0.40123 -0.74574 251 250 251
-0.37778 -0.40377 -0.74250 251 250 251
-0.37061 -0.40631 -0.73926 251 250 251
-0.36345 -0.40885 -0.73602 251 250 251
-0.35630 -0.41138 -0.73279 251 249 251
-0.34914 -0.41391 -0.72955 251 249 251
-0.34200 -0.41645 -0.72632 251 249 251
-0.33486 -0.41898 -0.72310 251 249 251
-0.32773 -0.42150 -0.71987 251 249 251
-0.32060 -0.42403 -0.71665 251 249 251
-0.31348 -0.42655 -0.71343 251 249 251
-0.30636 -0.42907 -0.71021 251 249 251
-0.29925 -0.43159 -0.70700 251 249 251
-0.29215 -0.43411 -0.70378 251 249 251
-0.28505 -0.43663 -0.70057 251 249 251
-0.27795 -0.43914 -0.69737 251 249 251
-0.27086 -0.44165 -0.69416 251 249 251
-0.26378 -0.44416 -0.69096 251 249 251
-0.25671 -0.44667 -0.68776 251 249 251
-0.24963 -0.44917 -0.68456 251 249 251
-0.24257 -0.45168 -0.68137 251 250 251
-0.23551 -0.45418 -0.67818 251 250 251
-0.22846 -0.45668 -0.67499 251 250 251
-0.22141 -0.45917 -0.67180 251 250 251
-0.21436 -0.46167 -0.66862 251 250 251
-0.20733 -0.46416 -0.66544 251 250 251
-0.20029 -0.46665 -0.66226 251 250 251
-0.19327 -0.46914 -0.65908 251 250 251
-0.18625 -0.47163 -0.65591 251 250 250
-0.17923 -0.47412 -0.65274 251 250 251
-0.17222 -0.47660 -0.64957 251 250 251
-0.16522 -0.47908 -0.64640 251 250 251
-0.15822 -0.48156 -0.64324 251 250 251
-0.15123 -0.48404 -0.64008 252 250 251
-0.14424 -0.48651 -0.63692 252 250 251
-0.38942 -0.40991 -0.73801 251 249 251
-0.38227 -0.41244 -0.73478 251 249 251
-0.37513 -0.41497 -0.73156 251 249 251
-0.36799 -0.41749 -0.72834 251 249 251
-0.36086 -0.42002 -0.72512 251 249 251
-0.35374 -0.42254 -0.72190 251 249 251
-0.34662 -0.42505 -0.71869 251 249 251
-0.33951 -0.42757 -0.71547 251 249 251
-0.33240 -0.43008 -0.71226 251 249 251
-0.32530 -0.43260 -0.70906 251 249 251
-0.31820 -0.43511 -0.70585 251 249 251
-0.31111 -0.43761 -0.70265 251 249 251
-0.30403 -0.44012 -0.69945 251 249 251
-0.29695 -0.44263 -0.69625 251 249 251
-0.28987 -0.44513 -0.69306 251 249 251
-0.28280 -0.44763 -0.68987 251 249 251
-0.27574 -0.45013 -0.68668 251 249 251
-0.26869 -0.45262 -0.68349 251 249 251
-0.26163 -0.45512 -0.68031 251 249 251
-0.25459 -0.45761 -0.67713 251 249 251
-0.24755 -0.46010 -0.67395 251 249 251
-0.24051 -0.46259 -0.67077 251 250 251
-0.23348 -0.46507 -0.66760 251 250 251
-0.22646 -0.46756 -0.66443 251 250 251
-0.21944 -0.47004 -0.66126 251 250 251
-0.21243 -0.47252 -0.65809 251 250 251
-0.20542 -0.47500 -0.65493 251 250 251
-0.19842 -0.47748 -0.65177 251 250 251
-0.19143 -0.47995 -0.64861 251 250 251
-0.18444 -0.48242 -0.64545 251 250 251
-0.17745 -0.48489 -0.64230 251 250 251
-0.17047 -0.48736 -0.63915 251 250 251
-0.16350 -0.48983 -0.63600 251 250 251
-0.39385 -0.41853 -0.73034 251 249 251
-0.38673 -0.42105 -0.72713 251 249 251
-0.37961 -0.42356 -0.72392 251 249 251
-0.37250 -0.42607 -0.72071 251 249 251
-0.36540 -0.42858 -0.71751 251 249 251
-0.35830 -0.43109 -0.71431 251 249 251
-0.35121 -0.43359 -0.71111 251 249 251
-0.34412 -0.43610 -0.70791 251 249 251
-0.33704 -0.43860 -0.70472 251 249 251
-0.32996 -0.44110 -0.70152 251 249 251
-0.32289 -0.44360 -0.69834 251 249 251
-0.31582 -0.44609 -0.69515 251 249 251
-0.30876 -0.44858 -0.69196 251 249 251
-0.30171 -0.45107 -0.68878 251 249 251
-0.29466 -0.45356 -0.68560 251 249 251
-0.28762 -0.45605 -0.68243 251 249 251
-0.28058 -0.45854 -0.67925 251 249 251
-0.27355 -0.46102 -0.67608 251 249 251
-0.26652 -0.46350 -0.67291 251 249 251
-0.25950 -0.46598 -0.66975 251 249 251
-0.25249 -0.46846 -0.66658 251 249 251
-0.24548 -0.47093 -0.66342 251 249 251
-0.23848 -0.47341 -0.66026 251 249 251
-0.39825 -0.42709 -0.72273 251 249 251
-0.39115 -0.42959 -0.71953 251 249 251
-0.38406 -0.43209 -0.71634 251 249 251
-0.37698 -0.43459 -0.71315 251 249 251
-0.36990 -0.43708 -0.70996 251 249 251
-0.36282 -0.43958 -0.70677 251 249 251
-0.35576 -0.44207 -0.70359 251 249 251
-0.34869 -0.44456 -0.70040 250 249 251
-0.34164 -0.44705 -0.69723 250 249 251
-0.33459 -0.44953 -0.69405 250 249 251
-0.32754 -0.45202 -0.69088 250 249 251
-0.32050 -0.45450 -0.68770 250 249 251
-0.31347 -0.45698 -0.68454 250 249 251
-0.40969 -0.43308 -0.71836 251 249 251
-0.40261 -0.43557 -0.71517 251 249 251
-0.39554 -0.43806 -0.71199 250 249 251
-0.38848 -0.44055 -0.70881 250 249 251
-0.38142 -0.44304 -0.70564 251 249 251
-0.37436 -0.44552 -0.70246 251 249 251
-0.36731 -0.44800 -0.69929 250 249 251
-0.36027 -0.45048 -0.69612 250 249 251
-0.35324 -0.45296 -0.69296 250 249 251
-0.34620 -0.45543 -0.68979 250 249 251
-0.33918 -0.45791 -0.68663 250 249 251
-0.33216 -0.46038 -0.68347 250 249 251
-0.32514 -0.46285 -0.68032 250 249 251
-0.31813 -0.46531 -0.67716 250 249 251
-0.42105 -0.43904 -0.71402 251 249 251
-0.41399 -0.44152 -0.71085 250 249 251
-0.40694 -0.44400 -0.70768 250 249 251
-0.39990 -0.44647 -0.70451 250 249 251
-0.39286 -0.44895 -0.70135 251 249 251
-0.38582 -0.45142 -0.69819 250 249 251
-0.37879 -0.45389 -0.69503 250 249 251
-0.37177 -0.45636 -0.69187 250 249 251
-0.36475 -0.45883 -0.68872 250 249 251
-0.35774 -0.46129 -0.68557 250 249 251
-0.35073 -0.46375 -0.68242 250 249 251
-0.34373 -0.46621 -0.67927 250 249 251
-0.33674 -0.46867 -0.67613 250 249 251
-0.32975 -0.47113 -0.67299 250 249 251
-0.32276 -0.47358 -0.66985 250 249 251
-0.43233 -0.44495 -0.70971 251 249 251
-0.42529 -0.44742 -0.70655 250 249 251
-0.41826 -0.44989 -0.70339 250 249 251
-0.41124 -0.45236 -0.70024 250 249 251
-0.40422 -0.45482 -0.69709 250 249 251
-0.39720 -0.45728 -0.69394 250 249 251
-0.39019 -0.45974 -0.69079 250 249 251
-0.38319 -0.46220 -0.68765 250 249 251
-0.37619 -0.46465 -0.68451 250 249 251
-0.36920 -0.46711 -0.68137 250 249 251
-0.36221 -0.46956 -0.67823 250 249 251
-0.35523 -0.47201 -0.67510 250 249 251
-0.34826 -0.47446 -0.67197 250 249 251
-0.34128 -0.47690 -0.66884 250 249 251
-0.33432 -0.47935 -0.66571 250 249 251
-0.32736 -0.48179 -0.66259 250 249 251
-0.44353 -0.45083 -0.70543 251 249 251
-0.43652 -0.45329 -0.70228 251 249 251
-0.42951 -0.45574 -0.69914 250 249 251
-0.42250 -0.45820 -0.69599 250 249 251
-0.41550 -0.46065 -0.69286 250 249 251
-0.40851 -0.46310 -0.68972 250 249 251
-0.40152 -0.46555 -0.68659 250 249 251
-0.39453 -0.46800 -0.68345 250 249 251
-0.38755 -0.47044 -0.68033 250 249 251
-0.38058 -0.47289 -0.67720 250 249 251
-0.37361 -0.47533 -0.67407 250 249 251
-0.36665 -0.47777 -0.67095 250 249 251
-0.35969 -0.48020 -0.66783 250 249 251
-0.35274 -0.48264 -0.66472 250 249 251
-0.34580 -0.48507 -0.66160 250 249 251
-0.33886 -0.48751 -0.65849 250 249 251
-0.33192 -0.48994 -0.65538 250 249 251
-0.45466 -0.45666 -0.70117 251 249 251
-0.44767 -0.45911 -0.69804 251 249 251
-0.44067 -0.46156 -0.69491 250 249 251
-0.43369 -0.46400 -0.69178 250 249 251
-0.42671 -0.46644 -0.68865 250 249 251
-0.41973 -0.46888 -0.68553 250 249 251
-0.41276 -0.47132 -0.68241 250 249 251
-0.40580 -0.47376 -0.67929 250 249 251
-0.39884 -0.47619 -0.67617 250 249 251
-0.39188 -0.47863 -0.67306 250 249 251
-0.38494 -0.48106 -0.66995 250 249 251
-0.37799 -0.48348 -0.66684 250 249 251
-0.37105 -0.48591 -0.66373 250 249 251
-0.36412 -0.48834 -0.66062 250 249 251
-0.35720 -0.49076 -0.65752 250 249 251
-0.35027 -0.49318 -0.65442 250 249 251
-0.34336 -0.49560 -0.65133 250 249 251
-0.33645 -0.49802 -0.64823 250 249 251
-0.47270 -0.46002 -0.70007 251 250 251
-0.46572 -0.46246 -0.69695 251 249 251
-0.45874 -0.46489 -0.69383 251 249 251
-0.45177 -0.46733 -0.69071 251 249 251
-0.44480 -0.46976 -0.68759 250 249 251
-0.43784 -0.47220 -0.68448 250 249 251
-0.43088 -0.47462 -0.68137 250 249 251
-0.42393 -0.47705 -0.67826 250 249 251
-0.41699 -0.47948 -0.67515 250 249 251
-0.41005 -0.48190 -0.67205 250 249 251
-0.40311 -0.48433 -0.66894 250 249 251
-0.39618 -0.48675 -0.66584 250 249 251
-0.38926 -0.48916 -0.66275 250 249 251
-0.38234 -0.49158 -0.65965 250 249 251
-0.37543 -0.49400 -0.65656 250 249 251
-0.36852 -0.49641 -0.65347 250 249 251
-0.36162 -0.49882 -0.65038 250 249 251
-0.35472 -0.50123 -0.64730 250 249 251
-0.34783 -0.50364 -0.64421 250 249 251
-0.34094 -0.50604 -0.64113 250 249 251
-0.33406 -0.50845 -0.63805 250 249 251
-0.48366 -0.46578 -0.69587 251 250 251
-0.47670 -0.46821 -0.69276 251 249 251
-0.46974 -0.47064 -0.68965 251 249 251
-0.46278 -0.47306 -0.68654 251 249 251
-0.45584 -0.47549 -0.68344 251 249 251
-0.44889 -0.47791 -0.68033 251 249 251
-0.44196 -0.48033 -0.67723 250 249 251
-0.43503 -0.48275 -0.67414 250 249 251
-0.42810 -0.48516 -0.67104 250 249 251
-0.42118 -0.48758 -0.66795 250 249 251
-0.41426 -0.48999 -0.66486 250 249 251
-0.40735 -0.49240 -0.66177 250 249 251
-0.40045 -0.49481 -0.65869 250 249 251
-0.39355 -0.49721 -0.65560 250 249 251
-0.38665 -0.49962 -0.65252 250 249 251
-0.37976 -0.50202 -0.64944 250 249 250
-0.37288 -0.50442 -0.64637 250 249 250
-0.36600 -0.50682 -0.64329 250 249 250
-0.35913 -0.50922 -0.64022 250 249 251
-0.35226 -0.51161 -0.63715 250 249 251
-0.34540 -0.51400 -0.63409 250 249 251
-0.33854 -0.51640 -0.63102 250 249 251
0.31530 0.19762 -1.17305 47 49 70
0.31502 0.18243 -1.15818 20 39 73
0.32283 0.17902 -1.15399 34 45 80
0.33064 0.17560 -1.14980 38 43 76
0.33844 0.17219 -1.14561 41 47 70
0.34624 0.16879 -1.14142 44 48 62
0.35403 0.16538 -1.13724 44 46 72
0.36181 0.16198 -1.13306 42 48 75
0.36959 0.15859 -1.12889 40 47 77
0.37736 0.15519 -1.12472 28 45 80
0.38513 0.15180 -1.12055 21 44 81
0.39289 0.14841 -1.11638 16 38 83
0.40064 0.14502 -1.11222 12 37 88
0.40839 0.14164 -1.10806 10 39 93
0.41613 0.13825 -1.10391 14 44 96
0.42386 0.13487 -1.09975 15 46 100
0.43159 0.13150 -1.09560 19 49 103
0.43931 0.12812 -1.09146 22 53 107
0.44703 0.12475 -1.08732 24 57 114
0.45474 0.12138 -1.08318 13 57 123
0.46244 0.11802 -1.07904 48 71 139
0.47014 0.11465 -1.07491 83 81 144
0.47783 0.11129 -1.07078 91 84 149
0.48552 0.10794 -1.06665 96 89 160
0.49320 0.10458 -1.06253 103 99 174
0.50087 0.10123 -1.05841 112 107 183
0.50854 0.09788 -1.05429 89 103 174
0.51620 0.09453 -1.05018 57 99 164
0.52386 0.09119 -1.04607 56 109 166
0.53151 0.08784 -1.04197 60 117 171
0.53915 0.08450 -1.03786 65 125 183
0.54679 0.08117 -1.03376 72 134 199
0.55442 0.07783 -1.02967 86 139 203
0.56204 0.07450 -1.02557 107 124 163
0.31474 0.16739 -1.14346 41 47 67
0.32252 0.16400 -1.13930 39 50 71
0.33029 0.16061 -1.13513 44 53 70
0.33805 0.15722 -1.13097 47 51 62
0.34581 0.15384 -1.12681 46 52 69
0.35356 0.15046 -1.12266 43 52 70
0.36130 0.14708 -1.11850 41 53 70
0.36904 0.14371 -1.11436 35 50 69
0.37677 0.14033 -1.11021 31 48 68
0.38450 0.13696 -1.10607 24 44 65
0.39222 0.13360 -1.10193 22 43 67
0.39993 0.13023 -1.09779 20 41 69
0.40764 0.12687 -1.09366 20 38 71
0.41534 0.12351 -1.08953 19 36 74
0.42304 0.12015 -1.08541 17 34 75
0.43073 0.11680 -1.08128 18 32 77
0.43841 0.11345 -1.07717 19 32 76
0.30672 0.15587 -1.13304 46 50 64
0.31446 0.15250 -1.12889 46 53 70
0.32220 0.14913 -1.12475 47 53 73
0.32993 0.14576 -1.12061 48 51 60
0.33766 0.14240 -1.11648 47 54 67
0.34538 0.13904 -1.11234 45 52 66
0.35309 0.13568 -1.10822 42 53 66
0.36079 0.13233 -1.10409 36 50 64
0.36849 0.12897 -1.09997 28 46 62
0.37619 0.12562 -1.09585 21 42 62
0.38388 0.12228 -1.09173 20 42 65
0.39156 0.11893 -1.08762 20 41 66
0.39924 0.11559 -1.08351 20 41 66
0.40691 0.11225 -1.07941 20 42 67
0.41457 0.10891 -1.07530 18 42 68
0.42223 0.10558 -1.07120 20 42 67
0.42988 0.10225 -1.06711 21 42 67
0.49848 0.07238 -1.03038 30 57 72
0.50607 0.06908 -1.02632 27 58 69
0.51366 0.06577 -1.02226 30 59 71
0.52124 0.06247 -1.01820 32 61 74
0.52881 0.05918 -1.01414 33 62 73
0.29878 0.14445 -1.12271 51 50 63
0.30649 0.14110 -1.11858 52 55 66
0.31419 0.13775 -1.11447 51 55 70
0.32189 0.13441 -1.11035 50 55 64
0.32958 0.13107 -1.10624 48 55 65
0.33727 0.12773 -1.10213 45 52 64
0.34495 0.12439 -1.09802 43 52 66
0.35262 0.12105 -1.09392 34 49 58
0.36029 0.11772 -1.08982 24 43 55
0.36795 0.11439 -1.08572 18 41 52
0.37561 0.11106 -1.08163 18 39 58
0.38326 0.10774 -1.07754 19 36 60
0.39090 0.10441 -1.07346 20 37 59
0.39854 0.10109 -1.06937 18 38 60
0.40618 0.09778 -1.06529 16 41 60
0.41380 0.09446 -1.06121 17 41 61
0.42142 0.09115 -1.05714 18 41 64
0.42904 0.08784 -1.05307 17 39 69
0.48974 0.06146 -1.02062 29 52 69
0.49730 0.05817 -1.01658 26 54 73
0.50486 0.05489 -1.01254 29 56 76
0.51241 0.05161 -1.00850 31 57 77
0.51995 0.04833 -1.00447 27 55 77
0.96929 -0.14696 -0.76425 100 91 99
0.97649 -0.15009 -0.76041 91 89 87
0.98367 -0.15321 -0.75657 82 86 86
0.99086 -0.15633 -0.75273 77 79 86
0.99803 -0.15945 -0.74889 74 68 85
1.00520 -0.16257 -0.74506 66 66 83
1.01237 -0.16568 -0.74123 63 66 84
1.01953 -0.16880 -0.73740 63 65 88
0.29091 0.13314 -1.11247 59 55 66
0.29858 0.12981 -1.10837 55 56 67
0.30626 0.12648 -1.10427 54 56 70
0.31392 0.12316 -1.10018 51 58 69
0.32158 0.11983 -1.09609 48 56 65
0.32924 0.11651 -1.09201 47 52 63
0.33689 0.11320 -1.08792 43 50 60
0.34453 0.10988 -1.08384 32 45 56
0.35216 0.10657 -1.07977 21 40 52
0.35979 0.10326 -1.07569 17 37 53
0.36742 0.09995 -1.07162 18 37 53
0.37504 0.09664 -1.06755 21 34 53
0.38265 0.09334 -1.06349 19 34 56
0.39026 0.09004 -1.05943 15 33 57
0.39786 0.08674 -1.05537 15 36 56
0.40545 0.08345 -1.05132 16 38 55
0.41304 0.08015 -1.04727 17 39 58
0.42063 0.07686 -1.04322 18 38 62
0.42820 0.07358 -1.03917 19 40 63
0.43577 0.07029 -1.03513 19 42 64
0.44334 0.06701 -1.03109 20 43 67
0.45090 0.06373 -1.02706 22 45 70
0.45845 0.06045 -1.02302 22 46 69
0.46600 0.05718 -1.01899 28 46 67
0.47354 0.05390 -1.01497 30 46 65
0.48108 0.05064 -1.01094 26 48 63
0.48861 0.04737 -1.00692 26 51 65
0.49613 0.04410 -1.00291 28 53 69
0.50365 0.04084 -0.99889 30 54 72
0.51117 0.03758 -0.99488 24 47 74
0.95156 -0.15349 -0.75978 67 58 88
0.95873 -0.15660 -0.75595 65 61 83
0.96589 -0.15971 -0.75212 66 64 75
0.97305 -0.16281 -0.74830 65 66 71
0.98021 -0.16592 -0.74448 71 70 81
0.98736 -0.16902 -0.74067 88 87 99
0.99450 -0.17212 -0.73685 96 105 101
1.00164 -0.17522 -0.73304 101 103 93
1.00877 -0.17831 -0.72923 91 83 86
1.01590 -0.18140 -0.72543 68 59 61
1.02302 -0.18449 -0.72162 62 59 59
1.03014 -0.18758 -0.71783 62 59 64
1.03725 -0.19067 -0.71403 57 54 63
1.04436 -0.19375 -0.71024 52 53 65
1.08688 -0.21220 -0.68753 58 57 55
1.09395 -0.21527 -0.68376 48 49 49
0.27545 0.12525 -1.10640 76 64 65
0.28311 0.12194 -1.10232 58 57 68
0.29075 0.11863 -1.09825 56 57 68
0.29839 0.11532 -1.09417 55 57 72
0.30603 0.11201 -1.09010 51 57 73
0.31366 0.10871 -1.08604 50 55 65
0.32128 0.10540 -1.08197 48 53 60
0.32889 0.10211 -1.07791 40 48 57
0.33651 0.09881 -1.07386 29 41 55
0.34411 0.09552 -1.06980 17 34 51
0.35171 0.09222 -1.06575 17 33 50
0.35930 0.08894 -1.06170 17 34 48
0.36689 0.08565 -1.05766 16 33 46
0.37447 0.08237 -1.05362 15 31 56
0.38205 0.07908 -1.04958 15 30 55
0.38962 0.07581 -1.04554 16 32 52
0.39718 0.07253 -1.04151 17 34 49
0.40474 0.06926 -1.03748 17 35 50
0.41229 0.06599 -1.03345 18 37 55
0.41984 0.06272 -1.02943 19 36 56
0.42738 0.05945 -1.02541 17 36 57
0.43491 0.05619 -1.02139 19 39 58
0.44244 0.05293 -1.01738 20 41 60
0.44996 0.04967 -1.01337 19 41 59
0.45748 0.04641 -1.00936 23 42 60
0.46499 0.04316 -1.00536 26 44 62
0.47250 0.03991 -1.00136 26 45 60
0.48000 0.03666 -0.99736 26 48 61
0.48749 0.03341 -0.99336 26 50 63
0.49498 0.03017 -0.98937 29 50 63
0.50246 0.02693 -0.98538 23 45 67
0.94111 -0.16306 -0.75152 53 52 52
0.94825 -0.16615 -0.74772 51 52 69
0.95539 -0.16924 -0.74391 64 70 73
0.96252 -0.17233 -0.74011 71 80 81
0.96965 -0.17542 -0.73631 68 73 81
0.97677 -0.17850 -0.73251 74 84 94
0.98389 -0.18159 -0.72872 85 107 104
0.99100 -0.18467 -0.72493 105 120 110
0.99810 -0.18774 -0.72114 87 85 91
1.00520 -0.19082 -0.71735 68 60 63
1.01230 -0.19389 -0.71357 66 64 62
1.01939 -0.19696 -0.70979 70 68 65
1.02647 -0.20003 -0.70601 62 59 63
1.03355 -0.20310 -0.70224 54 57 72
1.07592 -0.22145 -0.67965 59 59 53
1.08296 -0.22450 -0.67590 56 55 47
1.09000 -0.22754 -0.67215 44 46 37
0.27538 0.11083 -1.09227 56 54 64
0.28299 0.10754 -1.08822 54 59 67
0.29060 0.10425 -1.08417 55 58 73
0.29820 0.10096 -1.08012 52 58 71
0.30580 0.09768 -1.07607 50 58 65
0.31339 0.09440 -1.07203 47 56 59
0.32098 0.09112 -1.06799 38 49 58
0.32856 0.08784 -1.06396 28 39 53
0.33613 0.08456 -1.05993 16 30 46
0.34370 0.08129 -1.05590 18 28 45
0.35126 0.07802 -1.05187 17 30 48
0.35881 0.07476 -1.04785 14 30 45
0.36637 0.07149 -1.04383 14 29 52
0.37391 0.06823 -1.03981 17 28 53
0.38145 0.06497 -1.03580 18 30 49
0.38898 0.06171 -1.03179 20 32 44
0.39651 0.05846 -1.02778 20 34 47
0.40403 0.05521 -1.02378 21 34 51
0.41154 0.05196 -1.01978 23 35 51
0.41905 0.04871 -1.01578 21 36 52
0.42656 0.04546 -1.01178 20 38 54
0.43406 0.04222 -1.00779 22 39 56
0.44155 0.03898 -1.00380 24 39 58
0.44903 0.03575 -0.99982 28 40 57
0.45652 0.03251 -0.99583 31 42 53
0.46399 0.02928 -0.99185 32 43 49
0.47146 0.02605 -0.98788 30 45 50
0.47892 0.02282 -0.98390 30 47 52
0.48638 0.01960 -0.97993 34 49 51
0.49383 0.01637 -0.97596 31 48 56
0.82337 -0.12612 -0.80051 40 38 45
0.83057 -0.12923 -0.79668 39 39 48
0.83776 -0.13234 -0.79285 34 31 42
0.86647 -0.14475 -0.77757 42 35 43
0.87364 -0.14785 -0.77376 46 49 58
0.89510 -0.15713 -0.76233 60 59 57
0.90224 -0.16021 -0.75853 42 34 39
0.90937 -0.16330 -0.75473 40 48 55
0.91651 -0.16638 -0.75093 61 80 68
0.92363 -0.16947 -0.74714 65 73 53
0.93075 -0.17254 -0.74334 46 44 42
0.93787 -0.17562 -0.73956 49 50 61
0.94498 -0.17870 -0.73577 62 72 68
0.95209 -0.18177 -0.73199 78 89 75
0.95919 -0.18484 -0.72821 63 68 67
0.96628 -0.18791 -0.72443 52 60 68
0.97337 -0.19097 -0.72066 58 71 84
0.98045 -0.19403 -0.71689 83 93 100
0.98753 -0.19709 -0.71312 70 70 81
0.99460 -0.20015 -0.70935 64 63 65
1.00167 -0.20321 -0.70559 65 67 66
1.00874 -0.20626 -0.70183 71 76 76
1.01579 -0.20931 -0.69807 66 65 70
