ply
format ascii 1.0
element face 0
property list uchar int vertex_indices
element vertex 1273
property float x
property float y
property float z
property uchar diffuse_red
property uchar diffuse_green
property uchar diffuse_blue
end_header
2.14748 -3.21725 -0.25890 131 124 120
2.13594 -3.22675 -0.25051 130 132 128
2.12440 -3.23624 -0.24212 147 134 130
2.11288 -3.24571 -0.23374 146 136 133
2.10137 -3.25518 -0.22537 144 137 136
2.08987 -3.26464 -0.21701 139 132 135
2.07838 -3.27408 -0.20865 136 131 124
2.06691 -3.28352 -0.20031 134 130 128
2.05545 -3.29295 -0.19197 136 133 135
2.04400 -3.30237 -0.18364 142 140 131
2.03256 -3.31178 -0.17533 141 141 127
2.02113 -3.32117 -0.16701 136 136 128
2.00971 -3.33056 -0.15871 137 135 136
1.99831 -3.33994 -0.15042 142 141 142
1.98692 -3.34931 -0.14213 145 145 146
1.97554 -3.35867 -0.13386 144 143 145
1.96417 -3.36802 -0.12559 147 147 142
1.95281 -3.37736 -0.11733 150 151 145
1.94147 -3.38669 -0.10908 147 143 140
1.93013 -3.39601 -0.10084 145 145 140
1.91881 -3.40533 -0.09260 142 143 140
1.90750 -3.41463 -0.08438 153 153 141
1.89620 -3.42392 -0.07616 152 154 142
1.88491 -3.43320 -0.06795 157 159 149
1.87364 -3.44248 -0.05975 142 144 142
1.86237 -3.45174 -0.05156 142 142 123
1.85112 -3.46100 -0.04338 148 160 156
1.83988 -3.47024 -0.03520 144 136 125
1.82865 -3.47948 -0.02704 148 141 139
1.81743 -3.48870 -0.01888 153 153 128
1.80623 -3.49792 -0.01073 146 137 125
1.79503 -3.50713 -0.00259 139 144 133
1.78385 -3.51633 0.00555 139 144 133
1.77267 -3.52552 0.01367 146 145 137
1.76151 -3.53470 0.02179 149 145 135
1.75036 -3.54387 0.02990 148 145 128
1.73923 -3.55303 0.03800 135 130 126
1.72810 -3.56218 0.04609 143 144 137
1.71698 -3.57132 0.05417 154 157 149
1.70588 -3.58045 0.06225 149 154 145
1.69479 -3.58958 0.07032 143 149 139
1.68370 -3.59869 0.07837 150 154 138
1.67263 -3.60780 0.08643 160 162 139
1.66157 -3.61689 0.09447 154 147 138
1.65053 -3.62598 0.10250 142 129 125
1.63949 -3.63505 0.11053 141 140 122
1.62846 -3.64412 0.11855 142 146 135
1.61745 -3.65318 0.12656 148 152 147
1.60645 -3.66223 0.13456 150 149 132
1.59545 -3.67127 0.14255 146 139 126
1.58447 -3.68030 0.15054 147 139 126
1.57350 -3.68933 0.15852 140 136 130
1.56254 -3.69834 0.16649 143 144 136
1.55160 -3.70734 0.17445 150 151 134
1.54066 -3.71634 0.18240 139 133 133
1.52973 -3.72532 0.19035 143 143 140
1.51882 -3.73430 0.19829 146 144 138
0.92467 -4.22296 0.63038 141 143 124
0.91435 -4.23144 0.63788 143 143 126
0.90405 -4.23992 0.64537 147 151 125
2.25466 -3.10362 -0.35977 122 127 118
2.24304 -3.11319 -0.35131 128 123 121
2.23143 -3.12275 -0.34286 125 120 116
2.21984 -3.13230 -0.33441 110 101 111
2.20825 -3.14184 -0.32598 125 122 121
2.19668 -3.15137 -0.31755 130 128 128
2.18512 -3.16089 -0.30913 145 142 126
2.17358 -3.17040 -0.30072 144 133 124
2.16204 -3.17990 -0.29232 134 131 131
2.15052 -3.18939 -0.28393 139 137 130
2.13900 -3.19887 -0.27555 135 141 128
2.12750 -3.20834 -0.26717 127 120 130
2.11602 -3.21780 -0.25881 132 138 138
2.10454 -3.22725 -0.25045 137 136 132
2.09308 -3.23670 -0.24210 141 136 130
2.08162 -3.24613 -0.23376 143 135 116
2.07018 -3.25555 -0.22543 143 139 132
2.05875 -3.26496 -0.21710 146 150 142
2.04734 -3.27437 -0.20879 145 150 142
2.03593 -3.28376 -0.20048 143 144 131
2.02454 -3.29314 -0.19218 143 142 126
2.01316 -3.30252 -0.18390 136 138 126
2.00179 -3.31188 -0.17561 130 131 121
1.99043 -3.32124 -0.16734 139 136 121
1.97908 -3.33058 -0.15908 136 134 122
1.96775 -3.33992 -0.15082 132 132 129
1.95642 -3.34924 -0.14258 139 136 134
1.94511 -3.35856 -0.13434 139 135 128
1.93381 -3.36787 -0.12611 148 147 137
1.92252 -3.37716 -0.11789 159 157 148
1.91124 -3.38645 -0.10967 150 147 136
1.89998 -3.39573 -0.10147 134 135 140
1.88872 -3.40500 -0.09327 134 138 138
1.87748 -3.41426 -0.08509 137 140 146
1.86625 -3.42351 -0.07691 158 162 149
1.85503 -3.43275 -0.06874 156 155 143
1.84382 -3.44198 -0.06057 143 144 123
1.83262 -3.45120 -0.05242 143 148 137
1.82144 -3.46042 -0.04427 156 149 130
1.81026 -3.46962 -0.03613 152 150 139
1.79910 -3.47881 -0.02801 152 154 132
1.78795 -3.48800 -0.01988 143 149 127
1.77681 -3.49717 -0.01177 145 151 143
1.76568 -3.50634 -0.00367 154 158 143
1.75456 -3.51549 0.00443 147 145 134
1.74346 -3.52464 0.01252 146 145 136
1.73236 -3.53378 0.02060 141 142 128
1.72128 -3.54291 0.02867 130 127 119
1.71020 -3.55203 0.03673 139 138 128
1.69914 -3.56114 0.04479 151 150 143
1.68809 -3.57024 0.05284 157 154 143
1.67705 -3.57933 0.06088 156 153 140
1.66603 -3.58841 0.06891 158 156 148
1.65501 -3.59748 0.07693 160 161 151
1.64400 -3.60655 0.08495 157 155 138
1.63301 -3.61560 0.09295 146 140 114
1.62203 -3.62465 0.10095 129 122 107
1.61105 -3.63368 0.10894 129 128 124
1.60009 -3.64271 0.11692 142 141 129
1.58914 -3.65173 0.12490 151 152 138
1.57820 -3.66074 0.13287 145 149 132
1.56728 -3.66974 0.14082 140 138 124
1.55636 -3.67873 0.14877 131 131 133
1.54545 -3.68771 0.15672 144 141 133
1.53456 -3.69669 0.16465 149 146 136
1.52367 -3.70565 0.17258 146 153 134
1.51280 -3.71461 0.18050 141 138 138
1.50194 -3.72355 0.18841 148 148 138
1.49109 -3.73249 0.19631 147 142 127
1.02418 -4.11703 0.53635 120 123 127
1.01380 -4.12558 0.54390 126 129 120
1.00343 -4.13412 0.55145 121 121 117
0.99308 -4.14265 0.55900 123 126 111
0.98273 -4.15117 0.56653 135 133 115
0.97239 -4.15968 0.57406 136 136 113
0.96207 -4.16819 0.58158 127 121 119
0.95175 -4.17668 0.58909 133 131 114
0.94144 -4.18517 0.59660 138 136 114
0.93115 -4.19365 0.60410 132 132 106
0.92086 -4.20212 0.61159 142 146 125
0.91058 -4.21059 0.61907 142 144 124
0.90032 -4.21904 0.62655 140 137 126
0.89006 -4.22749 0.63402 143 143 130
0.87982 -4.23593 0.64148 147 146 134
2.24578 -3.08562 -0.37607 120 122 123
2.23421 -3.09516 -0.36763 119 126 120
2.22265 -3.10470 -0.35920 130 126 120
2.21110 -3.11422 -0.35078 132 130 117
2.19956 -3.12374 -0.34237 126 118 117
2.18804 -3.13324 -0.33396 127 127 124
2.17652 -3.14274 -0.32557 127 123 130
2.16502 -3.15222 -0.31718 136 134 121
2.15353 -3.16170 -0.30880 143 135 113
2.14205 -3.17116 -0.30043 137 137 134
2.13059 -3.18062 -0.29207 151 151 137
2.11913 -3.19006 -0.28371 144 138 131
2.10769 -3.19950 -0.27537 126 127 129
2.09626 -3.20893 -0.26703 127 124 120
2.08484 -3.21834 -0.25871 133 126 129
2.07344 -3.22775 -0.25039 137 143 143
2.06204 -3.23715 -0.24208 134 137 123
2.05066 -3.24654 -0.23378 140 140 137
2.03929 -3.25592 -0.22548 147 154 146
2.02793 -3.26529 -0.21720 144 130 122
2.01658 -3.27464 -0.20892 139 132 121
2.00524 -3.28399 -0.20065 142 144 131
1.99392 -3.29333 -0.19239 148 152 134
1.98260 -3.30267 -0.18414 146 149 136
1.97130 -3.31199 -0.17590 141 138 137
1.96001 -3.32130 -0.16767 143 140 135
1.94873 -3.33060 -0.15944 150 149 133
1.93746 -3.33989 -0.15122 148 146 132
1.92621 -3.34918 -0.14302 142 141 135
1.91496 -3.35845 -0.13481 145 146 139
1.90373 -3.36771 -0.12662 148 144 138
1.89251 -3.37697 -0.11844 148 145 125
1.88130 -3.38621 -0.11026 144 149 137
1.87010 -3.39545 -0.10210 150 156 145
1.85891 -3.40468 -0.09394 156 160 155
1.84774 -3.41389 -0.08579 156 160 140
1.83657 -3.42310 -0.07765 139 137 121
1.82542 -3.43230 -0.06951 127 128 127
1.81428 -3.44149 -0.06139 140 142 128
1.80314 -3.45067 -0.05327 153 159 143
1.79203 -3.45984 -0.04516 145 148 138
1.78092 -3.46900 -0.03706 138 137 135
1.76982 -3.47815 -0.02897 127 131 126
1.75873 -3.48729 -0.02088 150 149 135
1.74766 -3.49643 -0.01280 142 139 137
1.73660 -3.50555 -0.00474 122 127 134
1.72555 -3.51467 0.00332 137 144 135
1.71450 -3.52377 0.01138 145 141 132
1.70347 -3.53287 0.01942 147 141 133
1.69246 -3.54196 0.02746 149 147 133
1.68145 -3.55103 0.03548 149 151 138
1.67045 -3.56010 0.04350 149 148 141
1.65947 -3.56916 0.05151 147 146 137
1.64849 -3.57821 0.05952 145 140 121
1.63753 -3.58726 0.06751 144 135 116
1.62658 -3.59629 0.07550 144 139 128
1.61564 -3.60531 0.08348 143 144 125
1.60471 -3.61433 0.09145 141 144 122
1.59379 -3.62333 0.09941 127 128 125
1.58288 -3.63233 0.10737 125 130 126
1.57198 -3.64131 0.11532 143 149 130
1.56110 -3.65029 0.12325 143 145 127
1.55022 -3.65926 0.13119 140 142 119
1.53936 -3.66822 0.13911 132 125 118
1.52850 -3.67717 0.14702 153 155 133
1.51766 -3.68611 0.15493 154 149 140
1.50683 -3.69505 0.16283 149 156 148
1.49601 -3.70397 0.17072 138 142 132
1.48520 -3.71289 0.17861 161 162 149
1.47440 -3.72179 0.18648 150 150 128
1.04073 -4.07945 0.50275 136 135 127
1.03037 -4.08799 0.51030 133 130 117
1.02002 -4.09653 0.51785 132 129 118
1.00968 -4.10506 0.52539 135 138 124
0.99935 -4.11358 0.53293 139 134 127
0.98903 -4.12209 0.54045 147 143 134
0.97872 -4.13059 0.54797 147 140 129
0.96842 -4.13908 0.55548 142 129 112
0.95813 -4.14757 0.56298 139 137 113
0.94786 -4.15605 0.57048 129 126 118
0.93759 -4.16452 0.57797 131 126 115
0.92733 -4.17298 0.58545 138 135 116
0.91708 -4.18143 0.59293 141 140 113
0.90684 -4.18987 0.60039 141 140 117
0.89661 -4.19831 0.60785 134 133 126
0.88639 -4.20674 0.61531 137 137 127
0.87618 -4.21516 0.62275 143 141 133
0.86598 -4.22357 0.63019 148 144 138
0.85579 -4.23197 0.63762 143 140 123
2.22544 -3.07727 -0.38384 121 129 130
2.21392 -3.08678 -0.37543 126 125 116
2.20242 -3.09628 -0.36703 127 128 115
2.19093 -3.10577 -0.35864 131 128 123
2.17945 -3.11525 -0.35025 136 137 127
2.16798 -3.12472 -0.34188 134 132 127
2.15653 -3.13418 -0.33351 132 131 130
2.14508 -3.14363 -0.32516 136 138 126
2.13365 -3.15307 -0.31681 143 137 125
2.12223 -3.16250 -0.30847 133 133 130
2.11082 -3.17192 -0.30014 135 135 135
2.09943 -3.18133 -0.29181 143 138 129
2.08804 -3.19073 -0.28350 125 125 134
2.07667 -3.20013 -0.27519 126 126 128
2.06531 -3.20951 -0.26690 133 132 128
2.05396 -3.21888 -0.25861 138 140 140
2.04262 -3.22825 -0.25033 144 145 136
2.03129 -3.23760 -0.24206 155 150 140
2.01998 -3.24694 -0.23379 154 158 140
2.00867 -3.25628 -0.22554 144 142 131
1.99738 -3.26561 -0.21729 136 139 132
1.98610 -3.27492 -0.20905 142 142 141
1.97483 -3.28423 -0.20082 149 151 147
1.96358 -3.29353 -0.19260 148 149 148
1.95233 -3.30281 -0.18439 144 139 141
1.94109 -3.31209 -0.17618 141 140 132
1.92987 -3.32136 -0.16799 145 150 130
1.91866 -3.33062 -0.15980 153 152 136
1.90746 -3.33987 -0.15162 155 145 139
1.89627 -3.34911 -0.14345 148 139 137
1.88509 -3.35834 -0.13529 144 142 132
1.87393 -3.36756 -0.12713 141 142 128
1.86277 -3.37677 -0.11899 138 143 134
1.85163 -3.38598 -0.11085 159 167 140
1.84049 -3.39517 -0.10272 167 169 155
1.82937 -3.40436 -0.09460 160 156 139
1.81826 -3.41353 -0.08648 146 148 128
1.80716 -3.42270 -0.07838 117 118 114
1.79608 -3.43185 -0.07028 140 150 130
1.78500 -3.44100 -0.06219 165 172 142
1.77394 -3.45014 -0.05411 155 152 140
1.76288 -3.45927 -0.04604 155 154 150
1.75184 -3.46839 -0.03797 169 170 154
1.74081 -3.47750 -0.02992 166 166 137
1.72979 -3.48660 -0.02187 148 148 136
1.71878 -3.49569 -0.01383 136 139 139
1.70778 -3.50477 -0.00580 147 151 142
1.69679 -3.51385 0.00223 155 163 145
1.68582 -3.52291 0.01024 157 155 142
1.67485 -3.53197 0.01825 151 141 131
1.66390 -3.54101 0.02625 147 143 133
1.65295 -3.55005 0.03424 149 147 138
1.64202 -3.55908 0.04223 149 148 135
1.63110 -3.56810 0.05020 152 149 129
1.62019 -3.57711 0.05817 159 149 133
1.60929 -3.58611 0.06613 155 146 140
1.59840 -3.59510 0.07408 144 143 135
1.58753 -3.60409 0.08203 144 145 132
1.57666 -3.61306 0.08996 140 138 126
1.56580 -3.62202 0.09789 137 138 120
1.55496 -3.63098 0.10581 145 143 116
1.54412 -3.63993 0.11372 135 139 121
1.53330 -3.64887 0.12163 132 133 124
1.52249 -3.65780 0.12952 148 141 133
1.51169 -3.66672 0.13741 158 153 150
1.50090 -3.67563 0.14529 151 148 136
1.49012 -3.68453 0.15316 148 149 135
1.47935 -3.69342 0.16103 134 137 126
1.46859 -3.70231 0.16888 154 158 142
1.45784 -3.71119 0.17673 140 137 115
1.07792 -4.02494 0.45419 134 136 120
1.06755 -4.03350 0.46176 132 133 128
1.03653 -4.05913 0.48442 136 139 131
1.02621 -4.06765 0.49195 148 144 130
1.01589 -4.07617 0.49949 140 135 122
1.00559 -4.08467 0.50701 140 137 122
0.99530 -4.09317 0.51453 150 152 128
0.98502 -4.10167 0.52203 153 147 134
0.97474 -4.11015 0.52954 151 147 147
0.96448 -4.11862 0.53703 148 141 134
0.95423 -4.12709 0.54452 147 137 121
0.94399 -4.13555 0.55200 145 142 122
0.93376 -4.14400 0.55947 129 128 118
0.92353 -4.15244 0.56693 127 125 113
0.91332 -4.16087 0.57439 129 130 120
0.90312 -4.16930 0.58184 141 140 124
0.89293 -4.17772 0.58929 145 140 122
0.88274 -4.18613 0.59672 138 138 127
0.87257 -4.19453 0.60415 139 137 124
0.86241 -4.20292 0.61157 146 147 133
0.85226 -4.21131 0.61899 150 153 137
0.84211 -4.21968 0.62640 146 146 126
2.21673 -3.05950 -0.39992 111 115 123
2.20526 -3.06899 -0.39154 118 124 123
2.19380 -3.07846 -0.38316 121 124 116
2.18236 -3.08793 -0.37479 109 106 112
2.17093 -3.09738 -0.36643 123 122 119
2.15951 -3.10683 -0.35808 137 144 136
2.14810 -3.11626 -0.34973 136 134 128
2.13670 -3.12569 -0.34140 134 130 128
2.12531 -3.13510 -0.33307 137 134 132
2.11394 -3.14451 -0.32475 142 134 130
2.10257 -3.15391 -0.31644 116 118 112
2.09122 -3.16329 -0.30814 116 122 131
2.07988 -3.17267 -0.29985 140 138 129
2.06856 -3.18204 -0.29156 154 152 138
2.05724 -3.19140 -0.28329 141 135 129
2.04593 -3.20075 -0.27502 131 128 123
2.03464 -3.21009 -0.26676 135 138 128
2.02336 -3.21942 -0.25851 130 123 118
2.01209 -3.22874 -0.25027 147 143 126
2.00083 -3.23805 -0.24204 150 143 133
1.98958 -3.24735 -0.23381 147 142 131
1.97834 -3.25664 -0.22559 146 142 133
1.96712 -3.26592 -0.21738 144 141 135
1.95591 -3.27520 -0.20918 136 132 128
1.94470 -3.28446 -0.20099 139 139 131
1.93351 -3.29371 -0.19281 149 144 134
1.92233 -3.30296 -0.18463 149 146 130
1.91117 -3.31219 -0.17647 146 156 138
1.90001 -3.32142 -0.16831 146 153 143
1.88886 -3.33064 -0.16016 144 144 132
1.87773 -3.33984 -0.15201 148 148 133
1.86661 -3.34904 -0.14388 156 163 147
1.85549 -3.35823 -0.13575 147 154 143
1.84439 -3.36741 -0.12764 136 135 130
1.83331 -3.37658 -0.11953 154 149 140
1.82223 -3.38574 -0.11143 160 165 152
1.81116 -3.39490 -0.10333 159 163 138
1.80010 -3.40404 -0.09525 147 147 138
1.78906 -3.41317 -0.08717 138 136 129
1.77803 -3.42230 -0.07910 141 149 143
1.76700 -3.43141 -0.07104 150 152 140
1.75599 -3.44052 -0.06299 153 147 134
1.74499 -3.44961 -0.05494 153 155 149
1.73400 -3.45870 -0.04691 165 167 166
1.72303 -3.46778 -0.03888 161 153 136
1.71206 -3.47685 -0.03086 153 143 124
1.70110 -3.48591 -0.02285 142 137 135
1.69016 -3.49496 -0.01484 142 139 145
1.67922 -3.50400 -0.00685 134 134 145
1.66830 -3.51304 0.00114 147 154 146
1.65739 -3.52206 0.00912 149 152 140
1.64649 -3.53108 0.01709 146 145 138
1.63560 -3.54008 0.02506 150 150 138
1.62472 -3.54908 0.03301 150 140 129
1.61385 -3.55807 0.04096 149 140 126
1.60299 -3.56704 0.04890 152 150 134
1.59214 -3.57601 0.05684 150 144 135
1.58131 -3.58498 0.06476 148 145 129
1.57048 -3.59393 0.07268 154 154 129
1.55967 -3.60287 0.08059 156 153 124
1.54886 -3.61181 0.08849 139 137 112
1.53807 -3.62073 0.09638 131 133 110
1.52729 -3.62965 0.10426 128 127 124
1.51652 -3.63856 0.11214 130 127 114
1.50576 -3.64745 0.12001 132 123 116
1.49501 -3.65634 0.12787 134 138 134
1.48427 -3.66523 0.13573 138 136 125
1.47354 -3.67410 0.14357 146 145 131
1.46282 -3.68296 0.15141 147 150 150
1.45211 -3.69182 0.15924 161 162 149
1.44142 -3.70066 0.16706 167 165 136
1.12537 -3.96202 0.39819 141 141 134
1.11499 -3.97060 0.40577 138 137 141
1.10463 -3.97917 0.41336 138 136 137
1.05295 -4.02191 0.45115 130 135 127
1.04265 -4.03043 0.45868 124 126 131
1.03235 -4.03894 0.46621 120 120 125
1.02207 -4.04745 0.47373 133 131 127
1.01179 -4.05594 0.48124 136 134 125
1.00153 -4.06443 0.48875 136 132 118
0.99127 -4.07291 0.49625 139 138 126
0.98103 -4.08138 0.50374 152 151 139
0.97079 -4.08985 0.51123 154 147 132
0.96057 -4.09830 0.51871 145 139 133
0.95035 -4.10675 0.52618 141 132 129
0.94015 -4.11519 0.53364 140 136 122
0.92995 -4.12362 0.54109 141 137 120
0.91977 -4.13205 0.54854 128 126 123
0.90959 -4.14046 0.55598 136 135 116
0.89943 -4.14887 0.56342 129 130 122
0.88927 -4.15727 0.57085 144 144 133
0.87912 -4.16566 0.57827 149 152 135
0.86899 -4.17404 0.58568 146 145 129
0.85886 -4.18241 0.59308 139 135 119
0.84874 -4.19078 0.60048 143 144 130
0.83864 -4.19914 0.60787 145 146 131
0.82854 -4.20749 0.61526 142 141 124
2.20808 -3.04187 -0.41589 125 126 135
2.19666 -3.05133 -0.40753 129 123 123
2.18525 -3.06078 -0.39917 126 119 128
2.17385 -3.07022 -0.39083 127 130 123
2.16246 -3.07964 -0.38249 122 124 107
2.15109 -3.08907 -0.37416 125 117 95
2.13972 -3.09848 -0.36583 124 130 122
2.12837 -3.10788 -0.35752 131 134 123
2.11703 -3.11727 -0.34922 139 133 131
2.10570 -3.12665 -0.34092 143 139 138
2.09438 -3.13602 -0.33263 174 152 151
2.08308 -3.14538 -0.32435 135 131 134
2.07178 -3.15474 -0.31608 130 136 137
2.06050 -3.16408 -0.30782 135 138 133
2.04923 -3.17342 -0.29956 145 142 138
2.03797 -3.18274 -0.29132 146 142 131
2.02672 -3.19205 -0.28308 135 138 130
2.01548 -3.20136 -0.27485 146 150 135
2.00425 -3.21066 -0.26663 141 137 130
1.99304 -3.21994 -0.25842 142 141 127
1.98183 -3.22922 -0.25021 145 147 137
1.97064 -3.23849 -0.24202 149 149 145
1.95946 -3.24775 -0.23383 149 145 144
1.94829 -3.25700 -0.22565 148 149 146
1.93713 -3.26624 -0.21748 143 143 137
1.92599 -3.27547 -0.20931 147 150 137
1.91485 -3.28469 -0.20116 160 161 151
1.90373 -3.29390 -0.19301 151 148 149
1.89261 -3.30310 -0.18487 140 139 144
1.88151 -3.31230 -0.17674 147 147 146
1.87042 -3.32148 -0.16862 146 147 136
1.85934 -3.33066 -0.16051 142 144 134
1.84827 -3.33982 -0.15240 151 153 138
1.83721 -3.34898 -0.14431 143 141 140
1.82617 -3.35813 -0.13622 138 137 137
1.81513 -3.36726 -0.12814 153 153 137
1.80411 -3.37639 -0.12006 156 159 145
1.79309 -3.38551 -0.11200 153 149 144
1.78209 -3.39462 -0.10394 149 150 137
1.77110 -3.40372 -0.09589 157 159 135
1.76012 -3.41282 -0.08785 162 159 150
1.74915 -3.42190 -0.07982 151 147 138
1.73819 -3.43097 -0.07179 152 151 145
1.72725 -3.44004 -0.06378 151 161 142
1.71631 -3.44909 -0.05577 144 142 127
1.70539 -3.45814 -0.04777 153 164 142
1.69447 -3.46718 -0.03978 156 155 139
1.68357 -3.47621 -0.03179 143 147 142
1.67268 -3.48523 -0.02382 148 153 147
1.66179 -3.49424 -0.01585 151 148 136
1.65092 -3.50324 -0.00789 150 158 148
1.64006 -3.51223 0.00007 146 152 143
1.62922 -3.52122 0.00801 144 144 135
1.61838 -3.53019 0.01595 150 153 140
1.60755 -3.53916 0.02388 151 152 136
1.59673 -3.54811 0.03180 144 141 133
1.58593 -3.55706 0.03971 144 140 137
1.57513 -3.56600 0.04762 145 143 135
1.56435 -3.57493 0.05551 140 141 131
1.55357 -3.58385 0.06340 143 143 130
1.54281 -3.59276 0.07128 154 155 128
1.53206 -3.60167 0.07916 143 141 128
1.52132 -3.61056 0.08702 137 141 125
1.51059 -3.61945 0.09488 143 146 133
1.49987 -3.62833 0.10273 135 138 136
1.48916 -3.63719 0.11058 134 133 116
1.47846 -3.64605 0.11841 136 134 114
1.46777 -3.65491 0.12624 134 120 114
1.45709 -3.66375 0.13406 142 148 126
1.44642 -3.67258 0.14187 159 170 147
1.43577 -3.68141 0.14967 166 176 165
1.42512 -3.69022 0.15747 160 162 151
1.17273 -3.89922 0.34230 160 155 139
1.16234 -3.90782 0.34990 157 155 140
1.15196 -3.91642 0.35750 155 154 141
1.14159 -3.92500 0.36510 145 145 143
1.13123 -3.93358 0.37268 155 164 156
1.12089 -3.94215 0.38026 160 163 147
1.10022 -3.95926 0.39539 134 131 138
1.08990 -3.96781 0.40295 139 140 140
1.04873 -4.00190 0.43310 142 139 123
1.03847 -4.01040 0.44062 130 135 126
1.02821 -4.01889 0.44813 136 139 129
1.01796 -4.02738 0.45563 140 142 129
1.00772 -4.03586 0.46313 142 136 122
0.99749 -4.04433 0.47062 134 131 117
0.98728 -4.05279 0.47810 140 131 122
0.97707 -4.06124 0.48558 133 127 125
0.96687 -4.06969 0.49304 130 133 130
0.95668 -4.07812 0.50051 147 143 136
0.94650 -4.08655 0.50796 140 137 130
0.93633 -4.09497 0.51541 132 124 127
0.92618 -4.10338 0.52285 125 123 115
0.91603 -4.11179 0.53028 129 125 107
0.90589 -4.12019 0.53770 131 135 120
0.89576 -4.12857 0.54512 144 143 121
0.88564 -4.13695 0.55253 138 136 121
0.87553 -4.14533 0.55993 140 141 123
0.86543 -4.15369 0.56733 143 145 129
0.85534 -4.16205 0.57472 140 137 126
0.84526 -4.17039 0.58210 131 132 113
0.83518 -4.17873 0.58948 139 139 123
0.82512 -4.18706 0.59685 142 138 125
0.81507 -4.19539 0.60421 139 136 120
2.19950 -3.02436 -0.43175 127 121 116
2.18813 -3.03379 -0.42341 128 117 130
2.17676 -3.04322 -0.41507 136 127 130
2.16541 -3.05263 -0.40675 133 132 138
2.15406 -3.06204 -0.39843 132 135 147
2.14273 -3.07143 -0.39012 124 126 133
2.13141 -3.08082 -0.38182 130 130 121
2.12011 -3.09019 -0.37353 115 114 108
2.10881 -3.09956 -0.36525 126 122 121
2.09752 -3.10892 -0.35697 141 147 147
2.08625 -3.11826 -0.34870 118 119 129
2.07499 -3.12760 -0.34045 146 150 137
2.06374 -3.13693 -0.33220 152 149 139
2.05250 -3.14625 -0.32395 150 144 129
2.04127 -3.15556 -0.31572 137 137 133
2.03005 -3.16486 -0.30750 154 156 149
2.01885 -3.17415 -0.29928 157 152 142
2.00766 -3.18343 -0.29107 142 132 142
1.99647 -3.19271 -0.28287 141 132 144
1.98530 -3.20197 -0.27468 142 139 131
1.97414 -3.21122 -0.26650 131 134 122
1.96299 -3.22047 -0.25832 133 137 129
1.95186 -3.22970 -0.25015 134 143 136
1.94073 -3.23893 -0.24200 138 147 139
1.92962 -3.24814 -0.23384 143 146 142
1.91851 -3.25735 -0.22570 143 143 139
1.90742 -3.26655 -0.21757 144 143 140
1.89634 -3.27574 -0.20944 151 152 148
1.88527 -3.28492 -0.20132 150 151 147
1.87421 -3.29409 -0.19322 148 150 144
1.86316 -3.30325 -0.18511 158 159 147
1.85212 -3.31240 -0.17702 156 158 151
1.84110 -3.32154 -0.16894 152 157 150
1.83008 -3.33067 -0.16086 156 159 137
1.81908 -3.33980 -0.15279 146 152 131
1.80809 -3.34891 -0.14473 140 139 137
1.79710 -3.35802 -0.13668 142 145 144
1.78613 -3.36712 -0.12863 151 157 148
1.77517 -3.37620 -0.12059 150 147 147
1.76422 -3.38528 -0.11257 141 137 135
1.75329 -3.39435 -0.10454 142 134 128
1.74236 -3.40341 -0.09653 142 147 129
1.73144 -3.41246 -0.08853 146 152 135
1.72054 -3.42151 -0.08053 147 149 146
1.70964 -3.43054 -0.07254 154 163 146
1.69876 -3.43956 -0.06456 147 151 135
1.68789 -3.44858 -0.05659 141 144 139
1.67703 -3.45758 -0.04862 138 132 121
1.66618 -3.46658 -0.04067 136 135 129
1.65534 -3.47557 -0.03272 149 140 129
1.64451 -3.48455 -0.02478 155 152 127
1.63369 -3.49352 -0.01684 147 143 130
1.62288 -3.50248 -0.00892 140 140 129
1.61208 -3.51143 -0.00100 139 142 120
1.60130 -3.52038 0.00691 147 148 134
1.59052 -3.52931 0.01481 148 145 134
1.57976 -3.53824 0.02270 139 138 130
1.56900 -3.54716 0.03059 145 142 143
1.55826 -3.55607 0.03847 151 146 146
1.54752 -3.56497 0.04634 139 138 135
1.53680 -3.57386 0.05420 134 132 123
1.52609 -3.58274 0.06206 144 144 129
1.51539 -3.59161 0.06990 146 146 130
1.50470 -3.60048 0.07774 133 135 126
1.49402 -3.60933 0.08557 137 134 126
1.48335 -3.61818 0.09340 135 137 137
1.47269 -3.62702 0.10121 140 144 129
1.46204 -3.63585 0.10902 146 148 127
1.45140 -3.64467 0.11682 145 140 128
1.44078 -3.65348 0.12462 122 114 100
1.43016 -3.66228 0.13240 121 126 124
1.41955 -3.67108 0.14018 150 152 141
1.40895 -3.67986 0.14795 132 135 131
1.25125 -3.81063 0.26359 152 156 145
1.24082 -3.81928 0.27124 156 160 152
1.23040 -3.82792 0.27888 156 160 152
1.21999 -3.83655 0.28652 150 154 141
1.20959 -3.84517 0.29414 148 153 137
1.19920 -3.85379 0.30176 153 157 138
1.18882 -3.86240 0.30938 150 153 133
1.17845 -3.87100 0.31698 145 144 132
1.16809 -3.87959 0.32458 153 157 144
1.15774 -3.88817 0.33217 157 158 143
1.14740 -3.89674 0.33975 155 154 142
1.13707 -3.90531 0.34732 155 153 132
1.12674 -3.91387 0.35489 151 148 130
1.11643 -3.92241 0.36245 150 152 137
1.10613 -3.93096 0.37001 154 161 144
1.08556 -3.94801 0.38509 131 131 134
1.07529 -3.95653 0.39262 137 135 128
1.06503 -3.96504 0.40014 138 135 127
1.03431 -3.99051 0.42267 148 148 125
1.02409 -3.99898 0.43017 134 126 125
1.01388 -4.00745 0.43765 139 136 123
1.00368 -4.01591 0.44514 140 133 114
0.99349 -4.02436 0.45261 140 135 117
0.98331 -4.03280 0.46007 134 125 114
0.97313 -4.04124 0.46753 152 144 139
0.96297 -4.04966 0.47498 137 127 123
0.95282 -4.05808 0.48243 123 126 122
0.94268 -4.06649 0.48987 148 152 140
0.93255 -4.07489 0.49730 145 141 131
0.92242 -4.08328 0.50472 137 133 121
0.91231 -4.09167 0.51213 130 125 120
0.90221 -4.10005 0.51954 134 131 112
0.89211 -4.10842 0.52694 133 130 115
0.88203 -4.11678 0.53434 137 135 122
0.87196 -4.12513 0.54173 135 136 121
0.86189 -4.13348 0.54911 136 134 117
0.85184 -4.14181 0.55648 139 138 126
0.84179 -4.15014 0.56385 139 138 121
0.83175 -4.15846 0.57121 130 130 108
0.82173 -4.16678 0.57856 136 135 114
0.81171 -4.17508 0.58590 133 128 115
0.80171 -4.18338 0.59324 133 131 119
0.79171 -4.19167 0.60057 132 127 113
2.19098 -3.00697 -0.44749 121 125 114
2.17965 -3.01638 -0.43917 123 124 116
2.16833 -3.02578 -0.43086 123 115 121
2.15702 -3.03517 -0.42256 121 116 124
2.14572 -3.04455 -0.41426 131 130 124
2.13444 -3.05392 -0.40597 131 127 132
2.12316 -3.06328 -0.39769 133 132 140
2.11190 -3.07264 -0.38942 140 139 141
2.10065 -3.08198 -0.38116 126 126 126
2.08941 -3.09131 -0.37291 134 137 128
2.07818 -3.10063 -0.36466 136 131 129
2.06696 -3.10995 -0.35643 118 116 105
2.05575 -3.11925 -0.34820 129 135 134
2.04456 -3.12855 -0.33998 130 132 132
2.03337 -3.13783 -0.33176 128 122 111
2.02220 -3.14711 -0.32356 123 134 114
2.01104 -3.15638 -0.31536 130 122 112
1.99989 -3.16563 -0.30718 146 148 142
1.98875 -3.17488 -0.29900 145 142 141
1.97762 -3.18412 -0.29083 145 147 135
1.96651 -3.19335 -0.28267 143 136 128
1.95540 -3.20257 -0.27451 138 137 123
1.94431 -3.21178 -0.26636 136 141 130
1.93322 -3.22099 -0.25823 138 151 143
1.92215 -3.23018 -0.25010 140 142 128
1.91109 -3.23936 -0.24198 138 130 123
1.90004 -3.24854 -0.23386 147 142 137
1.88900 -3.25770 -0.22576 156 157 143
1.87797 -3.26686 -0.21766 154 152 139
1.86696 -3.27600 -0.20957 150 143 135
1.85595 -3.28514 -0.20149 147 143 138
1.84496 -3.29427 -0.19342 155 155 142
1.83397 -3.30339 -0.18535 161 164 144
1.82300 -3.31250 -0.17729 155 158 146
1.81204 -3.32160 -0.16925 154 153 142
1.80109 -3.33069 -0.16120 154 152 139
1.79015 -3.33977 -0.15317 153 155 143
1.77922 -3.34885 -0.14515 156 157 148
1.76830 -3.35791 -0.13713 158 159 151
1.75740 -3.36697 -0.12912 159 162 152
1.74650 -3.37602 -0.12112 158 166 156
1.73562 -3.38505 -0.11313 149 154 144
1.72474 -3.39408 -0.10514 142 143 135
1.71388 -3.40310 -0.09717 146 150 132
1.70302 -3.41211 -0.08920 146 143 129
1.69218 -3.42112 -0.08124 166 170 144
1.68135 -3.43011 -0.07328 154 153 148
1.67053 -3.43909 -0.06534 144 147 140
1.65972 -3.44807 -0.05740 144 146 130
1.64892 -3.45703 -0.04947 154 160 142
1.63813 -3.46599 -0.04155 158 160 141
1.62735 -3.47494 -0.03364 158 157 141
1.61659 -3.48388 -0.02573 165 166 142
1.60583 -3.49281 -0.01783 160 154 138
1.59509 -3.50173 -0.00994 153 148 135
1.58435 -3.51064 -0.00206 159 160 145
1.57363 -3.51955 0.00582 156 157 140
1.56291 -3.52844 0.01368 146 143 134
1.55221 -3.53733 0.02154 151 144 142
1.54152 -3.54621 0.02939 153 146 142
1.53083 -3.55508 0.03724 145 142 137
1.52016 -3.56394 0.04507 144 144 132
1.50950 -3.57279 0.05290 148 150 135
1.49885 -3.58163 0.06072 154 155 139
1.48821 -3.59047 0.06854 151 151 128
1.47758 -3.59929 0.07634 149 150 134
1.46696 -3.60811 0.08414 151 153 144
1.45635 -3.61692 0.09193 145 141 129
1.44575 -3.62572 0.09971 147 142 129
1.43517 -3.63451 0.10748 156 150 160
1.42459 -3.64329 0.11525 145 144 127
1.41402 -3.65207 0.12301 142 141 125
1.40346 -3.66083 0.13076 143 144 137
1.39292 -3.66959 0.13851 130 139 138
1.38238 -3.67834 0.14624 148 152 131
1.37185 -3.68707 0.15397 143 150 134
1.32985 -3.72195 0.18481 141 146 151
1.31938 -3.73064 0.19250 142 142 147
1.30891 -3.73933 0.20019 158 159 143
1.29846 -3.74801 0.20786 163 168 147
1.28802 -3.75668 0.21553 154 157 151
1.27758 -3.76535 0.22319 155 155 149
1.26716 -3.77400 0.23085 152 156 139
1.25674 -3.78265 0.23849 153 155 130
1.24634 -3.79128 0.24613 160 159 136
1.23595 -3.79991 0.25376 165 169 144
1.22557 -3.80853 0.26139 163 165 148
1.21519 -3.81715 0.26901 147 141 141
1.20483 -3.82575 0.27662 135 138 137
1.19448 -3.83435 0.28422 143 154 147
1.18413 -3.84293 0.29181 161 169 156
1.17380 -3.85151 0.29940 172 174 155
1.16348 -3.86008 0.30698 162 164 144
1.15316 -3.86865 0.31455 157 164 144
1.14286 -3.87720 0.32212 159 161 148
1.13257 -3.88575 0.32967 154 153 148
1.12229 -3.89428 0.33722 147 148 139
1.11201 -3.90281 0.34477 148 148 138
1.10175 -3.91133 0.35230 149 151 134
1.09150 -3.91985 0.35983 152 153 135
1.08125 -3.92835 0.36735 143 142 129
1.07102 -3.93685 0.37487 134 135 134
1.06080 -3.94534 0.38237 140 141 119
1.05058 -3.95382 0.38987 127 129 109
1.04038 -3.96229 0.39737 140 146 130
1.03019 -3.97075 0.40485 144 144 132
1.02000 -3.97921 0.41233 145 144 127
1.00983 -3.98766 0.41980 146 139 128
0.99966 -3.99610 0.42726 146 141 127
0.98951 -4.00453 0.43472 139 130 116
0.97936 -4.01295 0.44217 130 130 118
0.96923 -4.02137 0.44961 132 137 118
0.95910 -4.02977 0.45705 141 139 127
0.94899 -4.03817 0.46447 143 144 122
0.93888 -4.04656 0.47190 133 136 122
0.92878 -4.05494 0.47931 142 144 132
0.91870 -4.06332 0.48672 148 146 127
0.90862 -4.07169 0.49411 136 137 122
0.89855 -4.08004 0.50151 134 135 124
0.88849 -4.08840 0.50889 141 137 117
0.87845 -4.09674 0.51627 138 128 108
0.86841 -4.10507 0.52364 135 127 122
0.85838 -4.11340 0.53101 130 135 126
0.84836 -4.12172 0.53836 134 133 123
0.83835 -4.13003 0.54571 138 137 127
0.82835 -4.13833 0.55306 141 142 123
0.81836 -4.14663 0.56039 138 137 113
0.80838 -4.15491 0.56772 134 131 111
0.78844 -4.17147 0.58236 126 124 118
0.77849 -4.17973 0.58967 132 125 118
2.18252 -2.98971 -0.46312 120 123 114
2.17123 -2.99910 -0.45482 124 132 127
2.15996 -3.00847 -0.44653 126 126 114
2.14869 -3.01784 -0.43825 125 122 109
2.13744 -3.02719 -0.42998 113 119 115
2.12620 -3.03654 -0.42171 130 127 130
2.11497 -3.04588 -0.41345 129 124 128
2.10375 -3.05520 -0.40520 128 135 133
2.09254 -3.06452 -0.39696 130 135 137
2.08134 -3.07383 -0.38873 136 137 130
2.07016 -3.08313 -0.38051 135 136 122
2.05899 -3.09242 -0.37229 136 143 129
2.04782 -3.10170 -0.36408 133 129 114
2.03667 -3.11097 -0.35589 151 145 137
2.02553 -3.12023 -0.34769 146 141 147
2.01440 -3.12948 -0.33951 152 149 137
2.00328 -3.13873 -0.33134 145 140 132
1.99218 -3.14796 -0.32317 143 140 133
1.98108 -3.15719 -0.31501 152 147 140
1.97000 -3.16640 -0.30686 145 131 119
1.95892 -3.17561 -0.29872 147 148 128
1.94786 -3.18480 -0.29059 147 149 132
1.93681 -3.19399 -0.28246 142 141 130
1.92577 -3.20317 -0.27434 136 138 131
1.91474 -3.21234 -0.26623 136 139 136
1.90372 -3.22150 -0.25813 142 151 137
1.89271 -3.23065 -0.25004 149 151 139
1.88172 -3.23979 -0.24196 151 153 144
1.87073 -3.24892 -0.23388 152 157 148
1.85976 -3.25805 -0.22581 152 154 146
1.84880 -3.26716 -0.21775 150 149 139
1.83784 -3.27627 -0.20970 141 142 139
1.82690 -3.28536 -0.20165 142 146 140
1.81597 -3.29445 -0.19361 154 152 134
1.80505 -3.30353 -0.18559 146 146 129
1.79414 -3.31260 -0.17757 147 150 132
1.78324 -3.32166 -0.16955 154 161 140
1.77236 -3.33071 -0.16155 143 150 116
1.76148 -3.33975 -0.15355 151 159 142
1.75062 -3.34879 -0.14556 153 162 154
1.73976 -3.35781 -0.13758 156 163 146
1.72892 -3.36682 -0.12961 157 158 148
1.71808 -3.37583 -0.12164 151 143 125
1.70726 -3.38483 -0.11369 160 159 142
1.69645 -3.39382 -0.10574 161 155 143
1.68565 -3.40280 -0.09779 161 167 147
1.67486 -3.41177 -0.08986 164 171 142
1.66408 -3.42073 -0.08193 159 160 152
1.65331 -3.42968 -0.07402 152 153 146
1.64255 -3.43863 -0.06611 152 159 137
1.63180 -3.44756 -0.05820 142 150 118
1.62107 -3.45649 -0.05031 148 152 132
1.61034 -3.46541 -0.04242 156 158 144
1.59962 -3.47431 -0.03454 160 166 147
1.58892 -3.48321 -0.02667 160 167 146
1.57822 -3.49211 -0.01881 156 160 146
1.56754 -3.50099 -0.01095 156 156 145
1.55687 -3.50986 -0.00311 152 154 138
1.54620 -3.51873 0.00473 136 139 135
1.53555 -3.52758 0.01257 128 133 139
1.52491 -3.53643 0.02039 138 141 142
1.51427 -3.54527 0.02821 146 149 139
1.50365 -3.55410 0.03602 145 149 128
1.49304 -3.56292 0.04382 141 137 124
1.48244 -3.57173 0.05161 140 141 130
1.47185 -3.58054 0.05940 139 143 126
1.46127 -3.58933 0.06718 142 145 135
1.45070 -3.59812 0.07495 145 146 137
1.44014 -3.60690 0.08271 140 135 128
1.42959 -3.61567 0.09047 138 123 130
1.41906 -3.62443 0.09822 148 144 131
1.40853 -3.63318 0.10596 138 136 123
1.39801 -3.64193 0.11369 133 130 109
1.38750 -3.65066 0.12142 142 139 130
1.37700 -3.65939 0.12914 154 155 135
1.36652 -3.66811 0.13685 158 166 140
1.35604 -3.67682 0.14455 144 143 130
1.34557 -3.68552 0.15225 139 140 126
1.33512 -3.69422 0.15994 143 148 130
1.32467 -3.70290 0.16762 144 140 137
1.31423 -3.71158 0.17529 148 144 145
1.30381 -3.72024 0.18296 142 144 142
1.29339 -3.72890 0.19061 156 165 151
1.28299 -3.73755 0.19827 147 146 147
1.27259 -3.74620 0.20591 145 143 145
1.26220 -3.75483 0.21354 158 154 155
1.25183 -3.76346 0.22117 154 150 145
1.24146 -3.77207 0.22879 150 146 133
1.23111 -3.78068 0.23641 143 147 138
1.22076 -3.78928 0.24401 142 150 143
1.21043 -3.79788 0.25161 148 147 140
1.20010 -3.80646 0.25921 149 145 129
1.18979 -3.81504 0.26679 147 148 125
1.17948 -3.82360 0.27437 145 146 133
1.16919 -3.83216 0.28194 150 153 139
1.15890 -3.84071 0.28950 163 164 143
1.14862 -3.84926 0.29705 159 157 140
1.13836 -3.85779 0.30460 150 152 141
1.12810 -3.86632 0.31214 154 153 140
1.11786 -3.87484 0.31968 146 137 133
1.10762 -3.88335 0.32720 131 122 130
1.09740 -3.89185 0.33472 146 149 143
1.08718 -3.90034 0.34223 157 162 134
1.07697 -3.90883 0.34974 151 147 120
1.06678 -3.91730 0.35723 141 130 115
1.05659 -3.92577 0.36472 145 140 132
1.04641 -3.93423 0.37221 153 147 126
1.03624 -3.94269 0.37968 143 144 120
1.02609 -3.95113 0.38715 140 144 124
1.01594 -3.95957 0.39461 137 141 124
1.00580 -3.96800 0.40207 137 146 125
0.99567 -3.97642 0.40951 137 140 134
0.98555 -3.98483 0.41695 143 146 140
0.97545 -3.99323 0.42439 138 133 119
0.96535 -4.00163 0.43181 129 129 106
0.95526 -4.01002 0.43923 141 144 112
0.94518 -4.01840 0.44664 131 135 115
0.93511 -4.02677 0.45404 133 140 124
0.92505 -4.03513 0.46144 127 130 128
0.91499 -4.04349 0.46883 127 133 126
0.90495 -4.05184 0.47622 144 144 123
0.89492 -4.06018 0.48359 130 128 125
0.88490 -4.06851 0.49096 130 134 124
0.87489 -4.07683 0.49832 144 146 125
0.86488 -4.08515 0.50568 142 135 117
0.85489 -4.09346 0.51303 132 126 121
0.84490 -4.10176 0.52037 126 125 120
0.83493 -4.11005 0.52770 136 132 128
0.82497 -4.11834 0.53503 139 135 123
0.81501 -4.12661 0.54235 140 137 116
0.80506 -4.13488 0.54966 137 135 116
0.79513 -4.14314 0.55697 134 133 115
0.77528 -4.15964 0.57156 123 120 116
0.76537 -4.16788 0.57884 137 133 135
0.75547 -4.17611 0.58612 136 128 118
2.19664 -2.95383 -0.49522 124 128 116
2.18538 -2.96321 -0.48693 123 129 115
2.17412 -2.97258 -0.47864 130 130 119
2.16288 -2.98194 -0.47036 127 125 118
2.15165 -2.99129 -0.46210 128 130 129
2.14043 -3.00063 -0.45383 132 130 122
2.12922 -3.00996 -0.44558 129 128 114
2.11802 -3.01928 -0.43734 121 117 109
2.10683 -3.02859 -0.42910 127 123 120
2.09566 -3.03789 -0.42087 126 125 131
2.08449 -3.04719 -0.41265 134 136 140
2.07334 -3.05647 -0.40444 144 144 142
2.06220 -3.06575 -0.39624 154 157 134
2.05107 -3.07501 -0.38805 143 138 131
2.03995 -3.08427 -0.37986 141 145 138
2.02884 -3.09352 -0.37168 157 153 129
2.01774 -3.10275 -0.36351 147 144 139
2.00666 -3.11198 -0.35535 145 146 144
1.99558 -3.12120 -0.34720 138 137 138
1.98452 -3.13041 -0.33905 142 139 140
1.97347 -3.13961 -0.33091 143 145 145
1.96242 -3.14880 -0.32278 148 152 142
1.95139 -3.15799 -0.31466 136 137 121
1.94037 -3.16716 -0.30655 142 148 128
1.92936 -3.17632 -0.29844 148 148 135
1.91837 -3.18548 -0.29035 150 148 136
1.90738 -3.19463 -0.28226 149 148 130
1.89640 -3.20376 -0.27418 143 143 130
1.88544 -3.21289 -0.26611 142 141 129
1.87449 -3.22201 -0.25804 149 146 134
1.86354 -3.23112 -0.24998 149 152 140
1.85261 -3.24022 -0.24194 148 153 141
1.84169 -3.24931 -0.23390 152 151 143
1.83078 -3.25839 -0.22586 153 149 143
1.81988 -3.26747 -0.21784 150 148 146
1.80899 -3.27653 -0.20982 148 150 149
1.79811 -3.28559 -0.20181 145 150 138
1.78724 -3.29463 -0.19381 133 137 118
1.77639 -3.30367 -0.18582 131 132 113
1.76554 -3.31270 -0.17783 157 158 144
1.75471 -3.32172 -0.16986 153 156 135
1.74388 -3.33073 -0.16189 153 160 148
1.73307 -3.33973 -0.15393 152 161 152
1.72227 -3.34872 -0.14597 155 159 146
1.71147 -3.35771 -0.13803 160 161 150
1.70069 -3.36668 -0.13009 165 161 139
1.68992 -3.37565 -0.12216 165 164 144
1.67916 -3.38460 -0.11424 160 161 147
1.66841 -3.39355 -0.10632 157 159 156
1.65767 -3.40249 -0.09842 156 156 149
1.64694 -3.41142 -0.09052 153 153 144
1.63623 -3.42035 -0.08263 144 141 133
1.62552 -3.42926 -0.07474 148 151 145
1.61482 -3.43816 -0.06687 151 156 142
1.60414 -3.44706 -0.05900 152 155 139
1.59346 -3.45595 -0.05114 151 153 138
1.58279 -3.46482 -0.04329 139 140 129
1.57214 -3.47369 -0.03545 144 147 133
1.56149 -3.48256 -0.02761 152 152 137
1.55086 -3.49141 -0.01978 150 145 135
1.54024 -3.50025 -0.01196 145 142 137
1.52962 -3.50909 -0.00414 135 137 134
1.51902 -3.51791 0.00366 131 137 134
1.50843 -3.52673 0.01146 147 150 144
1.49785 -3.53554 0.01925 157 156 145
1.48727 -3.54434 0.02703 154 156 142
1.47671 -3.55313 0.03481 151 160 143
1.46616 -3.56191 0.04258 145 151 134
1.45562 -3.57069 0.05034 137 137 122
1.44509 -3.57945 0.05809 142 146 134
1.43457 -3.58821 0.06584 147 148 134
1.42406 -3.59696 0.07357 143 144 130
1.41356 -3.60570 0.08130 145 146 139
1.40307 -3.61443 0.08903 143 146 125
1.39259 -3.62316 0.09674 142 147 120
1.38212 -3.63187 0.10445 140 144 122
1.37166 -3.64058 0.11215 147 147 137
1.36122 -3.64928 0.11984 165 165 139
1.35078 -3.65797 0.12753 159 162 153
1.34035 -3.66665 0.13520 155 150 132
1.32993 -3.67532 0.14288 149 145 126
1.31952 -3.68398 0.15054 149 152 135
1.30912 -3.69264 0.15819 150 148 144
1.29874 -3.70129 0.16584 158 159 153
1.28836 -3.70993 0.17348 156 158 144
1.27799 -3.71856 0.18111 158 156 147
1.26763 -3.72718 0.18874 153 151 143
1.25728 -3.73579 0.19636 134 136 139
1.24695 -3.74440 0.20397 138 146 149
1.23662 -3.75300 0.21157 149 152 149
1.22630 -3.76158 0.21917 152 152 150
1.21599 -3.77017 0.22676 147 150 147
1.20570 -3.77874 0.23434 138 145 142
1.19541 -3.78730 0.24191 139 146 141
1.18513 -3.79586 0.24948 149 156 137
1.17486 -3.80441 0.25704 158 165 142
1.16460 -3.81295 0.26459 154 156 148
1.15435 -3.82148 0.27214 143 142 143
1.14412 -3.83000 0.27968 141 136 135
1.13389 -3.83851 0.28721 135 128 131
1.12367 -3.84702 0.29473 131 131 134
1.11346 -3.85552 0.30225 143 146 130
1.10326 -3.86401 0.30976 149 147 126
1.09307 -3.87249 0.31726 143 140 130
1.08289 -3.88097 0.32475 146 150 136
1.07272 -3.88943 0.33224 144 147 130
1.06256 -3.89789 0.33972 141 144 128
1.05241 -3.90634 0.34719 148 148 130
1.04227 -3.91478 0.35466 148 152 133
1.03214 -3.92321 0.36212 146 143 134
1.02202 -3.93164 0.36957 146 147 130
1.01191 -3.94006 0.37701 144 145 123
1.00180 -3.94847 0.38445 134 131 118
0.99171 -3.95687 0.39188 131 132 114
0.98163 -3.96526 0.39930 144 142 134
0.97155 -3.97365 0.40672 143 139 130
0.96149 -3.98202 0.41413 134 129 112
0.95144 -3.99039 0.42153 124 126 85
0.94139 -3.99875 0.42893 143 144 116
0.93136 -4.00711 0.43631 133 135 123
0.92133 -4.01545 0.44370 133 139 124
0.91132 -4.02379 0.45107 136 141 131
0.90131 -4.03212 0.45844 131 125 126
0.89132 -4.04044 0.46580 141 140 120
0.88133 -4.04876 0.47315 134 131 113
0.87135 -4.05706 0.48049 126 127 114
0.86138 -4.06536 0.48783 145 147 130
0.85142 -4.07365 0.49516 146 144 124
0.84147 -4.08193 0.50249 131 125 124
0.83153 -4.09021 0.50981 128 124 118
0.82160 -4.09847 0.51712 138 131 131
0.81168 -4.10673 0.52442 136 131 120
0.80177 -4.11498 0.53172 135 131 109
0.79187 -4.12322 0.53901 133 131 118
0.78198 -4.13146 0.54629 137 137 120
0.76222 -4.14791 0.56084 126 127 115
0.75235 -4.15612 0.56810 136 132 132
0.74250 -4.16432 0.57536 135 129 114
2.18821 -2.93686 -0.51059 120 117 103
2.17699 -2.94622 -0.50232 120 114 116
2.16578 -2.95556 -0.49405 118 112 113
2.15458 -2.96490 -0.48580 122 114 110
2.14339 -2.97422 -0.47755 121 118 113
2.13222 -2.98354 -0.46931 123 121 125
2.12105 -2.99284 -0.46108 124 131 133
2.10990 -3.00214 -0.45285 130 131 130
2.09876 -3.01143 -0.44464 123 101 112
2.08762 -3.02071 -0.43643 134 134 121
2.07650 -3.02998 -0.42823 143 141 130
2.06539 -3.03924 -0.42004 151 152 145
2.05429 -3.04849 -0.41186 151 151 155
2.04321 -3.05773 -0.40369 150 150 145
2.03213 -3.06696 -0.39552 159 155 145
2.02106 -3.07619 -0.38737 151 146 142
2.01001 -3.08540 -0.37922 150 151 138
1.99897 -3.09460 -0.37108 148 147 146
1.98794 -3.10380 -0.36294 150 149 142
1.97691 -3.11299 -0.35482 129 119 118
1.96590 -3.12216 -0.34670 141 145 125
1.95490 -3.13133 -0.33859 145 141 131
1.94392 -3.14049 -0.33049 154 153 148
1.93294 -3.14964 -0.32240 149 150 137
1.92197 -3.15878 -0.31432 150 153 138
1.91102 -3.16791 -0.30624 153 152 144
1.90007 -3.17704 -0.29817 157 157 143
1.88914 -3.18615 -0.29011 156 156 136
1.87821 -3.19525 -0.28206 145 144 134
1.86730 -3.20435 -0.27401 139 137 138
1.85640 -3.21344 -0.26598 152 149 154
1.84551 -3.22251 -0.25795 156 155 157
1.83463 -3.23158 -0.24993 152 154 148
1.82376 -3.24064 -0.24192 155 154 143
1.81290 -3.24969 -0.23391 155 148 136
1.80206 -3.25873 -0.22591 149 142 130
1.79122 -3.26777 -0.21793 148 146 130
1.78039 -3.27679 -0.20995 147 148 134
1.76958 -3.28580 -0.20197 139 137 138
1.75877 -3.29481 -0.19401 138 146 140
1.74798 -3.30381 -0.18605 153 153 147
1.73720 -3.31280 -0.17810 154 156 154
1.72642 -3.32177 -0.17016 156 160 161
1.71566 -3.33075 -0.16222 159 163 153
1.70491 -3.33971 -0.15430 155 150 151
1.69417 -3.34866 -0.14638 157 159 156
1.68344 -3.35760 -0.13847 162 171 158
1.67272 -3.36654 -0.13057 160 159 140
1.66201 -3.37547 -0.12267 159 154 136
1.65131 -3.38438 -0.11479 154 151 146
1.64062 -3.39329 -0.10691 145 139 130
1.62994 -3.40219 -0.09903 147 149 155
1.61928 -3.41108 -0.09117 148 149 134
1.60862 -3.41997 -0.08331 150 151 140
1.59797 -3.42884 -0.07547 153 156 147
1.58734 -3.43771 -0.06762 151 145 145
1.57671 -3.44656 -0.05979 150 149 139
1.56610 -3.45541 -0.05197 143 140 133
1.55549 -3.46425 -0.04415 146 146 137
1.54490 -3.47308 -0.03634 155 152 140
1.53431 -3.48190 -0.02854 155 147 138
1.52374 -3.49072 -0.02074 152 146 131
1.51318 -3.49952 -0.01295 139 139 114
1.50262 -3.50832 -0.00517 133 135 112
1.49208 -3.51710 0.00260 146 145 132
1.48155 -3.52588 0.01036 153 147 140
1.47102 -3.53465 0.01812 154 149 143
1.46051 -3.54342 0.02587 153 152 142
1.45001 -3.55217 0.03361 144 139 130
1.43952 -3.56091 0.04135 144 138 131
1.42904 -3.56965 0.04907 154 149 138
1.41857 -3.57838 0.05679 150 144 139
1.40810 -3.58710 0.06450 138 131 131
1.39765 -3.59581 0.07221 146 150 138
1.38721 -3.60451 0.07991 140 140 124
1.37678 -3.61321 0.08759 141 136 110
1.36636 -3.62189 0.09528 139 143 137
1.35595 -3.63057 0.10295 150 159 153
1.34555 -3.63924 0.11062 157 158 145
1.33516 -3.64790 0.11828 155 158 154
1.32478 -3.65655 0.12593 158 161 137
1.31441 -3.66520 0.13358 152 157 132
1.30405 -3.67383 0.14121 152 153 138
1.29370 -3.68246 0.14884 148 150 143
1.28336 -3.69108 0.15647 148 151 148
1.27303 -3.69969 0.16408 151 143 145
1.26271 -3.70829 0.17169 156 153 136
1.25240 -3.71688 0.17929 151 153 134
1.24210 -3.72547 0.18688 139 143 132
1.23181 -3.73405 0.19447 138 133 126
1.22153 -3.74261 0.20205 150 143 127
1.21126 -3.75118 0.20962 155 153 135
1.20100 -3.75973 0.21718 151 151 138
1.19074 -3.76827 0.22474 152 151 140
1.18050 -3.77681 0.23229 151 155 148
1.17027 -3.78534 0.23983 150 154 147
1.16005 -3.79386 0.24737 152 153 143
1.14984 -3.80237 0.25490 154 156 147
1.13964 -3.81087 0.26242 159 160 148
1.12944 -3.81937 0.26993 164 162 149
1.11926 -3.82785 0.27744 154 149 137
1.10909 -3.83633 0.28494 140 138 124
1.09893 -3.84480 0.29243 148 147 129
1.08877 -3.85327 0.29991 153 148 130
1.07863 -3.86172 0.30739 145 144 138
1.06850 -3.87017 0.31486 142 151 134
1.05837 -3.87861 0.32232 137 136 118
1.04826 -3.88704 0.32978 138 138 133
1.03815 -3.89546 0.33723 150 155 141
1.02806 -3.90387 0.34467 147 151 134
1.01797 -3.91228 0.35211 142 142 134
1.00790 -3.92068 0.35953 144 146 135
0.99783 -3.92907 0.36695 147 144 125
0.98777 -3.93745 0.37437 135 132 128
0.97773 -3.94583 0.38178 126 130 129
0.96769 -3.95419 0.38917 139 142 140
0.95766 -3.96255 0.39657 139 137 123
0.94764 -3.97090 0.40395 134 138 123
0.93763 -3.97924 0.41133 138 146 118
0.92764 -3.98758 0.41870 141 138 126
0.91765 -3.99591 0.42607 138 140 131
0.90767 -4.00422 0.43343 132 136 121
0.89769 -4.01254 0.44078 140 133 121
0.88773 -4.02084 0.44812 136 128 121
0.87778 -4.02913 0.45546 134 129 116
0.86784 -4.03742 0.46279 127 122 113
0.85790 -4.04570 0.47011 122 122 104
0.84798 -4.05397 0.47742 139 137 118
0.83807 -4.06224 0.48473 142 137 119
0.82816 -4.07049 0.49203 131 126 124
0.81827 -4.07874 0.49933 127 120 110
0.80838 -4.08698 0.50662 131 126 119
0.79850 -4.09521 0.51390 129 130 114
0.78863 -4.10344 0.52117 136 134 110
0.77878 -4.11166 0.52844 135 129 114
0.76893 -4.11986 0.53570 138 133 108
0.74926 -4.13626 0.55020 124 118 116
0.73943 -4.14445 0.55744 132 129 130
0.72962 -4.15263 0.56468 130 123 111
2.16867 -2.92935 -0.51759 116 115 103
2.15750 -2.93867 -0.50935 116 114 110
2.14634 -2.94798 -0.50112 122 122 111
2.13520 -2.95728 -0.49289 127 130 108
2.12407 -2.96657 -0.48467 120 118 114
2.11295 -2.97585 -0.47646 121 124 120
2.10183 -2.98512 -0.46826 120 123 122
2.09073 -2.99439 -0.46007 135 124 121
2.07965 -3.00364 -0.45188 136 132 116
2.06857 -3.01289 -0.44371 141 149 131
2.05750 -3.02212 -0.43554 144 148 132
2.04645 -3.03135 -0.42738 142 139 135
2.03540 -3.04057 -0.41922 142 131 137
2.02437 -3.04978 -0.41108 139 135 146
2.01334 -3.05898 -0.40294 143 148 144
2.00233 -3.06817 -0.39481 142 142 138
1.99133 -3.07735 -0.38669 147 142 141
1.98034 -3.08652 -0.37858 147 141 135
1.96936 -3.09568 -0.37048 141 133 133
1.95839 -3.10484 -0.36238 140 136 128
1.94744 -3.11398 -0.35429 144 144 132
1.93649 -3.12312 -0.34621 144 140 128
1.92556 -3.13224 -0.33814 148 139 134
1.91463 -3.14136 -0.33008 133 137 137
1.90372 -3.15047 -0.32202 142 143 142
1.89281 -3.15957 -0.31397 154 154 154
1.88192 -3.16866 -0.30593 162 157 148
1.87104 -3.17774 -0.29790 158 144 138
1.86017 -3.18681 -0.28988 157 149 142
1.84931 -3.19588 -0.28186 152 151 148
1.83846 -3.20493 -0.27385 157 155 160
1.82762 -3.21398 -0.26585 153 146 148
1.81680 -3.22301 -0.25786 143 137 137
1.80598 -3.23204 -0.24987 147 146 146
1.79517 -3.24106 -0.24190 152 154 151
1.78438 -3.25007 -0.23393 155 156 143
1.77359 -3.25907 -0.22597 162 161 135
1.76282 -3.26806 -0.21801 161 158 137
1.75205 -3.27705 -0.21007 145 147 145
1.74130 -3.28602 -0.20213 139 143 149
1.73056 -3.29499 -0.19420 150 154 147
1.71982 -3.30394 -0.18628 159 163 147
1.70910 -3.31289 -0.17836 156 151 150
1.69839 -3.32183 -0.17046 140 135 137
1.68769 -3.33076 -0.16256 144 146 146
1.67700 -3.33968 -0.15467 152 158 158
1.66632 -3.34860 -0.14678 163 165 158
1.65565 -3.35750 -0.13891 156 162 149
1.64499 -3.36640 -0.13104 162 167 156
1.63434 -3.37528 -0.12318 160 152 142
1.62371 -3.38416 -0.11533 131 123 117
1.61308 -3.39303 -0.10748 140 139 138
1.60246 -3.40189 -0.09965 148 154 137
1.59185 -3.41075 -0.09182 154 160 145
1.58126 -3.41959 -0.08399 157 160 141
1.57067 -3.42842 -0.07618 149 147 134
1.56010 -3.43725 -0.06837 142 140 132
1.54953 -3.44607 -0.06057 148 150 141
1.53897 -3.45488 -0.05278 140 136 139
1.52843 -3.46368 -0.04500 138 134 138
1.51789 -3.47247 -0.03722 145 147 138
1.50737 -3.48125 -0.02945 156 155 137
1.49686 -3.49003 -0.02169 164 158 142
1.48635 -3.49880 -0.01394 159 154 144
1.47586 -3.50755 -0.00619 151 149 140
1.46537 -3.51630 0.00154 150 143 129
1.45490 -3.52505 0.00928 150 142 125
1.44444 -3.53378 0.01700 148 147 132
1.43398 -3.54250 0.02472 143 144 128
1.42354 -3.55122 0.03242 146 148 136
1.41311 -3.55992 0.04012 152 154 141
1.40269 -3.56862 0.04782 154 151 143
1.39227 -3.57731 0.05550 145 137 136
1.38187 -3.58600 0.06318 144 143 138
1.37148 -3.59467 0.07086 144 138 139
1.36109 -3.60333 0.07852 145 147 133
1.35072 -3.61199 0.08618 148 151 139
1.34036 -3.62064 0.09382 155 154 147
1.33001 -3.62928 0.10147 155 158 144
1.31966 -3.63791 0.10910 154 153 148
1.30933 -3.64653 0.11673 153 153 137
1.29901 -3.65515 0.12435 161 161 143
1.28870 -3.66376 0.13196 162 152 138
1.27839 -3.67236 0.13957 147 136 131
1.26810 -3.68095 0.14716 136 129 131
1.25782 -3.68953 0.15475 143 145 138
1.24754 -3.69810 0.16234 144 146 133
1.23728 -3.70667 0.16991 140 138 135
1.22703 -3.71522 0.17748 149 149 133
