ply
format ascii 1.0
element face 0
property list uchar int vertex_indices
element vertex 1271
property float x
property float y
property float z
property uchar diffuse_red
property uchar diffuse_green
property uchar diffuse_blue
end_header
1.41584 -3.08812 -0.33176 154 157 160
1.40183 -3.09485 -0.32769 157 159 163
1.38782 -3.10158 -0.32361 173 175 171
1.37383 -3.10830 -0.31954 172 174 171
1.35984 -3.11502 -0.31547 169 169 178
1.34586 -3.12173 -0.31141 165 165 175
1.33188 -3.12844 -0.30734 172 171 172
1.31792 -3.13515 -0.30328 172 175 168
1.30397 -3.14185 -0.29922 171 174 164
1.29002 -3.14855 -0.29517 165 170 169
1.27608 -3.15524 -0.29111 164 166 170
1.26215 -3.16193 -0.28706 171 171 165
1.24823 -3.16862 -0.28301 168 170 171
1.23432 -3.17530 -0.27897 157 161 167
1.22042 -3.18198 -0.27492 151 155 163
1.20652 -3.18865 -0.27088 164 167 165
1.19263 -3.19532 -0.26684 168 174 169
1.17875 -3.20198 -0.26281 154 159 158
1.16488 -3.20864 -0.25877 149 151 156
1.15102 -3.21530 -0.25474 158 158 166
1.13717 -3.22196 -0.25071 160 162 163
1.12332 -3.22860 -0.24669 151 156 156
1.10948 -3.23525 -0.24266 146 151 155
1.09565 -3.24189 -0.23864 156 162 160
1.08183 -3.24853 -0.23462 162 168 161
1.06802 -3.25516 -0.23060 158 158 158
1.05422 -3.26179 -0.22659 160 157 161
1.04042 -3.26842 -0.22257 160 160 158
1.02663 -3.27504 -0.21856 157 160 153
1.01286 -3.28165 -0.21456 148 150 149
0.99909 -3.28827 -0.21055 138 141 149
0.98532 -3.29488 -0.20655 140 144 151
0.97157 -3.30148 -0.20255 154 155 158
0.95782 -3.30808 -0.19855 148 150 153
0.94409 -3.31468 -0.19456 150 146 149
0.93036 -3.32127 -0.19056 158 162 158
0.91663 -3.32786 -0.18657 158 163 154
0.90292 -3.33445 -0.18258 152 157 148
0.88922 -3.34103 -0.17860 145 148 153
0.87552 -3.34761 -0.17461 153 157 158
0.86183 -3.35418 -0.17063 153 155 157
0.84815 -3.36075 -0.16665 159 166 165
0.83448 -3.36732 -0.16268 156 163 162
0.82082 -3.37388 -0.15870 153 160 167
0.80716 -3.38044 -0.15473 151 154 165
0.79351 -3.38699 -0.15076 159 162 161
0.72540 -3.41970 -0.13095 153 152 158
0.71180 -3.42623 -0.12700 156 159 161
0.69821 -3.43276 -0.12305 151 152 158
0.68463 -3.43928 -0.11910 151 159 158
0.67105 -3.44580 -0.11515 153 159 150
0.65749 -3.45232 -0.11120 152 159 155
0.64393 -3.45883 -0.10726 140 145 151
0.63038 -3.46534 -0.10332 138 141 147
0.61684 -3.47184 -0.09938 140 145 151
0.60331 -3.47834 -0.09544 148 151 157
0.58978 -3.48483 -0.09151 148 152 162
0.57626 -3.49132 -0.08758 142 148 155
0.56275 -3.49781 -0.08365 140 142 142
0.54925 -3.50430 -0.07972 136 139 143
0.53576 -3.51078 -0.07580 139 149 154
0.52227 -3.51725 -0.07188 140 145 153
0.50880 -3.52373 -0.06796 141 144 150
0.49533 -3.53019 -0.06404 148 159 158
0.48187 -3.53666 -0.06012 151 157 163
0.46841 -3.54312 -0.05621 146 144 164
0.45497 -3.54958 -0.05230 141 143 165
0.44153 -3.55603 -0.04839 142 148 167
0.42810 -3.56248 -0.04449 141 148 162
0.41468 -3.56892 -0.04058 141 146 156
0.40127 -3.57537 -0.03668 143 147 153
0.38786 -3.58180 -0.03278 142 148 156
0.37446 -3.58824 -0.02889 145 152 159
0.36107 -3.59467 -0.02499 141 146 156
0.34769 -3.60109 -0.02110 131 136 153
0.33432 -3.60752 -0.01721 135 147 153
0.32095 -3.61394 -0.01332 133 136 141
0.30759 -3.62035 -0.00944 135 143 139
0.29424 -3.62676 -0.00556 136 140 139
0.28090 -3.63317 -0.00168 129 132 126
0.26757 -3.63957 0.00220 116 131 119
0.25424 -3.64597 0.00608 136 144 143
0.24092 -3.65237 0.00995 136 143 136
0.22761 -3.65876 0.01382 136 149 139
0.21431 -3.66515 0.01769 134 140 140
0.20102 -3.67153 0.02156 130 139 143
0.18773 -3.67792 0.02542 146 154 161
0.17445 -3.68429 0.02928 138 141 149
0.16118 -3.69067 0.03314 131 138 140
0.14792 -3.69704 0.03700 133 142 150
0.13466 -3.70340 0.04086 128 134 142
0.12141 -3.70976 0.04471 129 141 137
0.10817 -3.71612 0.04856 126 136 134
0.09494 -3.72248 0.05241 121 132 129
0.08172 -3.72883 0.05626 136 139 142
0.06850 -3.73517 0.06010 143 150 150
0.05529 -3.74152 0.06394 130 132 135
0.04209 -3.74786 0.06778 135 141 142
0.02890 -3.75419 0.07162 131 139 139
0.01571 -3.76053 0.07545 132 135 138
0.00253 -3.76685 0.07928 145 150 143
-0.01064 -3.77318 0.08312 148 156 150
-0.02380 -3.77950 0.08694 135 135 135
-0.03695 -3.78582 0.09077 122 122 119
-0.05010 -3.79213 0.09459 130 138 132
-0.06324 -3.79844 0.09841 138 144 140
-0.07637 -3.80475 0.10223 132 136 144
-0.08949 -3.81105 0.10605 127 133 140
-0.10261 -3.81735 0.10986 128 133 128
-0.11572 -3.82364 0.11368 124 128 127
-0.12882 -3.82994 0.11749 119 123 129
-0.14191 -3.83622 0.12129 122 124 131
-0.15500 -3.84251 0.12510 126 129 133
-0.16807 -3.84879 0.12890 122 129 130
-0.18114 -3.85506 0.13271 123 128 135
-0.19420 -3.86134 0.13650 135 137 143
-0.20726 -3.86761 0.14030 135 136 146
-0.22031 -3.87387 0.14410 127 130 138
-0.23335 -3.88013 0.14789 127 130 131
-0.24638 -3.88639 0.15168 124 123 120
-0.25940 -3.89265 0.15547 119 115 118
-0.27242 -3.89890 0.15925 133 132 127
-0.28543 -3.90514 0.16303 132 124 130
-0.29843 -3.91139 0.16682 133 134 136
-0.31142 -3.91763 0.17060 122 121 120
-0.32441 -3.92386 0.17437 110 112 124
-0.33738 -3.93010 0.17815 113 126 133
-0.35036 -3.93633 0.18192 114 123 121
-0.36332 -3.94255 0.18569 117 121 125
-0.37627 -3.94877 0.18946 125 129 131
-0.38922 -3.95499 0.19322 126 129 124
-0.40216 -3.96121 0.19699 125 127 121
-0.41510 -3.96742 0.20075 133 140 142
-0.42802 -3.97363 0.20451 116 120 110
-0.44094 -3.97983 0.20826 112 114 127
-0.45385 -3.98603 0.21202 120 119 123
-0.46675 -3.99223 0.21577 113 115 119
-0.47965 -3.99842 0.21952 117 123 123
-0.49254 -4.00461 0.22327 126 127 133
-0.50542 -4.01079 0.22702 125 128 130
-0.51829 -4.01698 0.23076 124 127 127
-0.53115 -4.02315 0.23450 119 116 119
-0.54401 -4.02933 0.23824 119 122 128
-0.55686 -4.03550 0.24198 126 134 134
-0.56971 -4.04167 0.24571 132 134 125
-0.58254 -4.04783 0.24945 130 131 121
-0.59537 -4.05399 0.25318 119 123 123
-0.60819 -4.06015 0.25691 116 123 124
-0.62100 -4.06630 0.26063 118 120 121
-0.63381 -4.07245 0.26436 117 116 118
-0.64661 -4.07860 0.26808 116 117 119
-0.65940 -4.08474 0.27180 111 116 118
-0.67218 -4.09088 0.27552 113 117 118
-0.68496 -4.09702 0.27923 122 127 116
-0.69773 -4.10315 0.28295 123 125 110
-0.71049 -4.10928 0.28666 110 110 112
-0.72324 -4.11540 0.29037 102 107 115
-0.73599 -4.12152 0.29408 109 113 117
-0.74873 -4.12764 0.29778 113 113 119
-0.76146 -4.13376 0.30148 110 111 114
-0.77418 -4.13987 0.30519 109 110 112
-0.78690 -4.14597 0.30888 113 112 112
-0.79961 -4.15208 0.31258 114 112 116
-0.81231 -4.15818 0.31627 112 113 117
-0.82501 -4.16428 0.31997 111 114 115
-0.83770 -4.17037 0.32366 117 116 122
-0.85038 -4.17646 0.32735 118 115 121
-0.86305 -4.18254 0.33103 110 111 113
-0.87572 -4.18863 0.33471 104 107 109
-0.88837 -4.19471 0.33840 108 111 102
-0.90103 -4.20078 0.34208 108 116 104
-0.91367 -4.20685 0.34575 103 109 99
-0.92631 -4.21292 0.34943 110 118 103
-0.93893 -4.21899 0.35310 118 123 111
-0.95156 -4.22505 0.35677 121 120 114
-0.96417 -4.23111 0.36044 114 108 110
-0.97678 -4.23716 0.36411 114 117 114
-0.98938 -4.24321 0.36777 123 125 112
-1.00197 -4.24926 0.37144 115 116 99
-1.01456 -4.25531 0.37510 105 102 99
-1.02714 -4.26135 0.37875 99 102 104
-1.03971 -4.26738 0.38241 101 105 101
-1.05227 -4.27342 0.38606 98 105 98
-1.06483 -4.27945 0.38972 103 106 94
-1.07738 -4.28547 0.39337 110 114 102
-1.08992 -4.29150 0.39701 109 114 108
-1.10246 -4.29752 0.40066 110 112 110
-1.11499 -4.30353 0.40430 109 108 110
-1.12751 -4.30955 0.40795 106 107 100
-1.14002 -4.31556 0.41158 99 102 92
-1.15253 -4.32156 0.41522 100 103 96
-1.16503 -4.32757 0.41886 100 109 99
-1.17752 -4.33357 0.42249 106 113 106
-1.19000 -4.33956 0.42612 109 110 98
-1.20248 -4.34555 0.42975 108 108 97
-1.21495 -4.35154 0.43338 103 103 97
-1.22742 -4.35753 0.43700 102 104 107
-1.23987 -4.36351 0.44063 110 110 114
-1.25232 -4.36949 0.44425 110 107 106
-1.26476 -4.37546 0.44787 102 100 102
-1.27720 -4.38144 0.45148 98 99 102
-1.28963 -4.38741 0.45510 96 99 101
-1.30205 -4.39337 0.45871 97 102 100
-1.31446 -4.39933 0.46232 101 107 100
-1.32687 -4.40529 0.46593 101 104 92
-1.33927 -4.41125 0.46953 104 105 92
-1.35166 -4.41720 0.47314 108 112 100
-1.36405 -4.42314 0.47674 107 110 99
-1.37643 -4.42909 0.48034 103 103 97
-1.38880 -4.43503 0.48394 101 100 100
-1.40116 -4.44097 0.48754 100 100 104
-1.41352 -4.44690 0.49113 101 101 99
-1.42587 -4.45283 0.49472 103 105 96
-1.43821 -4.45876 0.49831 105 106 109
-1.45055 -4.46469 0.50190 107 108 110
-1.46288 -4.47061 0.50548 103 110 98
-1.47520 -4.47653 0.50907 97 102 96
-1.48752 -4.48244 0.51265 97 104 98
-1.49982 -4.48835 0.51623 98 104 97
-1.51212 -4.49426 0.51981 97 101 95
-1.52442 -4.50016 0.52338 97 99 92
-1.53671 -4.50606 0.52696 97 96 101
-1.54899 -4.51196 0.53053 98 97 103
-1.56126 -4.51786 0.53410 95 94 95
-1.57353 -4.52375 0.53767 93 95 90
-1.58579 -4.52963 0.54123 94 97 89
-1.59804 -4.53552 0.54479 96 97 96
-1.61028 -4.54140 0.54836 97 96 96
-1.62252 -4.54728 0.55192 93 96 97
-1.63475 -4.55315 0.55547 89 93 95
-1.64698 -4.55902 0.55903 87 89 85
-1.65920 -4.56489 0.56258 87 88 87
-1.67141 -4.57075 0.56613 88 89 85
-1.68361 -4.57661 0.56968 86 88 86
-1.69581 -4.58247 0.57323 88 89 84
-1.70800 -4.58833 0.57678 86 89 88
-1.72018 -4.59418 0.58032 84 88 89
-1.73236 -4.60002 0.58386 85 88 86
-1.74453 -4.60587 0.58740 84 87 79
-1.75669 -4.61171 0.59094 87 90 84
-1.76885 -4.61755 0.59447 87 90 83
-1.78099 -4.62338 0.59801 85 88 87
-1.79314 -4.62921 0.60154 87 88 95
-1.80527 -4.63504 0.60507 91 89 94
-1.81740 -4.64086 0.60859 86 86 87
-1.82952 -4.64669 0.61212 85 87 84
-1.84164 -4.65250 0.61564 78 81 76
-1.85374 -4.65832 0.61916 71 78 65
-1.86584 -4.66413 0.62268 73 78 72
-1.87794 -4.66994 0.62620 76 76 70
-1.89003 -4.67574 0.62972 76 74 58
-1.90211 -4.68154 0.63323 70 75 59
-1.91418 -4.68734 0.63674 70 73 59
1.91126 -2.83526 -0.48807 141 145 157
1.89698 -2.84212 -0.48391 145 150 157
1.88272 -2.84898 -0.47976 153 155 159
1.86846 -2.85583 -0.47561 151 152 154
1.85421 -2.86268 -0.47146 147 151 152
1.83997 -2.86952 -0.46731 144 146 152
1.82574 -2.87636 -0.46317 139 143 146
1.81152 -2.88319 -0.45903 138 143 145
1.79730 -2.89002 -0.45489 145 146 156
1.78310 -2.89685 -0.45076 153 153 160
1.76890 -2.90367 -0.44663 158 158 159
1.75472 -2.91049 -0.44250 161 158 155
1.74054 -2.91730 -0.43837 165 163 159
1.72637 -2.92411 -0.43424 159 159 162
1.71220 -2.93092 -0.43012 148 151 163
1.69805 -2.93772 -0.42600 152 154 161
1.68391 -2.94452 -0.42188 162 161 161
1.66977 -2.95131 -0.41777 162 165 160
1.65564 -2.95810 -0.41366 160 165 163
1.64152 -2.96489 -0.40955 153 156 156
1.62741 -2.97167 -0.40544 149 150 153
1.61331 -2.97844 -0.40133 148 148 155
1.59922 -2.98522 -0.39723 151 154 160
1.58513 -2.99198 -0.39313 158 161 163
1.57106 -2.99875 -0.38903 167 166 167
1.55699 -3.00551 -0.38494 166 167 169
1.54293 -3.01226 -0.38085 159 160 166
1.52888 -3.01902 -0.37676 163 163 167
1.51484 -3.02576 -0.37267 163 159 165
1.50081 -3.03251 -0.36858 173 175 175
1.48678 -3.03925 -0.36450 170 173 175
1.47277 -3.04598 -0.36042 165 169 170
1.45876 -3.05272 -0.35634 160 163 166
1.44476 -3.05944 -0.35227 162 160 165
1.43077 -3.06617 -0.34820 151 155 154
1.41679 -3.07289 -0.34413 162 160 153
1.40281 -3.07960 -0.34006 161 166 164
1.38885 -3.08631 -0.33599 151 158 163
1.37489 -3.09302 -0.33193 168 171 167
1.36094 -3.09972 -0.32787 170 168 170
1.34700 -3.10642 -0.32381 167 161 172
1.33307 -3.11312 -0.31976 166 165 175
1.31915 -3.11981 -0.31570 174 178 173
1.30523 -3.12649 -0.31165 172 178 170
1.29133 -3.13318 -0.30760 169 169 166
1.27743 -3.13986 -0.30356 159 165 167
1.26354 -3.14653 -0.29951 158 166 169
1.24966 -3.15320 -0.29547 162 164 165
1.23578 -3.15987 -0.29143 165 167 172
1.22192 -3.16653 -0.28740 167 170 177
1.20806 -3.17319 -0.28337 159 163 165
1.19421 -3.17985 -0.27933 160 162 162
1.18038 -3.18650 -0.27531 161 167 168
1.16654 -3.19314 -0.27128 150 152 155
1.15272 -3.19979 -0.26726 145 150 152
1.13891 -3.20642 -0.26323 153 157 159
1.12510 -3.21306 -0.25921 156 159 156
1.11130 -3.21969 -0.25520 152 156 158
1.09751 -3.22632 -0.25118 151 152 162
1.08373 -3.23294 -0.24717 158 160 167
1.06996 -3.23956 -0.24316 160 163 165
1.05619 -3.24617 -0.23916 155 156 159
1.04244 -3.25278 -0.23515 160 157 163
1.02869 -3.25939 -0.23115 164 162 164
1.01495 -3.26600 -0.22715 162 166 163
1.00122 -3.27259 -0.22315 157 160 160
0.98749 -3.27919 -0.21916 150 154 162
0.97378 -3.28578 -0.21516 154 158 161
0.96007 -3.29237 -0.21117 161 162 159
0.94637 -3.29895 -0.20719 152 155 158
0.93268 -3.30553 -0.20320 154 154 159
0.91900 -3.31211 -0.19922 164 167 167
0.90532 -3.31868 -0.19524 167 170 159
0.89166 -3.32524 -0.19126 158 161 155
0.87800 -3.33181 -0.18728 150 147 153
0.86435 -3.33837 -0.18331 156 158 157
0.85071 -3.34492 -0.17934 147 150 151
0.83707 -3.35147 -0.17537 157 164 171
0.82345 -3.35802 -0.17140 155 157 169
0.80983 -3.36457 -0.16744 154 161 173
0.79622 -3.37111 -0.16348 157 162 164
0.78262 -3.37764 -0.15952 171 174 166
0.76903 -3.38418 -0.15556 164 161 155
0.67410 -3.42979 -0.12793 148 154 154
0.66058 -3.43629 -0.12399 151 152 148
0.64706 -3.44279 -0.12006 138 143 149
0.63354 -3.44928 -0.11612 136 143 150
0.62004 -3.45577 -0.11219 137 140 145
0.60654 -3.46226 -0.10826 145 153 151
0.59306 -3.46874 -0.10434 149 150 152
0.57958 -3.47522 -0.10041 144 153 162
0.56610 -3.48169 -0.09649 139 146 151
0.55264 -3.48816 -0.09257 142 147 141
0.53918 -3.49463 -0.08865 137 143 140
0.52573 -3.50109 -0.08474 126 136 141
0.51229 -3.50755 -0.08083 136 146 144
0.49886 -3.51401 -0.07692 146 152 149
0.48544 -3.52046 -0.07301 148 153 155
0.47202 -3.52691 -0.06910 148 150 158
0.45861 -3.53335 -0.06520 138 140 159
0.44521 -3.53979 -0.06130 134 137 159
0.43182 -3.54622 -0.05740 137 142 163
0.41844 -3.55266 -0.05350 137 144 160
0.40506 -3.55908 -0.04961 137 143 151
0.39169 -3.56551 -0.04572 138 142 148
0.37833 -3.57193 -0.04183 136 142 151
0.36498 -3.57835 -0.03794 138 148 154
0.35163 -3.58476 -0.03406 134 141 148
0.33830 -3.59117 -0.03017 122 128 143
0.32497 -3.59757 -0.02629 131 138 145
0.31165 -3.60398 -0.02242 128 135 136
0.29833 -3.61037 -0.01854 134 140 139
0.28503 -3.61677 -0.01467 141 149 157
0.27173 -3.62316 -0.01080 137 141 144
0.25844 -3.62954 -0.00693 128 139 139
0.24516 -3.63593 -0.00306 131 138 143
0.23188 -3.64231 0.00080 145 153 150
0.21862 -3.64868 0.00466 142 146 146
0.20536 -3.65505 0.00852 136 139 138
0.19211 -3.66142 0.01238 132 138 136
0.17886 -3.66779 0.01624 139 150 146
0.16563 -3.67415 0.02009 132 135 145
0.15240 -3.68050 0.02394 127 134 137
0.13918 -3.68686 0.02779 133 138 150
0.12597 -3.69320 0.03163 134 139 145
0.11277 -3.69955 0.03548 129 133 142
0.09957 -3.70589 0.03932 121 128 136
0.08638 -3.71223 0.04316 115 120 128
0.07320 -3.71856 0.04699 131 135 132
0.06003 -3.72489 0.05083 150 158 148
0.04686 -3.73122 0.05466 133 138 147
0.03370 -3.73754 0.05849 135 142 149
0.02056 -3.74386 0.06232 128 134 139
0.00741 -3.75018 0.06615 128 132 129
-0.00572 -3.75649 0.06997 136 137 141
-0.01885 -3.76280 0.07379 143 148 151
-0.03197 -3.76910 0.07761 132 133 135
-0.04508 -3.77540 0.08143 117 119 122
-0.05818 -3.78170 0.08524 126 138 127
-0.07128 -3.78799 0.08905 128 131 137
-0.08437 -3.79428 0.09286 117 112 142
-0.09745 -3.80057 0.09667 123 127 135
-0.11052 -3.80685 0.10048 132 135 121
-0.12359 -3.81313 0.10428 132 133 124
-0.13664 -3.81941 0.10808 134 139 137
-0.14969 -3.82568 0.11188 138 143 144
-0.16274 -3.83195 0.11568 138 141 145
-0.17577 -3.83821 0.11947 132 136 147
-0.18880 -3.84447 0.12326 134 136 145
-0.20182 -3.85073 0.12705 137 134 136
-0.21483 -3.85698 0.13084 134 134 141
-0.22783 -3.86323 0.13463 125 130 140
-0.24083 -3.86948 0.13841 129 136 141
-0.25382 -3.87572 0.14219 135 139 139
-0.26680 -3.88196 0.14597 126 130 130
-0.27978 -3.88819 0.14975 127 134 131
-0.29274 -3.89442 0.15352 129 135 127
-0.30570 -3.90065 0.15729 128 127 121
-0.31865 -3.90687 0.16106 115 112 111
-0.33160 -3.91309 0.16483 99 97 114
-0.34453 -3.91931 0.16860 109 121 130
-0.35746 -3.92552 0.17236 113 116 119
-0.37038 -3.93173 0.17612 121 130 130
-0.38330 -3.93794 0.17988 134 133 135
-0.39620 -3.94414 0.18364 129 132 134
-0.40910 -3.95034 0.18739 133 133 138
-0.42199 -3.95654 0.19115 139 146 143
-0.43488 -3.96273 0.19490 132 138 134
-0.44775 -3.96891 0.19865 119 116 124
-0.46062 -3.97510 0.20239 118 118 121
-0.47348 -3.98128 0.20614 105 110 119
-0.48634 -3.98746 0.20988 105 110 122
-0.49918 -3.99363 0.21362 116 116 122
-0.51202 -3.99980 0.21735 119 124 129
-0.52485 -4.00597 0.22109 122 128 134
-0.53768 -4.01213 0.22482 120 122 124
-0.55050 -4.01829 0.22855 116 118 124
-0.56330 -4.02444 0.23228 118 123 125
-0.57611 -4.03060 0.23601 126 127 119
-0.58890 -4.03675 0.23973 130 128 123
-0.60169 -4.04289 0.24346 127 130 130
-0.61447 -4.04903 0.24718 121 128 128
-0.62724 -4.05517 0.25089 119 123 125
-0.64000 -4.06130 0.25461 119 119 121
-0.65276 -4.06743 0.25832 117 118 120
-0.66551 -4.07356 0.26204 112 119 120
-0.67826 -4.07969 0.26574 113 122 117
-0.69099 -4.08581 0.26945 118 123 110
-0.70372 -4.09192 0.27316 120 122 108
-0.71644 -4.09804 0.27686 112 113 116
-0.72915 -4.10414 0.28056 107 112 122
-0.74186 -4.11025 0.28426 115 119 124
-0.75456 -4.11635 0.28796 118 118 122
-0.76725 -4.12245 0.29165 111 114 115
-0.77993 -4.12855 0.29534 106 110 114
-0.79261 -4.13464 0.29903 108 109 116
-0.80528 -4.14073 0.30272 113 118 121
-0.81794 -4.14681 0.30641 114 118 121
-0.83060 -4.15289 0.31009 113 116 117
-0.84324 -4.15897 0.31377 117 117 125
-0.85588 -4.16505 0.31745 119 117 122
-0.86852 -4.17112 0.32113 113 115 111
-0.88114 -4.17719 0.32481 107 112 110
-0.89376 -4.18325 0.32848 107 115 110
-0.90637 -4.18931 0.33215 111 117 113
-0.91898 -4.19537 0.33582 109 110 102
-0.93157 -4.20142 0.33949 111 120 108
-0.94416 -4.20747 0.34315 114 119 108
-0.95675 -4.21352 0.34681 114 114 107
-0.96932 -4.21956 0.35047 108 105 110
-0.98189 -4.22560 0.35413 108 111 111
-0.99445 -4.23164 0.35779 110 112 108
-1.00700 -4.23767 0.36144 110 115 103
-1.01955 -4.24370 0.36510 109 110 108
-1.03209 -4.24972 0.36875 109 108 110
-1.04462 -4.25575 0.37239 115 116 107
-1.05714 -4.26177 0.37604 111 115 105
-1.06966 -4.26778 0.37968 109 114 101
-1.08217 -4.27379 0.38333 114 118 108
-1.09468 -4.27980 0.38697 114 121 116
-1.10717 -4.28581 0.39060 117 120 120
-1.11966 -4.29181 0.39424 112 112 110
-1.13214 -4.29781 0.39787 106 109 97
-1.14462 -4.30380 0.40150 98 101 93
-1.15708 -4.30979 0.40513 101 105 98
-1.16954 -4.31578 0.40876 101 105 99
-1.18200 -4.32177 0.41239 104 111 109
-1.19444 -4.32775 0.41601 112 111 108
-1.20688 -4.33372 0.41963 113 114 105
-1.21932 -4.33970 0.42325 109 111 108
-1.23174 -4.34567 0.42687 107 107 112
-1.24416 -4.35164 0.43048 112 110 118
-1.25657 -4.35760 0.43409 111 110 109
-1.26897 -4.36356 0.43770 103 104 107
-1.28137 -4.36952 0.44131 101 102 109
-1.29376 -4.37547 0.44492 98 104 103
-1.30614 -4.38142 0.44852 98 105 97
-1.31852 -4.38737 0.45213 101 105 98
-1.33088 -4.39331 0.45573 98 102 95
-1.34325 -4.39926 0.45932 98 103 99
-1.35560 -4.40519 0.46292 106 111 108
-1.36795 -4.41113 0.46652 108 111 105
-1.38029 -4.41706 0.47011 105 103 97
-1.39262 -4.42298 0.47370 101 99 98
-1.40495 -4.42891 0.47729 99 99 103
-1.41727 -4.43483 0.48087 98 97 98
-1.42958 -4.44074 0.48446 99 100 96
-1.44188 -4.44666 0.48804 102 102 110
-1.45418 -4.45257 0.49162 106 106 111
-1.46647 -4.45847 0.49520 106 108 100
-1.47876 -4.46438 0.49877 101 104 95
-1.49104 -4.47028 0.50235 97 104 93
-1.50331 -4.47617 0.50592 97 99 93
-1.51557 -4.48207 0.50949 90 89 91
-1.52783 -4.48796 0.51306 84 89 87
-1.54008 -4.49384 0.51662 90 91 96
-1.55232 -4.49973 0.52019 94 91 97
-1.56455 -4.50561 0.52375 93 94 95
-1.57678 -4.51148 0.52731 94 99 97
-1.58900 -4.51736 0.53087 96 100 98
-1.60122 -4.52323 0.53442 93 95 101
-1.61343 -4.52909 0.53798 93 96 98
-1.62563 -4.53496 0.54153 92 95 91
-1.63782 -4.54082 0.54508 87 93 88
-1.65001 -4.54668 0.54862 89 93 85
-1.66219 -4.55253 0.55217 91 95 91
-1.67436 -4.55838 0.55571 93 96 94
-1.68653 -4.56423 0.55926 93 94 97
-1.69869 -4.57007 0.56280 92 92 96
-1.71084 -4.57591 0.56633 90 91 97
-1.72299 -4.58175 0.56987 87 88 92
-1.73513 -4.58758 0.57340 88 89 90
-1.74726 -4.59341 0.57693 90 89 86
-1.75939 -4.59924 0.58046 89 92 92
-1.77151 -4.60506 0.58399 89 92 93
-1.78362 -4.61088 0.58752 88 90 90
-1.79572 -4.61670 0.59104 86 90 93
-1.80782 -4.62251 0.59456 86 89 87
-1.81991 -4.62832 0.59808 84 87 77
-1.83200 -4.63413 0.60160 87 91 82
-1.84408 -4.63994 0.60512 90 93 81
-1.85615 -4.64574 0.60863 85 83 72
-1.86821 -4.65153 0.61214 77 78 72
-1.88027 -4.65733 0.61565 74 76 68
-1.89232 -4.66312 0.61916 71 75 64
-1.90436 -4.66891 0.62267 67 75 69
-1.91640 -4.67469 0.62617 74 76 72
1.89653 -2.82749 -0.49592 142 148 157
1.88231 -2.83433 -0.49178 148 151 154
1.86809 -2.84116 -0.48764 150 152 156
1.85389 -2.84800 -0.48350 147 149 154
1.83969 -2.85482 -0.47936 145 144 151
1.82550 -2.86165 -0.47523 145 143 151
1.81132 -2.86847 -0.47109 144 144 148
1.79714 -2.87528 -0.46697 149 149 151
1.78298 -2.88209 -0.46284 151 150 154
1.76883 -2.88890 -0.45871 155 154 160
1.75468 -2.89570 -0.45459 160 157 161
1.74054 -2.90250 -0.45047 161 159 159
1.72641 -2.90930 -0.44636 165 164 161
1.71229 -2.91609 -0.44224 162 164 165
1.69818 -2.92287 -0.43813 156 161 167
1.68408 -2.92965 -0.43402 156 162 166
1.66998 -2.93643 -0.42991 159 160 166
1.65589 -2.94321 -0.42581 159 159 160
1.64182 -2.94998 -0.42171 156 160 158
1.62775 -2.95674 -0.41761 157 161 157
1.61369 -2.96350 -0.41351 155 153 155
1.59963 -2.97026 -0.40942 150 151 157
1.58559 -2.97701 -0.40533 151 155 163
1.57156 -2.98376 -0.40124 150 152 159
1.55753 -2.99051 -0.39715 162 164 169
1.54351 -2.99725 -0.39307 163 165 169
1.52950 -3.00399 -0.38898 156 158 163
1.51550 -3.01072 -0.38490 166 167 161
1.50151 -3.01745 -0.38083 161 155 164
1.48752 -3.02417 -0.37675 168 169 170
1.47355 -3.03089 -0.37268 166 170 174
1.45958 -3.03761 -0.36861 162 162 165
1.44562 -3.04432 -0.36454 158 158 156
1.43167 -3.05103 -0.36048 161 161 164
1.41773 -3.05774 -0.35642 153 163 159
1.40379 -3.06444 -0.35236 156 156 148
1.38987 -3.07113 -0.34830 159 164 159
1.37595 -3.07783 -0.34425 151 158 157
1.36204 -3.08452 -0.34019 170 174 163
1.34814 -3.09120 -0.33614 170 173 170
1.33425 -3.09788 -0.33210 164 155 166
1.32037 -3.10456 -0.32805 163 160 170
1.30649 -3.11123 -0.32401 170 172 174
1.29262 -3.11790 -0.31997 169 176 175
1.27876 -3.12456 -0.31593 169 169 168
1.26491 -3.13122 -0.31189 165 171 169
1.25107 -3.13788 -0.30786 161 166 167
1.23724 -3.14453 -0.30383 157 157 164
1.22341 -3.15118 -0.29980 161 164 169
1.20960 -3.15782 -0.29578 168 169 170
1.19579 -3.16446 -0.29175 163 163 162
1.18199 -3.17110 -0.28773 153 151 157
1.16820 -3.17773 -0.28371 154 154 157
1.15441 -3.18436 -0.27970 152 153 150
1.14064 -3.19098 -0.27568 149 154 152
1.12687 -3.19760 -0.27167 150 155 156
1.11311 -3.20422 -0.26766 154 155 157
1.09936 -3.21083 -0.26366 158 160 165
1.08562 -3.21744 -0.25965 161 161 167
1.07188 -3.22405 -0.25565 157 156 165
1.05816 -3.23065 -0.25165 150 149 160
1.04444 -3.23724 -0.24766 149 147 157
1.03073 -3.24384 -0.24366 155 156 166
1.01703 -3.25042 -0.23967 162 164 169
1.00333 -3.25701 -0.23568 158 161 168
0.98965 -3.26359 -0.23169 152 154 165
0.97597 -3.27017 -0.22771 156 163 167
0.96230 -3.27674 -0.22372 160 167 165
0.94864 -3.28331 -0.21974 160 162 166
0.93499 -3.28988 -0.21577 153 155 166
0.92135 -3.29644 -0.21179 155 157 160
0.90771 -3.30299 -0.20782 163 163 166
0.89408 -3.30955 -0.20385 168 168 163
0.88046 -3.31610 -0.19988 163 165 164
0.86685 -3.32264 -0.19591 164 161 163
0.85325 -3.32918 -0.19195 169 164 175
0.83965 -3.33572 -0.18799 147 152 164
0.82606 -3.34226 -0.18403 152 155 167
0.81249 -3.34879 -0.18007 150 153 166
0.79891 -3.35531 -0.17612 150 156 163
0.78535 -3.36183 -0.17217 156 163 160
0.77180 -3.36835 -0.16822 168 170 164
0.75825 -3.37487 -0.16427 163 163 155
0.74471 -3.38138 -0.16033 154 153 164
0.66365 -3.42036 -0.13671 147 156 154
0.65016 -3.42684 -0.13278 155 161 164
0.63669 -3.43332 -0.12885 147 157 167
0.62322 -3.43980 -0.12493 149 155 158
0.60976 -3.44627 -0.12101 154 157 156
0.59631 -3.45274 -0.11709 160 167 166
0.58287 -3.45920 -0.11317 150 153 155
0.56943 -3.46566 -0.10926 139 146 152
0.55601 -3.47212 -0.10534 135 145 152
0.54259 -3.47857 -0.10144 148 157 153
0.52918 -3.48502 -0.09753 149 155 147
0.51577 -3.49147 -0.09362 138 143 143
0.50238 -3.49791 -0.08972 143 150 145
0.48899 -3.50435 -0.08582 141 146 148
0.47561 -3.51078 -0.08192 139 144 153
0.46224 -3.51721 -0.07802 146 151 158
0.44888 -3.52364 -0.07413 145 149 157
0.43552 -3.53006 -0.07024 141 144 151
0.42217 -3.53648 -0.06635 140 140 149
0.40883 -3.54289 -0.06246 138 138 149
0.39550 -3.54931 -0.05858 140 139 144
0.38218 -3.55571 -0.05470 141 140 147
0.36886 -3.56212 -0.05082 133 140 150
0.35555 -3.56852 -0.04694 132 144 148
0.34225 -3.57491 -0.04306 133 142 147
0.32896 -3.58130 -0.03919 133 139 144
0.31567 -3.58769 -0.03532 136 144 144
0.30240 -3.59408 -0.03145 129 136 145
0.28913 -3.60046 -0.02759 133 140 145
0.27587 -3.60684 -0.02372 140 145 152
0.26261 -3.61321 -0.01986 137 148 154
0.24937 -3.61958 -0.01600 141 146 160
0.23613 -3.62595 -0.01214 126 133 150
0.22290 -3.63231 -0.00829 136 146 160
0.20968 -3.63867 -0.00444 141 149 157
0.19646 -3.64502 -0.00059 140 142 144
0.18325 -3.65137 0.00326 137 152 142
0.17005 -3.65772 0.00711 140 146 146
0.15686 -3.66406 0.01095 121 124 146
0.14368 -3.67040 0.01479 127 132 131
0.13050 -3.67674 0.01863 144 154 149
0.11733 -3.68307 0.02247 139 140 144
0.10417 -3.68940 0.02630 132 134 143
0.09102 -3.69572 0.03013 130 131 142
0.07788 -3.70205 0.03396 132 140 133
0.06474 -3.70836 0.03779 124 135 133
0.05161 -3.71468 0.04162 142 152 152
0.03849 -3.72099 0.04544 136 141 149
0.02537 -3.72729 0.04926 126 131 139
0.01226 -3.73360 0.05308 126 131 136
-0.00083 -3.73990 0.05690 131 138 132
-0.01393 -3.74619 0.06071 134 138 135
-0.02701 -3.75248 0.06452 132 140 139
-0.04009 -3.75877 0.06833 133 140 139
-0.05315 -3.76506 0.07214 133 134 136
-0.06622 -3.77134 0.07595 134 134 134
-0.07927 -3.77761 0.07975 131 135 136
-0.09231 -3.78389 0.08355 119 126 141
-0.10535 -3.79016 0.08735 130 139 150
-0.11838 -3.79642 0.09115 141 154 153
-0.13141 -3.80268 0.09494 131 137 143
-0.14442 -3.80894 0.09873 127 129 139
-0.15743 -3.81520 0.10252 138 146 147
-0.17043 -3.82145 0.10631 140 146 148
-0.18342 -3.82770 0.11010 137 138 144
-0.19641 -3.83394 0.11388 141 140 142
-0.20938 -3.84018 0.11766 137 137 136
-0.22235 -3.84642 0.12144 133 135 136
-0.23531 -3.85265 0.12522 130 135 137
-0.24827 -3.85888 0.12899 133 135 138
-0.26122 -3.86511 0.13276 139 137 137
-0.27416 -3.87133 0.13653 130 135 138
-0.28709 -3.87755 0.14030 124 134 141
-0.30001 -3.88377 0.14407 123 132 130
-0.31293 -3.88998 0.14783 113 110 116
-0.32584 -3.89618 0.15159 108 108 117
-0.33874 -3.90239 0.15535 115 121 132
-0.35164 -3.90859 0.15911 118 124 127
-0.36452 -3.91479 0.16286 124 126 126
-0.37740 -3.92098 0.16662 125 129 135
-0.39028 -3.92717 0.17037 133 133 138
-0.40314 -3.93336 0.17411 123 127 129
-0.41600 -3.93954 0.17786 123 128 131
-0.42885 -3.94572 0.18160 122 126 131
-0.44169 -3.95189 0.18535 116 126 136
-0.45453 -3.95807 0.18909 118 120 125
-0.46735 -3.96424 0.19282 118 117 121
-0.48017 -3.97040 0.19656 118 121 119
-0.49299 -3.97656 0.20029 112 120 125
-0.50579 -3.98272 0.20402 121 126 137
-0.51859 -3.98887 0.20775 119 122 129
-0.53138 -3.99502 0.21148 123 125 126
-0.54416 -4.00117 0.21520 120 120 122
-0.55694 -4.00732 0.21892 113 116 122
-0.56971 -4.01346 0.22264 113 117 121
-0.58247 -4.01959 0.22636 117 116 117
-0.59522 -4.02572 0.23008 126 124 123
-0.60797 -4.03185 0.23379 123 126 127
-0.62071 -4.03798 0.23750 112 120 126
-0.63344 -4.04410 0.24121 116 119 126
-0.64616 -4.05022 0.24492 122 121 126
-0.65888 -4.05634 0.24863 123 122 123
-0.67159 -4.06245 0.25233 121 124 120
-0.68429 -4.06856 0.25603 119 127 117
-0.69699 -4.07466 0.25973 116 122 112
-0.70967 -4.08076 0.26343 116 120 114
-0.72235 -4.08686 0.26712 118 122 117
-0.73503 -4.09295 0.27081 117 121 118
-0.74769 -4.09905 0.27450 115 119 121
-0.76035 -4.10513 0.27819 114 117 120
-0.77300 -4.11122 0.28188 115 119 117
-0.78565 -4.11730 0.28556 116 123 123
-0.79828 -4.12337 0.28924 118 124 126
-0.81091 -4.12945 0.29292 121 122 126
-0.82353 -4.13552 0.29660 119 122 124
-0.83615 -4.14158 0.30028 118 120 117
-0.84876 -4.14765 0.30395 118 118 122
-0.86136 -4.15371 0.30762 116 117 118
-0.87395 -4.15976 0.31129 113 115 113
-0.88654 -4.16581 0.31496 107 104 114
-0.89912 -4.17186 0.31862 100 104 114
-0.91169 -4.17791 0.32229 113 118 126
-0.92425 -4.18395 0.32595 122 121 120
-0.93681 -4.18999 0.32960 112 116 113
-0.94936 -4.19602 0.33326 104 106 104
-0.96190 -4.20205 0.33692 97 99 103
-0.97444 -4.20808 0.34057 101 101 109
-0.98697 -4.21411 0.34422 104 106 109
-0.99949 -4.22013 0.34787 98 104 107
-1.01200 -4.22615 0.35151 101 113 107
-1.02451 -4.23216 0.35516 111 113 114
-1.03701 -4.23817 0.35880 116 115 122
-1.04950 -4.24418 0.36244 124 122 112
-1.06199 -4.25018 0.36608 113 118 111
-1.07446 -4.25618 0.36971 110 114 103
-1.08694 -4.26218 0.37335 117 118 109
-1.09940 -4.26818 0.37698 111 117 119
-1.11186 -4.27417 0.38061 115 116 115
-1.12431 -4.28015 0.38423 114 113 106
-1.13675 -4.28614 0.38786 107 109 92
-1.14919 -4.29212 0.39148 100 105 97
-1.16161 -4.29809 0.39510 111 112 105
-1.17404 -4.30407 0.39872 113 118 112
-1.18645 -4.31004 0.40234 109 109 108
-1.19886 -4.31600 0.40596 114 111 112
-1.21126 -4.32197 0.40957 114 114 110
-1.22365 -4.32793 0.41318 116 119 113
-1.23604 -4.33388 0.41679 112 112 111
-1.24842 -4.33984 0.42040 108 109 112
-1.26079 -4.34578 0.42400 103 105 106
-1.27316 -4.35173 0.42760 105 104 104
-1.28551 -4.35767 0.43120 106 107 104
-1.29787 -4.36361 0.43480 105 110 102
-1.31021 -4.36955 0.43840 103 109 99
-1.32255 -4.37548 0.44199 106 108 101
-1.33488 -4.38141 0.44559 104 106 101
-1.34720 -4.38734 0.44918 103 108 106
-1.35952 -4.39326 0.45277 111 116 112
-1.37183 -4.39918 0.45635 112 116 106
-1.38413 -4.40509 0.45994 107 110 97
-1.39642 -4.41101 0.46352 103 105 97
-1.40871 -4.41692 0.46710 99 98 102
-1.42099 -4.42282 0.47068 96 94 103
-1.43327 -4.42873 0.47425 97 97 101
-1.44553 -4.43462 0.47783 98 98 102
-1.45780 -4.44052 0.48140 101 102 101
-1.47005 -4.44641 0.48497 107 109 99
-1.48230 -4.45230 0.48854 102 107 94
-1.49453 -4.45819 0.49210 98 106 93
-1.50677 -4.46407 0.49567 99 100 97
-1.51899 -4.46995 0.49923 91 88 94
-1.53121 -4.47583 0.50279 84 90 85
-1.54342 -4.48170 0.50635 91 95 94
-1.55563 -4.48757 0.50991 96 92 92
-1.56783 -4.49343 0.51346 91 91 92
-1.58002 -4.49930 0.51701 93 96 96
-1.59220 -4.50516 0.52056 95 97 96
-1.60438 -4.51101 0.52411 88 91 97
-1.61655 -4.51686 0.52766 85 93 94
-1.62872 -4.52271 0.53120 93 98 90
-1.64087 -4.52856 0.53474 90 94 84
-1.65302 -4.53440 0.53828 90 92 87
-1.66517 -4.54024 0.54182 93 99 94
-1.67730 -4.54608 0.54536 96 99 99
-1.68943 -4.55191 0.54889 93 96 101
-1.70156 -4.55774 0.55242 89 91 98
-1.71367 -4.56357 0.55595 90 90 97
-1.72578 -4.56939 0.55948 90 89 96
-1.73788 -4.57521 0.56301 89 89 92
-1.74998 -4.58103 0.56653 89 91 89
-1.76207 -4.58684 0.57005 88 93 94
-1.77415 -4.59265 0.57357 88 92 92
-1.78623 -4.59846 0.57709 88 91 92
-1.79829 -4.60426 0.58061 86 90 95
-1.81036 -4.61006 0.58412 85 89 86
-1.82241 -4.61586 0.58764 84 90 82
-1.83446 -4.62165 0.59115 85 92 86
-1.84650 -4.62744 0.59465 83 87 84
-1.85854 -4.63323 0.59816 76 81 77
-1.87056 -4.63901 0.60166 74 78 70
-1.88258 -4.64479 0.60517 74 72 66
-1.89460 -4.65057 0.60867 72 74 77
-1.90661 -4.65635 0.61217 75 78 81
-1.91861 -4.66212 0.61566 79 79 79
1.88190 -2.81976 -0.50373 139 145 151
1.86773 -2.82659 -0.49960 147 149 152
1.85356 -2.83340 -0.49546 148 150 155
1.83941 -2.84021 -0.49134 146 147 155
1.82526 -2.84702 -0.48721 147 146 154
1.81112 -2.85383 -0.48309 151 150 153
1.79699 -2.86063 -0.47897 149 146 151
1.78286 -2.86742 -0.47485 155 151 155
1.76875 -2.87421 -0.47073 155 153 156
1.75464 -2.88100 -0.46662 156 155 161
1.74055 -2.88778 -0.46251 158 157 164
1.72646 -2.89456 -0.45840 158 161 166
1.71238 -2.90134 -0.45429 160 161 167
1.69831 -2.90811 -0.45019 161 166 170
1.68425 -2.91488 -0.44609 155 160 165
1.67019 -2.92164 -0.44199 152 153 156
1.65614 -2.92840 -0.43789 153 152 155
1.64211 -2.93515 -0.43380 158 156 158
1.62808 -2.94190 -0.42971 154 155 153
1.61406 -2.94865 -0.42562 157 159 155
1.60005 -2.95539 -0.42153 158 154 151
1.58604 -2.96213 -0.41745 150 151 153
1.57205 -2.96886 -0.41337 151 153 161
1.55806 -2.97560 -0.40929 145 140 148
1.54408 -2.98232 -0.40521 157 157 168
1.53011 -2.98904 -0.40114 162 164 170
1.51615 -2.99576 -0.39707 153 156 160
1.50220 -3.00248 -0.39300 156 164 159
1.48826 -3.00919 -0.38893 151 152 165
1.47432 -3.01589 -0.38487 158 156 166
1.46039 -3.02259 -0.38081 161 158 168
1.44647 -3.02929 -0.37675 158 154 156
1.43256 -3.03599 -0.37269 154 149 150
1.41866 -3.04268 -0.36864 156 154 167
1.40477 -3.04936 -0.36459 155 166 168
1.39088 -3.05604 -0.36054 160 165 155
1.37700 -3.06272 -0.35649 160 166 160
1.36313 -3.06939 -0.35245 152 158 160
1.34927 -3.07606 -0.34840 171 176 168
1.33542 -3.08273 -0.34436 171 175 175
1.32158 -3.08939 -0.34033 164 158 169
1.30774 -3.09605 -0.33629 162 162 171
1.29391 -3.10270 -0.33226 166 166 168
1.28009 -3.10935 -0.32823 165 167 167
1.26628 -3.11600 -0.32420 167 170 165
1.25248 -3.12264 -0.32018 163 172 168
1.23869 -3.12928 -0.31615 162 162 164
1.22490 -3.13591 -0.31213 161 161 163
1.21112 -3.14254 -0.30812 161 164 168
1.19735 -3.14917 -0.30410 165 168 165
1.18359 -3.15579 -0.30009 166 169 161
1.16984 -3.16241 -0.29608 159 161 161
1.15609 -3.16902 -0.29207 159 159 163
1.14236 -3.17563 -0.28806 160 167 164
1.12863 -3.18224 -0.28406 156 162 162
1.11491 -3.18884 -0.28006 155 157 161
1.10120 -3.19544 -0.27606 163 160 162
1.08749 -3.20203 -0.27206 165 161 166
1.07380 -3.20862 -0.26807 163 162 165
1.06011 -3.21521 -0.26408 158 160 161
1.04643 -3.22179 -0.26009 151 152 159
1.03276 -3.22837 -0.25610 149 150 161
1.01910 -3.23494 -0.25212 152 153 168
1.00544 -3.24151 -0.24814 158 157 169
0.99179 -3.24808 -0.24416 154 149 158
0.97816 -3.25464 -0.24018 145 138 151
0.96453 -3.26120 -0.23620 150 155 160
0.95090 -3.26776 -0.23223 157 163 168
0.93729 -3.27431 -0.22826 162 165 169
0.92368 -3.28086 -0.22429 159 159 164
0.91009 -3.28740 -0.22033 151 156 151
0.89650 -3.29394 -0.21636 160 165 159
0.88291 -3.30047 -0.21240 160 163 167
0.86934 -3.30701 -0.20845 161 167 172
0.85577 -3.31353 -0.20449 159 160 164
0.84222 -3.32006 -0.20054 159 157 169
0.82867 -3.32658 -0.19658 149 152 169
0.81513 -3.33309 -0.19264 153 162 168
0.80159 -3.33961 -0.18869 149 156 159
0.78807 -3.34612 -0.18474 147 150 143
0.77455 -3.35262 -0.18080 155 156 155
0.76104 -3.35912 -0.17686 156 161 166
0.74754 -3.36562 -0.17293 146 154 156
0.73404 -3.37211 -0.16899 153 159 165
0.72056 -3.37860 -0.16506 154 160 162
0.70708 -3.38508 -0.16113 146 147 153
0.66670 -3.40452 -0.14935 153 154 152
0.65325 -3.41099 -0.14543 152 157 162
0.57275 -3.44973 -0.12195 149 151 155
0.55936 -3.45617 -0.11805 142 141 141
0.54597 -3.46261 -0.11414 134 138 147
0.53260 -3.46905 -0.11024 150 160 161
0.51923 -3.47548 -0.10635 155 163 154
0.50587 -3.48190 -0.10245 154 160 151
0.49252 -3.48833 -0.09856 149 152 153
0.47918 -3.49475 -0.09467 133 135 146
0.46585 -3.50117 -0.09078 130 134 146
0.45252 -3.50758 -0.08689 145 147 157
0.43920 -3.51399 -0.08301 146 151 159
0.42589 -3.52039 -0.07913 144 151 151
0.41258 -3.52680 -0.07525 144 148 143
0.39929 -3.53319 -0.07137 134 133 137
0.38600 -3.53959 -0.06749 133 129 139
0.37272 -3.54598 -0.06362 141 145 154
0.35945 -3.55236 -0.05975 135 146 155
0.34618 -3.55875 -0.05588 132 135 144
0.33293 -3.56513 -0.05202 135 140 152
0.31968 -3.57150 -0.04815 138 149 151
0.30644 -3.57787 -0.04429 140 149 149
0.29321 -3.58424 -0.04043 129 138 143
0.27998 -3.59060 -0.03658 131 136 142
0.26676 -3.59697 -0.03272 136 142 153
0.25355 -3.60332 -0.02887 138 144 157
0.24035 -3.60967 -0.02502 142 149 154
0.22716 -3.61602 -0.02117 142 147 145
0.21397 -3.62237 -0.01733 139 149 145
0.20079 -3.62871 -0.01348 139 140 143
0.18762 -3.63505 -0.00964 142 148 151
0.17445 -3.64138 -0.00580 137 142 151
0.16130 -3.64771 -0.00197 145 148 147
0.14815 -3.65404 0.00187 135 141 142
0.13501 -3.66036 0.00570 136 145 145
0.12188 -3.66668 0.00953 156 158 168
0.10875 -3.67300 0.01336 147 150 148
0.09563 -3.67931 0.01718 141 139 144
0.08252 -3.68562 0.02101 147 158 146
0.06942 -3.69192 0.02483 142 149 145
0.05633 -3.69823 0.02865 118 126 132
0.04324 -3.70452 0.03246 124 133 138
0.03016 -3.71082 0.03628 131 145 141
0.01709 -3.71711 0.04009 122 128 138
0.00403 -3.72339 0.04390 125 130 139
-0.00903 -3.72968 0.04771 129 136 140
-0.02208 -3.73595 0.05151 126 133 134
-0.03512 -3.74223 0.05531 119 134 132
-0.04815 -3.74850 0.05911 127 139 139
-0.06118 -3.75477 0.06291 141 148 144
-0.07420 -3.76103 0.06671 142 148 148
-0.08721 -3.76730 0.07050 135 139 144
-0.10021 -3.77355 0.07430 131 131 137
-0.11321 -3.77981 0.07809 132 132 143
-0.12620 -3.78606 0.08187 135 144 151
-0.13918 -3.79230 0.08566 137 142 147
-0.15215 -3.79854 0.08944 135 135 140
-0.16512 -3.80478 0.09322 137 144 142
-0.17807 -3.81102 0.09700 136 144 143
-0.19102 -3.81725 0.10078 130 136 138
-0.20397 -3.82348 0.10455 129 134 136
-0.21690 -3.82970 0.10832 129 135 134
-0.22983 -3.83592 0.11209 130 133 136
-0.24275 -3.84214 0.11586 130 136 142
-0.25566 -3.84835 0.11963 131 140 140
-0.26857 -3.85456 0.12339 132 132 130
-0.28147 -3.86077 0.12715 134 138 140
-0.29436 -3.86697 0.13091 134 147 141
-0.30724 -3.87317 0.13467 134 141 136
-0.32012 -3.87937 0.13842 121 122 125
-0.33298 -3.88556 0.14218 117 128 128
-0.34584 -3.89175 0.14593 131 138 139
-0.35870 -3.89793 0.14968 122 128 125
-0.37154 -3.90412 0.15342 127 128 126
-0.38438 -3.91029 0.15717 125 128 137
-0.39721 -3.91647 0.16091 126 128 132
-0.41004 -3.92264 0.16465 119 124 120
-0.42285 -3.92881 0.16838 120 129 128
-0.43566 -3.93497 0.17212 120 129 134
-0.44846 -3.94113 0.17585 101 107 130
-0.46126 -3.94729 0.17958 121 129 125
-0.47404 -3.95344 0.18331 127 126 126
-0.48682 -3.95959 0.18704 117 116 121
-0.49959 -3.96573 0.19076 108 115 118
-0.51236 -3.97188 0.19449 119 122 130
-0.52512 -3.97801 0.19821 117 114 127
-0.53787 -3.98415 0.20192 122 125 120
-0.55061 -3.99028 0.20564 123 125 119
-0.56334 -3.99641 0.20935 115 117 124
-0.57607 -4.00253 0.21307 114 116 125
-0.58879 -4.00865 0.21678 119 119 124
-0.60150 -4.01477 0.22048 129 132 126
-0.61421 -4.02089 0.22419 122 127 127
-0.62691 -4.02700 0.22789 108 115 125
-0.63960 -4.03310 0.23159 112 115 126
-0.65228 -4.03921 0.23529 121 121 130
-0.66496 -4.04531 0.23899 124 121 125
-0.67763 -4.05140 0.24268 122 122 123
-0.69029 -4.05750 0.24637 121 126 124
-0.70295 -4.06359 0.25007 127 131 126
-0.71559 -4.06967 0.25375 129 131 122
-0.72823 -4.07575 0.25744 122 125 115
-0.74087 -4.08183 0.26112 115 117 113
-0.75349 -4.08791 0.26481 114 117 118
-0.76611 -4.09398 0.26849 116 121 124
-0.77872 -4.10005 0.27216 116 122 124
-0.79133 -4.10611 0.27584 115 125 121
-0.80392 -4.11218 0.27951 120 126 121
-0.81651 -4.11823 0.28318 124 122 122
-0.82909 -4.12429 0.28685 121 122 120
-0.84167 -4.13034 0.29052 123 125 118
-0.85424 -4.13639 0.29419 123 123 122
-0.86680 -4.14243 0.29785 118 119 120
-0.87935 -4.14847 0.30151 117 120 119
-0.89190 -4.15451 0.30517 113 115 115
-0.90444 -4.16054 0.30882 101 100 105
-0.91697 -4.16657 0.31248 108 110 117
-0.92950 -4.17260 0.31613 123 124 126
-0.94201 -4.17862 0.31978 115 119 115
-0.95452 -4.18464 0.32343 104 103 97
-0.96703 -4.19066 0.32708 94 96 102
-0.97952 -4.19667 0.33072 103 109 112
-0.99201 -4.20268 0.33436 110 108 112
-1.00450 -4.20869 0.33800 98 104 106
-1.01697 -4.21469 0.34164 97 105 103
-1.02944 -4.22069 0.34528 107 106 108
-1.04190 -4.22669 0.34891 118 115 129
-1.05435 -4.23268 0.35254 117 115 107
-1.06680 -4.23867 0.35617 103 107 103
-1.07924 -4.24466 0.35980 106 108 107
-1.09167 -4.25064 0.36343 118 120 109
-1.10410 -4.25662 0.36705 113 118 119
-1.11652 -4.26259 0.37067 111 116 107
-1.12893 -4.26857 0.37429 113 115 100
-1.14133 -4.27454 0.37791 106 108 88
-1.15373 -4.28050 0.38152 99 104 100
-1.16612 -4.28646 0.38514 110 110 111
-1.17850 -4.29242 0.38875 115 123 123
-1.19088 -4.29838 0.39236 111 110 106
-1.20325 -4.30433 0.39596 112 107 112
-1.21561 -4.31028 0.39957 108 105 107
-1.22796 -4.31622 0.40317 110 111 105
-1.24031 -4.32216 0.40677 107 109 99
-1.25265 -4.32810 0.41037 106 106 105
-1.26499 -4.33404 0.41397 103 101 104
-1.27731 -4.33997 0.41756 104 102 101
-1.28963 -4.34590 0.42116 104 106 100
-1.30195 -4.35182 0.42475 104 109 103
-1.31425 -4.35775 0.42834 102 106 100
-1.32655 -4.36366 0.43192 106 105 100
-1.33884 -4.36958 0.43551 109 104 101
-1.35113 -4.37549 0.43909 107 106 102
-1.36341 -4.38140 0.44267 110 112 103
-1.37568 -4.38730 0.44625 110 110 100
-1.38794 -4.39321 0.44982 103 107 99
-1.40020 -4.39910 0.45340 103 108 98
-1.41245 -4.40500 0.45697 103 105 102
-1.42470 -4.41089 0.46054 100 102 107
-1.43693 -4.41678 0.46411 100 102 106
-1.44916 -4.42266 0.46768 98 102 101
-1.46139 -4.42854 0.47124 99 103 99
-1.47360 -4.43442 0.47480 103 106 98
-1.48581 -4.44030 0.47836 97 104 95
-1.49801 -4.44617 0.48192 94 101 96
-1.51021 -4.45204 0.48548 100 99 100
-1.52240 -4.45790 0.48903 97 96 98
-1.53458 -4.46377 0.49259 94 97 91
-1.54675 -4.46962 0.49614 97 101 99
-1.55892 -4.47548 0.49969 98 98 99
-1.57108 -4.48133 0.50323 93 92 97
-1.58324 -4.48718 0.50678 93 93 95
-1.59538 -4.49303 0.51032 92 92 94
-1.60753 -4.49887 0.51386 88 91 96
-1.61966 -4.50471 0.51740 89 96 97
-1.63179 -4.51054 0.52093 99 103 98
-1.64391 -4.51637 0.52447 96 99 96
-1.65602 -4.52220 0.52800 93 93 93
-1.66813 -4.52803 0.53153 93 98 96
-1.68023 -4.53385 0.53506 93 98 98
-1.69232 -4.53967 0.53859 89 94 98
-1.70440 -4.54549 0.54211 85 90 94
-1.71648 -4.55130 0.54563 89 91 94
-1.72856 -4.55711 0.54915 91 92 100
-1.74062 -4.56291 0.55267 89 91 95
-1.75268 -4.56872 0.55619 87 91 87
-1.76473 -4.57452 0.55970 88 93 91
-1.77678 -4.58031 0.56322 90 92 91
-1.78882 -4.58610 0.56673 90 91 94
-1.80085 -4.59189 0.57024 86 91 94
-1.81288 -4.59768 0.57374 85 91 87
-1.82489 -4.60347 0.57725 84 88 83
-1.83691 -4.60924 0.58075 82 88 79
-1.84891 -4.61502 0.58425 79 78 79
-1.86091 -4.62080 0.58775 70 70 76
-1.87290 -4.62657 0.59125 72 74 69
-1.88489 -4.63233 0.59474 75 76 68
-1.89687 -4.63810 0.59824 70 76 76
-1.90884 -4.64386 0.60173 74 77 76
-1.92080 -4.64962 0.60522 77 79 72
1.86736 -2.81209 -0.51149 143 145 150
1.85324 -2.81889 -0.50736 149 151 154
1.83912 -2.82569 -0.50324 146 151 156
1.82502 -2.83248 -0.49913 143 146 151
1.81092 -2.83927 -0.49501 145 146 151
1.79683 -2.84605 -0.49090 151 153 148
1.78275 -2.85283 -0.48679 149 149 148
1.76867 -2.85961 -0.48268 150 148 151
1.75461 -2.86638 -0.47857 152 149 156
1.74055 -2.87315 -0.47447 153 152 157
1.72651 -2.87992 -0.47037 153 152 158
1.71247 -2.88668 -0.46627 154 156 161
1.69844 -2.89343 -0.46218 154 153 166
1.68441 -2.90018 -0.45809 159 163 171
1.67040 -2.90693 -0.45400 160 159 165
1.65639 -2.91367 -0.44991 157 154 157
1.64240 -2.92041 -0.44582 156 156 154
1.62841 -2.92715 -0.44174 162 163 161
1.61443 -2.93388 -0.43766 159 159 153
1.60046 -2.94061 -0.43358 153 156 153
1.58649 -2.94733 -0.42951 152 150 150
1.57254 -2.95405 -0.42543 145 144 145
1.55859 -2.96077 -0.42136 149 148 156
1.54465 -2.96748 -0.41729 150 147 152
1.53072 -2.97419 -0.41323 153 155 162
1.51680 -2.98089 -0.40916 158 156 163
1.50289 -2.98759 -0.40510 158 158 163
1.48899 -2.99428 -0.40105 153 160 161
1.47509 -3.00097 -0.39699 151 156 168
1.46120 -3.00766 -0.39294 161 159 173
1.44732 -3.01434 -0.38888 161 160 175
1.43345 -3.02102 -0.38484 157 155 158
1.41959 -3.02770 -0.38079 152 152 152
1.40573 -3.03437 -0.37675 154 153 163
1.39189 -3.04104 -0.37270 152 156 164
1.37805 -3.04770 -0.36867 162 162 158
1.36422 -3.05436 -0.36463 163 165 160
1.35040 -3.06102 -0.36059 154 156 163
1.33659 -3.06767 -0.35656 165 169 170
1.32278 -3.07431 -0.35253 167 167 172
1.30898 -3.08096 -0.34851 165 163 173
1.29520 -3.08760 -0.34448 162 166 171
1.28142 -3.09423 -0.34046 158 161 158
1.26764 -3.10086 -0.33644 154 156 158
1.25388 -3.10749 -0.33242 157 159 159
1.24013 -3.11411 -0.32841 158 163 163
1.22638 -3.12073 -0.32440 163 169 162
1.21264 -3.12735 -0.32039 162 163 162
1.19891 -3.13396 -0.31638 152 151 155
1.18519 -3.14057 -0.31237 159 161 160
1.17147 -3.14717 -0.30837 170 178 173
1.15777 -3.15377 -0.30437 171 176 175
1.14407 -3.16037 -0.30037 168 174 174
1.13038 -3.16696 -0.29638 169 175 174
1.11670 -3.17355 -0.29238 160 164 167
1.10302 -3.18013 -0.28839 155 155 165
1.08936 -3.18671 -0.28440 163 159 167
1.07570 -3.19329 -0.28042 167 163 167
1.06205 -3.19986 -0.27643 165 165 167
1.04841 -3.20643 -0.27245 164 167 165
1.03478 -3.21299 -0.26847 159 164 164
1.02115 -3.21955 -0.26450 159 159 166
1.00754 -3.22611 -0.26052 161 158 167
0.99393 -3.23266 -0.25655 160 161 169
0.98033 -3.23921 -0.25258 155 155 159
0.96673 -3.24575 -0.24861 145 146 149
0.95315 -3.25230 -0.24465 148 152 156
0.93957 -3.25883 -0.24068 152 156 163
0.92601 -3.26536 -0.23672 155 159 164
0.91245 -3.27189 -0.23277 151 152 157
0.89889 -3.27842 -0.22881 146 152 149
0.88535 -3.28494 -0.22486 159 164 153
0.87181 -3.29146 -0.22091 158 158 158
0.85829 -3.29797 -0.21696 155 157 155
0.84477 -3.30448 -0.21301 151 153 153
0.83125 -3.31099 -0.20907 141 145 156
0.81775 -3.31749 -0.20513 139 146 170
0.80425 -3.32399 -0.20119 153 161 168
0.79077 -3.33049 -0.19725 152 154 164
0.77729 -3.33698 -0.19332 154 153 158
0.76381 -3.34346 -0.18938 159 159 164
0.75035 -3.34995 -0.18545 154 156 166
0.73689 -3.35643 -0.18153 140 146 161
0.69657 -3.37584 -0.16976 153 159 154
0.68315 -3.38230 -0.16584 145 143 142
0.66973 -3.38876 -0.16192 151 155 152
0.65632 -3.39522 -0.15801 148 154 155
0.64292 -3.40167 -0.15410 151 158 159
0.62953 -3.40812 -0.15019 150 149 162
0.61615 -3.41457 -0.14628 148 153 155
0.60277 -3.42101 -0.14238 147 150 157
0.53600 -3.45316 -0.12289 139 144 147
0.52267 -3.45957 -0.11900 145 153 156
0.50935 -3.46599 -0.11511 148 153 153
0.49604 -3.47240 -0.11123 151 157 157
0.48273 -3.47881 -0.10734 146 150 160
0.46943 -3.48521 -0.10346 141 148 158
0.45614 -3.49161 -0.09958 150 160 165
0.44286 -3.49801 -0.09570 149 151 164
0.42958 -3.50440 -0.09183 142 142 154
0.41632 -3.51079 -0.08796 149 149 147
0.40306 -3.51717 -0.08409 151 153 150
0.38980 -3.52355 -0.08022 132 134 140
0.37656 -3.52993 -0.07635 121 120 133
0.36332 -3.53630 -0.07249 132 138 157
0.25771 -3.58716 -0.04166 146 152 162
0.24455 -3.59350 -0.03782 154 157 167
0.23139 -3.59983 -0.03398 149 153 156
0.21824 -3.60616 -0.03014 142 150 155
0.20509 -3.61249 -0.02631 135 142 146
0.19196 -3.61882 -0.02247 127 130 144
0.17883 -3.62514 -0.01864 137 140 149
0.16571 -3.63146 -0.01481 128 129 138
0.15260 -3.63777 -0.01098 139 151 144
0.13949 -3.64408 -0.00716 135 133 145
0.12639 -3.65039 -0.00334 144 152 146
0.11330 -3.65669 0.00049 143 149 148
0.10022 -3.66299 0.00430 144 149 145
0.08715 -3.66929 0.00812 145 151 156
0.07408 -3.67558 0.01193 150 160 162
0.06102 -3.68187 0.01575 146 145 149
0.04797 -3.68815 0.01956 130 128 129
0.03492 -3.69443 0.02336 124 124 128
0.02189 -3.70071 0.02717 120 126 131
0.00886 -3.70698 0.03097 122 131 139
-0.00416 -3.71325 0.03477 131 137 138
-0.01718 -3.71952 0.03857 133 138 135
-0.03018 -3.72578 0.04237 130 135 128
-0.04318 -3.73204 0.04616 125 131 126
-0.05617 -3.73830 0.04995 130 136 137
-0.06916 -3.74455 0.05374 135 143 143
-0.08213 -3.75080 0.05753 136 143 144
-0.09510 -3.75704 0.06131 136 138 141
-0.10806 -3.76328 0.06510 133 133 136
-0.12102 -3.76952 0.06888 129 132 138
-0.13396 -3.77575 0.07266 129 133 144
-0.14690 -3.78198 0.07643 137 138 145
-0.15983 -3.78821 0.08021 135 137 140
-0.17276 -3.79443 0.08398 132 139 143
-0.18567 -3.80065 0.08775 130 135 146
-0.19858 -3.80687 0.09152 121 122 137
-0.21148 -3.81308 0.09528 121 122 133
-0.22438 -3.81929 0.09905 122 124 130
-0.23726 -3.82549 0.10281 122 121 131
-0.25014 -3.83169 0.10657 121 119 133
-0.26301 -3.83789 0.11032 125 129 134
-0.27588 -3.84409 0.11408 136 136 138
-0.28873 -3.85028 0.11783 141 144 146
-0.30158 -3.85646 0.12158 136 144 142
-0.31442 -3.86265 0.12533 141 142 141
-0.34008 -3.87500 0.13282 117 123 127
-0.35290 -3.88118 0.13656 127 131 129
-0.36572 -3.88734 0.14030 112 120 121
-0.37852 -3.89351 0.14404 116 111 118
-0.39132 -3.89967 0.14777 121 123 132
-0.40411 -3.90583 0.15151 123 125 127
-0.41689 -3.91199 0.15524 109 117 117
