ply
format ascii 1.0
element face 0
property list uchar int vertex_indices
element vertex 1289
property float x
property float y
property float z
property uchar diffuse_red
property uchar diffuse_green
property uchar diffuse_blue
end_header
0.75051 -3.87306 0.29071 157 160 167
0.73525 -3.87916 0.29318 152 154 154
0.72001 -3.88525 0.29565 135 141 147
0.70477 -3.89134 0.29812 132 136 142
0.68955 -3.89743 0.30058 133 141 145
0.67434 -3.90351 0.30304 140 148 160
0.65914 -3.90958 0.30550 149 158 161
0.64396 -3.91565 0.30796 144 161 171
0.62878 -3.92172 0.31042 150 161 175
0.61362 -3.92778 0.31287 140 144 156
0.59847 -3.93383 0.31533 146 155 165
0.58333 -3.93988 0.31778 145 151 161
0.56820 -3.94593 0.32022 153 159 163
0.55308 -3.95197 0.32267 154 159 165
0.53798 -3.95801 0.32512 152 158 163
0.52289 -3.96404 0.32756 145 148 155
0.50781 -3.97007 0.33000 145 153 160
0.49274 -3.97609 0.33244 138 148 156
0.47768 -3.98211 0.33488 134 148 156
0.46263 -3.98812 0.33731 140 148 151
-0.74677 -4.47149 0.53309 123 127 129
-0.77499 -4.48276 0.53766 124 122 122
-0.78908 -4.48840 0.53994 116 120 111
-0.80316 -4.49402 0.54222 112 122 116
1.10944 -3.71365 0.21994 153 165 180
1.09395 -3.71984 0.22245 155 167 178
1.07847 -3.72604 0.22496 160 167 163
1.06301 -3.73222 0.22747 160 171 178
1.04756 -3.73840 0.22998 160 168 172
1.03212 -3.74458 0.23248 173 183 183
1.01669 -3.75075 0.23499 156 160 175
1.00128 -3.75692 0.23749 152 165 176
0.98587 -3.76308 0.23998 154 165 173
0.97048 -3.76924 0.24248 159 157 164
0.95511 -3.77539 0.24497 156 156 173
0.93974 -3.78154 0.24747 158 166 181
0.92438 -3.78768 0.24996 158 165 170
0.90904 -3.79382 0.25245 157 167 172
0.89371 -3.79996 0.25493 159 168 174
0.87839 -3.80608 0.25742 161 168 173
0.86308 -3.81221 0.25990 161 171 174
0.84779 -3.81833 0.26238 157 167 169
0.83251 -3.82444 0.26486 151 154 161
0.81724 -3.83055 0.26734 142 144 159
0.80198 -3.83666 0.26981 139 147 161
0.78673 -3.84276 0.27229 146 152 159
0.77149 -3.84885 0.27476 152 157 160
0.75627 -3.85494 0.27723 153 160 167
0.74106 -3.86103 0.27969 153 156 167
0.72586 -3.86711 0.28216 153 158 157
0.71067 -3.87318 0.28462 150 160 146
0.69550 -3.87926 0.28708 145 155 148
0.68033 -3.88532 0.28954 140 153 153
0.66518 -3.89139 0.29200 150 159 161
0.65004 -3.89744 0.29446 152 157 159
0.63491 -3.90350 0.29691 141 149 161
0.61979 -3.90954 0.29936 142 155 160
0.60469 -3.91559 0.30181 138 144 153
0.58959 -3.92163 0.30426 132 142 158
0.57451 -3.92766 0.30671 136 143 168
0.55944 -3.93369 0.30915 154 164 169
0.54438 -3.93971 0.31159 160 162 167
0.52933 -3.94573 0.31404 150 150 153
0.51430 -3.95175 0.31647 142 139 142
0.49927 -3.95776 0.31891 141 149 149
0.48426 -3.96377 0.32135 134 141 148
0.46926 -3.96977 0.32378 127 141 157
0.45427 -3.97576 0.32621 142 149 148
0.43929 -3.98176 0.32864 145 151 146
-0.76478 -4.46348 0.52394 117 129 127
-0.77883 -4.46910 0.52622 118 126 122
-0.79287 -4.47472 0.52850 119 128 117
-0.80690 -4.48033 0.53077 119 131 117
-0.82092 -4.48594 0.53305 112 117 122
-0.83493 -4.49154 0.53532 114 125 128
1.09864 -3.70212 0.20911 152 154 170
1.08321 -3.70830 0.21162 149 161 169
1.06779 -3.71447 0.21413 145 157 158
1.05239 -3.72064 0.21663 149 160 168
1.03700 -3.72680 0.21913 161 169 174
1.02162 -3.73296 0.22163 168 179 180
1.00625 -3.73911 0.22413 155 165 173
0.99089 -3.74526 0.22662 151 157 169
0.97555 -3.75141 0.22912 154 159 169
0.96022 -3.75755 0.23161 146 151 155
0.94490 -3.76368 0.23410 146 155 164
0.92959 -3.76981 0.23659 153 159 167
0.91430 -3.77594 0.23907 153 155 163
0.89901 -3.78206 0.24156 149 157 172
0.88374 -3.78818 0.24404 151 161 166
0.86848 -3.79429 0.24652 151 156 156
0.85323 -3.80040 0.24900 152 161 165
0.83800 -3.80650 0.25147 156 168 172
0.82277 -3.81259 0.25395 148 155 164
0.80756 -3.81869 0.25642 143 150 160
0.79236 -3.82477 0.25889 142 147 158
0.77717 -3.83086 0.26136 147 153 158
0.76199 -3.83694 0.26383 160 170 165
0.74683 -3.84301 0.26629 157 163 167
0.73167 -3.84908 0.26875 155 163 173
0.71653 -3.85514 0.27121 157 166 170
0.70140 -3.86120 0.27367 159 169 155
0.68628 -3.86726 0.27613 148 159 154
0.67118 -3.87331 0.27858 138 146 152
0.65608 -3.87935 0.28104 148 163 170
0.64100 -3.88539 0.28349 144 149 164
0.62592 -3.89143 0.28594 131 133 158
0.61086 -3.89746 0.28839 129 145 151
0.59582 -3.90349 0.29083 135 140 145
0.58078 -3.90951 0.29328 139 147 145
0.56575 -3.91553 0.29572 142 153 166
0.55074 -3.92154 0.29816 149 153 162
0.53574 -3.92755 0.30060 157 165 161
0.52075 -3.93355 0.30303 146 151 157
0.50577 -3.93955 0.30547 138 146 150
0.49080 -3.94554 0.30790 134 142 144
0.47585 -3.95153 0.31033 128 127 144
0.46090 -3.95752 0.31276 125 140 152
0.44597 -3.96350 0.31519 144 145 144
0.43105 -3.96947 0.31761 146 148 146
-0.76864 -4.44992 0.51258 113 119 118
-0.78264 -4.45553 0.51486 117 128 117
-0.79663 -4.46113 0.51713 120 130 114
-0.81061 -4.46673 0.51940 121 132 125
-0.82458 -4.47233 0.52167 122 128 131
1.08791 -3.69067 0.19836 157 164 170
1.07254 -3.69683 0.20087 141 157 164
1.05719 -3.70298 0.20337 145 155 156
1.04184 -3.70914 0.20587 150 162 170
1.02651 -3.71528 0.20836 154 162 176
1.01119 -3.72142 0.21086 161 172 175
0.99588 -3.72756 0.21335 161 166 175
0.98059 -3.73369 0.21584 153 160 172
0.96530 -3.73982 0.21833 155 162 169
0.95003 -3.74594 0.22082 146 155 158
0.93477 -3.75206 0.22330 148 160 160
0.91952 -3.75817 0.22578 152 162 163
0.90428 -3.76428 0.22827 156 164 171
0.88906 -3.77039 0.23074 165 173 179
0.87384 -3.77648 0.23322 157 160 169
0.85864 -3.78258 0.23570 137 143 157
0.84345 -3.78867 0.23817 137 145 154
0.82827 -3.79475 0.24064 150 159 160
0.81311 -3.80083 0.24311 145 150 162
0.79795 -3.80691 0.24558 143 150 169
0.78281 -3.81298 0.24805 149 161 171
0.76768 -3.81904 0.25051 151 158 169
0.75256 -3.82510 0.25297 157 166 176
0.73745 -3.83116 0.25543 158 167 175
0.72235 -3.83721 0.25789 155 164 171
0.70727 -3.84326 0.26035 151 159 163
0.69220 -3.84930 0.26280 148 158 155
0.67713 -3.85534 0.26525 146 159 167
0.66208 -3.86137 0.26770 144 151 163
0.64705 -3.86740 0.27015 149 159 172
0.63202 -3.87343 0.27260 145 153 162
0.61700 -3.87944 0.27504 135 144 153
0.60200 -3.88546 0.27749 127 134 145
0.58701 -3.89147 0.27993 138 146 153
0.57203 -3.89747 0.28237 149 162 168
0.55706 -3.90348 0.28481 156 166 175
0.54210 -3.90947 0.28724 136 145 156
0.52716 -3.91546 0.28968 137 137 161
0.51222 -3.92145 0.29211 147 149 159
0.49730 -3.92743 0.29454 140 148 160
0.48239 -3.93341 0.29696 135 142 147
0.46749 -3.93938 0.29939 138 145 156
0.45260 -3.94535 0.30182 144 148 156
0.43772 -3.95131 0.30424 149 154 158
0.42286 -3.95727 0.30666 147 154 144
0.40800 -3.96323 0.30908 134 148 134
-0.51955 -4.33507 0.46012 116 120 124
-0.53369 -4.34073 0.46242 119 120 127
-0.77247 -4.43646 0.50130 116 127 119
-0.78643 -4.44205 0.50357 117 120 113
-0.80037 -4.44764 0.50585 112 117 107
-0.81430 -4.45323 0.50811 115 119 125
-0.82822 -4.45881 0.51038 123 127 133
1.09259 -3.67315 0.18519 158 180 180
1.07727 -3.67930 0.18769 154 168 174
1.06196 -3.68544 0.19019 131 134 158
1.04666 -3.69158 0.19268 161 167 164
1.03137 -3.69772 0.19518 165 177 179
1.01610 -3.70385 0.19767 160 168 175
1.00084 -3.70997 0.20016 163 173 175
0.98559 -3.71609 0.20265 161 172 174
0.97035 -3.72220 0.20513 151 160 172
0.95512 -3.72831 0.20762 156 161 170
0.93991 -3.73442 0.21010 156 166 175
0.92471 -3.74052 0.21258 156 165 165
0.90952 -3.74661 0.21506 154 165 166
0.89434 -3.75271 0.21754 147 159 176
0.87917 -3.75879 0.22001 157 167 184
0.86401 -3.76487 0.22248 159 164 176
0.84887 -3.77095 0.22495 149 156 164
0.83374 -3.77702 0.22742 145 154 156
0.81862 -3.78309 0.22989 147 150 157
0.80351 -3.78915 0.23235 142 146 161
0.78841 -3.79521 0.23482 139 150 162
0.77333 -3.80126 0.23728 145 151 158
0.75825 -3.80731 0.23974 150 144 157
0.74319 -3.81336 0.24220 153 154 168
0.72814 -3.81940 0.24465 157 168 180
0.71310 -3.82543 0.24710 157 165 181
0.69807 -3.83146 0.24956 156 162 167
0.68306 -3.83749 0.25201 155 160 160
0.66805 -3.84351 0.25445 150 150 164
0.65306 -3.84953 0.25690 144 146 164
0.63808 -3.85554 0.25934 142 149 169
0.62311 -3.86154 0.26179 145 156 166
0.60815 -3.86755 0.26423 154 162 155
0.59320 -3.87354 0.26667 145 154 154
0.57827 -3.87954 0.26910 147 150 161
0.56334 -3.88553 0.27154 153 159 170
0.54843 -3.89151 0.27397 160 162 167
0.53353 -3.89749 0.27640 134 145 158
0.51864 -3.90346 0.27883 136 141 156
0.50376 -3.90944 0.28126 146 147 150
0.48889 -3.91540 0.28368 138 145 155
0.47404 -3.92136 0.28611 135 145 142
0.45919 -3.92732 0.28853 152 164 166
0.44436 -3.93327 0.29095 143 146 155
0.42954 -3.93922 0.29337 150 157 167
0.41473 -3.94516 0.29578 149 154 152
0.39993 -3.95110 0.29820 139 153 154
-0.53834 -4.32761 0.45128 118 120 120
-0.55242 -4.33326 0.45358 126 129 134
-0.77628 -4.42309 0.49010 113 123 112
-0.81796 -4.43981 0.49690 121 123 123
-0.83184 -4.44538 0.49916 121 122 123
1.08196 -3.66189 0.17460 164 179 182
1.06670 -3.66802 0.17709 169 177 186
1.05144 -3.67414 0.17959 141 141 166
1.03621 -3.68026 0.18208 155 166 177
1.02098 -3.68638 0.18457 158 167 177
1.00576 -3.69249 0.18705 160 169 174
0.99056 -3.69860 0.18954 167 177 175
0.97537 -3.70470 0.19202 159 166 177
0.96019 -3.71080 0.19450 157 165 175
0.94502 -3.71689 0.19698 162 171 175
0.92986 -3.72298 0.19946 158 167 180
0.91472 -3.72906 0.20194 160 167 173
0.89959 -3.73514 0.20441 157 161 172
0.88446 -3.74121 0.20688 155 160 173
0.86935 -3.74728 0.20935 160 165 174
0.85426 -3.75335 0.21182 156 152 168
0.83917 -3.75941 0.21428 150 150 163
0.82409 -3.76546 0.21675 153 157 160
0.80903 -3.77151 0.21921 154 154 158
0.79398 -3.77756 0.22167 149 156 162
0.77894 -3.78360 0.22413 141 157 167
0.76391 -3.78963 0.22659 142 156 167
0.74889 -3.79567 0.22904 151 163 166
0.73389 -3.80169 0.23149 154 169 168
0.71889 -3.80772 0.23395 159 171 173
0.70391 -3.81373 0.23639 162 165 178
0.68894 -3.81975 0.23884 161 166 178
0.67398 -3.82576 0.24129 161 170 176
0.65903 -3.83176 0.24373 153 159 167
0.64409 -3.83776 0.24617 144 149 158
0.62917 -3.84376 0.24861 147 157 162
0.61426 -3.84975 0.25105 157 164 169
0.59935 -3.85573 0.25349 156 164 170
0.58446 -3.86171 0.25592 150 163 165
0.56958 -3.86769 0.25835 151 156 163
0.55471 -3.87366 0.26078 152 155 164
0.53986 -3.87963 0.26321 155 160 162
0.52501 -3.88559 0.26564 133 145 160
0.51018 -3.89155 0.26806 139 154 160
0.49535 -3.89751 0.27049 147 159 164
0.48054 -3.90346 0.27291 152 161 164
0.46574 -3.90940 0.27533 138 153 147
0.45095 -3.91534 0.27774 142 150 159
0.43618 -3.92128 0.28016 134 140 146
0.42141 -3.92721 0.28257 140 154 159
0.40665 -3.93313 0.28499 138 145 150
0.39191 -3.93906 0.28740 150 151 160
0.09937 -4.05656 0.33522 131 138 148
-0.52892 -4.30893 0.43792 124 133 129
-0.54296 -4.31457 0.44021 121 129 125
-0.55699 -4.32020 0.44251 124 127 134
-0.82160 -4.42649 0.48576 125 126 128
-0.83543 -4.43204 0.48802 122 125 134
-0.84924 -4.43759 0.49028 123 128 128
1.07140 -3.65070 0.16408 161 170 175
1.05620 -3.65681 0.16657 161 168 179
1.04101 -3.66292 0.16906 159 162 174
1.02583 -3.66902 0.17154 163 176 187
1.01066 -3.67512 0.17403 155 148 166
0.99550 -3.68121 0.17651 160 169 172
0.98035 -3.68730 0.17899 171 178 178
0.96522 -3.69339 0.18147 163 168 185
0.95010 -3.69947 0.18395 156 164 176
0.93499 -3.70554 0.18642 151 153 169
0.91989 -3.71162 0.18889 148 156 166
0.90480 -3.71768 0.19137 156 164 167
0.88972 -3.72374 0.19383 157 163 175
0.87466 -3.72980 0.19630 161 177 182
0.85961 -3.73585 0.19877 153 159 172
0.84457 -3.74190 0.20123 146 149 170
0.82954 -3.74794 0.20369 150 162 173
0.81452 -3.75398 0.20615 157 165 165
0.79951 -3.76001 0.20861 159 164 159
0.78452 -3.76604 0.21106 155 161 164
0.76953 -3.77207 0.21352 152 157 169
0.75456 -3.77809 0.21597 150 156 169
0.73960 -3.78410 0.21842 146 155 166
0.72465 -3.79011 0.22087 149 159 167
0.70971 -3.79612 0.22332 157 169 171
0.69479 -3.80212 0.22576 165 172 179
0.67987 -3.80812 0.22820 164 171 187
0.66497 -3.81411 0.23064 165 174 187
0.65008 -3.82010 0.23308 154 163 172
0.63519 -3.82608 0.23552 143 154 163
0.62032 -3.83206 0.23796 141 153 159
0.60547 -3.83803 0.24039 137 139 159
0.59062 -3.84400 0.24282 138 152 169
0.57578 -3.84997 0.24525 139 155 156
0.56096 -3.85593 0.24768 154 167 165
0.54615 -3.86188 0.25010 160 160 155
0.53135 -3.86783 0.25253 157 156 149
0.51656 -3.87378 0.25495 145 151 158
0.50178 -3.87972 0.25737 142 142 151
0.48701 -3.88566 0.25979 137 134 145
0.47225 -3.89159 0.26221 153 161 170
0.45751 -3.89752 0.26462 135 139 166
0.44277 -3.90344 0.26703 134 148 157
0.42805 -3.90936 0.26945 138 152 155
0.41334 -3.91528 0.27185 142 144 166
0.39864 -3.92119 0.27426 140 151 160
0.38395 -3.92710 0.27667 151 161 167
0.13592 -4.02682 0.31729 154 160 150
0.12143 -4.03265 0.31966 151 156 146
0.10695 -4.03847 0.32203 145 152 156
0.09248 -4.04428 0.32440 143 152 157
0.07802 -4.05010 0.32677 139 148 145
0.06357 -4.05591 0.32914 140 147 144
-0.51956 -4.29036 0.42464 125 132 138
-0.53356 -4.29599 0.42693 124 133 136
-0.54755 -4.30162 0.42922 124 132 129
-0.56153 -4.30724 0.43151 130 137 139
-0.82522 -4.41325 0.47470 119 120 123
-0.83899 -4.41879 0.47696 118 116 126
-0.85276 -4.42433 0.47921 122 125 130
-0.86652 -4.42986 0.48146 130 136 128
1.06092 -3.63959 0.15364 161 174 179
1.04578 -3.64568 0.15612 157 165 180
1.03064 -3.65177 0.15861 157 165 179
1.01552 -3.65786 0.16109 167 174 176
1.00041 -3.66394 0.16357 158 149 153
0.98531 -3.67002 0.16604 160 167 167
0.97022 -3.67609 0.16852 169 179 182
0.95514 -3.68216 0.17099 179 189 199
0.94008 -3.68822 0.17347 170 173 176
0.92502 -3.69428 0.17594 156 164 169
0.90998 -3.70033 0.17840 146 156 160
0.89495 -3.70638 0.18087 146 158 167
0.87993 -3.71243 0.18333 152 158 179
0.86493 -3.71847 0.18580 161 176 184
0.84993 -3.72450 0.18826 157 166 171
0.83494 -3.73053 0.19072 151 162 166
0.81997 -3.73656 0.19317 150 164 169
0.80501 -3.74258 0.19563 146 150 158
0.79006 -3.74860 0.19808 149 155 166
0.77512 -3.75461 0.20053 159 168 174
0.76019 -3.76062 0.20298 158 164 169
0.74528 -3.76662 0.20543 151 157 172
0.73037 -3.77262 0.20788 148 157 168
0.71548 -3.77861 0.21032 151 166 166
0.70060 -3.78460 0.21276 153 171 164
0.68573 -3.79059 0.21520 154 166 163
0.67087 -3.79657 0.21764 158 163 169
0.65602 -3.80254 0.22008 163 167 180
0.64118 -3.80851 0.22251 150 163 169
0.62636 -3.81448 0.22494 141 156 164
0.61154 -3.82044 0.22737 146 161 170
0.59674 -3.82640 0.22980 154 167 174
0.58195 -3.83235 0.23223 154 165 166
0.56717 -3.83830 0.23465 123 143 145
0.55240 -3.84424 0.23708 147 157 158
0.53764 -3.85018 0.23950 155 164 173
0.52289 -3.85612 0.24192 143 149 161
0.50816 -3.86205 0.24434 147 159 175
0.49343 -3.86797 0.24675 150 153 151
0.47872 -3.87390 0.24917 133 141 139
0.46402 -3.87981 0.25158 140 133 137
0.44933 -3.88572 0.25399 151 159 172
0.43465 -3.89163 0.25640 143 153 156
0.41998 -3.89754 0.25881 143 144 157
0.40532 -3.90343 0.26121 150 163 175
0.39067 -3.90933 0.26361 154 157 159
0.37604 -3.91522 0.26602 151 155 167
0.15783 -4.00304 0.30182 146 156 158
0.14337 -4.00886 0.30419 143 152 157
0.12892 -4.01467 0.30656 155 161 153
0.11448 -4.02048 0.30893 154 158 152
0.10005 -4.02629 0.31130 141 144 150
0.08563 -4.03209 0.31367 136 136 145
0.07123 -4.03789 0.31603 139 144 149
0.05683 -4.04368 0.31839 147 159 159
-0.51025 -4.27191 0.41144 124 120 128
-0.52422 -4.27753 0.41373 125 128 135
-0.53817 -4.28314 0.41602 128 135 137
-0.55211 -4.28875 0.41831 131 135 136
-0.82881 -4.40011 0.46371 113 116 113
-0.84254 -4.40564 0.46596 116 117 110
-0.85625 -4.41116 0.46821 121 123 126
-0.86996 -4.41667 0.47046 130 134 124
-0.88366 -4.42219 0.47271 130 130 133
0.56738 -3.73097 2.50136 177 153 157
0.59675 -3.68173 2.47134 180 158 158
0.58912 -3.70078 2.47523 178 158 155
0.58145 -3.71993 2.47915 179 159 144
0.57373 -3.73919 2.48308 178 159 154
0.61069 -3.67082 2.44931 178 160 160
0.60310 -3.68981 2.45314 181 158 160
0.59548 -3.70891 2.45699 179 161 162
0.58781 -3.72812 2.46086 178 162 154
0.58010 -3.74742 2.46475 177 161 157
0.57235 -3.76684 2.46866 176 160 148
0.64696 -3.60371 2.41616 178 161 160
0.63955 -3.62235 2.41986 177 159 159
0.63209 -3.64109 2.42359 179 161 150
0.62459 -3.65993 2.42733 176 163 146
0.61706 -3.67888 2.43110 178 160 155
0.60948 -3.69792 2.43488 180 159 157
0.60186 -3.71707 2.43869 177 161 159
0.59420 -3.73633 2.44252 178 163 155
0.58649 -3.75569 2.44637 178 163 154
0.57875 -3.77515 2.45023 176 164 150
0.66070 -3.59300 2.39442 181 161 163
0.65333 -3.61159 2.39807 179 162 160
0.64592 -3.63028 2.40173 179 162 155
0.63847 -3.64907 2.40541 179 163 149
0.63097 -3.66797 2.40911 179 163 148
0.62344 -3.68696 2.41283 180 163 157
0.61587 -3.70606 2.41658 180 163 153
0.60826 -3.72526 2.42034 178 163 155
0.60060 -3.74457 2.42412 180 162 151
0.59291 -3.76398 2.42793 180 162 147
0.58517 -3.78349 2.43175 176 163 147
0.68894 -3.54554 2.36564 175 160 156
0.68169 -3.56388 2.36918 176 160 161
0.67440 -3.58232 2.37274 178 160 158
0.66707 -3.60086 2.37632 180 163 157
0.65971 -3.61950 2.37992 177 163 153
0.65230 -3.63824 2.38354 178 163 155
0.64486 -3.65708 2.38718 179 164 153
0.63737 -3.67603 2.39084 180 163 151
0.62985 -3.69507 2.39452 178 163 154
0.62228 -3.71422 2.39821 178 164 156
0.61468 -3.73347 2.40193 176 163 162
0.60703 -3.75283 2.40567 182 160 152
0.59934 -3.77229 2.40943 183 160 144
0.59160 -3.79186 2.41321 180 161 143
0.58383 -3.81154 2.41701 180 162 141
0.70252 -3.53498 2.34413 181 161 144
0.69531 -3.55328 2.34761 177 158 158
0.68807 -3.57167 2.35111 178 158 164
0.68079 -3.59016 2.35463 178 156 160
0.67347 -3.60875 2.35817 180 163 163
0.66611 -3.62744 2.36172 181 164 153
0.65871 -3.64623 2.36530 180 162 157
0.65127 -3.66512 2.36889 181 160 161
0.64379 -3.68411 2.37251 180 161 153
0.63627 -3.70320 2.37614 178 160 150
0.62871 -3.72240 2.37980 178 161 151
0.62111 -3.74170 2.38347 180 162 149
0.61347 -3.76111 2.38716 181 159 152
0.60579 -3.78063 2.39088 182 161 148
0.59806 -3.80025 2.39461 180 163 145
0.59029 -3.81998 2.39837 180 161 144
0.73027 -3.48825 2.31589 180 162 150
0.72319 -3.50631 2.31927 177 162 154
0.71606 -3.52446 2.32267 182 165 156
0.70890 -3.54270 2.32610 182 164 157
0.70171 -3.56104 2.32953 177 157 158
0.69447 -3.57948 2.33299 178 156 159
0.68720 -3.59802 2.33647 179 157 155
0.67988 -3.61666 2.33996 179 161 157
0.67253 -3.63539 2.34347 181 164 152
0.66514 -3.65423 2.34700 179 163 156
0.65770 -3.67317 2.35056 179 160 160
0.65023 -3.69221 2.35413 178 159 155
0.64272 -3.71136 2.35771 176 160 156
0.63516 -3.73061 2.36132 178 160 151
0.62757 -3.74996 2.36495 182 160 148
0.61993 -3.76942 2.36860 182 161 151
0.61225 -3.78899 2.37227 181 161 150
0.60453 -3.80867 2.37596 179 160 146
0.59677 -3.82845 2.37967 177 161 140
0.74370 -3.47785 2.29460 180 161 150
0.73666 -3.49585 2.29793 180 160 141
0.72958 -3.51395 2.30127 181 163 144
0.72246 -3.53215 2.30463 183 163 143
0.71531 -3.55044 2.30801 185 163 158
0.70812 -3.56883 2.31140 180 159 157
0.70089 -3.58732 2.31482 177 157 154
0.69362 -3.60590 2.31825 178 159 150
0.68631 -3.62459 2.32170 180 161 153
0.67897 -3.64337 2.32517 183 164 153
0.67158 -3.66226 2.32865 182 166 155
0.66416 -3.68125 2.33216 180 163 154
0.65669 -3.70034 2.33569 179 161 150
0.64918 -3.71954 2.33923 181 160 154
0.64163 -3.73884 2.34279 181 158 150
0.63405 -3.75825 2.34638 183 160 149
0.62641 -3.77776 2.34998 181 162 149
0.61874 -3.79738 2.35360 180 163 153
0.61103 -3.81711 2.35725 180 163 154
0.60327 -3.83695 2.36091 178 165 146
0.77787 -3.41416 2.26367 184 162 164
0.77098 -3.43184 2.26689 183 164 163
0.76405 -3.44960 2.27012 180 166 154
0.75709 -3.46747 2.27337 185 166 158
0.75010 -3.48542 2.27663 183 162 158
0.74306 -3.50347 2.27991 182 160 147
0.73599 -3.52162 2.28321 180 163 145
0.72888 -3.53986 2.28653 182 163 147
0.72174 -3.55820 2.28987 187 163 155
0.71455 -3.57664 2.29322 183 162 155
0.70733 -3.59517 2.29659 177 160 154
0.70007 -3.61381 2.29998 178 158 152
0.69276 -3.63254 2.30338 179 160 155
0.68542 -3.65138 2.30681 183 162 157
0.67805 -3.67032 2.31025 181 167 160
0.67063 -3.68936 2.31371 179 162 154
0.66317 -3.70850 2.31719 178 163 154
0.65567 -3.72775 2.32069 183 162 158
0.64812 -3.74710 2.32421 181 159 148
0.64054 -3.76656 2.32775 184 160 145
0.63292 -3.78612 2.33131 181 162 150
0.62525 -3.80579 2.33488 180 164 151
0.61754 -3.82558 2.33848 181 163 154
0.60979 -3.84547 2.34210 180 163 151
0.60200 -3.86547 2.34573 177 158 156
0.79110 -3.40394 2.24267 185 166 160
0.78426 -3.42157 2.24582 184 165 155
0.77738 -3.43930 2.24899 185 166 166
0.77046 -3.45711 2.25218 183 166 159
0.76350 -3.47502 2.25539 185 166 157
0.75651 -3.49302 2.25861 186 164 157
0.74949 -3.51112 2.26185 183 160 147
0.74242 -3.52931 2.26511 178 162 141
0.73532 -3.54760 2.26838 180 164 161
0.72818 -3.56599 2.27167 183 165 155
0.72100 -3.58447 2.27498 181 162 155
0.71378 -3.60305 2.27830 179 160 153
0.70653 -3.62174 2.28165 181 159 154
0.69924 -3.64052 2.28501 179 158 154
0.69190 -3.65941 2.28839 179 162 155
0.68453 -3.67839 2.29179 181 165 157
0.67712 -3.69748 2.29521 181 164 152
0.66966 -3.71668 2.29864 177 163 154
0.66217 -3.73598 2.30210 179 163 156
0.65463 -3.75538 2.30557 179 162 149
0.64706 -3.77489 2.30906 180 161 143
0.63944 -3.79451 2.31257 179 161 152
0.63178 -3.81423 2.31610 177 162 148
0.62408 -3.83407 2.31965 182 162 152
0.61633 -3.85401 2.32322 182 160 156
0.60854 -3.87407 2.32681 180 162 152
0.81781 -3.35886 2.21556 183 161 153
0.81108 -3.37626 2.21862 183 164 147
0.80431 -3.39375 2.22171 185 169 154
0.79751 -3.41134 2.22480 188 169 157
0.79067 -3.42901 2.22792 186 168 154
0.78379 -3.44678 2.23105 184 167 162
0.77688 -3.46464 2.23419 186 164 159
0.76993 -3.48259 2.23736 185 165 155
0.76295 -3.50064 2.24053 187 168 157
0.75593 -3.51878 2.24373 184 167 153
0.74887 -3.53702 2.24694 181 163 148
0.74178 -3.55536 2.25017 181 164 159
0.73464 -3.57379 2.25342 181 162 155
0.72747 -3.59233 2.25669 180 161 158
0.72026 -3.61096 2.25997 178 162 154
0.71301 -3.62969 2.26327 182 158 154
0.70572 -3.64852 2.26659 180 157 154
0.69840 -3.66746 2.26992 177 159 155
0.69103 -3.68650 2.27328 182 166 155
0.68362 -3.70564 2.27665 182 165 156
0.67618 -3.72488 2.28004 175 162 153
0.66869 -3.74423 2.28345 176 160 151
0.66116 -3.76369 2.28687 176 160 152
0.65359 -3.78325 2.29032 179 161 147
0.64598 -3.80292 2.29378 178 160 154
0.63833 -3.82270 2.29727 176 161 149
0.63063 -3.84259 2.30077 179 163 147
0.62289 -3.86259 2.30430 180 162 148
0.61511 -3.88270 2.30784 181 161 149
0.60729 -3.90292 2.31140 179 160 146
0.85733 -3.28025 2.18288 198 183 172
0.85077 -3.29726 2.18583 192 173 167
0.84418 -3.31435 2.18879 185 164 159
0.83756 -3.33152 2.19177 187 166 159
0.83090 -3.34879 2.19476 187 167 163
0.82421 -3.36614 2.19777 184 163 156
0.81748 -3.38359 2.20079 183 164 154
0.81072 -3.40112 2.20383 186 169 163
0.80393 -3.41875 2.20689 191 169 168
0.79709 -3.43647 2.20996 187 168 160
0.79023 -3.45428 2.21305 182 166 162
0.78332 -3.47219 2.21615 187 163 160
0.77638 -3.49019 2.21927 185 163 151
0.76940 -3.50828 2.22241 184 167 159
0.76239 -3.52647 2.22556 182 169 158
0.75534 -3.54476 2.22873 183 165 156
0.74825 -3.56314 2.23192 180 165 157
0.74112 -3.58162 2.23512 181 162 155
0.73396 -3.60021 2.23834 182 159 156
0.72676 -3.61889 2.24158 180 159 152
0.71951 -3.63767 2.24483 180 158 152
0.71223 -3.65655 2.24811 181 157 156
0.70491 -3.67554 2.25140 180 158 157
0.69755 -3.69462 2.25471 180 162 143
0.69015 -3.71381 2.25803 182 165 153
0.68271 -3.73311 2.26138 179 163 154
0.67523 -3.75251 2.26474 179 158 150
0.66771 -3.77202 2.26812 175 160 151
0.66015 -3.79164 2.27152 178 161 155
0.65254 -3.81136 2.27494 179 160 162
0.64489 -3.83119 2.27838 183 159 154
0.63721 -3.85113 2.28183 182 159 151
0.62947 -3.87119 2.28531 180 160 152
0.62170 -3.89135 2.28880 182 160 151
0.61388 -3.91163 2.29232 179 159 144
0.60602 -3.93202 2.29585 178 159 139
0.87022 -3.27038 2.16236 193 176 160
0.86371 -3.28734 2.16525 188 174 165
0.85716 -3.30439 2.16816 188 171 158
0.85058 -3.32152 2.17108 186 167 154
0.84396 -3.33874 2.17401 188 164 155
0.83731 -3.35605 2.17697 188 166 162
0.83063 -3.37345 2.17993 185 165 156
0.82391 -3.39093 2.18291 181 165 155
0.81715 -3.40851 2.18591 183 167 160
0.81036 -3.42619 2.18892 187 167 168
0.80354 -3.44395 2.19195 186 166 163
0.79668 -3.46181 2.19500 184 164 160
0.78978 -3.47976 2.19806 185 162 156
0.78285 -3.49780 2.20113 185 165 154
0.77588 -3.51594 2.20423 182 167 162
0.76887 -3.53418 2.20734 183 168 164
0.76183 -3.55252 2.21046 185 164 162
0.75474 -3.57095 2.21360 183 163 155
0.74762 -3.58948 2.21676 182 161 149
0.74047 -3.60811 2.21994 182 159 150
0.73327 -3.62684 2.22313 181 160 146
0.72604 -3.64567 2.22634 181 159 148
0.71876 -3.66460 2.22957 183 160 151
0.71145 -3.68364 2.23282 180 161 156
0.70409 -3.70277 2.23608 178 162 147
0.69670 -3.72202 2.23936 184 166 154
0.68927 -3.74136 2.24266 183 165 159
0.68179 -3.76082 2.24598 180 159 149
0.67428 -3.78038 2.24931 179 157 142
0.66672 -3.80005 2.25266 178 157 147
0.65912 -3.81982 2.25604 178 158 148
0.65148 -3.83971 2.25943 179 161 149
0.64380 -3.85970 2.26283 180 159 151
0.63607 -3.87981 2.26626 180 162 159
0.62831 -3.90003 2.26971 180 162 149
0.62049 -3.92037 2.27318 179 161 142
0.61264 -3.94081 2.27666 176 159 142
0.87662 -3.27745 2.14472 192 172 158
0.87011 -3.29445 2.14757 190 173 156
0.86357 -3.31154 2.15043 189 172 149
0.85699 -3.32871 2.15331 188 170 152
0.85038 -3.34597 2.15621 186 165 153
0.84374 -3.36333 2.15912 186 166 159
0.83706 -3.38077 2.16204 186 166 155
0.83035 -3.39830 2.16498 183 165 152
0.82360 -3.41593 2.16794 184 166 152
0.81682 -3.43364 2.17091 185 166 166
0.81000 -3.45145 2.17389 187 167 168
0.80315 -3.46935 2.17689 183 165 151
0.79626 -3.48735 2.17991 183 164 140
0.78933 -3.50544 2.18294 186 166 152
0.78237 -3.52363 2.18599 182 168 154
0.77537 -3.54191 2.18906 182 167 149
0.76833 -3.56030 2.19214 183 167 157
0.76126 -3.57878 2.19524 183 165 153
0.75414 -3.59735 2.19835 181 163 147
0.74699 -3.61603 2.20148 181 164 145
0.73980 -3.63481 2.20463 179 161 135
0.73258 -3.65369 2.20780 181 158 153
0.72531 -3.67267 2.21098 183 159 156
0.71800 -3.69176 2.21418 180 160 164
0.71066 -3.71095 2.21740 175 161 150
0.70327 -3.73024 2.22063 185 164 153
0.69584 -3.74964 2.22388 185 166 156
0.68838 -3.76915 2.22715 181 160 152
0.68087 -3.78876 2.23044 180 158 143
0.67332 -3.80848 2.23375 177 160 146
0.66572 -3.82831 2.23707 177 159 145
0.65809 -3.84825 2.24042 177 158 151
0.65041 -3.86830 2.24378 180 158 151
0.64270 -3.88847 2.24716 179 164 153
0.63493 -3.90874 2.25056 181 166 145
0.62713 -3.92913 2.25398 180 165 144
0.61928 -3.94963 2.25741 176 158 143
0.90233 -3.23393 2.11869 192 175 168
0.89593 -3.25071 2.12145 194 174 169
0.88950 -3.26758 2.12423 199 174 165
0.88303 -3.28454 2.12703 193 173 160
0.87653 -3.30158 2.12984 191 173 160
0.86999 -3.31871 2.13266 192 173 155
0.86343 -3.33592 2.13550 190 171 155
0.85682 -3.35323 2.13835 188 167 155
0.85019 -3.37063 2.14122 186 165 157
0.84352 -3.38811 2.14410 185 166 155
0.83681 -3.40569 2.14700 183 164 153
0.83007 -3.42336 2.14991 185 164 152
0.82330 -3.44112 2.15284 184 165 161
0.81649 -3.45897 2.15578 186 167 162
0.80964 -3.47692 2.15874 184 166 150
0.80276 -3.49497 2.16171 184 164 142
0.79584 -3.51310 2.16470 184 167 154
0.78888 -3.53134 2.16771 183 168 158
0.78189 -3.54967 2.17073 183 168 150
0.77486 -3.56810 2.17376 183 166 157
0.76779 -3.58663 2.17682 182 166 155
0.76068 -3.60526 2.17989 182 166 153
0.75354 -3.62398 2.18298 182 163 150
0.74636 -3.64281 2.18608 177 160 142
0.73914 -3.66174 2.18920 180 158 154
0.73188 -3.68077 2.19234 184 159 152
0.72458 -3.69991 2.19549 182 160 156
0.71724 -3.71915 2.19866 179 160 150
0.70986 -3.73849 2.20185 182 161 150
0.70244 -3.75795 2.20505 185 165 152
0.69498 -3.77750 2.20828 182 163 151
0.68747 -3.79717 2.21152 180 161 144
0.67993 -3.81694 2.21478 176 159 143
0.67235 -3.83683 2.21806 177 161 149
0.66472 -3.85682 2.22135 178 161 156
0.65705 -3.87693 2.22466 180 162 150
0.64934 -3.89714 2.22800 177 165 147
0.64158 -3.91748 2.23135 178 165 147
0.63378 -3.93792 2.23472 178 163 147
0.62594 -3.95848 2.23811 176 157 145
0.61805 -3.97916 2.24151 177 156 140
0.92773 -3.19095 2.09298 188 165 159
0.92143 -3.20752 2.09566 190 168 163
0.91510 -3.22417 2.09836 192 174 169
0.90874 -3.24091 2.10107 194 175 172
0.90235 -3.25773 2.10380 196 175 165
0.89592 -3.27464 2.10654 197 175 163
0.88946 -3.29164 2.10929 194 174 168
0.88296 -3.30872 2.11206 193 172 166
0.87644 -3.32590 2.11484 194 173 165
0.86988 -3.34316 2.11763 191 171 158
0.86328 -3.36051 2.12044 190 167 154
0.85665 -3.37795 2.12327 186 164 155
0.84999 -3.39548 2.12611 183 164 152
0.84329 -3.41310 2.12896 181 162 148
0.83656 -3.43081 2.13183 183 163 153
0.82979 -3.44862 2.13471 183 165 156
0.82299 -3.46652 2.13761 185 168 157
0.81615 -3.48451 2.14053 186 167 157
0.80927 -3.50260 2.14346 185 165 151
0.80236 -3.52079 2.14640 186 168 157
0.79541 -3.53907 2.14937 185 168 158
0.78843 -3.55745 2.15234 184 167 155
0.78140 -3.57593 2.15534 184 166 158
0.77434 -3.59450 2.15834 183 166 161
0.76724 -3.61318 2.16137 185 166 156
0.76011 -3.63196 2.16441 183 164 153
0.75293 -3.65083 2.16747 181 162 151
0.74572 -3.66981 2.17054 182 160 154
0.73846 -3.68890 2.17363 182 161 148
0.73117 -3.70808 2.17674 181 162 143
0.72384 -3.72737 2.17987 181 160 147
0.71646 -3.74677 2.18301 182 159 145
0.70905 -3.76627 2.18617 184 163 150
0.70160 -3.78588 2.18934 184 164 151
0.69410 -3.80560 2.19254 182 164 138
0.68657 -3.82543 2.19575 178 158 134
0.67899 -3.84537 2.19898 178 160 149
0.67137 -3.86542 2.20223 179 159 155
0.66370 -3.88558 2.20549 182 161 149
0.65600 -3.90585 2.20877 177 163 144
0.64825 -3.92624 2.21208 179 164 149
0.64046 -3.94674 2.21540 178 165 148
0.63262 -3.96736 2.21874 177 161 141
0.62474 -3.98809 2.22209 174 158 140
0.95898 -3.13221 2.06499 201 180 164
0.95282 -3.14849 2.06758 195 175 167
0.94662 -3.16485 2.07019 191 172 167
0.94039 -3.18130 2.07280 189 170 160
0.93413 -3.19783 2.07543 189 168 156
0.92784 -3.21444 2.07808 190 169 158
0.92152 -3.23113 2.08073 192 173 170
0.91517 -3.24791 2.08340 195 176 171
0.90878 -3.26478 2.08609 196 178 164
0.90236 -3.28173 2.08879 195 176 164
0.89591 -3.29877 2.09150 195 175 168
0.88942 -3.31589 2.09422 194 173 166
0.88290 -3.33311 2.09696 192 172 164
0.87635 -3.35041 2.09972 192 169 160
0.86976 -3.36780 2.10248 193 167 155
0.86314 -3.38529 2.10527 188 164 154
0.85648 -3.40286 2.10806 185 163 152
0.84979 -3.42053 2.11087 185 162 148
0.84307 -3.43829 2.11370 184 162 153
0.83630 -3.45614 2.11654 185 164 155
0.82951 -3.47409 2.11940 185 166 157
0.82268 -3.49213 2.12227 187 168 159
0.81581 -3.51026 2.12515 185 167 159
0.80890 -3.52849 2.12805 187 165 162
0.80196 -3.54682 2.13097 186 166 156
0.79498 -3.56525 2.13390 184 166 154
0.78797 -3.58378 2.13685 184 165 155
0.78091 -3.60240 2.13982 184 167 160
0.77382 -3.62113 2.14279 182 168 159
0.76669 -3.63995 2.14579 184 166 159
0.75952 -3.65888 2.14880 183 163 157
0.75232 -3.67791 2.15183 184 159 157
0.74507 -3.69704 2.15488 179 160 154
0.73778 -3.71628 2.15794 179 161 150
0.73046 -3.73562 2.16102 180 159 152
0.72309 -3.75507 2.16411 182 156 138
0.71569 -3.77463 2.16722 185 161 150
0.70824 -3.79429 2.17035 184 164 155
0.70075 -3.81406 2.17350 182 165 139
0.69322 -3.83394 2.17666 177 161 136
0.68565 -3.85394 2.17984 178 159 144
0.67804 -3.87404 2.18304 179 160 149
0.67038 -3.89425 2.18626 180 160 148
0.66268 -3.91458 2.18949 179 161 147
0.65494 -3.93503 2.19275 182 163 152
0.64715 -3.95558 2.19602 179 163 155
0.63932 -3.97626 2.19931 177 164 142
0.63145 -3.99705 2.20262 173 158 140
0.97760 -3.10655 2.04250 200 182 167
0.97150 -3.12271 2.04502 197 176 162
0.96538 -3.13895 2.04756 194 174 160
0.95922 -3.15527 2.05011 192 173 162
0.95303 -3.17167 2.05268 192 172 166
0.94681 -3.18815 2.05525 192 172 160
0.94056 -3.20472 2.05784 190 170 157
0.93427 -3.22137 2.06044 190 170 158
0.92796 -3.23811 2.06306 193 173 167
0.92161 -3.25493 2.06569 195 177 168
0.91523 -3.27184 2.06833 194 178 164
0.90882 -3.28883 2.07099 193 177 161
0.90237 -3.30591 2.07366 195 175 163
0.89589 -3.32308 2.07634 193 174 169
0.88938 -3.34034 2.07904 191 172 164
0.88283 -3.35769 2.08175 191 170 164
0.87625 -3.37512 2.08447 191 166 158
0.86964 -3.39265 2.08721 189 164 156
0.86299 -3.41027 2.08997 184 163 153
0.85631 -3.42798 2.09273 185 163 151
0.84959 -3.44579 2.09552 184 161 155
0.84284 -3.46368 2.09831 187 162 158
0.83605 -3.48167 2.10113 186 164 162
0.82922 -3.49976 2.10395 186 167 157
0.82236 -3.51794 2.10679 186 168 158
0.81546 -3.53622 2.10965 187 166 159
0.80853 -3.55460 2.11252 185 166 156
0.80156 -3.57308 2.11541 184 165 159
0.79455 -3.59165 2.11831 185 165 160
0.78750 -3.61032 2.12123 184 165 159
0.78042 -3.62910 2.12417 180 166 159
0.77330 -3.64797 2.12712 184 166 159
0.76613 -3.66695 2.13008 182 162 157
0.75894 -3.68603 2.13306 183 159 158
0.75170 -3.70521 2.13606 181 160 157
0.74442 -3.72450 2.13908 179 159 147
0.73710 -3.74390 2.14211 180 160 154
0.72974 -3.76340 2.14516 182 158 146
0.72234 -3.78301 2.14822 183 159 153
0.71490 -3.80272 2.15130 182 162 154
0.70742 -3.82255 2.15440 182 163 146
0.69990 -3.84248 2.15751 179 163 140
0.69233 -3.86253 2.16065 179 157 137
0.68473 -3.88269 2.16380 180 161 143
0.67708 -3.90296 2.16697 179 159 146
0.66938 -3.92334 2.17015 180 160 145
0.66165 -3.94384 2.17336 180 161 144
0.65387 -3.96446 2.17658 179 161 143
0.64605 -3.98519 2.17982 177 161 144
0.63818 -4.00604 2.18308 174 157 141
0.99005 -3.09712 2.02263 197 180 166
0.98399 -3.11323 2.02510 196 178 166
0.97790 -3.12943 2.02759 194 176 164
0.97178 -3.14570 2.03008 194 176 159
0.96563 -3.16206 2.03259 193 175 158
0.95945 -3.17850 2.03512 193 174 162
0.95324 -3.19503 2.03765 194 173 159
0.94699 -3.21164 2.04020 193 171 156
0.94072 -3.22833 2.04276 192 169 158
0.93441 -3.24511 2.04534 194 171 164
0.92807 -3.26197 2.04792 194 176 166
0.92170 -3.27892 2.05052 194 179 166
0.91529 -3.29596 2.05314 194 177 163
0.90886 -3.31308 2.05576 195 174 163
0.90238 -3.33029 2.05841 193 174 169
0.89588 -3.34759 2.06106 191 173 168
0.88934 -3.36498 2.06373 189 171 170
0.88277 -3.38246 2.06641 188 169 160
0.87616 -3.40004 2.06911 188 165 157
0.86952 -3.41770 2.07182 186 162 154
0.86285 -3.43546 2.07454 183 162 153
0.85613 -3.45330 2.07728 184 163 156
0.84939 -3.47125 2.08003 185 162 156
0.84261 -3.48929 2.08280 184 163 157
0.83579 -3.50742 2.08558 184 164 158
0.82893 -3.52565 2.08838 186 165 161
0.82204 -3.54398 2.09119 186 166 153
0.81512 -3.56240 2.09402 184 165 159
0.80815 -3.58092 2.09686 184 164 157
0.80115 -3.59955 2.09972 186 165 157
0.79411 -3.61827 2.10259 186 164 153
0.78704 -3.63709 2.10548 183 165 155
0.77992 -3.65602 2.10838 183 165 157
0.77277 -3.67504 2.11130 181 164 154
0.76557 -3.69417 2.11424 184 161 154
0.75834 -3.71341 2.11719 182 161 156
0.75107 -3.73275 2.12016 179 161 149
0.74376 -3.75220 2.12314 181 161 150
0.73641 -3.77175 2.12614 181 159 149
0.72902 -3.79141 2.12916 180 159 151
0.72158 -3.81118 2.13219 180 162 151
0.71411 -3.83106 2.13524 182 163 150
0.70659 -3.85105 2.13831 183 163 150
0.69904 -3.87115 2.14139 181 159 141
0.69144 -3.89136 2.14450 178 160 145
0.68379 -3.91169 2.14761 179 160 148
0.67611 -3.93213 2.15075 180 160 147
0.66838 -3.95269 2.15391 179 160 150
0.66061 -3.97336 2.15708 178 162 153
0.65279 -3.99415 2.16027 177 160 144
0.64493 -4.01505 2.16348 175 155 140
0.63703 -4.03608 2.16670 170 153 133
1.01443 -3.05579 1.99799 197 184 169
1.00847 -3.07171 2.00039 193 180 169
1.00248 -3.08770 2.00280 194 181 167
0.99645 -3.10377 2.00522 197 179 164
0.99040 -3.11993 2.00765 196 178 165
0.98432 -3.13616 2.01010 194 177 166
0.97821 -3.15248 2.01256 196 175 161
0.97207 -3.16888 2.01502 196 175 160
0.96589 -3.18536 2.01751 194 175 162
0.95969 -3.20192 2.02000 195 175 160
0.95345 -3.21857 2.02251 196 174 157
0.94718 -3.23531 2.02503 193 172 158
0.94088 -3.25213 2.02756 193 172 161
0.93455 -3.26903 2.03011 193 176 164
0.92819 -3.28602 2.03267 194 178 169
0.92179 -3.30310 2.03524 195 176 161
0.91536 -3.32027 2.03782 196 174 158
0.90889 -3.33752 2.04042 194 174 164
0.90240 -3.35486 2.04303 191 173 165
0.89587 -3.37230 2.04566 188 172 166
0.88930 -3.38982 2.04830 188 170 162
0.88270 -3.40744 2.05095 190 167 159
0.87607 -3.42515 2.05362 187 161 156
0.86940 -3.44295 2.05630 182 163 157
0.86270 -3.46085 2.05899 183 167 161
0.85596 -3.47883 2.06170 184 164 154
0.84918 -3.49692 2.06442 184 162 149
0.84237 -3.51510 2.06716 183 161 151
0.83553 -3.53338 2.06991 186 163 159
0.82864 -3.55175 2.07268 185 165 153
0.82173 -3.57022 2.07546 183 164 159
0.81477 -3.58879 2.07826 183 166 153
0.80777 -3.60746 2.08107 184 168 150
0.80074 -3.62624 2.08390 185 166 148
0.79367 -3.64511 2.08674 183 164 151
0.78657 -3.66408 2.08960 183 165 157
0.77942 -3.68316 2.09247 181 165 155
0.77223 -3.70234 2.09536 182 163 148
0.76501 -3.72163 2.09826 181 162 153
0.75774 -3.74102 2.10118 178 161 152
0.75044 -3.76052 2.10412 182 160 153
0.74310 -3.78013 2.10707 182 160 148
0.73571 -3.79984 2.11004 180 158 146
0.72829 -3.81966 2.11303 178 159 151
0.72082 -3.83960 2.11603 180 165 148
0.71331 -3.85964 2.11905 179 165 147
0.70576 -3.87980 2.12208 179 162 144
0.69817 -3.90007 2.12513 178 161 145
0.69053 -3.92045 2.12820 181 159 147
0.68285 -3.94095 2.13129 181 158 145
0.67513 -3.96156 2.13439 178 159 147
0.66737 -3.98229 2.13752 179 161 148
0.65956 -4.00313 2.14066 179 160 137
0.65170 -4.02410 2.14381 175 158 137
0.64381 -4.04519 2.14699 170 154 133
1.02083 -3.06235 1.98066 194 181 173
1.01487 -3.07830 1.98302 194 178 165
1.00889 -3.09434 1.98539 196 178 163
1.00288 -3.11045 1.98777 197 179 164
0.99683 -3.12664 1.99016 195 181 166
0.99076 -3.14292 1.99256 194 180 167
0.98465 -3.15927 1.99498 196 176 162
0.97852 -3.17571 1.99741 196 175 164
0.97235 -3.19223 1.99985 194 176 168
0.96616 -3.20884 2.00230 194 176 162
0.95993 -3.22553 2.00477 194 174 162
0.95367 -3.24230 2.00725 192 172 164
0.94737 -3.25916 2.00974 192 171 164
0.94105 -3.27611 2.01224 193 173 165
0.93469 -3.29314 2.01476 195 175 169
0.92830 -3.31026 2.01729 195 175 159
0.92188 -3.32747 2.01983 194 174 159
0.91542 -3.34477 2.02238 194 174 162
0.90893 -3.36216 2.02495 191 173 163
0.90241 -3.37964 2.02754 187 172 164
0.89585 -3.39721 2.03013 188 170 167
0.88926 -3.41487 2.03274 189 169 162
0.88264 -3.43262 2.03536 187 165 156
0.87598 -3.45047 2.03800 183 163 155
0.86928 -3.46841 2.04065 183 166 158
0.86255 -3.48644 2.04331 183 165 153
0.85578 -3.50457 2.04599 184 161 150
0.84898 -3.52280 2.04869 181 161 152
0.84214 -3.54113 2.05139 184 164 154
0.83526 -3.55955 2.05412 186 167 152
0.82835 -3.57807 2.05685 186 167 156
0.82140 -3.59669 2.05960 183 167 153
0.81442 -3.61541 2.06237 181 168 154
0.80739 -3.63423 2.06515 183 168 157
0.80033 -3.65315 2.06794 182 165 152
0.79323 -3.67218 2.07075 184 165 154
0.78609 -3.69130 2.07358 182 165 155
0.77891 -3.71054 2.07642 182 164 150
0.77170 -3.72988 2.07928 182 163 155
0.76444 -3.74932 2.08215 179 161 160
0.75714 -3.76887 2.08504 182 160 166
0.74980 -3.78853 2.08794 182 159 154
0.74243 -3.80830 2.09087 181 159 153
0.73501 -3.82817 2.09380 178 158 153
0.72755 -3.84816 2.09675 180 164 148
0.72005 -3.86826 2.09972 180 164 147
0.71250 -3.88847 2.10271 180 161 151
0.70492 -3.90879 2.10571 180 160 154
0.69729 -3.92923 2.10873 183 158 148
0.68962 -3.94979 2.11177 180 158 145
0.68191 -3.97046 2.11482 176 159 148
0.67415 -3.99124 2.11789 177 160 150
0.66635 -4.01215 2.12098 180 160 136
0.65850 -4.03317 2.12409 176 159 134
0.65061 -4.05432 2.12721 170 153 132
1.02724 -3.06893 1.96328 196 182 170
1.02130 -3.08492 1.96559 198 177 163
1.01532 -3.10099 1.96792 198 177 163
1.00931 -3.11714 1.97026 197 179 167
1.00328 -3.13337 1.97261 195 182 171
0.99721 -3.14969 1.97498 195 180 169
0.99112 -3.16608 1.97735 195 177 164
0.98499 -3.18256 1.97974 193 176 166
0.97883 -3.19913 1.98214 193 176 169
0.97264 -3.21577 1.98455 194 175 163
0.96642 -3.23250 1.98698 193 172 162
0.96017 -3.24932 1.98941 192 170 164
0.95388 -3.26622 1.99186 192 170 166
0.94757 -3.28321 1.99432 191 171 167
0.94122 -3.30028 1.99680 193 174 169
0.93483 -3.31745 1.99928 193 177 163
0.92842 -3.33470 2.00178 192 175 162
0.92197 -3.35204 2.00430 193 174 156
0.91549 -3.36947 2.00682 193 172 161
0.90897 -3.38700 2.00936 193 171 163
0.90242 -3.40461 2.01191 191 170 166
0.89584 -3.42231 2.01448 190 171 162
0.88922 -3.44011 2.01706 188 168 157
0.88257 -3.45801 2.01965 183 165 151
0.87588 -3.47599 2.02226 183 164 148
0.86916 -3.49407 2.02487 183 164 152
0.86240 -3.51225 2.02751 183 162 151
0.85560 -3.53053 2.03016 182 163 152
0.84877 -3.54890 2.03282 184 167 153
0.84190 -3.56737 2.03549 185 170 155
0.83500 -3.58594 2.03818 187 168 161
0.82806 -3.60460 2.04089 185 167 155
0.82108 -3.62337 2.04361 182 167 157
0.81406 -3.64224 2.04634 185 166 161
0.80701 -3.66122 2.04909 183 166 153
0.79991 -3.68029 2.05186 183 165 151
0.79278 -3.69947 2.05463 181 165 154
0.78561 -3.71876 2.05743 182 163 154
0.77840 -3.73815 2.06024 183 162 157
0.77115 -3.75764 2.06306 180 160 162
0.76386 -3.77725 2.06590 181 159 162
0.75653 -3.79696 2.06876 183 160 150
0.74916 -3.81678 2.07163 183 163 154
0.74175 -3.83671 2.07452 177 159 154
0.73430 -3.85675 2.07742 179 162 150
0.72681 -3.87690 2.08034 181 163 147
0.71927 -3.89717 2.08328 183 160 152
0.71169 -3.91755 2.08623 182 159 154
0.70407 -3.93805 2.08920 179 157 147
0.69641 -3.95866 2.09219 177 157 143
0.68870 -3.97938 2.09519 176 158 147
0.68095 -4.00023 2.09821 176 160 149
0.67315 -4.02119 2.10125 177 159 139
0.66531 -4.04227 2.10430 175 158 132
0.65743 -4.06348 2.10737 172 155 128
1.03368 -3.07552 1.94585 197 181 172
1.02774 -3.09155 1.94812 198 177 165
1.02177 -3.10766 1.95041 198 177 163
1.01577 -3.12385 1.95271 196 179 167
1.00974 -3.14013 1.95502 195 181 174
1.00369 -3.15648 1.95735 196 179 174
0.99760 -3.17292 1.95968 195 177 167
0.99148 -3.18943 1.96203 195 176 168
0.98533 -3.20604 1.96438 195 176 168
0.97914 -3.22272 1.96675 196 174 163
0.97293 -3.23950 1.96914 195 171 161
0.96669 -3.25635 1.97153 193 171 164
0.96041 -3.27330 1.97394 191 171 168
0.95410 -3.29033 1.97636 189 170 163
0.94776 -3.30745 1.97879 191 173 162
0.94138 -3.32465 1.98123 193 176 163
0.93498 -3.34195 1.98369 193 177 163
0.92854 -3.35933 1.98616 195 176 155
0.92206 -3.37681 1.98864 193 172 161
0.91555 -3.39438 1.99113 193 171 163
0.90901 -3.41203 1.99364 193 170 164
0.90244 -3.42978 1.99616 191 172 161
0.89583 -3.44763 1.99870 189 170 158
0.88918 -3.46557 2.00125 185 166 151
0.88250 -3.48360 2.00381 184 164 147
0.87578 -3.50173 2.00638 184 165 152
0.86903 -3.51995 2.00897 185 165 153
0.86225 -3.53827 2.01157 183 165 155
0.85542 -3.55669 2.01419 184 166 155
0.84856 -3.57521 2.01682 184 168 159
0.84166 -3.59383 2.01946 185 168 164
0.83473 -3.61255 2.02212 184 167 155
0.82776 -3.63136 2.02479 183 165 152
0.82075 -3.65028 2.02748 185 166 158
0.81370 -3.66931 2.03018 184 167 152
0.80662 -3.68843 2.03290 183 164 153
0.79949 -3.70766 2.03563 182 164 156
0.79233 -3.72700 2.03838 185 164 157
0.78513 -3.74644 2.04114 184 163 152
0.77789 -3.76599 2.04391 181 161 156
0.77060 -3.78565 2.04671 181 160 157
0.76328 -3.80541 2.04951 180 161 150
0.75592 -3.82528 2.05234 182 163 153
0.74852 -3.84527 2.05518 180 160 152
0.74107 -3.86537 2.05803 180 162 147
0.73358 -3.88558 2.06090 182 164 147
0.72606 -3.90590 2.06379 183 161 154
0.71849 -3.92633 2.06669 181 161 151
0.71087 -3.94689 2.06961 175 153 146
0.70322 -3.96755 2.07254 176 155 138
0.69552 -3.98834 2.07550 176 157 143
0.68777 -4.00924 2.07846 177 159 147
0.67998 -4.03026 2.08145 175 158 147
0.67215 -4.05141 2.08445 173 157 135
0.66427 -4.07267 2.08747 171 154 136
1.04603 -3.06615 1.92614 200 184 168
1.04013 -3.08214 1.92837 192 175 172
1.03420 -3.09821 1.93061 194 174 167
1.02824 -3.11436 1.93285 196 178 166
1.02225 -3.13059 1.93511 194 179 170
1.01623 -3.14690 1.93738 194 181 176
1.01018 -3.16329 1.93966 195 182 174
1.00409 -3.17977 1.94196 196 180 170
0.99798 -3.19632 1.94426 197 177 172
0.99184 -3.21297 1.94658 196 175 167
0.98567 -3.22970 1.94890 195 174 161
0.97946 -3.24651 1.95125 195 173 159
0.97322 -3.26341 1.95360 193 173 164
0.96695 -3.28039 1.95596 191 173 166
0.96065 -3.29747 1.95834 191 171 159
0.95432 -3.31463 1.96073 192 171 156
0.94795 -3.33188 1.96313 193 172 159
0.94155 -3.34922 1.96554 194 176 162
0.93512 -3.36665 1.96796 195 177 162
0.92865 -3.38417 1.97040 192 173 166
0.92215 -3.40178 1.97285 190 172 168
0.91562 -3.41948 1.97532 192 170 167
0.90905 -3.43728 1.97779 192 172 160
0.90245 -3.45517 1.98028 191 172 161
0.89581 -3.47315 1.98279 188 168 154
0.88914 -3.49123 1.98530 185 166 152
0.88243 -3.50940 1.98783 185 165 152
0.87569 -3.52768 1.99038 187 165 155
0.86891 -3.54604 1.99293 185 164 155
0.86209 -3.56451 1.99550 185 164 152
0.85524 -3.58308 1.99809 184 167 156
0.84835 -3.60174 2.00068 184 167 160
0.84142 -3.62051 2.00330 184 168 157
0.83446 -3.63938 2.00592 183 165 156
0.82746 -3.65835 2.00856 185 165 156
0.82042 -3.67742 2.01122 184 165 152
0.81334 -3.69660 2.01389 182 163 157
0.80623 -3.71588 2.01657 183 164 158
0.79907 -3.73527 2.01927 187 168 156
0.79188 -3.75476 2.02198 185 166 149
0.78464 -3.77436 2.02471 182 162 155
0.77737 -3.79407 2.02745 181 159 162
0.77005 -3.81389 2.03021 180 160 153
0.76270 -3.83382 2.03298 182 161 151
0.75530 -3.85386 2.03577 181 161 144
0.74786 -3.87401 2.03858 179 163 132
0.74038 -3.89427 2.04140 180 163 144
0.73286 -3.91465 2.04423 180 162 150
0.72530 -3.93514 2.04709 180 161 146
0.71769 -3.95575 2.04995 173 153 142
0.71004 -3.97648 2.05284 175 153 138
0.70235 -3.99732 2.05574 175 154 144
0.69462 -4.01828 2.05866 178 156 144
0.68683 -4.03936 2.06159 175 157 144
0.67901 -4.06056 2.06454 175 155 133
0.67114 -4.08189 2.06751 173 154 132
0.66322 -4.10333 2.07049 171 150 129
1.06419 -3.04093 1.90432 205 190 164
1.05835 -3.05680 1.90648 198 180 167
1.05249 -3.07274 1.90866 191 175 167
1.04659 -3.08877 1.91084 190 172 163
1.04067 -3.10488 1.91304 193 174 163
1.03472 -3.12107 1.91525 195 179 170
1.02874 -3.13734 1.91746 194 180 174
1.02273 -3.15369 1.91969 194 180 175
1.01668 -3.17012 1.92193 196 181 170
1.01061 -3.18663 1.92418 196 180 170
1.00451 -3.20323 1.92645 196 176 172
0.99837 -3.21992 1.92872 195 173 167
0.99221 -3.23669 1.93101 193 174 161
0.98601 -3.25354 1.93330 194 176 158
0.97978 -3.27048 1.93561 193 174 161
0.97352 -3.28751 1.93793 192 173 162
0.96723 -3.30463 1.94027 191 172 158
0.96090 -3.32183 1.94261 191 170 155
0.95454 -3.33912 1.94497 191 170 158
0.94815 -3.35651 1.94734 192 174 162
0.94172 -3.37398 1.94972 193 175 167
0.93527 -3.39154 1.95212 193 175 171
0.92877 -3.40920 1.95452 191 173 168
0.92225 -3.42695 1.95694 194 172 166
0.91569 -3.44479 1.95937 194 171 159
0.90909 -3.46272 1.96182 193 173 162
0.90246 -3.48075 1.96428 189 171 156
0.89580 -3.49888 1.96675 186 166 152
0.88910 -3.51710 1.96923 184 165 149
0.88236 -3.53542 1.97173 186 166 152
0.87559 -3.55384 1.97424 184 164 151
0.86878 -3.57235 1.97676 184 165 148
0.86194 -3.59097 1.97930 184 166 152
0.85506 -3.60968 1.98185 186 166 156
0.84814 -3.62850 1.98442 185 168 159
0.84118 -3.64742 1.98700 183 166 160
0.83419 -3.66644 1.98959 186 164 159
0.82716 -3.68556 1.99219 184 163 162
0.82009 -3.70479 1.99482 181 163 161
0.81298 -3.72412 1.99745 182 165 159
0.80583 -3.74356 2.00010 185 169 154
0.79864 -3.76311 2.00277 184 165 149
0.79142 -3.78276 2.00544 183 160 149
0.78415 -3.80252 2.00814 182 157 149
0.77684 -3.82240 2.01085 182 160 150
0.76950 -3.84238 2.01357 181 162 150
0.76211 -3.86247 2.01631 181 163 152
0.75468 -3.88268 2.01907 177 163 135
0.74721 -3.90300 2.02184 178 162 141
0.73969 -3.92343 2.02462 180 161 146
0.73214 -3.94398 2.02742 181 159 146
0.72454 -3.96465 2.03024 177 153 141
0.71690 -3.98543 2.03307 176 150 139
0.70921 -4.00633 2.03592 172 152 141
0.70148 -4.02735 2.03879 175 154 137
0.69371 -4.04849 2.04167 174 153 142
0.68589 -4.06975 2.04457 176 153 137
0.67803 -4.09114 2.04748 174 151 129
0.67012 -4.11264 2.05041 173 151 132
0.66217 -4.13428 2.05336 170 149 125
0.65417 -4.15603 2.05633 168 148 130
1.07645 -3.03164 1.88476 197 180 162
1.07065 -3.04746 1.88687 192 176 166
1.06482 -3.06337 1.88899 191 174 164
1.05897 -3.07936 1.89112 192 172 161
1.05308 -3.09542 1.89327 192 172 157
1.04717 -3.11157 1.89542 192 174 160
1.04122 -3.12779 1.89759 193 179 171
1.03525 -3.14410 1.89977 195 182 176
1.02924 -3.16049 1.90195 197 181 172
1.02321 -3.17697 1.90415 197 180 168
1.01714 -3.19352 1.90636 196 180 168
1.01105 -3.21016 1.90858 194 178 169
1.00492 -3.22689 1.91081 193 174 169
0.99876 -3.24370 1.91306 193 173 164
