ply
format ascii 1.0
element face 0
property list uchar int vertex_indices
element vertex 1237
property float x
property float y
property float z
property uchar diffuse_red
property uchar diffuse_green
property uchar diffuse_blue
end_header
0.24214 -0.62409 -0.46596 254 254 254
0.24809 -0.62644 -0.46300 254 254 254
0.25405 -0.62878 -0.46005 254 254 254
0.26000 -0.63112 -0.45710 254 254 254
0.26594 -0.63347 -0.45415 254 254 254
0.27188 -0.63581 -0.45121 254 254 254
0.27782 -0.63815 -0.44826 254 254 254
0.28376 -0.64049 -0.44532 254 254 254
0.28969 -0.64282 -0.44238 254 254 254
0.29561 -0.64516 -0.43944 254 254 254
0.30154 -0.64749 -0.43650 254 254 254
0.30746 -0.64983 -0.43357 254 254 254
0.31338 -0.65216 -0.43063 254 254 254
0.31929 -0.65449 -0.42770 254 254 254
0.32520 -0.65682 -0.42477 254 254 254
0.33111 -0.65915 -0.42184 254 254 254
-0.37515 -0.38935 -0.76409 253 253 253
-0.36885 -0.39183 -0.76097 253 253 252
-0.36255 -0.39431 -0.75785 253 252 251
-0.35626 -0.39679 -0.75474 253 253 252
-0.34997 -0.39926 -0.75162 252 253 253
-0.34369 -0.40174 -0.74851 252 252 252
-0.33741 -0.40421 -0.74540 252 252 252
-0.33113 -0.40668 -0.74229 252 252 252
-0.32486 -0.40915 -0.73918 252 252 252
-0.31859 -0.41162 -0.73607 252 251 251
-0.31233 -0.41408 -0.73297 252 251 251
-0.30607 -0.41655 -0.72986 252 250 251
-0.29981 -0.41901 -0.72676 252 250 251
-0.29356 -0.42147 -0.72367 251 250 251
-0.28731 -0.42393 -0.72057 251 250 251
-0.28106 -0.42639 -0.71747 251 250 251
-0.27482 -0.42885 -0.71438 251 249 251
-0.26858 -0.43130 -0.71129 251 249 251
-0.26234 -0.43376 -0.70820 251 249 251
-0.25611 -0.43621 -0.70511 251 249 251
-0.24988 -0.43866 -0.70203 251 249 251
-0.24366 -0.44111 -0.69894 250 249 251
-0.23744 -0.44356 -0.69586 250 249 251
-0.23122 -0.44601 -0.69278 250 249 251
-0.22501 -0.44845 -0.68970 250 249 251
-0.21880 -0.45090 -0.68662 250 249 251
-0.21260 -0.45334 -0.68355 250 249 250
-0.20639 -0.45578 -0.68048 250 249 250
-0.20020 -0.45822 -0.67741 250 249 250
-0.19400 -0.46066 -0.67434 250 249 250
-0.18781 -0.46309 -0.67127 250 249 250
-0.18162 -0.46553 -0.66820 250 249 250
-0.17544 -0.46796 -0.66514 250 249 250
-0.16926 -0.47040 -0.66208 250 249 250
-0.16308 -0.47283 -0.65902 250 249 250
-0.15691 -0.47526 -0.65596 250 249 250
-0.15074 -0.47769 -0.65290 250 249 250
-0.14458 -0.48011 -0.64985 250 249 250
-0.13841 -0.48254 -0.64679 250 249 250
-0.13226 -0.48496 -0.64374 250 249 250
-0.12610 -0.48738 -0.64069 250 249 250
-0.11995 -0.48980 -0.63765 250 249 250
-0.11381 -0.49222 -0.63460 250 249 250
-0.10766 -0.49464 -0.63156 250 249 250
-0.10152 -0.49706 -0.62851 250 249 250
-0.09539 -0.49947 -0.62547 250 249 250
-0.08925 -0.50189 -0.62243 250 249 250
-0.08312 -0.50430 -0.61940 250 249 250
-0.07700 -0.50671 -0.61636 250 249 251
-0.07088 -0.50912 -0.61333 250 249 251
-0.06476 -0.51153 -0.61030 250 249 251
-0.05864 -0.51394 -0.60727 250 249 251
-0.05253 -0.51634 -0.60424 250 249 251
-0.04643 -0.51875 -0.60121 250 249 251
-0.04032 -0.52115 -0.59819 250 249 251
-0.03422 -0.52355 -0.59517 250 249 251
-0.02813 -0.52595 -0.59215 250 249 251
-0.02203 -0.52835 -0.58913 250 249 251
-0.01594 -0.53074 -0.58611 250 249 251
-0.00986 -0.53314 -0.58309 251 249 251
-0.00378 -0.53553 -0.58008 251 249 251
0.00230 -0.53793 -0.57707 251 249 251
0.00838 -0.54032 -0.57406 251 249 251
0.01445 -0.54271 -0.57105 251 250 251
0.02052 -0.54510 -0.56804 251 250 251
0.02658 -0.54748 -0.56504 251 250 251
0.03264 -0.54987 -0.56204 251 250 251
0.03870 -0.55225 -0.55903 251 250 251
0.04475 -0.55464 -0.55603 251 250 250
0.05080 -0.55702 -0.55304 251 250 251
0.05685 -0.55940 -0.55004 251 250 251
0.06289 -0.56178 -0.54705 252 250 251
0.06893 -0.56415 -0.54405 252 250 251
0.07497 -0.56653 -0.54106 252 251 251
0.08100 -0.56890 -0.53807 252 251 251
0.08703 -0.57128 -0.53509 252 251 251
0.09305 -0.57365 -0.53210 252 251 252
0.09908 -0.57602 -0.52912 252 252 252
0.10509 -0.57839 -0.52614 252 252 252
0.11111 -0.58076 -0.52316 252 252 252
0.11712 -0.58312 -0.52018 252 252 252
0.12313 -0.58549 -0.51720 252 252 253
0.12913 -0.58785 -0.51422 253 253 253
0.13513 -0.59021 -0.51125 253 253 253
0.14113 -0.59257 -0.50828 253 253 253
0.14712 -0.59493 -0.50531 253 253 253
0.15311 -0.59729 -0.50234 253 253 254
0.15910 -0.59965 -0.49938 254 254 254
0.16508 -0.60200 -0.49641 254 254 254
0.17106 -0.60436 -0.49345 254 254 254
0.17704 -0.60671 -0.49049 254 254 254
0.18301 -0.60906 -0.48753 254 254 254
0.18898 -0.61141 -0.48457 254 254 254
0.19495 -0.61376 -0.48161 254 254 254
0.20091 -0.61610 -0.47866 254 254 254
0.20687 -0.61845 -0.47571 254 254 254
0.21283 -0.62079 -0.47275 254 254 254
0.21878 -0.62314 -0.46981 254 254 254
0.22473 -0.62548 -0.46686 254 254 254
0.23067 -0.62782 -0.46391 254 254 254
0.23661 -0.63016 -0.46097 254 254 254
0.24255 -0.63249 -0.45803 254 254 254
0.24849 -0.63483 -0.45509 254 254 254
0.25442 -0.63716 -0.45215 254 254 254
0.26035 -0.63950 -0.44921 254 254 254
0.26627 -0.64183 -0.44627 254 254 254
0.27219 -0.64416 -0.44334 254 254 254
0.27811 -0.64649 -0.44041 254 254 254
0.28402 -0.64882 -0.43748 254 254 254
0.28993 -0.65114 -0.43455 254 254 254
0.29584 -0.65347 -0.43162 254 254 254
0.30174 -0.65579 -0.42870 254 254 254
0.30764 -0.65812 -0.42577 254 254 254
0.31354 -0.66044 -0.42285 254 254 254
0.31944 -0.66276 -0.41993 254 254 254
-0.37880 -0.39635 -0.75800 253 253 253
-0.37253 -0.39882 -0.75489 253 253 252
-0.36625 -0.40129 -0.75178 253 253 252
-0.35998 -0.40375 -0.74868 252 252 253
-0.35371 -0.40622 -0.74558 252 252 252
-0.34745 -0.40868 -0.74247 252 252 252
-0.34119 -0.41114 -0.73937 252 252 252
-0.33493 -0.41360 -0.73628 252 252 252
-0.32868 -0.41606 -0.73318 252 252 252
-0.32243 -0.41852 -0.73009 252 251 251
-0.31618 -0.42097 -0.72699 252 251 251
-0.30994 -0.42343 -0.72390 252 250 251
-0.30370 -0.42588 -0.72081 252 250 251
-0.29747 -0.42833 -0.71773 251 250 251
-0.29123 -0.43078 -0.71464 251 250 251
-0.28501 -0.43323 -0.71156 251 250 251
-0.27878 -0.43568 -0.70848 251 249 251
-0.27256 -0.43813 -0.70540 251 249 251
-0.26635 -0.44057 -0.70232 251 249 251
-0.26014 -0.44301 -0.69924 251 249 251
-0.25393 -0.44545 -0.69617 251 249 251
-0.24772 -0.44789 -0.69310 250 249 251
-0.24152 -0.45033 -0.69003 250 249 251
-0.23532 -0.45277 -0.68696 250 249 251
-0.22913 -0.45521 -0.68389 250 249 251
-0.22294 -0.45764 -0.68083 250 249 251
-0.21675 -0.46007 -0.67776 250 249 250
-0.21057 -0.46250 -0.67470 250 249 250
-0.20439 -0.46493 -0.67164 250 249 250
-0.19821 -0.46736 -0.66859 250 249 250
-0.19204 -0.46979 -0.66553 250 249 250
-0.18587 -0.47221 -0.66248 250 249 250
-0.17971 -0.47464 -0.65942 250 249 250
-0.17355 -0.47706 -0.65637 250 249 250
-0.16739 -0.47948 -0.65332 250 249 250
-0.16124 -0.48190 -0.65028 250 249 250
-0.15509 -0.48432 -0.64723 250 249 250
-0.14894 -0.48674 -0.64419 250 249 250
-0.14280 -0.48915 -0.64115 250 249 250
-0.13666 -0.49157 -0.63811 250 249 250
-0.13052 -0.49398 -0.63507 250 249 250
-0.12439 -0.49639 -0.63203 250 249 250
-0.11826 -0.49880 -0.62900 250 249 250
-0.11214 -0.50121 -0.62597 250 249 250
-0.10601 -0.50362 -0.62294 250 249 250
-0.09990 -0.50602 -0.61991 250 249 250
-0.09378 -0.50843 -0.61688 250 249 250
-0.08767 -0.51083 -0.61385 250 249 250
-0.08156 -0.51323 -0.61083 250 249 251
-0.07546 -0.51563 -0.60781 250 249 251
-0.06936 -0.51803 -0.60479 250 249 251
-0.06327 -0.52043 -0.60177 250 249 251
-0.05717 -0.52282 -0.59875 250 249 251
-0.05108 -0.52522 -0.59574 250 249 251
-0.04500 -0.52761 -0.59273 250 249 251
-0.03892 -0.53000 -0.58971 250 249 251
-0.03284 -0.53239 -0.58670 250 249 251
-0.02676 -0.53478 -0.58370 250 249 251
-0.02069 -0.53717 -0.58069 250 249 251
-0.01462 -0.53955 -0.57769 251 249 251
-0.00856 -0.54194 -0.57468 251 249 251
-0.00250 -0.54432 -0.57168 251 249 251
0.00356 -0.54670 -0.56868 251 249 251
0.00961 -0.54908 -0.56569 251 250 251
0.01566 -0.55146 -0.56269 251 250 251
0.02171 -0.55384 -0.55970 251 250 251
0.02775 -0.55622 -0.55671 251 250 251
0.03379 -0.55859 -0.55372 251 250 251
0.03982 -0.56096 -0.55073 251 250 250
0.04586 -0.56334 -0.54774 251 250 251
0.05188 -0.56571 -0.54476 251 250 251
0.05791 -0.56808 -0.54177 252 250 251
0.06393 -0.57044 -0.53879 252 250 251
0.06995 -0.57281 -0.53581 252 251 251
0.07596 -0.57517 -0.53283 252 251 251
0.08198 -0.57754 -0.52986 252 251 251
0.08798 -0.57990 -0.52688 252 251 252
0.09399 -0.58226 -0.52391 252 252 252
0.09999 -0.58462 -0.52094 252 252 252
0.10599 -0.58698 -0.51797 252 252 252
0.11198 -0.58934 -0.51500 252 252 252
0.11797 -0.59169 -0.51204 252 252 253
0.12396 -0.59405 -0.50907 253 253 253
0.12994 -0.59640 -0.50611 253 253 253
0.13592 -0.59875 -0.50315 253 253 253
0.14189 -0.60110 -0.50019 253 253 253
0.14787 -0.60345 -0.49723 253 253 254
0.15384 -0.60580 -0.49428 254 254 254
0.15980 -0.60814 -0.49132 254 254 254
0.16576 -0.61049 -0.48837 254 254 254
0.17172 -0.61283 -0.48542 254 254 254
0.17768 -0.61517 -0.48247 254 254 254
0.18363 -0.61751 -0.47953 254 254 254
0.18958 -0.61985 -0.47658 254 254 254
0.19552 -0.62219 -0.47364 254 254 254
0.20147 -0.62452 -0.47070 254 254 254
0.20740 -0.62686 -0.46776 254 254 254
0.21334 -0.62919 -0.46482 254 254 254
0.21927 -0.63153 -0.46188 254 254 254
0.22520 -0.63386 -0.45895 254 254 254
0.23112 -0.63619 -0.45601 254 254 254
0.23704 -0.63851 -0.45308 254 254 254
0.24296 -0.64084 -0.45015 254 254 254
0.24887 -0.64317 -0.44722 254 254 254
0.25479 -0.64549 -0.44430 254 254 254
0.26069 -0.64781 -0.44137 254 254 254
0.26660 -0.65014 -0.43845 254 254 254
0.27250 -0.65246 -0.43553 254 254 254
0.27839 -0.65477 -0.43261 254 254 254
0.28429 -0.65709 -0.42969 254 254 254
0.29018 -0.65941 -0.42677 254 254 254
0.29606 -0.66172 -0.42386 254 254 254
0.30195 -0.66404 -0.42094 254 254 254
0.30783 -0.66635 -0.41803 254 254 254
0.31371 -0.66866 -0.41512 254 254 254
-0.38244 -0.40330 -0.75195 253 253 251
-0.37618 -0.40576 -0.74885 253 250 245
-0.36992 -0.40822 -0.74575 252 251 249
-0.36367 -0.41067 -0.74266 252 252 253
-0.35742 -0.41313 -0.73957 252 252 252
-0.35118 -0.41558 -0.73648 252 252 252
-0.34494 -0.41803 -0.73339 252 252 252
-0.33870 -0.42048 -0.73031 252 252 252
-0.33246 -0.42293 -0.72722 252 252 251
-0.32623 -0.42538 -0.72414 252 251 251
-0.32001 -0.42782 -0.72106 252 251 251
-0.31378 -0.43027 -0.71798 252 251 251
-0.30757 -0.43271 -0.71490 252 250 251
-0.30135 -0.43515 -0.71183 251 250 251
-0.29514 -0.43759 -0.70875 251 250 251
-0.28893 -0.44003 -0.70568 251 250 251
-0.28273 -0.44247 -0.70261 251 249 251
-0.27652 -0.44490 -0.69954 251 249 251
-0.27033 -0.44734 -0.69648 251 249 251
-0.26413 -0.44977 -0.69341 251 249 251
-0.25794 -0.45220 -0.69035 251 249 251
-0.25176 -0.45463 -0.68729 250 249 251
-0.24558 -0.45706 -0.68423 250 249 251
-0.23940 -0.45949 -0.68118 250 249 251
-0.23322 -0.46192 -0.67812 250 249 251
-0.22705 -0.46434 -0.67507 250 249 251
-0.22088 -0.46676 -0.67202 250 249 250
-0.21472 -0.46918 -0.66897 250 249 250
-0.20856 -0.47160 -0.66592 250 249 250
-0.20240 -0.47402 -0.66287 250 249 250
-0.19625 -0.47644 -0.65983 250 249 250
-0.19010 -0.47886 -0.65678 250 249 250
-0.18395 -0.48127 -0.65374 250 249 250
-0.17781 -0.48368 -0.65071 250 249 250
-0.17167 -0.48609 -0.64767 250 249 250
-0.16553 -0.48850 -0.64463 250 249 250
-0.15940 -0.49091 -0.64160 250 249 250
-0.15327 -0.49332 -0.63857 250 249 250
-0.14715 -0.49573 -0.63554 250 249 250
-0.14103 -0.49813 -0.63251 250 249 250
-0.13491 -0.50053 -0.62948 250 249 250
-0.12880 -0.50294 -0.62646 250 249 250
-0.12269 -0.50534 -0.62343 250 249 250
-0.11658 -0.50773 -0.62041 250 249 250
-0.11048 -0.51013 -0.61739 250 249 250
-0.10438 -0.51253 -0.61438 250 249 250
-0.09828 -0.51492 -0.61136 250 249 250
-0.09219 -0.51732 -0.60835 250 249 250
-0.08610 -0.51971 -0.60533 250 249 251
-0.08002 -0.52210 -0.60232 250 249 251
-0.07393 -0.52449 -0.59931 250 249 251
-0.06786 -0.52687 -0.59631 250 249 251
-0.06178 -0.52926 -0.59330 250 249 251
-0.05571 -0.53165 -0.59030 250 249 251
-0.04964 -0.53403 -0.58730 250 249 251
-0.04358 -0.53641 -0.58430 250 249 251
-0.03752 -0.53879 -0.58130 250 249 251
-0.03146 -0.54117 -0.57830 250 249 251
-0.02541 -0.54355 -0.57531 250 249 251
-0.01936 -0.54592 -0.57231 251 249 251
-0.01332 -0.54830 -0.56932 251 249 251
-0.00727 -0.55067 -0.56633 251 249 251
-0.00123 -0.55305 -0.56335 251 249 251
0.00480 -0.55542 -0.56036 251 250 251
0.01083 -0.55779 -0.55737 251 250 251
0.01686 -0.56015 -0.55439 251 250 251
0.02289 -0.56252 -0.55141 251 250 251
0.02891 -0.56489 -0.54843 251 250 251
0.03493 -0.56725 -0.54545 251 250 250
0.04094 -0.56961 -0.54248 251 250 251
0.04695 -0.57197 -0.53951 251 250 251
0.05296 -0.57433 -0.53653 252 250 251
0.05896 -0.57669 -0.53356 252 250 251
0.06496 -0.57905 -0.53059 252 251 251
0.07096 -0.58140 -0.52763 252 251 251
0.07695 -0.58376 -0.52466 252 251 251
0.08294 -0.58611 -0.52170 252 251 252
0.08893 -0.58846 -0.51874 252 252 252
0.09491 -0.59081 -0.51578 252 252 252
0.10089 -0.59316 -0.51282 252 252 252
0.10687 -0.59551 -0.50986 252 252 252
0.11284 -0.59786 -0.50691 252 252 253
0.11881 -0.60020 -0.50395 253 253 253
0.12478 -0.60255 -0.50100 253 253 253
0.13074 -0.60489 -0.49805 253 253 253
0.13670 -0.60723 -0.49510 253 253 253
0.14265 -0.60957 -0.49216 253 253 254
0.14860 -0.61191 -0.48921 254 254 254
0.15455 -0.61424 -0.48627 254 254 254
0.16050 -0.61658 -0.48333 254 254 254
0.16644 -0.61891 -0.48039 254 254 254
0.17238 -0.62124 -0.47745 254 254 254
0.17831 -0.62358 -0.47452 254 254 254
0.18424 -0.62591 -0.47158 254 254 254
0.19017 -0.62823 -0.46865 254 254 254
0.19610 -0.63056 -0.46572 254 254 254
0.20202 -0.63289 -0.46279 254 254 254
0.20793 -0.63521 -0.45986 254 254 254
0.21385 -0.63753 -0.45693 254 254 254
0.21976 -0.63986 -0.45401 254 254 254
0.22567 -0.64218 -0.45109 254 254 254
0.23157 -0.64450 -0.44817 254 254 254
0.23747 -0.64681 -0.44525 254 254 254
0.24337 -0.64913 -0.44233 254 254 254
0.24926 -0.65145 -0.43941 254 254 254
0.25515 -0.65376 -0.43650 254 254 254
0.26104 -0.65607 -0.43359 254 254 254
0.26692 -0.65838 -0.43068 254 254 254
0.27280 -0.66069 -0.42777 254 254 254
0.27868 -0.66300 -0.42486 254 254 254
0.28455 -0.66531 -0.42195 254 254 254
0.29042 -0.66761 -0.41905 254 254 254
0.29629 -0.66992 -0.41615 254 254 254
0.30215 -0.67222 -0.41325 254 254 254
0.30801 -0.67452 -0.41035 254 254 254
-0.38605 -0.41020 -0.74593 253 253 251
-0.37981 -0.41265 -0.74285 253 251 244
-0.37357 -0.41510 -0.73976 253 251 248
-0.36734 -0.41755 -0.73668 252 252 253
-0.36111 -0.41999 -0.73360 252 252 252
-0.35488 -0.42243 -0.73052 252 252 252
-0.34866 -0.42488 -0.72745 252 252 252
-0.34244 -0.42732 -0.72437 252 252 252
-0.33623 -0.42975 -0.72130 252 252 251
-0.33002 -0.43219 -0.71823 252 251 251
-0.32381 -0.43463 -0.71516 252 251 251
-0.31761 -0.43706 -0.71209 252 251 251
-0.31141 -0.43950 -0.70903 252 250 251
-0.30521 -0.44193 -0.70597 251 250 251
-0.29902 -0.44436 -0.70290 251 250 251
-0.29283 -0.44679 -0.69984 251 250 251
-0.28664 -0.44921 -0.69679 251 249 251
-0.28046 -0.45164 -0.69373 251 249 251
-0.27428 -0.45406 -0.69068 251 249 251
-0.26811 -0.45649 -0.68762 251 249 251
-0.26193 -0.45891 -0.68457 251 249 251
-0.25577 -0.46133 -0.68152 251 249 251
-0.24960 -0.46375 -0.67848 250 249 251
-0.24344 -0.46617 -0.67543 250 249 251
-0.23729 -0.46858 -0.67239 250 249 251
-0.23113 -0.47100 -0.66934 250 249 251
-0.22498 -0.47341 -0.66630 250 249 250
-0.21884 -0.47582 -0.66327 250 249 250
-0.21270 -0.47823 -0.66023 250 249 250
-0.20656 -0.48064 -0.65719 250 249 250
-0.20042 -0.48305 -0.65416 250 249 250
-0.19429 -0.48545 -0.65113 250 249 250
-0.18816 -0.48786 -0.64810 250 249 250
-0.18204 -0.49026 -0.64507 250 249 250
-0.17592 -0.49266 -0.64205 250 249 250
-0.16980 -0.49506 -0.63902 250 249 250
-0.16369 -0.49746 -0.63600 250 249 250
-0.15758 -0.49986 -0.63298 250 249 250
-0.15147 -0.50226 -0.62996 250 249 250
-0.14537 -0.50465 -0.62695 250 249 250
-0.13927 -0.50705 -0.62393 250 249 250
-0.13318 -0.50944 -0.62092 250 249 250
-0.12709 -0.51183 -0.61791 250 249 250
-0.12100 -0.51422 -0.61490 250 249 250
-0.11491 -0.51661 -0.61189 250 249 250
-0.10883 -0.51899 -0.60888 250 249 250
-0.10275 -0.52138 -0.60588 250 249 250
-0.09668 -0.52376 -0.60287 250 249 251
-0.09061 -0.52614 -0.59987 250 249 251
-0.08454 -0.52852 -0.59687 250 249 251
-0.07848 -0.53090 -0.59388 250 249 251
-0.07242 -0.53328 -0.59088 250 249 251
-0.06636 -0.53566 -0.58789 250 249 251
-0.06031 -0.53803 -0.58489 250 249 251
-0.05426 -0.54041 -0.58190 250 249 251
-0.04821 -0.54278 -0.57891 250 249 251
-0.04217 -0.54515 -0.57593 250 249 251
-0.03613 -0.54752 -0.57294 250 249 251
-0.03010 -0.54989 -0.56996 250 249 251
-0.02407 -0.55226 -0.56697 251 249 251
-0.01804 -0.55462 -0.56399 251 249 251
-0.01201 -0.55699 -0.56102 251 249 251
-0.00599 -0.55935 -0.55804 251 249 251
0.00002 -0.56171 -0.55506 251 250 251
0.00604 -0.56407 -0.55209 251 250 251
0.01205 -0.56643 -0.54912 251 250 251
0.01806 -0.56879 -0.54615 251 250 251
0.02406 -0.57114 -0.54318 251 250 251
0.03006 -0.57350 -0.54022 251 250 250
0.03606 -0.57585 -0.53725 251 250 251
0.04205 -0.57820 -0.53429 251 250 251
0.04804 -0.58055 -0.53133 252 250 251
0.05403 -0.58290 -0.52837 252 250 251
0.06001 -0.58525 -0.52541 252 251 251
0.06599 -0.58760 -0.52245 252 251 251
0.07196 -0.58994 -0.51950 252 251 251
0.07794 -0.59228 -0.51655 252 252 252
0.08391 -0.59463 -0.51360 252 252 252
0.08987 -0.59697 -0.51065 252 252 252
0.09583 -0.59931 -0.50770 252 252 252
0.10179 -0.60165 -0.50475 252 252 252
0.10775 -0.60398 -0.50181 252 252 253
0.11370 -0.60632 -0.49887 253 253 253
0.11965 -0.60865 -0.49593 253 253 253
0.12559 -0.61099 -0.49299 253 253 253
0.13153 -0.61332 -0.49005 253 253 253
0.13747 -0.61565 -0.48711 253 253 254
0.14341 -0.61798 -0.48418 254 254 254
0.14934 -0.62030 -0.48125 254 254 254
0.15526 -0.62263 -0.47832 254 254 254
0.16119 -0.62496 -0.47539 254 254 254
0.16711 -0.62728 -0.47246 254 254 254
0.17303 -0.62960 -0.46954 254 254 254
0.17894 -0.63192 -0.46661 254 254 254
0.18485 -0.63424 -0.46369 254 254 254
0.19076 -0.63656 -0.46077 254 254 254
0.19666 -0.63888 -0.45785 254 254 254
0.20256 -0.64119 -0.45493 254 254 254
0.20846 -0.64351 -0.45202 254 254 254
0.21435 -0.64582 -0.44910 254 254 254
0.22024 -0.64813 -0.44619 254 254 254
0.22613 -0.65044 -0.44328 254 254 254
0.23201 -0.65275 -0.44037 254 254 254
0.23789 -0.65506 -0.43747 254 254 254
0.24377 -0.65736 -0.43456 254 254 254
0.24964 -0.65967 -0.43166 254 254 254
0.25551 -0.66197 -0.42876 254 254 254
0.26138 -0.66427 -0.42586 254 254 254
0.26724 -0.66657 -0.42296 254 254 254
0.27310 -0.66887 -0.42006 254 254 254
0.27896 -0.67117 -0.41717 254 254 254
0.28481 -0.67347 -0.41427 254 254 254
0.29066 -0.67576 -0.41138 254 254 254
0.29651 -0.67806 -0.40849 254 254 254
0.30235 -0.68035 -0.40560 254 254 254
-0.38964 -0.41706 -0.73996 253 253 252
-0.38342 -0.41950 -0.73688 253 252 249
-0.37720 -0.42194 -0.73381 253 252 251
-0.37098 -0.42438 -0.73074 252 252 253
-0.36477 -0.42681 -0.72767 252 252 252
-0.35857 -0.42924 -0.72461 252 252 252
-0.35236 -0.43168 -0.72154 252 252 252
-0.34616 -0.43411 -0.71848 252 252 252
-0.33997 -0.43653 -0.71542 252 252 252
-0.33378 -0.43896 -0.71236 252 251 251
-0.32759 -0.44139 -0.70930 252 251 251
-0.32140 -0.44381 -0.70625 252 251 251
-0.31522 -0.44624 -0.70319 252 250 251
-0.30904 -0.44866 -0.70014 251 250 251
-0.30287 -0.45108 -0.69709 251 250 251
-0.29670 -0.45350 -0.69404 251 250 251
-0.29053 -0.45592 -0.69100 251 249 251
-0.28437 -0.45833 -0.68795 251 249 251
-0.27821 -0.46075 -0.68491 251 249 251
-0.27205 -0.46316 -0.68187 251 249 251
-0.26590 -0.46557 -0.67883 251 249 251
-0.25975 -0.46798 -0.67579 251 249 251
-0.25361 -0.47039 -0.67276 250 249 251
-0.24746 -0.47280 -0.66972 250 249 251
-0.24133 -0.47521 -0.66669 250 249 251
-0.23519 -0.47761 -0.66366 250 249 251
-0.22906 -0.48001 -0.66063 250 249 250
-0.22293 -0.48242 -0.65760 250 249 250
-0.21681 -0.48482 -0.65458 250 249 250
-0.21069 -0.48722 -0.65155 250 249 250
-0.20457 -0.48961 -0.64853 250 249 250
-0.19846 -0.49201 -0.64551 250 249 250
-0.19235 -0.49441 -0.64250 250 249 250
-0.18625 -0.49680 -0.63948 250 249 250
-0.18014 -0.49919 -0.63646 250 249 250
-0.17405 -0.50158 -0.63345 250 249 250
-0.16795 -0.50397 -0.63044 250 249 250
-0.16186 -0.50636 -0.62743 250 249 250
-0.15577 -0.50875 -0.62442 250 249 250
-0.14969 -0.51113 -0.62142 250 249 250
-0.14361 -0.51352 -0.61841 250 249 250
-0.13753 -0.51590 -0.61541 250 249 250
-0.13146 -0.51828 -0.61241 250 249 250
-0.12539 -0.52066 -0.60941 250 249 250
-0.11932 -0.52304 -0.60642 250 249 250
-0.11326 -0.52541 -0.60342 250 249 250
-0.10720 -0.52779 -0.60043 250 249 250
-0.10114 -0.53016 -0.59744 250 249 251
-0.09509 -0.53254 -0.59445 250 249 251
-0.08904 -0.53491 -0.59146 250 249 251
-0.08299 -0.53728 -0.58847 250 249 251
-0.07695 -0.53965 -0.58549 250 249 251
-0.07091 -0.54201 -0.58250 250 249 251
-0.06488 -0.54438 -0.57952 250 249 251
-0.05885 -0.54674 -0.57654 250 249 251
-0.05282 -0.54911 -0.57356 250 249 251
-0.04680 -0.55147 -0.57059 250 249 251
-0.04077 -0.55383 -0.56761 250 249 251
-0.03476 -0.55619 -0.56464 251 249 251
-0.02874 -0.55855 -0.56167 251 249 251
-0.02273 -0.56090 -0.55870 251 249 251
-0.01673 -0.56326 -0.55573 251 249 251
-0.01072 -0.56561 -0.55277 251 249 251
-0.00472 -0.56796 -0.54980 251 250 251
0.00127 -0.57031 -0.54684 251 250 251
0.00727 -0.57266 -0.54388 251 250 251
0.01326 -0.57501 -0.54092 251 250 251
0.01924 -0.57736 -0.53796 251 250 251
0.02523 -0.57970 -0.53501 251 250 251
0.03120 -0.58205 -0.53206 251 250 251
0.03718 -0.58439 -0.52910 251 250 251
0.04315 -0.58673 -0.52615 252 250 251
0.04912 -0.58907 -0.52320 252 250 251
0.05509 -0.59141 -0.52026 252 251 251
0.06105 -0.59375 -0.51731 252 251 251
0.06701 -0.59608 -0.51437 252 251 252
0.07296 -0.59842 -0.51143 252 252 252
0.07891 -0.60075 -0.50849 252 252 252
0.08486 -0.60308 -0.50555 252 252 252
0.09081 -0.60541 -0.50261 252 252 252
0.09675 -0.60774 -0.49968 252 252 252
0.10268 -0.61007 -0.49674 252 252 253
0.10862 -0.61240 -0.49381 253 253 253
0.11455 -0.61472 -0.49088 253 253 253
0.12048 -0.61705 -0.48795 253 253 253
0.12640 -0.61937 -0.48503 253 253 253
0.13232 -0.62169 -0.48210 253 253 254
0.13824 -0.62401 -0.47918 254 254 254
0.14415 -0.62633 -0.47626 254 254 254
0.15006 -0.62865 -0.47334 254 254 254
0.15597 -0.63096 -0.47042 254 254 254
0.16187 -0.63328 -0.46750 254 254 254
0.16778 -0.63559 -0.46459 254 254 254
0.17367 -0.63790 -0.46167 254 254 254
0.17957 -0.64021 -0.45876 254 254 254
0.18546 -0.64252 -0.45585 254 254 254
0.19134 -0.64483 -0.45295 254 254 254
0.19723 -0.64713 -0.45004 254 254 254
0.20311 -0.64944 -0.44713 254 254 254
0.20898 -0.65174 -0.44423 254 254 254
0.21486 -0.65405 -0.44133 254 254 254
0.22073 -0.65635 -0.43843 254 254 254
0.22659 -0.65865 -0.43553 254 254 254
0.23246 -0.66095 -0.43264 254 254 254
0.23832 -0.66324 -0.42974 254 254 254
0.24417 -0.66554 -0.42685 254 254 254
0.25002 -0.66783 -0.42396 254 254 254
0.25587 -0.67013 -0.42107 254 254 254
0.26172 -0.67242 -0.41818 254 254 254
0.26756 -0.67471 -0.41529 254 254 254
0.27340 -0.67700 -0.41241 254 254 254
0.27924 -0.67929 -0.40952 254 254 254
0.28507 -0.68157 -0.40664 254 254 254
0.29090 -0.68386 -0.40376 254 254 254
-0.39320 -0.42388 -0.73402 253 253 253
-0.38700 -0.42631 -0.73096 253 253 253
-0.38080 -0.42873 -0.72790 253 253 253
-0.37461 -0.43116 -0.72484 252 252 252
-0.36841 -0.43359 -0.72178 252 252 252
-0.36223 -0.43601 -0.71873 252 252 252
-0.35604 -0.43843 -0.71567 252 252 252
-0.34986 -0.44085 -0.71262 252 252 252
-0.34368 -0.44327 -0.70957 252 252 252
-0.33751 -0.44569 -0.70653 252 251 251
-0.33134 -0.44811 -0.70348 252 251 251
-0.32517 -0.45052 -0.70044 252 251 251
-0.31901 -0.45293 -0.69739 252 250 251
-0.31285 -0.45535 -0.69435 251 250 251
-0.30670 -0.45776 -0.69132 251 250 251
-0.30054 -0.46017 -0.68828 251 250 251
-0.29440 -0.46257 -0.68524 251 249 251
-0.28825 -0.46498 -0.68221 251 249 251
-0.28211 -0.46739 -0.67918 251 249 251
-0.27597 -0.46979 -0.67615 251 249 251
-0.26984 -0.47219 -0.67312 251 249 251
-0.26371 -0.47459 -0.67010 251 249 251
-0.25758 -0.47699 -0.66707 250 249 251
-0.25146 -0.47939 -0.66405 250 249 251
-0.24534 -0.48179 -0.66103 250 249 251
-0.23922 -0.48418 -0.65801 250 249 251
-0.23311 -0.48658 -0.65499 250 249 250
-0.22700 -0.48897 -0.65198 250 249 250
-0.22090 -0.49136 -0.64896 250 249 250
-0.21480 -0.49375 -0.64595 250 249 250
-0.20870 -0.49614 -0.64294 250 249 250
-0.20260 -0.49852 -0.63993 250 249 250
-0.19651 -0.50091 -0.63692 250 249 250
-0.19043 -0.50329 -0.63392 250 249 250
-0.18434 -0.50568 -0.63092 250 249 250
-0.17826 -0.50806 -0.62791 250 249 250
-0.17218 -0.51044 -0.62491 250 249 250
-0.16611 -0.51282 -0.62192 250 249 250
-0.16004 -0.51519 -0.61892 250 249 250
-0.15398 -0.51757 -0.61593 250 249 250
-0.14791 -0.51994 -0.61293 250 249 250
-0.14185 -0.52232 -0.60994 250 249 250
-0.13580 -0.52469 -0.60695 250 249 250
-0.12975 -0.52706 -0.60397 250 249 250
-0.12370 -0.52943 -0.60098 250 249 250
-0.11765 -0.53180 -0.59800 250 249 250
-0.11161 -0.53416 -0.59501 250 249 250
-0.10557 -0.53653 -0.59203 250 249 251
-0.09954 -0.53889 -0.58905 250 249 251
-0.09351 -0.54125 -0.58608 250 249 251
-0.08748 -0.54361 -0.58310 250 249 251
-0.08146 -0.54597 -0.58013 250 249 251
-0.07544 -0.54833 -0.57715 250 249 251
-0.06942 -0.55069 -0.57418 250 249 251
-0.06340 -0.55304 -0.57122 250 249 251
-0.05739 -0.55540 -0.56825 250 249 251
-0.05139 -0.55775 -0.56528 250 249 251
-0.04539 -0.56010 -0.56232 250 249 251
-0.03939 -0.56245 -0.55936 251 249 251
-0.03339 -0.56480 -0.55640 251 249 251
-0.02740 -0.56714 -0.55344 251 249 251
-0.02141 -0.56949 -0.55048 251 249 251
-0.01542 -0.57183 -0.54753 251 249 251
-0.00944 -0.57418 -0.54458 251 250 251
-0.00346 -0.57652 -0.54162 251 250 251
0.00251 -0.57886 -0.53868 251 250 251
0.00849 -0.58120 -0.53573 251 250 251
0.01446 -0.58354 -0.53278 251 250 251
0.02042 -0.58587 -0.52984 251 250 251
0.02638 -0.58821 -0.52689 251 250 251
0.03234 -0.59054 -0.52395 251 250 251
0.03830 -0.59287 -0.52101 252 250 251
0.04425 -0.59520 -0.51807 252 250 251
0.05019 -0.59753 -0.51514 252 251 251
0.05614 -0.59986 -0.51220 252 251 251
0.06208 -0.60219 -0.50927 252 251 252
0.06802 -0.60451 -0.50634 252 252 252
0.07395 -0.60684 -0.50341 252 252 252
0.07988 -0.60916 -0.50048 252 252 252
0.08581 -0.61148 -0.49756 252 252 252
0.09173 -0.61380 -0.49463 252 252 252
0.09765 -0.61612 -0.49171 252 252 253
0.10357 -0.61844 -0.48879 253 253 253
0.10949 -0.62075 -0.48587 253 253 253
0.11540 -0.62307 -0.48295 253 253 253
0.12130 -0.62538 -0.48004 253 253 253
0.12721 -0.62769 -0.47712 253 253 254
0.13311 -0.63000 -0.47421 254 254 254
0.13900 -0.63231 -0.47130 254 254 254
0.14490 -0.63462 -0.46839 254 254 254
0.15079 -0.63693 -0.46548 254 254 254
0.15667 -0.63923 -0.46258 254 254 254
0.16256 -0.64154 -0.45967 254 254 254
0.16844 -0.64384 -0.45677 254 254 254
0.17431 -0.64614 -0.45387 254 254 254
0.18019 -0.64844 -0.45097 254 254 254
0.18606 -0.65074 -0.44807 254 254 254
0.19192 -0.65304 -0.44517 254 254 254
0.19779 -0.65534 -0.44228 254 254 254
0.20365 -0.65763 -0.43939 254 254 254
0.20950 -0.65992 -0.43650 254 254 254
0.21535 -0.66222 -0.43361 254 254 254
0.22120 -0.66451 -0.43072 254 254 254
0.22705 -0.66680 -0.42783 254 254 254
0.23289 -0.66909 -0.42495 254 254 254
0.23873 -0.67137 -0.42207 254 254 254
0.24457 -0.67366 -0.41919 254 254 254
0.25040 -0.67594 -0.41631 254 254 254
0.25623 -0.67823 -0.41343 254 254 254
0.26206 -0.68051 -0.41055 254 254 254
0.26788 -0.68279 -0.40768 254 254 254
0.27370 -0.68507 -0.40480 254 254 254
0.27952 -0.68735 -0.40193 254 254 254
0.28533 -0.68962 -0.39906 254 254 254
-0.40293 -0.42823 -0.73117 253 253 253
-0.39674 -0.43065 -0.72812 253 253 253
-0.39056 -0.43307 -0.72507 253 253 253
-0.38438 -0.43549 -0.72202 253 253 253
-0.37820 -0.43790 -0.71897 252 252 252
-0.37203 -0.44032 -0.71593 252 252 252
-0.36586 -0.44273 -0.71289 252 252 252
-0.35970 -0.44514 -0.70984 252 252 252
-0.35353 -0.44756 -0.70681 252 252 252
-0.34738 -0.44997 -0.70377 252 252 252
-0.34122 -0.45237 -0.70073 252 251 251
-0.33507 -0.45478 -0.69770 252 251 251
-0.32892 -0.45719 -0.69466 252 251 251
-0.32278 -0.45959 -0.69163 252 250 251
-0.31664 -0.46199 -0.68861 251 250 251
-0.31050 -0.46439 -0.68558 251 250 251
-0.30437 -0.46679 -0.68255 251 250 251
-0.29824 -0.46919 -0.67953 251 249 251
-0.29211 -0.47159 -0.67651 251 249 251
-0.28599 -0.47398 -0.67349 251 249 251
-0.27987 -0.47638 -0.67047 251 249 251
-0.27375 -0.47877 -0.66745 251 249 251
-0.26764 -0.48116 -0.66444 251 249 251
-0.26153 -0.48355 -0.66142 250 249 251
-0.25543 -0.48594 -0.65841 250 249 251
-0.24933 -0.48833 -0.65540 250 249 251
-0.24323 -0.49071 -0.65239 250 249 251
-0.23714 -0.49310 -0.64939 250 249 250
-0.23105 -0.49548 -0.64638 250 249 250
-0.22496 -0.49786 -0.64338 250 249 250
-0.21888 -0.50024 -0.64038 250 249 250
-0.21280 -0.50262 -0.63738 250 249 250
-0.20672 -0.50500 -0.63438 250 249 250
-0.20065 -0.50737 -0.63139 250 249 250
-0.19458 -0.50975 -0.62840 250 249 250
-0.18851 -0.51212 -0.62540 250 249 250
-0.18245 -0.51449 -0.62241 250 249 250
-0.17639 -0.51686 -0.61942 250 249 250
-0.17034 -0.51923 -0.61644 250 249 250
-0.16428 -0.52160 -0.61345 250 249 250
-0.15824 -0.52397 -0.61047 250 249 250
-0.15219 -0.52633 -0.60749 250 249 250
-0.14615 -0.52870 -0.60451 250 249 250
-0.14011 -0.53106 -0.60153 250 249 250
-0.13408 -0.53342 -0.59855 250 249 250
-0.12805 -0.53578 -0.59558 250 249 250
-0.12202 -0.53814 -0.59260 250 249 250
-0.11600 -0.54049 -0.58963 250 249 250
-0.10998 -0.54285 -0.58666 250 249 251
-0.10396 -0.54520 -0.58370 250 249 251
-0.09795 -0.54756 -0.58073 250 249 251
-0.09194 -0.54991 -0.57776 250 249 251
-0.08593 -0.55226 -0.57480 250 249 251
-0.07993 -0.55461 -0.57184 250 249 251
-0.07393 -0.55695 -0.56888 250 249 251
-0.06793 -0.55930 -0.56592 250 249 251
-0.06194 -0.56164 -0.56297 250 249 251
-0.05595 -0.56399 -0.56001 250 249 251
-0.04997 -0.56633 -0.55706 250 249 251
-0.04399 -0.56867 -0.55411 251 249 251
-0.03801 -0.57101 -0.55116 251 249 251
-0.03203 -0.57335 -0.54821 251 249 251
-0.02606 -0.57568 -0.54527 251 249 251
-0.02009 -0.57802 -0.54232 251 249 251
-0.01413 -0.58035 -0.53938 251 250 251
-0.00817 -0.58268 -0.53644 251 250 251
-0.00221 -0.58502 -0.53350 251 250 251
0.00375 -0.58735 -0.53056 251 250 251
0.00970 -0.58967 -0.52763 251 250 251
0.01565 -0.59200 -0.52470 251 250 251
0.02159 -0.59433 -0.52176 251 250 251
0.02753 -0.59665 -0.51883 251 250 251
0.03347 -0.59897 -0.51590 252 250 251
0.03940 -0.60130 -0.51298 252 250 251
0.04533 -0.60362 -0.51005 252 251 251
0.05126 -0.60594 -0.50713 252 251 251
0.05718 -0.60825 -0.50421 252 251 252
0.06310 -0.61057 -0.50128 252 252 252
0.06902 -0.61288 -0.49837 252 252 252
0.07493 -0.61520 -0.49545 252 252 252
0.08084 -0.61751 -0.49253 252 252 252
0.08675 -0.61982 -0.48962 252 252 252
0.09266 -0.62213 -0.48671 252 252 253
0.09856 -0.62444 -0.48380 253 253 253
0.10445 -0.62675 -0.48089 253 253 253
0.11035 -0.62905 -0.47798 253 253 253
0.11624 -0.63136 -0.47508 253 253 253
0.12212 -0.63366 -0.47217 253 253 254
0.12800 -0.63596 -0.46927 254 254 254
0.13388 -0.63826 -0.46637 254 254 254
0.13976 -0.64056 -0.46347 254 254 254
0.14563 -0.64286 -0.46057 254 254 254
0.15150 -0.64516 -0.45768 254 254 254
0.15737 -0.64745 -0.45478 254 254 254
0.16323 -0.64975 -0.45189 254 254 254
0.16909 -0.65204 -0.44900 254 254 254
0.17495 -0.65433 -0.44611 254 254 254
0.18080 -0.65662 -0.44323 254 254 254
0.18665 -0.65891 -0.44034 254 254 254
0.19250 -0.66120 -0.43746 254 254 254
0.19834 -0.66348 -0.43457 254 254 254
0.20418 -0.66577 -0.43169 254 254 254
0.21002 -0.66805 -0.42882 254 254 254
0.21585 -0.67033 -0.42594 254 254 254
0.22168 -0.67261 -0.42306 254 254 254
0.22751 -0.67489 -0.42019 254 254 254
0.23333 -0.67717 -0.41732 254 254 254
0.23915 -0.67945 -0.41444 254 254 254
0.24497 -0.68172 -0.41158 254 254 254
0.25078 -0.68400 -0.40871 254 254 254
0.25659 -0.68627 -0.40584 254 254 254
0.26239 -0.68854 -0.40298 254 254 254
0.26820 -0.69081 -0.40012 254 254 254
0.27400 -0.69308 -0.39725 254 254 254
0.27979 -0.69535 -0.39440 254 254 254
-0.41260 -0.43255 -0.72834 254 253 254
-0.40643 -0.43497 -0.72530 253 253 253
-0.40026 -0.43738 -0.72226 253 253 253
-0.39410 -0.43979 -0.71922 253 253 253
-0.38794 -0.44220 -0.71618 253 253 253
-0.38178 -0.44460 -0.71315 252 252 252
-0.37562 -0.44701 -0.71011 252 252 252
-0.36947 -0.44941 -0.70708 252 252 252
-0.36333 -0.45181 -0.70405 252 252 252
-0.35718 -0.45422 -0.70102 252 252 252
-0.35104 -0.45662 -0.69800 252 251 252
-0.34491 -0.45901 -0.69497 252 251 252
-0.33877 -0.46141 -0.69195 252 251 251
-0.33265 -0.46381 -0.68893 252 251 251
-0.32652 -0.46620 -0.68591 252 250 251
-0.32040 -0.46859 -0.68289 251 250 251
-0.31428 -0.47099 -0.67988 251 250 251
-0.30817 -0.47338 -0.67686 251 250 251
-0.30205 -0.47576 -0.67385 251 249 251
-0.29595 -0.47815 -0.67084 251 249 251
-0.28984 -0.48054 -0.66783 251 249 251
-0.28374 -0.48292 -0.66482 251 249 251
-0.27764 -0.48531 -0.66182 251 249 251
-0.27155 -0.48769 -0.65881 251 249 251
-0.26546 -0.49007 -0.65581 250 249 251
-0.25937 -0.49245 -0.65281 250 249 251
-0.25329 -0.49482 -0.64981 250 249 251
-0.24721 -0.49720 -0.64682 250 249 251
-0.24114 -0.49958 -0.64382 250 249 251
-0.23506 -0.50195 -0.64083 250 249 250
-0.22900 -0.50432 -0.63784 250 249 250
-0.22293 -0.50669 -0.63485 250 249 250
-0.21687 -0.50906 -0.63186 250 249 250
-0.21081 -0.51143 -0.62887 250 249 250
-0.20476 -0.51380 -0.62589 250 249 250
-0.19870 -0.51616 -0.62291 250 249 250
-0.19266 -0.51853 -0.61993 250 249 250
-0.18661 -0.52089 -0.61695 250 249 250
-0.18057 -0.52325 -0.61397 250 249 250
-0.17453 -0.52561 -0.61099 250 249 250
-0.16850 -0.52797 -0.60802 250 249 250
-0.16247 -0.53032 -0.60505 250 249 250
-0.15644 -0.53268 -0.60207 250 249 250
-0.15042 -0.53503 -0.59911 250 249 250
-0.14440 -0.53739 -0.59614 250 249 250
-0.13838 -0.53974 -0.59317 250 249 250
-0.13237 -0.54209 -0.59021 250 249 250
-0.12636 -0.54444 -0.58725 250 249 250
-0.12036 -0.54679 -0.58429 250 249 250
-0.11435 -0.54913 -0.58133 250 249 251
-0.10836 -0.55148 -0.57837 250 249 251
-0.10236 -0.55382 -0.57542 250 249 251
-0.09637 -0.55616 -0.57246 250 249 251
-0.09038 -0.55850 -0.56951 250 249 251
-0.08439 -0.56084 -0.56656 250 249 251
-0.07841 -0.56318 -0.56361 250 249 251
-0.07243 -0.56552 -0.56066 250 249 251
-0.06646 -0.56785 -0.55772 250 249 251
-0.06049 -0.57019 -0.55478 250 249 251
-0.05452 -0.57252 -0.55183 250 249 251
-0.04856 -0.57485 -0.54889 251 249 251
-0.04259 -0.57718 -0.54596 251 249 251
-0.03664 -0.57951 -0.54302 251 249 251
-0.03068 -0.58184 -0.54008 251 249 251
-0.02473 -0.58416 -0.53715 251 249 251
-0.01878 -0.58649 -0.53422 251 250 251
-0.01284 -0.58881 -0.53129 251 250 251
-0.00690 -0.59113 -0.52836 251 250 251
-0.00096 -0.59345 -0.52543 251 250 251
0.00497 -0.59577 -0.52251 251 250 251
0.01090 -0.59809 -0.51959 251 250 251
0.01683 -0.60041 -0.51667 251 250 251
0.02275 -0.60272 -0.51375 251 250 251
0.02867 -0.60504 -0.51083 252 250 251
0.03459 -0.60735 -0.50791 252 250 251
0.04050 -0.60966 -0.50500 252 251 251
0.04641 -0.61197 -0.50208 252 251 251
0.05232 -0.61428 -0.49917 252 251 251
0.05822 -0.61659 -0.49626 252 252 252
0.06412 -0.61889 -0.49335 252 252 252
0.07002 -0.62120 -0.49045 252 252 252
0.07591 -0.62350 -0.48754 252 252 252
0.08180 -0.62580 -0.48464 252 252 252
0.08769 -0.62811 -0.48174 252 252 253
0.09357 -0.63040 -0.47884 253 253 253
0.09945 -0.63270 -0.47594 253 253 253
0.10533 -0.63500 -0.47304 253 253 253
0.11120 -0.63730 -0.47015 253 253 253
0.11707 -0.63959 -0.46725 253 253 254
0.12294 -0.64188 -0.46436 254 254 254
0.12880 -0.64417 -0.46147 254 254 254
0.13466 -0.64646 -0.45858 254 254 254
0.14051 -0.64875 -0.45570 254 254 254
0.14637 -0.65104 -0.45281 254 254 254
0.15222 -0.65333 -0.44993 254 254 254
0.15806 -0.65561 -0.44705 254 254 254
0.16391 -0.65790 -0.44417 254 254 254
0.16975 -0.66018 -0.44129 254 254 254
0.17558 -0.66246 -0.43841 254 254 254
0.18141 -0.66474 -0.43554 254 254 254
0.18724 -0.66702 -0.43266 254 254 254
0.19307 -0.66930 -0.42979 254 254 254
0.19889 -0.67157 -0.42692 254 254 254
0.20471 -0.67385 -0.42405 254 254 254
0.21053 -0.67612 -0.42119 254 254 254
0.21634 -0.67839 -0.41832 254 254 254
0.22215 -0.68066 -0.41546 254 254 254
0.22796 -0.68293 -0.41259 254 254 254
0.23376 -0.68520 -0.40973 254 254 254
0.23956 -0.68747 -0.40687 254 254 254
0.24536 -0.68973 -0.40402 254 254 254
0.25115 -0.69200 -0.40116 254 254 254
0.25694 -0.69426 -0.39831 254 254 254
0.26273 -0.69652 -0.39546 254 254 254
0.26851 -0.69879 -0.39260 254 254 254
-0.41606 -0.43926 -0.72250 254 253 254
-0.40991 -0.44166 -0.71946 253 253 253
-0.40376 -0.44406 -0.71643 253 253 253
-0.39761 -0.44646 -0.71341 253 253 253
-0.39147 -0.44886 -0.71038 253 253 253
-0.38533 -0.45126 -0.70736 252 252 252
-0.37920 -0.45365 -0.70434 252 252 252
-0.37306 -0.45605 -0.70132 252 252 252
-0.36693 -0.45844 -0.69830 252 252 252
-0.36081 -0.46083 -0.69528 252 252 252
-0.35469 -0.46322 -0.69226 252 251 251
-0.34857 -0.46561 -0.68925 252 251 251
-0.34246 -0.46800 -0.68624 252 251 251
-0.33635 -0.47039 -0.68323 252 251 251
-0.33024 -0.47277 -0.68022 252 250 251
-0.32414 -0.47516 -0.67722 251 250 251
-0.31804 -0.47754 -0.67421 251 250 251
-0.31194 -0.47992 -0.67121 251 250 251
-0.30585 -0.48230 -0.66821 251 250 251
-0.29976 -0.48468 -0.66521 251 249 251
-0.29367 -0.48705 -0.66221 251 249 251
-0.28759 -0.48943 -0.65921 251 249 251
-0.28151 -0.49180 -0.65622 251 249 251
-0.27543 -0.49417 -0.65323 251 249 251
-0.26936 -0.49654 -0.65024 250 249 251
-0.26329 -0.49891 -0.64725 250 249 251
-0.25723 -0.50128 -0.64426 250 249 251
-0.25117 -0.50365 -0.64127 250 249 251
-0.24511 -0.50601 -0.63829 250 249 251
-0.23906 -0.50838 -0.63531 250 249 250
-0.23301 -0.51074 -0.63233 250 249 250
-0.22696 -0.51310 -0.62935 250 249 250
-0.22091 -0.51546 -0.62637 250 249 250
-0.21487 -0.51782 -0.62340 250 249 250
-0.20884 -0.52018 -0.62042 250 249 250
-0.20280 -0.52253 -0.61745 250 249 250
-0.19677 -0.52489 -0.61448 250 249 250
-0.19075 -0.52724 -0.61151 250 249 250
-0.18473 -0.52959 -0.60855 250 249 250
-0.17871 -0.53194 -0.60558 250 249 250
-0.17269 -0.53429 -0.60262 250 249 250
-0.16668 -0.53664 -0.59966 250 249 250
-0.16067 -0.53899 -0.59670 250 249 250
-0.15466 -0.54133 -0.59374 250 249 250
-0.14866 -0.54368 -0.59078 250 249 250
-0.14266 -0.54602 -0.58783 250 249 250
-0.13667 -0.54836 -0.58488 250 249 250
-0.13068 -0.55070 -0.58192 250 249 250
-0.12469 -0.55304 -0.57897 250 249 250
-0.11870 -0.55538 -0.57603 250 249 251
-0.11272 -0.55771 -0.57308 250 249 251
-0.10674 -0.56005 -0.57014 250 249 251
-0.10077 -0.56238 -0.56719 250 249 251
-0.09480 -0.56471 -0.56425 250 249 251
-0.08883 -0.56704 -0.56131 250 249 251
-0.08287 -0.56937 -0.55837 250 249 251
-0.07691 -0.57170 -0.55544 250 249 251
-0.07095 -0.57402 -0.55250 250 249 251
-0.06499 -0.57635 -0.54957 250 249 251
-0.05904 -0.57867 -0.54664 250 249 251
-0.05310 -0.58099 -0.54371 251 249 251
-0.04715 -0.58332 -0.54078 251 249 251
-0.04121 -0.58563 -0.53786 251 249 251
-0.03528 -0.58795 -0.53493 251 249 251
-0.02934 -0.59027 -0.53201 251 250 251
-0.02341 -0.59259 -0.52909 251 250 251
-0.01749 -0.59490 -0.52617 251 250 251
-0.01156 -0.59721 -0.52325 251 250 251
-0.00564 -0.59952 -0.52034 251 250 251
0.00027 -0.60183 -0.51742 251 250 251
0.00619 -0.60414 -0.51451 251 250 251
0.01210 -0.60645 -0.51160 251 250 251
0.01800 -0.60876 -0.50869 251 250 251
0.02391 -0.61106 -0.50578 252 250 251
0.02981 -0.61337 -0.50288 252 250 251
0.03570 -0.61567 -0.49997 252 251 251
0.04159 -0.61797 -0.49707 252 251 251
0.04748 -0.62027 -0.49417 252 251 251
0.05337 -0.62257 -0.49127 252 252 252
0.05925 -0.62487 -0.48837 252 252 252
0.06513 -0.62716 -0.48548 252 252 252
0.07101 -0.62946 -0.48258 252 252 252
0.07688 -0.63175 -0.47969 252 252 252
0.08275 -0.63404 -0.47680 252 252 253
0.08862 -0.63633 -0.47391 253 253 253
0.09448 -0.63862 -0.47102 253 253 253
0.10034 -0.64091 -0.46813 253 253 253
0.10620 -0.64320 -0.46525 253 253 253
0.11205 -0.64548 -0.46237 253 253 254
0.11790 -0.64777 -0.45949 254 254 254
0.12374 -0.65005 -0.45661 254 254 254
0.12959 -0.65233 -0.45373 254 254 254
0.13543 -0.65461 -0.45085 254 254 254
0.14126 -0.65689 -0.44798 254 254 254
0.14709 -0.65917 -0.44510 254 254 254
0.15292 -0.66144 -0.44223 254 254 254
0.15875 -0.66372 -0.43936 254 254 254
0.16457 -0.66599 -0.43649 254 254 254
0.17039 -0.66827 -0.43363 254 254 254
0.17621 -0.67054 -0.43076 254 254 254
0.18202 -0.67281 -0.42790 254 254 254
0.18783 -0.67508 -0.42504 254 254 254
0.19364 -0.67734 -0.42218 254 254 254
0.19944 -0.67961 -0.41932 254 254 254
0.20524 -0.68187 -0.41646 254 254 254
0.21104 -0.68414 -0.41361 254 254 254
0.21683 -0.68640 -0.41075 254 254 254
0.22262 -0.68866 -0.40790 254 254 254
0.22841 -0.69092 -0.40505 254 254 254
0.23419 -0.69318 -0.40220 254 254 254
0.23997 -0.69544 -0.39936 254 254 254
0.24575 -0.69769 -0.39651 254 254 254
0.25152 -0.69995 -0.39367 254 254 254
0.25729 -0.70220 -0.39082 254 254 254
0.26306 -0.70445 -0.38798 254 254 254
-0.42564 -0.44353 -0.71971 254 254 254
-0.41950 -0.44592 -0.71669 254 254 254
-0.41336 -0.44831 -0.71367 253 253 253
-0.40723 -0.45071 -0.71065 253 253 253
-0.40111 -0.45310 -0.70763 253 253 253
-0.39498 -0.45549 -0.70462 253 253 253
-0.38886 -0.45787 -0.70160 252 252 252
-0.38274 -0.46026 -0.69859 252 252 252
-0.37663 -0.46264 -0.69559 252 252 252
-0.37052 -0.46503 -0.69258 252 252 252
-0.36441 -0.46741 -0.68957 252 252 252
-0.35831 -0.46979 -0.68657 252 252 252
-0.35221 -0.47217 -0.68357 252 251 251
-0.34612 -0.47455 -0.68057 252 251 251
-0.34002 -0.47693 -0.67757 252 250 251
-0.33393 -0.47930 -0.67457 252 250 251
-0.32785 -0.48167 -0.67157 251 250 251
-0.32177 -0.48405 -0.66858 251 250 251
-0.31569 -0.48642 -0.66559 251 250 251
-0.30961 -0.48879 -0.66260 251 250 251
-0.30354 -0.49116 -0.65961 251 249 251
-0.29748 -0.49352 -0.65662 251 249 251
-0.29141 -0.49589 -0.65364 251 249 251
-0.28535 -0.49825 -0.65066 251 249 251
-0.27929 -0.50062 -0.64767 251 249 251
-0.27324 -0.50298 -0.64470 250 249 251
-0.26719 -0.50534 -0.64172 250 249 251
-0.26114 -0.50770 -0.63874 250 249 251
-0.25510 -0.51006 -0.63577 250 249 251
-0.24906 -0.51241 -0.63279 250 249 251
-0.24302 -0.51477 -0.62982 250 249 251
-0.23699 -0.51712 -0.62685 250 249 250
-0.23096 -0.51947 -0.62389 250 249 250
-0.22494 -0.52182 -0.62092 250 249 250
-0.21891 -0.52417 -0.61796 250 249 250
-0.21289 -0.52652 -0.61499 250 249 250
-0.20688 -0.52887 -0.61203 250 249 250
-0.20087 -0.53121 -0.60907 250 249 250
-0.19486 -0.53356 -0.60612 250 249 250
-0.18885 -0.53590 -0.60316 250 249 250
-0.18285 -0.53824 -0.60021 250 249 250
-0.17685 -0.54058 -0.59725 250 249 250
-0.17086 -0.54292 -0.59430 250 249 250
-0.16487 -0.54526 -0.59135 250 249 250
-0.15888 -0.54759 -0.58841 250 249 250
-0.15290 -0.54993 -0.58546 250 249 250
-0.14691 -0.55226 -0.58252 250 249 250
-0.14094 -0.55459 -0.57957 250 249 250
-0.13496 -0.55692 -0.57663 250 249 250
-0.12899 -0.55925 -0.57370 250 249 250
-0.12303 -0.56158 -0.57076 250 249 251
-0.11706 -0.56391 -0.56782 250 249 251
-0.11110 -0.56623 -0.56489 250 249 251
-0.10514 -0.56855 -0.56196 250 249 251
-0.09919 -0.57088 -0.55903 250 249 251
-0.09324 -0.57320 -0.55610 250 249 251
-0.08729 -0.57552 -0.55317 250 249 251
-0.08135 -0.57784 -0.55025 250 249 251
-0.07541 -0.58015 -0.54732 250 249 251
-0.06947 -0.58247 -0.54440 250 249 251
-0.06354 -0.58479 -0.54148 250 249 251
-0.05761 -0.58710 -0.53856 251 249 251
-0.05168 -0.58941 -0.53564 251 249 251
-0.04576 -0.59172 -0.53273 251 250 251
-0.03984 -0.59403 -0.52981 251 250 251
-0.03393 -0.59634 -0.52690 251 250 251
-0.02801 -0.59865 -0.52399 251 250 251
-0.02210 -0.60095 -0.52108 251 250 251
-0.01620 -0.60325 -0.51818 251 250 251
-0.01029 -0.60556 -0.51527 251 250 251
-0.00439 -0.60786 -0.51237 251 250 251
0.00150 -0.61016 -0.50947 251 250 251
0.00739 -0.61246 -0.50656 251 250 251
0.01328 -0.61476 -0.50367 252 250 251
0.01917 -0.61705 -0.50077 252 250 251
0.02505 -0.61935 -0.49787 252 250 251
0.03093 -0.62164 -0.49498 252 251 251
0.03681 -0.62393 -0.49209 252 251 251
0.04268 -0.62622 -0.48920 252 252 252
0.04855 -0.62851 -0.48631 252 252 252
0.05441 -0.63080 -0.48342 252 252 252
0.06028 -0.63309 -0.48054 252 252 252
0.06614 -0.63537 -0.47765 252 252 252
0.07199 -0.63766 -0.47477 252 252 252
0.07784 -0.63994 -0.47189 252 253 253
0.08369 -0.64222 -0.46901 253 253 253
0.08954 -0.64450 -0.46613 253 253 253
0.09538 -0.64678 -0.46326 253 253 253
0.10122 -0.64906 -0.46038 253 253 253
0.10706 -0.65134 -0.45751 253 253 254
0.11289 -0.65361 -0.45464 254 254 254
0.11872 -0.65589 -0.45177 254 254 254
0.12455 -0.65816 -0.44890 254 254 254
0.13037 -0.66043 -0.44604 254 254 254
0.13619 -0.66270 -0.44317 254 254 254
0.14200 -0.66497 -0.44031 254 254 254
0.14782 -0.66724 -0.43745 254 254 254
0.15363 -0.66951 -0.43459 254 254 254
0.15943 -0.67177 -0.43173 254 254 254
0.16524 -0.67403 -0.42887 254 254 254
0.17104 -0.67630 -0.42602 254 254 254
0.17683 -0.67856 -0.42317 254 254 254
0.18263 -0.68082 -0.42031 254 254 254
0.18842 -0.68308 -0.41746 254 254 254
0.19420 -0.68533 -0.41462 254 254 254
0.19999 -0.68759 -0.41177 254 254 254
0.20577 -0.68985 -0.40892 254 254 254
0.21154 -0.69210 -0.40608 254 254 254
0.21732 -0.69435 -0.40324 254 254 254
0.22309 -0.69660 -0.40040 254 254 254
0.22885 -0.69885 -0.39756 254 254 254
0.23462 -0.70110 -0.39472 254 254 254
0.24038 -0.70335 -0.39189 254 254 254
0.24614 -0.70559 -0.38905 254 254 254
0.25189 -0.70784 -0.38622 254 254 254
0.25764 -0.71008 -0.38339 254 254 254
-0.43516 -0.44777 -0.71694 254 254 254
-0.42903 -0.45015 -0.71392 254 254 254
-0.42291 -0.45254 -0.71091 254 254 254
-0.41680 -0.45492 -0.70790 253 253 253
-0.41069 -0.45731 -0.70490 253 253 253
-0.40458 -0.45969 -0.70189 253 253 253
-0.39847 -0.46207 -0.69889 253 253 253
-0.39237 -0.46445 -0.69589 253 252 252
-0.38627 -0.46682 -0.69289 252 252 252
-0.38017 -0.46920 -0.68989 252 252 252
-0.37408 -0.47157 -0.68689 252 252 252
-0.36799 -0.47394 -0.68390 252 252 252
-0.36191 -0.47632 -0.68091 252 252 252
-0.35583 -0.47869 -0.67792 252 251 252
-0.34975 -0.48105 -0.67493 252 251 251
-0.34368 -0.48342 -0.67194 252 250 251
-0.33761 -0.48579 -0.66895 252 250 251
-0.33154 -0.48815 -0.66597 251 250 251
-0.32548 -0.49052 -0.66299 251 250 251
-0.31942 -0.49288 -0.66001 251 250 251
-0.31336 -0.49524 -0.65703 251 250 251
-0.30731 -0.49760 -0.65405 251 250 251
-0.30126 -0.49996 -0.65107 251 249 251
-0.29521 -0.50231 -0.64810 251 249 251
-0.28917 -0.50467 -0.64513 251 249 251
-0.28313 -0.50702 -0.64216 251 249 251
-0.27709 -0.50937 -0.63919 250 249 251
-0.27106 -0.51172 -0.63622 250 249 251
-0.26503 -0.51407 -0.63326 250 249 251
-0.25901 -0.51642 -0.63029 250 249 251
-0.25298 -0.51877 -0.62733 250 249 251
-0.24697 -0.52111 -0.62437 250 249 251
-0.24095 -0.52346 -0.62141 250 249 251
-0.23494 -0.52580 -0.61846 250 249 250
-0.22893 -0.52814 -0.61550 250 249 251
-0.22293 -0.53048 -0.61255 250 249 251
-0.21693 -0.53282 -0.60960 250 249 250
-0.21093 -0.53516 -0.60665 250 249 250
-0.20493 -0.53750 -0.60370 250 249 250
-0.19894 -0.53983 -0.60075 250 249 250
-0.19296 -0.54216 -0.59781 250 249 250
-0.18697 -0.54450 -0.59486 250 249 250
-0.18099 -0.54683 -0.59192 250 249 250
-0.17501 -0.54916 -0.58898 250 249 250
-0.16904 -0.55148 -0.58604 250 249 250
-0.16307 -0.55381 -0.58311 250 249 250
-0.15710 -0.55614 -0.58017 250 249 250
-0.15114 -0.55846 -0.57724 250 249 250
-0.14518 -0.56078 -0.57431 250 249 250
-0.13922 -0.56311 -0.57138 250 249 250
-0.13327 -0.56543 -0.56845 250 249 251
-0.12732 -0.56774 -0.56552 250 249 251
-0.12137 -0.57006 -0.56260 250 249 251
-0.11543 -0.57238 -0.55968 250 249 251
-0.10949 -0.57469 -0.55675 250 249 251
-0.10355 -0.57701 -0.55383 250 249 251
-0.09762 -0.57932 -0.55092 250 249 251
-0.09169 -0.58163 -0.54800 251 249 251
-0.08577 -0.58394 -0.54508 251 249 251
-0.07984 -0.58625 -0.54217 251 249 251
-0.07392 -0.58855 -0.53926 251 249 251
-0.06801 -0.59086 -0.53635 251 249 251
-0.06210 -0.59316 -0.53344 251 249 251
-0.05619 -0.59547 -0.53054 251 249 251
-0.05028 -0.59777 -0.52763 251 250 251
-0.04438 -0.60007 -0.52473 251 250 251
-0.03848 -0.60237 -0.52183 251 250 251
-0.03258 -0.60467 -0.51893 251 250 251
-0.02669 -0.60696 -0.51603 251 250 251
-0.02080 -0.60926 -0.51313 251 250 251
-0.01492 -0.61155 -0.51024 251 250 251
-0.00903 -0.61384 -0.50734 251 250 251
