ply
format ascii 1.0
element face 0
property list uchar int vertex_indices
element vertex 1311
property float x
property float y
property float z
property uchar diffuse_red
property uchar diffuse_green
property uchar diffuse_blue
end_header
0.43675 -0.10973 -0.85523 37 37 55
0.44297 -0.11260 -0.85172 18 25 26
0.44919 -0.11548 -0.84821 20 20 22
0.45540 -0.11835 -0.84471 33 39 54
0.46162 -0.12122 -0.84121 48 65 87
0.46783 -0.12409 -0.83770 39 52 67
0.47404 -0.12696 -0.83420 25 31 26
0.48025 -0.12983 -0.83070 17 22 22
0.48646 -0.13270 -0.82720 22 31 44
0.49266 -0.13557 -0.82370 37 48 63
0.49887 -0.13843 -0.82020 36 45 52
0.50507 -0.14130 -0.81671 27 33 40
0.51127 -0.14416 -0.81321 21 24 37
0.51746 -0.14703 -0.80972 22 33 45
0.52366 -0.14989 -0.80623 50 47 55
0.52985 -0.15275 -0.80274 43 35 47
0.53604 -0.15561 -0.79925 26 27 39
0.54223 -0.15847 -0.79576 18 21 32
0.54841 -0.16133 -0.79227 19 23 26
0.55460 -0.16419 -0.78878 23 33 31
0.56078 -0.16704 -0.78530 24 30 36
0.56696 -0.16990 -0.78181 22 24 38
0.57314 -0.17275 -0.77833 19 23 35
0.57931 -0.17561 -0.77485 18 24 39
0.58549 -0.17846 -0.77137 29 43 58
0.59166 -0.18131 -0.76789 39 58 58
0.59783 -0.18416 -0.76441 38 45 46
0.60399 -0.18701 -0.76093 33 32 43
0.61016 -0.18986 -0.75746 22 26 37
0.61632 -0.19271 -0.75398 22 33 43
0.62248 -0.19555 -0.75051 32 44 52
0.62864 -0.19840 -0.74704 39 48 51
0.63480 -0.20124 -0.74357 38 34 35
0.64095 -0.20409 -0.74009 30 12 19
0.64711 -0.20693 -0.73663 26 14 37
0.66555 -0.21545 -0.72623 27 39 54
0.67170 -0.21829 -0.72276 16 21 26
0.67784 -0.22113 -0.71930 19 24 36
0.68398 -0.22397 -0.71584 23 31 43
0.69012 -0.22681 -0.71238 28 35 47
0.69625 -0.22964 -0.70892 31 35 47
0.70239 -0.23248 -0.70546 30 35 50
0.70852 -0.23531 -0.70200 25 29 36
0.71465 -0.23814 -0.69854 19 29 33
0.72078 -0.24097 -0.69509 32 45 54
0.72690 -0.24380 -0.69164 40 45 59
0.73303 -0.24663 -0.68818 41 43 54
0.73915 -0.24946 -0.68473 40 43 58
0.74527 -0.25229 -0.68128 40 44 56
0.75139 -0.25512 -0.67783 39 43 53
0.75750 -0.25794 -0.67438 34 39 48
0.76361 -0.26077 -0.67094 27 34 47
0.76973 -0.26359 -0.66749 28 38 57
0.77583 -0.26641 -0.66405 43 49 65
0.78194 -0.26924 -0.66060 42 47 63
0.78805 -0.27206 -0.65716 33 44 63
0.79415 -0.27488 -0.65372 36 44 65
0.80025 -0.27770 -0.65028 42 47 70
0.80635 -0.28051 -0.64684 45 48 64
0.81245 -0.28333 -0.64341 44 48 58
0.81854 -0.28615 -0.63997 44 49 56
0.82464 -0.28896 -0.63653 45 47 49
0.83073 -0.29178 -0.63310 37 37 40
0.83682 -0.29459 -0.62967 21 19 37
0.84290 -0.29740 -0.62623 28 28 46
0.22980 -0.02507 -0.96115 30 33 46
0.26112 -0.03953 -0.94351 26 22 22
0.26737 -0.04241 -0.93998 30 27 33
0.27363 -0.04530 -0.93646 26 25 27
0.27988 -0.04819 -0.93294 21 21 24
0.28613 -0.05108 -0.92941 13 13 21
0.29238 -0.05396 -0.92589 24 19 36
0.29862 -0.05684 -0.92237 32 23 44
0.30487 -0.05973 -0.91885 25 22 39
0.31111 -0.06261 -0.91534 17 20 30
0.31735 -0.06549 -0.91182 16 15 30
0.32358 -0.06837 -0.90831 30 46 54
0.32982 -0.07125 -0.90479 37 59 62
0.33605 -0.07413 -0.90128 28 34 41
0.34228 -0.07701 -0.89777 20 20 27
0.34851 -0.07988 -0.89426 20 20 30
0.35474 -0.08276 -0.89075 39 39 60
0.36096 -0.08563 -0.88724 54 56 95
0.36718 -0.08851 -0.88374 36 38 62
0.37340 -0.09138 -0.88023 21 21 22
0.37962 -0.09425 -0.87673 17 23 31
0.38584 -0.09712 -0.87323 24 34 43
0.39205 -0.09999 -0.86972 31 43 49
0.39826 -0.10286 -0.86622 26 35 36
0.40447 -0.10572 -0.86272 20 24 29
0.41068 -0.10859 -0.85923 12 20 20
0.41689 -0.11146 -0.85573 22 32 45
0.42309 -0.11432 -0.85223 74 92 89
0.42929 -0.11718 -0.84874 39 45 36
0.43549 -0.12005 -0.84524 22 20 37
0.44169 -0.12291 -0.84175 21 16 29
0.44788 -0.12577 -0.83826 27 24 51
0.45408 -0.12863 -0.83477 32 49 72
0.46027 -0.13149 -0.83128 30 36 57
0.46646 -0.13435 -0.82780 24 27 30
0.47264 -0.13720 -0.82431 19 24 29
0.47883 -0.14006 -0.82082 19 28 37
0.48501 -0.14291 -0.81734 27 35 52
0.49119 -0.14577 -0.81386 31 44 50
0.49737 -0.14862 -0.81038 28 35 43
0.50355 -0.15147 -0.80690 20 24 40
0.50972 -0.15432 -0.80342 15 20 42
0.51589 -0.15717 -0.79994 16 19 47
0.52206 -0.16002 -0.79646 19 24 45
0.52823 -0.16287 -0.79299 21 27 39
0.53440 -0.16572 -0.78951 21 24 33
0.54056 -0.16857 -0.78604 20 24 26
0.54672 -0.17141 -0.78256 19 25 27
0.55288 -0.17425 -0.77909 18 23 29
0.55904 -0.17710 -0.77562 20 23 31
0.56519 -0.17994 -0.77216 22 23 28
0.57135 -0.18278 -0.76869 23 23 31
0.57750 -0.18562 -0.76522 24 27 43
0.58365 -0.18846 -0.76176 25 31 43
0.58980 -0.19130 -0.75829 24 26 32
0.59594 -0.19414 -0.75483 25 22 32
0.60208 -0.19698 -0.75137 28 28 38
0.60822 -0.19981 -0.74791 29 32 40
0.61436 -0.20265 -0.74445 26 30 44
0.62050 -0.20548 -0.74099 19 24 49
0.63277 -0.21114 -0.73408 67 68 79
0.63890 -0.21398 -0.73062 70 68 64
0.64503 -0.21681 -0.72717 59 60 67
0.65728 -0.22246 -0.72026 28 27 37
0.66340 -0.22529 -0.71681 23 25 34
0.66952 -0.22812 -0.71336 25 28 40
0.67564 -0.23094 -0.70992 26 30 42
0.68176 -0.23377 -0.70647 29 32 43
0.68787 -0.23659 -0.70302 31 35 43
0.69398 -0.23941 -0.69958 32 37 46
0.70009 -0.24223 -0.69614 29 34 37
0.70620 -0.24505 -0.69270 22 31 35
0.71231 -0.24787 -0.68925 32 44 57
0.71841 -0.25069 -0.68581 42 47 63
0.72451 -0.25351 -0.68238 43 46 59
0.73061 -0.25633 -0.67894 43 46 60
0.73671 -0.25914 -0.67550 43 47 58
0.74281 -0.26196 -0.67207 40 45 49
0.74890 -0.26477 -0.66863 32 35 37
0.75499 -0.26758 -0.66520 17 20 34
0.76108 -0.27040 -0.66177 19 25 50
0.76717 -0.27321 -0.65834 36 42 64
0.77325 -0.27602 -0.65491 38 44 55
0.77934 -0.27883 -0.65148 28 37 51
0.78542 -0.28164 -0.64805 30 38 53
0.79150 -0.28444 -0.64463 38 46 60
0.79758 -0.28725 -0.64120 44 49 63
0.80365 -0.29005 -0.63778 45 48 61
0.80973 -0.29286 -0.63436 45 49 58
0.81580 -0.29566 -0.63094 45 49 53
0.82187 -0.29847 -0.62752 41 42 44
0.82793 -0.30127 -0.62410 23 23 37
0.83400 -0.30407 -0.62068 17 19 35
0.22313 -0.03286 -0.95425 32 33 40
0.26679 -0.05301 -0.92965 35 34 50
0.27302 -0.05588 -0.92615 24 28 42
0.27925 -0.05876 -0.92264 12 18 35
0.28548 -0.06163 -0.91913 51 55 68
0.29170 -0.06450 -0.91563 73 71 73
0.29792 -0.06737 -0.91212 41 38 41
0.30414 -0.07024 -0.90862 17 17 20
0.31035 -0.07311 -0.90512 14 14 29
0.31657 -0.07598 -0.90162 34 61 72
0.32278 -0.07884 -0.89812 42 75 85
0.32899 -0.08171 -0.89462 30 38 46
0.33520 -0.08458 -0.89113 22 19 27
0.34141 -0.08744 -0.88763 21 19 41
0.34761 -0.09030 -0.88414 29 30 66
0.35381 -0.09316 -0.88064 35 41 76
0.36001 -0.09603 -0.87715 28 27 44
0.36621 -0.09889 -0.87366 20 22 22
0.37241 -0.10174 -0.87017 15 21 24
0.37860 -0.10460 -0.86668 18 26 37
0.38479 -0.10746 -0.86319 22 31 47
0.39098 -0.11032 -0.85971 23 31 45
0.39717 -0.11317 -0.85622 19 25 37
0.40335 -0.11603 -0.85274 16 21 31
0.40954 -0.11888 -0.84926 13 21 37
0.41572 -0.12173 -0.84578 13 26 49
0.42190 -0.12458 -0.84230 19 28 41
0.42807 -0.12743 -0.83882 25 25 35
0.43425 -0.13028 -0.83534 22 18 29
0.44042 -0.13313 -0.83186 18 18 40
0.44659 -0.13598 -0.82839 19 23 48
0.45276 -0.13883 -0.82491 21 28 43
0.45893 -0.14167 -0.82144 25 22 29
0.46509 -0.14452 -0.81797 31 22 24
0.47125 -0.14736 -0.81450 21 19 28
0.47741 -0.15020 -0.81103 17 22 28
0.48357 -0.15305 -0.80756 18 28 38
0.48973 -0.15589 -0.80409 24 20 41
0.49588 -0.15873 -0.80062 22 16 35
0.50203 -0.16157 -0.79716 17 15 29
0.50818 -0.16440 -0.79370 13 16 22
0.51433 -0.16724 -0.79023 13 17 29
0.52048 -0.17008 -0.78677 19 21 41
0.52662 -0.17291 -0.78331 25 27 47
0.53276 -0.17575 -0.77985 27 30 39
0.53890 -0.17858 -0.77639 24 28 30
0.54504 -0.18141 -0.77294 18 24 30
0.55118 -0.18424 -0.76948 18 25 40
0.55731 -0.18707 -0.76603 27 33 52
0.56344 -0.18990 -0.76257 32 34 48
0.56957 -0.19273 -0.75912 27 31 39
0.57570 -0.19556 -0.75567 21 25 34
0.58182 -0.19839 -0.75222 17 19 30
0.58795 -0.20121 -0.74877 31 37 49
0.60630 -0.20968 -0.73843 27 30 42
0.61242 -0.21251 -0.73499 12 20 43
0.62464 -0.21815 -0.72810 67 74 97
0.63075 -0.22097 -0.72466 72 77 83
0.63686 -0.22378 -0.72122 61 67 79
0.64907 -0.22942 -0.71435 31 30 45
0.65517 -0.23223 -0.71091 28 31 43
0.66127 -0.23505 -0.70748 27 31 42
0.66736 -0.23786 -0.70404 25 32 44
0.67346 -0.24067 -0.70061 29 34 45
0.67955 -0.24349 -0.69718 33 37 47
0.68564 -0.24630 -0.69375 35 39 49
0.69173 -0.24911 -0.69032 34 37 43
0.69782 -0.25192 -0.68689 26 31 38
0.70390 -0.25472 -0.68346 34 43 60
0.70998 -0.25753 -0.68004 46 50 63
0.71606 -0.26034 -0.67661 46 49 64
0.72214 -0.26314 -0.67319 46 48 64
0.72822 -0.26594 -0.66977 46 50 63
0.73429 -0.26875 -0.66635 43 50 56
0.74036 -0.27155 -0.66293 33 39 37
0.74643 -0.27435 -0.65951 17 16 31
0.75250 -0.27715 -0.65609 16 20 37
0.75857 -0.27995 -0.65267 25 30 40
0.76463 -0.28275 -0.64926 34 36 43
0.77070 -0.28555 -0.64584 29 32 37
0.77676 -0.28834 -0.64243 27 33 37
0.78281 -0.29114 -0.63902 35 46 53
0.78887 -0.29393 -0.63561 41 48 63
0.79492 -0.29673 -0.63220 45 50 65
0.80098 -0.29952 -0.62879 47 51 66
0.80703 -0.30231 -0.62538 46 51 57
0.81307 -0.30510 -0.62197 45 48 51
0.81912 -0.30789 -0.61857 31 31 36
0.82516 -0.31068 -0.61516 16 17 30
0.21651 -0.04059 -0.94739 35 36 38
0.26001 -0.06065 -0.92290 34 30 54
0.26622 -0.06352 -0.91941 28 26 42
0.27242 -0.06638 -0.91591 16 18 35
0.27863 -0.06924 -0.91242 11 18 43
0.28483 -0.07210 -0.90893 13 23 43
0.29102 -0.07496 -0.90544 13 19 34
0.29722 -0.07781 -0.90196 13 17 32
0.30342 -0.08067 -0.89847 11 15 38
0.30961 -0.08353 -0.89498 12 16 49
0.31580 -0.08638 -0.89150 16 21 50
0.32199 -0.08923 -0.88801 18 23 37
0.32817 -0.09209 -0.88453 20 22 31
0.33436 -0.09494 -0.88105 18 20 39
0.34054 -0.09779 -0.87757 18 22 50
0.34672 -0.10064 -0.87409 21 24 46
0.35289 -0.10349 -0.87061 20 22 29
0.35907 -0.10634 -0.86714 21 21 20
0.36524 -0.10918 -0.86366 25 20 19
0.37141 -0.11203 -0.86019 20 20 29
0.37758 -0.11488 -0.85672 17 21 33
0.38375 -0.11772 -0.85324 17 21 34
0.38992 -0.12056 -0.84977 24 18 29
0.39608 -0.12341 -0.84630 27 20 26
0.40224 -0.12625 -0.84284 20 20 34
0.40840 -0.12909 -0.83937 18 21 31
0.41456 -0.13193 -0.83590 18 21 20
0.42071 -0.13476 -0.83244 33 25 39
0.42686 -0.13760 -0.82897 34 43 88
0.43301 -0.14044 -0.82551 22 25 34
0.43916 -0.14327 -0.82205 15 20 35
0.44531 -0.14611 -0.81859 17 19 34
0.45145 -0.14894 -0.81513 26 31 47
0.45760 -0.15178 -0.81167 72 70 74
0.46374 -0.15461 -0.80822 37 30 40
0.46987 -0.15744 -0.80476 17 19 32
0.47601 -0.16027 -0.80131 14 16 44
0.48215 -0.16310 -0.79785 27 36 58
0.48828 -0.16593 -0.79440 42 65 74
0.49441 -0.16875 -0.79095 32 52 64
0.50054 -0.17158 -0.78750 20 24 26
0.50666 -0.17440 -0.78405 14 16 23
0.51279 -0.17723 -0.78060 19 21 43
0.51891 -0.18005 -0.77716 33 36 50
0.52503 -0.18287 -0.77371 36 33 46
0.53115 -0.18570 -0.77027 27 25 38
0.53726 -0.18852 -0.76683 19 22 33
0.54337 -0.19134 -0.76338 19 24 40
0.54949 -0.19415 -0.75994 28 31 54
0.55560 -0.19697 -0.75651 32 35 52
0.56170 -0.19979 -0.75307 29 35 40
0.56781 -0.20260 -0.74963 23 27 34
0.57391 -0.20542 -0.74619 15 19 40
0.59831 -0.21667 -0.73246 26 32 43
0.61049 -0.22229 -0.72560 20 24 49
0.64092 -0.23632 -0.70847 31 31 52
0.64700 -0.23913 -0.70505 32 32 49
0.65307 -0.24193 -0.70163 27 32 42
0.65915 -0.24473 -0.69821 24 31 43
0.66522 -0.24753 -0.69479 30 31 42
0.67129 -0.25033 -0.69137 33 32 39
0.67736 -0.25313 -0.68796 34 30 42
0.68343 -0.25593 -0.68454 28 28 41
0.68949 -0.25872 -0.68113 22 27 38
0.69556 -0.26152 -0.67772 34 40 61
0.70162 -0.26432 -0.67430 47 53 63
0.70768 -0.26711 -0.67089 46 52 65
0.71373 -0.26990 -0.66748 47 49 64
0.71979 -0.27270 -0.66407 46 50 70
0.72584 -0.27549 -0.66067 46 52 66
0.73189 -0.27828 -0.65726 39 46 46
0.73794 -0.28107 -0.65386 21 19 41
0.74399 -0.28386 -0.65045 15 20 30
0.75003 -0.28664 -0.64705 22 30 27
0.75608 -0.28943 -0.64365 48 44 44
0.76212 -0.29222 -0.64025 40 32 33
0.76816 -0.29500 -0.63685 28 30 28
0.77419 -0.29779 -0.63345 27 39 49
0.78023 -0.30057 -0.63005 35 43 67
0.78626 -0.30335 -0.62665 51 57 93
0.79229 -0.30613 -0.62326 51 57 86
0.79832 -0.30891 -0.61987 46 49 60
0.80435 -0.31169 -0.61647 46 47 59
0.81037 -0.31447 -0.61308 36 37 35
0.81639 -0.31725 -0.60969 16 14 26
0.82843 -0.32280 -0.60291 64 79 86
0.20993 -0.04826 -0.94059 36 39 40
0.24710 -0.06539 -0.91968 19 26 51
0.25328 -0.06824 -0.91620 23 25 42
0.25947 -0.07109 -0.91272 33 28 35
0.26565 -0.07394 -0.90924 24 22 24
0.27183 -0.07679 -0.90576 20 22 30
0.27801 -0.07964 -0.90229 18 20 29
0.28418 -0.08248 -0.89881 18 16 23
0.29036 -0.08533 -0.89534 29 22 30
0.29653 -0.08817 -0.89187 26 22 35
0.30270 -0.09102 -0.88840 18 19 26
0.30887 -0.09386 -0.88493 15 21 26
0.31503 -0.09670 -0.88146 18 19 35
0.32120 -0.09954 -0.87799 23 19 39
0.32736 -0.10238 -0.87452 21 21 37
0.33352 -0.10522 -0.87106 17 20 34
0.33967 -0.10806 -0.86759 13 19 28
0.34583 -0.11090 -0.86413 13 18 27
0.35198 -0.11373 -0.86067 32 42 61
0.35813 -0.11657 -0.85720 62 66 84
0.36428 -0.11940 -0.85374 32 22 30
0.37043 -0.12223 -0.85029 14 17 23
0.37658 -0.12507 -0.84683 14 20 21
0.38272 -0.12790 -0.84337 35 42 37
0.38886 -0.13073 -0.83992 55 58 43
0.39500 -0.13356 -0.83646 34 34 42
0.40114 -0.13639 -0.83301 21 25 42
0.40727 -0.13921 -0.82956 18 24 37
0.41340 -0.14204 -0.82611 44 51 56
0.41953 -0.14487 -0.82266 54 65 98
0.42566 -0.14769 -0.81921 30 36 46
0.43179 -0.15051 -0.81576 21 24 34
0.43791 -0.15334 -0.81232 22 19 18
0.44404 -0.15616 -0.80887 28 35 49
0.45016 -0.15898 -0.80543 67 73 95
0.45628 -0.16180 -0.80198 38 33 48
0.46239 -0.16462 -0.79854 19 19 38
0.46851 -0.16744 -0.79510 18 17 40
0.47462 -0.17025 -0.79166 25 26 56
0.48073 -0.17307 -0.78823 30 45 73
0.48684 -0.17589 -0.78479 24 32 59
0.49294 -0.17870 -0.78135 19 19 31
0.49905 -0.18151 -0.77792 16 17 27
0.50515 -0.18433 -0.77448 17 21 48
0.51125 -0.18714 -0.77105 33 36 65
0.51735 -0.18995 -0.76762 38 36 56
0.52345 -0.19276 -0.76419 27 29 43
0.52954 -0.19557 -0.76076 18 24 39
0.53563 -0.19837 -0.75733 18 21 45
0.54172 -0.20118 -0.75391 26 26 57
0.54781 -0.20399 -0.75048 32 31 60
0.55390 -0.20679 -0.74706 29 32 49
0.55998 -0.20960 -0.74363 24 27 39
0.56606 -0.21240 -0.74021 20 20 41
0.59037 -0.22360 -0.72654 23 27 45
0.60858 -0.23200 -0.71629 21 22 40
0.63283 -0.24317 -0.70265 26 26 49
0.63889 -0.24596 -0.69924 28 26 45
0.64494 -0.24876 -0.69583 24 25 36
0.65100 -0.25155 -0.69242 22 26 38
0.65705 -0.25434 -0.68902 39 42 59
0.66310 -0.25712 -0.68561 51 56 78
0.66914 -0.25991 -0.68221 46 42 59
0.67519 -0.26270 -0.67881 31 17 35
0.68123 -0.26548 -0.67541 23 19 33
0.68728 -0.26827 -0.67201 31 34 62
0.69332 -0.27105 -0.66861 45 56 70
0.69935 -0.27383 -0.66522 40 43 61
0.70539 -0.27662 -0.66182 36 37 58
0.71142 -0.27940 -0.65842 40 48 72
0.71745 -0.28218 -0.65503 46 53 73
0.72348 -0.28496 -0.65164 42 50 52
0.72951 -0.28773 -0.64825 24 21 45
0.73554 -0.29051 -0.64486 14 20 28
0.74156 -0.29329 -0.64147 25 32 40
0.74758 -0.29606 -0.63808 58 60 60
0.75360 -0.29884 -0.63469 51 42 41
0.75962 -0.30161 -0.63131 31 33 35
0.76564 -0.30438 -0.62792 19 26 45
0.77165 -0.30715 -0.62454 23 27 62
0.77766 -0.30993 -0.62115 46 48 108
0.78367 -0.31270 -0.61777 47 55 91
0.78968 -0.31546 -0.61439 40 43 53
0.79568 -0.31823 -0.61101 39 41 58
0.80169 -0.32100 -0.60764 40 40 51
0.80769 -0.32377 -0.60426 21 22 38
0.81969 -0.32930 -0.59751 67 75 102
0.82568 -0.33206 -0.59413 57 50 55
0.20341 -0.05588 -0.93384 37 39 47
0.24044 -0.07293 -0.91302 32 35 47
0.24660 -0.07577 -0.90955 35 34 56
0.25276 -0.07861 -0.90608 56 57 90
0.25892 -0.08145 -0.90262 43 37 52
0.26508 -0.08428 -0.89916 26 26 34
0.27124 -0.08712 -0.89570 16 19 18
0.27739 -0.08995 -0.89223 20 23 13
0.28354 -0.09279 -0.88877 64 51 29
0.28969 -0.09562 -0.88532 59 39 39
0.29584 -0.09845 -0.88186 26 23 38
0.30199 -0.10128 -0.87840 15 21 36
0.30813 -0.10411 -0.87495 21 26 38
0.31427 -0.10694 -0.87149 32 37 43
0.32041 -0.10977 -0.86804 31 38 44
0.32655 -0.11260 -0.86459 22 30 36
0.33269 -0.11542 -0.86114 15 22 22
0.33882 -0.11825 -0.85769 12 20 23
0.34495 -0.12107 -0.85424 32 45 73
0.35108 -0.12389 -0.85079 60 69 98
0.35721 -0.12672 -0.84735 26 27 30
0.36333 -0.12954 -0.84390 14 19 29
0.36946 -0.13236 -0.84046 16 17 31
0.37558 -0.13518 -0.83702 28 31 50
0.38170 -0.13800 -0.83358 38 52 59
0.38781 -0.14081 -0.83014 32 32 47
0.39393 -0.14363 -0.82670 19 27 43
0.40004 -0.14645 -0.82326 18 25 43
0.40615 -0.14926 -0.81982 25 23 50
0.41226 -0.15207 -0.81639 33 37 54
0.41837 -0.15489 -0.81295 28 31 45
0.42447 -0.15770 -0.80952 22 27 35
0.43058 -0.16051 -0.80609 20 24 27
0.43668 -0.16332 -0.80266 19 26 42
0.44278 -0.16613 -0.79923 23 33 55
0.44887 -0.16894 -0.79580 23 28 40
0.45497 -0.17175 -0.79237 20 23 38
0.46106 -0.17455 -0.78894 20 21 38
0.46715 -0.17736 -0.78552 19 21 45
0.47324 -0.18016 -0.78210 20 22 51
0.47933 -0.18297 -0.77867 19 22 44
0.48541 -0.18577 -0.77525 20 21 30
0.49149 -0.18857 -0.77183 20 19 24
0.49757 -0.19137 -0.76841 20 21 40
0.50365 -0.19417 -0.76499 28 28 56
0.50973 -0.19697 -0.76157 31 31 50
0.51580 -0.19977 -0.75816 26 28 36
0.52188 -0.20256 -0.75474 18 20 32
0.52795 -0.20536 -0.75133 19 22 42
0.55221 -0.21654 -0.73769 24 24 33
0.55827 -0.21933 -0.73428 21 20 35
0.56433 -0.22212 -0.73087 19 22 41
0.63084 -0.25275 -0.69347 32 25 45
0.63687 -0.25553 -0.69007 25 22 32
0.64290 -0.25831 -0.68668 21 23 39
0.64893 -0.26109 -0.68329 46 51 75
0.65496 -0.26387 -0.67990 67 80 108
0.66099 -0.26664 -0.67651 63 62 85
0.66701 -0.26942 -0.67312 48 36 53
0.67304 -0.27219 -0.66973 40 33 48
0.67906 -0.27496 -0.66635 33 31 63
0.68508 -0.27774 -0.66296 47 54 69
0.69109 -0.28051 -0.65958 35 31 54
0.69711 -0.28328 -0.65620 23 22 48
0.70312 -0.28605 -0.65282 28 40 61
0.70913 -0.28882 -0.64944 40 51 69
0.71514 -0.29158 -0.64606 40 49 52
0.72114 -0.29435 -0.64268 27 25 43
0.72715 -0.29712 -0.63930 16 20 25
0.73315 -0.29988 -0.63593 24 29 47
0.73915 -0.30264 -0.63255 40 51 63
0.74515 -0.30541 -0.62918 43 45 51
0.75115 -0.30817 -0.62581 32 35 39
0.75714 -0.31093 -0.62243 18 20 41
0.76314 -0.31369 -0.61906 17 17 42
0.76913 -0.31645 -0.61570 24 24 56
0.77511 -0.31921 -0.61233 31 37 58
0.78110 -0.32197 -0.60896 30 39 50
0.78709 -0.32472 -0.60560 33 35 60
0.79307 -0.32748 -0.60223 45 45 65
0.79905 -0.33023 -0.59887 29 27 42
0.80503 -0.33299 -0.59550 15 24 44
0.81101 -0.33574 -0.59214 42 58 94
0.81698 -0.33849 -0.58878 59 70 83
0.19694 -0.06343 -0.92714 37 38 45
0.23383 -0.08042 -0.90640 17 23 44
0.23997 -0.08324 -0.90295 21 22 27
0.24611 -0.08607 -0.89950 69 59 53
0.25225 -0.08890 -0.89605 50 35 57
0.25839 -0.09172 -0.89260 27 25 42
0.26452 -0.09454 -0.88915 19 21 25
0.27065 -0.09737 -0.88570 18 24 23
0.27678 -0.10019 -0.88226 42 41 55
0.28291 -0.10301 -0.87881 44 33 61
0.28904 -0.10583 -0.87537 25 23 45
0.29516 -0.10865 -0.87193 19 21 36
0.30128 -0.11147 -0.86849 20 22 31
0.30740 -0.11428 -0.86505 23 31 36
0.31352 -0.11710 -0.86161 24 34 43
0.31964 -0.11992 -0.85817 21 28 38
0.32575 -0.12273 -0.85474 17 23 26
0.33186 -0.12554 -0.85130 14 22 23
0.33797 -0.12836 -0.84787 16 28 40
0.34408 -0.13117 -0.84443 22 36 47
0.35018 -0.13398 -0.84100 21 28 30
0.35629 -0.13679 -0.83757 17 23 29
0.36239 -0.13960 -0.83414 15 16 30
0.36849 -0.14240 -0.83071 19 19 35
0.37458 -0.14521 -0.82728 26 28 48
0.38068 -0.14802 -0.82386 24 30 43
0.38677 -0.15082 -0.82043 19 26 33
0.39286 -0.15362 -0.81701 20 25 30
0.39895 -0.15643 -0.81359 22 23 40
0.40504 -0.15923 -0.81017 25 28 40
0.41113 -0.16203 -0.80674 25 27 36
0.41721 -0.16483 -0.80333 21 24 26
0.42329 -0.16763 -0.79991 20 26 36
0.42937 -0.17043 -0.79649 19 25 41
0.43545 -0.17323 -0.79307 21 26 40
0.44152 -0.17602 -0.78966 23 26 32
0.44760 -0.17882 -0.78625 21 24 41
0.45367 -0.18161 -0.78283 23 24 43
0.45974 -0.18441 -0.77942 22 25 43
0.46580 -0.18720 -0.77601 23 23 42
0.47187 -0.18999 -0.77260 21 24 41
0.47793 -0.19278 -0.76919 23 25 38
0.48399 -0.19557 -0.76579 26 27 36
0.49005 -0.19836 -0.76238 28 28 43
0.49611 -0.20115 -0.75898 31 29 51
0.50216 -0.20394 -0.75557 31 30 48
0.50822 -0.20672 -0.75217 25 28 35
0.51427 -0.20951 -0.74877 18 20 29
0.55053 -0.22620 -0.72838 24 24 39
0.62886 -0.26226 -0.68436 39 43 48
0.63487 -0.26503 -0.68098 28 26 42
0.64088 -0.26779 -0.67760 45 55 70
0.64689 -0.27056 -0.67422 66 85 106
0.65289 -0.27332 -0.67085 69 77 92
0.65890 -0.27609 -0.66747 66 71 76
0.66490 -0.27885 -0.66410 58 62 66
0.67090 -0.28161 -0.66073 36 35 60
0.67690 -0.28437 -0.65736 46 50 59
0.68289 -0.28713 -0.65399 37 31 49
0.68889 -0.28989 -0.65062 21 17 42
0.69488 -0.29265 -0.64725 20 28 46
0.70087 -0.29541 -0.64388 29 40 56
0.70685 -0.29816 -0.64052 31 40 48
0.71284 -0.30092 -0.63715 24 26 39
0.71882 -0.30367 -0.63379 17 19 27
0.72481 -0.30642 -0.63043 16 23 36
0.73078 -0.30918 -0.62707 20 30 49
0.73676 -0.31193 -0.62371 28 35 45
0.74274 -0.31468 -0.62035 29 26 32
0.74871 -0.31743 -0.61699 19 17 30
0.75468 -0.32018 -0.61363 20 16 29
0.76065 -0.32293 -0.61028 21 21 30
0.76662 -0.32567 -0.60692 24 26 39
0.77259 -0.32842 -0.60357 23 29 43
0.77855 -0.33117 -0.60022 26 25 53
0.78451 -0.33391 -0.59687 44 46 52
0.79047 -0.33665 -0.59352 34 31 44
0.79643 -0.33940 -0.59017 19 23 36
0.80239 -0.34214 -0.58682 26 28 65
0.80834 -0.34488 -0.58347 25 29 57
0.19051 -0.07093 -0.92049 34 39 43
0.19664 -0.07376 -0.91705 23 33 51
0.22115 -0.08503 -0.90328 19 29 48
0.22727 -0.08785 -0.89984 19 22 40
0.23339 -0.09066 -0.89640 21 28 39
0.23951 -0.09348 -0.89296 59 49 82
0.24563 -0.09629 -0.88952 47 32 65
0.25174 -0.09910 -0.88609 29 28 46
0.25785 -0.10192 -0.88266 23 23 39
0.26396 -0.10473 -0.87922 20 21 37
0.27007 -0.10754 -0.87579 18 21 50
0.27618 -0.11035 -0.87236 20 24 51
0.28228 -0.11315 -0.86893 21 24 41
0.28838 -0.11596 -0.86550 27 23 33
0.29448 -0.11877 -0.86208 29 23 32
0.30058 -0.12157 -0.85865 24 24 36
0.30668 -0.12438 -0.85523 23 26 38
0.31277 -0.12718 -0.85180 20 23 33
0.31886 -0.12998 -0.84838 15 19 27
0.32495 -0.13278 -0.84496 13 19 27
0.33104 -0.13559 -0.84154 16 22 26
0.33713 -0.13838 -0.83812 20 25 24
0.34321 -0.14118 -0.83470 18 24 28
0.34929 -0.14398 -0.83128 17 20 21
0.35537 -0.14678 -0.82787 19 21 30
0.36145 -0.14957 -0.82445 19 21 31
0.36753 -0.15237 -0.82104 22 21 37
0.37360 -0.15516 -0.81763 20 22 36
0.37967 -0.15796 -0.81422 17 24 34
0.38574 -0.16075 -0.81081 20 26 36
0.39181 -0.16354 -0.80740 21 27 43
0.39788 -0.16633 -0.80399 22 26 44
0.40394 -0.16912 -0.80058 24 27 42
0.41000 -0.17191 -0.79718 26 28 40
0.41606 -0.17470 -0.79377 28 32 47
0.42212 -0.17748 -0.79037 29 33 49
0.42817 -0.18027 -0.78697 31 35 49
0.43423 -0.18306 -0.78357 32 35 46
0.44028 -0.18584 -0.78017 35 38 50
0.44633 -0.18862 -0.77677 36 37 55
0.45238 -0.19140 -0.77337 37 36 56
0.45842 -0.19419 -0.76997 36 33 58
0.46447 -0.19697 -0.76658 34 33 61
0.47051 -0.19975 -0.76318 36 35 63
0.47655 -0.20252 -0.75979 40 37 62
0.48259 -0.20530 -0.75640 42 38 56
0.48862 -0.20808 -0.75301 46 40 59
0.49466 -0.21085 -0.74962 47 41 62
0.50672 -0.21640 -0.74284 20 20 27
0.66878 -0.29096 -0.65179 43 47 55
0.67475 -0.29371 -0.64843 42 36 47
0.68072 -0.29645 -0.64508 25 12 36
0.68670 -0.29920 -0.64173 18 16 28
0.69266 -0.30195 -0.63837 22 21 37
0.69863 -0.30469 -0.63502 24 23 37
0.70460 -0.30744 -0.63167 21 19 32
0.71056 -0.31018 -0.62832 18 18 24
0.71652 -0.31292 -0.62497 19 23 23
0.72248 -0.31566 -0.62162 16 26 37
0.72844 -0.31840 -0.61827 24 30 33
0.73439 -0.32114 -0.61493 31 28 20
0.74034 -0.32388 -0.61158 27 27 36
0.74630 -0.32662 -0.60824 34 29 42
0.75225 -0.32936 -0.60490 32 30 38
0.75819 -0.33209 -0.60156 33 32 43
0.76414 -0.33483 -0.59822 39 35 48
0.77008 -0.33756 -0.59488 44 37 60
0.18413 -0.07838 -0.91389 30 40 50
0.19024 -0.08119 -0.91046 24 22 24
0.19635 -0.08400 -0.90703 29 24 37
0.20246 -0.08680 -0.90360 38 22 35
0.20856 -0.08961 -0.90017 22 20 37
0.21466 -0.09242 -0.89675 18 19 34
0.22076 -0.09522 -0.89332 20 21 27
0.22686 -0.09803 -0.88990 17 22 31
0.23296 -0.10083 -0.88647 11 19 46
0.23905 -0.10363 -0.88305 16 21 41
0.24515 -0.10643 -0.87963 23 22 24
0.26341 -0.11483 -0.86937 23 24 24
0.26950 -0.11763 -0.86596 17 20 34
0.27558 -0.12042 -0.86254 28 31 46
0.29989 -0.13160 -0.84889 21 22 39
0.30596 -0.13439 -0.84548 18 23 27
0.31203 -0.13718 -0.84207 17 20 27
0.31810 -0.13997 -0.83866 22 23 38
0.66072 -0.29749 -0.64627 57 60 73
0.66667 -0.30023 -0.64292 57 58 67
0.17780 -0.08577 -0.90734 29 40 57
0.18389 -0.08857 -0.90392 21 26 40
0.20823 -0.09975 -0.89026 14 20 37
0.21430 -0.10254 -0.88685 18 21 30
0.22038 -0.10533 -0.88344 17 21 23
0.22646 -0.10812 -0.88003 13 16 16
0.23253 -0.11091 -0.87662 17 17 21
0.26286 -0.12485 -0.85960 18 22 35
0.17152 -0.09310 -0.90084 31 37 54
0.17759 -0.09589 -0.89743 38 27 30
0.21395 -0.11259 -0.87704 30 25 36
0.22000 -0.11537 -0.87364 21 13 35
0.16528 -0.10038 -0.89438 29 38 59
0.17133 -0.10316 -0.89099 35 33 40
0.15909 -0.10761 -0.88798 27 37 53
0.16511 -0.11037 -0.88460 20 27 21
0.17114 -0.11314 -0.88123 22 27 46
0.15294 -0.11478 -0.88162 28 37 55
0.15895 -0.11754 -0.87825 35 31 41
0.14684 -0.12191 -0.87530 27 27 55
0.60274 -0.35472 -0.65697 232 225 227
0.60874 -0.35745 -0.65370 233 227 229
0.61474 -0.36017 -0.65044 232 230 232
0.62074 -0.36290 -0.64718 232 226 228
0.62674 -0.36562 -0.64391 232 226 227
0.59561 -0.36106 -0.65222 230 223 226
0.60159 -0.36377 -0.64897 231 224 227
0.60758 -0.36649 -0.64572 230 225 226
0.61356 -0.36921 -0.64246 231 225 226
0.61954 -0.37192 -0.63921 232 225 226
0.58256 -0.36465 -0.65075 231 224 223
0.58853 -0.36735 -0.64751 231 225 227
0.59449 -0.37006 -0.64426 232 224 226
0.60046 -0.37277 -0.64102 231 224 223
0.60642 -0.37547 -0.63778 231 224 226
0.61238 -0.37818 -0.63454 232 224 225
0.61834 -0.38088 -0.63130 230 224 226
0.62430 -0.38359 -0.62806 231 224 226
0.63025 -0.38629 -0.62482 231 224 226
0.63621 -0.38899 -0.62159 232 224 226
0.64216 -0.39169 -0.61835 232 227 225
0.64812 -0.39439 -0.61512 232 227 225
0.65407 -0.39709 -0.61188 233 227 228
0.66002 -0.39979 -0.60865 233 228 230
0.57554 -0.37091 -0.64605 234 229 229
0.58149 -0.37361 -0.64282 234 229 231
0.58743 -0.37631 -0.63959 235 229 230
0.59338 -0.37900 -0.63636 234 229 231
0.59933 -0.38170 -0.63313 233 228 229
0.60527 -0.38440 -0.62990 234 227 228
0.61121 -0.38709 -0.62667 234 230 229
0.61715 -0.38978 -0.62344 234 230 231
0.62309 -0.39248 -0.62021 234 228 228
0.62903 -0.39517 -0.61699 234 229 228
0.63496 -0.39786 -0.61376 234 229 230
0.64090 -0.40056 -0.61054 234 228 227
0.64683 -0.40325 -0.60731 234 228 229
0.65276 -0.40594 -0.60409 234 228 230
0.56856 -0.37713 -0.64139 234 228 231
0.57449 -0.37982 -0.63816 233 227 231
0.58042 -0.38251 -0.63494 234 227 229
0.58635 -0.38520 -0.63172 233 227 230
0.59228 -0.38789 -0.62850 232 226 228
0.59820 -0.39057 -0.62529 232 225 224
0.60413 -0.39326 -0.62207 232 226 227
0.61005 -0.39594 -0.61885 233 226 228
0.61597 -0.39863 -0.61563 232 225 226
0.62189 -0.40131 -0.61242 231 225 226
0.62781 -0.40400 -0.60920 232 227 227
0.63373 -0.40668 -0.60599 232 227 227
0.63964 -0.40936 -0.60278 233 227 228
0.64556 -0.41204 -0.59956 234 227 230
0.55572 -0.38064 -0.63996 233 227 228
0.56163 -0.38332 -0.63675 232 227 229
0.56754 -0.38600 -0.63354 232 227 227
0.57345 -0.38868 -0.63033 233 226 227
0.57937 -0.39136 -0.62712 232 226 226
0.58527 -0.39404 -0.62391 231 226 226
0.59118 -0.39671 -0.62070 232 225 225
0.59709 -0.39939 -0.61749 233 226 226
0.60299 -0.40207 -0.61429 232 224 225
0.60890 -0.40474 -0.61108 232 225 225
0.61480 -0.40742 -0.60788 232 226 225
0.62070 -0.41009 -0.60467 232 226 225
0.62660 -0.41276 -0.60147 233 226 229
0.63249 -0.41544 -0.59827 234 227 230
0.63839 -0.41811 -0.59506 237 230 231
0.54295 -0.38412 -0.63854 235 228 231
0.54884 -0.38680 -0.63534 235 228 230
0.55474 -0.38947 -0.63214 233 229 229
0.56064 -0.39214 -0.62894 233 228 227
0.56653 -0.39481 -0.62574 232 227 227
0.57242 -0.39748 -0.62254 232 227 226
0.57831 -0.40015 -0.61934 232 227 227
0.58420 -0.40281 -0.61615 231 226 227
0.59009 -0.40548 -0.61295 232 226 226
0.59598 -0.40815 -0.60975 232 224 227
0.60187 -0.41082 -0.60656 232 225 227
0.60775 -0.41348 -0.60336 233 228 227
0.61363 -0.41615 -0.60017 233 227 227
0.61951 -0.41881 -0.59698 234 227 229
0.33538 -0.29934 -0.74290 235 229 233
0.34131 -0.30202 -0.73968 236 230 232
0.34724 -0.30471 -0.73646 236 231 233
0.35316 -0.30739 -0.73325 236 231 233
0.53614 -0.39025 -0.63394 237 229 234
0.54202 -0.39291 -0.63075 236 229 232
0.54790 -0.39558 -0.62756 235 231 233
0.55377 -0.39824 -0.62437 235 229 230
0.55965 -0.40090 -0.62118 233 228 229
0.56552 -0.40356 -0.61799 234 229 228
0.57140 -0.40622 -0.61481 233 229 229
0.57727 -0.40888 -0.61162 232 227 228
0.58314 -0.41154 -0.60843 234 228 227
0.58901 -0.41419 -0.60525 234 229 229
0.59488 -0.41685 -0.60206 233 228 229
0.60075 -0.41951 -0.59888 234 229 230
0.60661 -0.42216 -0.59570 235 229 229
0.32922 -0.30574 -0.73796 235 229 232
0.33513 -0.30841 -0.73476 235 230 231
0.34104 -0.31109 -0.73155 235 230 230
0.34694 -0.31376 -0.72835 235 230 231
0.35285 -0.31643 -0.72514 235 230 232
0.52937 -0.39634 -0.62937 236 229 233
0.53523 -0.39899 -0.62619 236 230 232
0.54109 -0.40165 -0.62301 236 231 233
0.54695 -0.40430 -0.61983 235 230 232
0.55281 -0.40695 -0.61665 234 229 231
0.55867 -0.40960 -0.61347 234 228 230
0.56453 -0.41225 -0.61030 234 229 229
0.57038 -0.41490 -0.60712 234 229 229
0.57623 -0.41755 -0.60394 234 229 230
0.58209 -0.42020 -0.60077 235 228 230
0.58794 -0.42285 -0.59760 234 229 230
0.59378 -0.42550 -0.59442 234 231 234
0.59963 -0.42815 -0.59125 235 230 232
0.60548 -0.43079 -0.58808 236 232 232
0.31720 -0.30943 -0.73626 235 230 233
0.32309 -0.31209 -0.73306 236 231 233
0.32898 -0.31476 -0.72987 236 230 232
0.33487 -0.31743 -0.72667 236 230 232
0.34076 -0.32009 -0.72348 236 230 233
0.34665 -0.32275 -0.72029 236 230 233
0.52264 -0.40239 -0.62483 237 230 231
0.52849 -0.40503 -0.62166 236 232 231
0.53433 -0.40768 -0.61849 237 233 234
0.54018 -0.41032 -0.61532 237 231 232
0.54602 -0.41297 -0.61215 236 229 232
0.55186 -0.41561 -0.60898 235 229 230
0.55769 -0.41825 -0.60582 235 230 228
0.56353 -0.42089 -0.60265 236 231 231
0.56937 -0.42353 -0.59948 235 230 232
0.57520 -0.42617 -0.59632 236 230 231
0.58104 -0.42881 -0.59316 235 230 232
0.58687 -0.43145 -0.58999 236 231 233
0.59270 -0.43409 -0.58683 236 232 233
0.30525 -0.31310 -0.73457 237 232 236
0.31113 -0.31575 -0.73138 238 234 236
0.31700 -0.31841 -0.72819 237 233 235
0.32288 -0.32107 -0.72501 237 231 234
0.32875 -0.32373 -0.72182 237 232 235
0.33462 -0.32638 -0.71864 238 233 235
0.34049 -0.32904 -0.71546 238 232 236
0.51596 -0.40840 -0.62031 237 232 232
0.52179 -0.41104 -0.61715 235 231 233
0.52761 -0.41367 -0.61399 237 231 233
0.53344 -0.41631 -0.61083 236 230 232
0.53926 -0.41894 -0.60768 236 231 233
0.54509 -0.42158 -0.60452 235 230 231
0.55091 -0.42421 -0.60136 235 231 230
0.55673 -0.42684 -0.59821 235 232 233
0.56255 -0.42947 -0.59505 235 230 234
0.56836 -0.43211 -0.59190 235 230 233
0.57418 -0.43474 -0.58874 236 229 230
0.57999 -0.43737 -0.58559 237 230 230
0.58581 -0.44000 -0.58244 236 231 233
0.29923 -0.31939 -0.72971 238 233 237
0.30509 -0.32204 -0.72653 238 234 237
0.31095 -0.32469 -0.72335 238 233 236
0.31681 -0.32734 -0.72018 237 232 236
0.32266 -0.32999 -0.71701 237 233 237
0.32852 -0.33263 -0.71383 238 234 237
0.33437 -0.33528 -0.71066 238 233 237
0.50932 -0.41438 -0.61583 236 230 232
0.51513 -0.41701 -0.61268 235 230 235
0.52094 -0.41963 -0.60953 236 229 231
0.52674 -0.42226 -0.60638 234 229 231
0.53255 -0.42488 -0.60323 235 230 234
0.53836 -0.42751 -0.60008 235 229 231
0.54416 -0.43013 -0.59694 235 229 228
0.54996 -0.43276 -0.59379 235 231 232
0.55577 -0.43538 -0.59065 235 231 236
0.56157 -0.43800 -0.58750 235 229 233
0.56736 -0.44062 -0.58436 235 229 230
0.57316 -0.44324 -0.58122 235 230 232
0.28741 -0.32301 -0.72804 237 232 236
0.29325 -0.32565 -0.72487 238 231 237
0.29909 -0.32829 -0.72171 238 233 237
0.30494 -0.33093 -0.71854 237 233 235
0.31077 -0.33357 -0.71538 237 233 235
0.31661 -0.33621 -0.71222 237 233 236
0.32245 -0.33885 -0.70905 238 233 236
0.32828 -0.34148 -0.70589 238 233 236
0.50271 -0.42032 -0.61137 235 229 230
0.50851 -0.42294 -0.60823 236 230 233
0.51430 -0.42555 -0.60509 236 231 231
0.52009 -0.42817 -0.60195 236 230 228
0.52588 -0.43079 -0.59881 236 230 233
0.53167 -0.43340 -0.59567 237 231 234
0.53746 -0.43602 -0.59254 237 231 233
0.54324 -0.43863 -0.58940 237 230 234
0.54903 -0.44125 -0.58627 237 231 236
0.55481 -0.44386 -0.58313 238 232 234
0.56059 -0.44647 -0.58000 238 234 230
0.27566 -0.32660 -0.72639 238 233 235
0.28148 -0.32924 -0.72323 237 232 237
0.28731 -0.33187 -0.72007 237 231 238
0.29314 -0.33450 -0.71692 237 232 238
0.29896 -0.33713 -0.71376 237 232 237
0.30478 -0.33976 -0.71061 237 232 236
0.31060 -0.34239 -0.70746 238 233 235
0.31642 -0.34502 -0.70430 237 233 235
0.50193 -0.42883 -0.60380 239 234 234
0.50771 -0.43144 -0.60068 239 235 236
0.51348 -0.43405 -0.59755 240 235 236
0.51925 -0.43666 -0.59442 239 233 237
0.52502 -0.43926 -0.59129 239 233 238
0.53079 -0.44187 -0.58817 239 233 237
0.53656 -0.44448 -0.58504 240 235 238
0.56539 -0.45750 -0.56943 244 240 242
0.26398 -0.33018 -0.72474 239 234 238
0.26979 -0.33280 -0.72160 238 234 238
0.27560 -0.33543 -0.71845 239 235 240
0.28140 -0.33805 -0.71530 239 235 240
0.28721 -0.34067 -0.71216 239 233 239
0.29302 -0.34329 -0.70901 239 233 238
0.29882 -0.34592 -0.70587 239 234 237
0.30463 -0.34854 -0.70273 238 233 235
0.50691 -0.43989 -0.59317 243 242 244
0.51266 -0.44249 -0.59005 243 240 242
0.51842 -0.44509 -0.58694 243 239 242
0.52417 -0.44768 -0.58382 243 238 240
0.52992 -0.45028 -0.58071 244 240 242
0.53567 -0.45288 -0.57759 243 239 241
0.54142 -0.45547 -0.57448 243 240 242
0.54717 -0.45807 -0.57137 243 239 240
0.55292 -0.46067 -0.56825 242 238 239
0.55866 -0.46326 -0.56514 242 237 239
0.25236 -0.33373 -0.72311 240 237 241
0.25816 -0.33635 -0.71997 239 234 240
0.26395 -0.33896 -0.71683 238 235 241
0.26974 -0.34158 -0.71370 239 237 241
0.27554 -0.34419 -0.71056 240 237 240
0.28133 -0.34681 -0.70743 240 236 239
0.28711 -0.34942 -0.70429 240 235 239
0.29290 -0.35203 -0.70116 240 235 238
0.50611 -0.44828 -0.58572 241 236 241
0.51185 -0.45087 -0.58261 241 237 241
0.51759 -0.45346 -0.57950 241 236 240
0.52332 -0.45605 -0.57640 240 237 240
0.52906 -0.45864 -0.57329 241 239 241
0.53479 -0.46123 -0.57019 243 240 243
0.54052 -0.46382 -0.56709 241 239 241
0.54625 -0.46640 -0.56399 241 237 240
0.55198 -0.46899 -0.56088 243 238 241
0.24082 -0.33726 -0.72148 241 237 240
0.24660 -0.33987 -0.71835 242 238 242
0.25237 -0.34248 -0.71523 240 236 241
0.25815 -0.34509 -0.71210 241 238 242
0.26393 -0.34769 -0.70897 242 238 242
0.26970 -0.35030 -0.70585 242 238 240
0.27547 -0.35290 -0.70272 241 237 239
0.28125 -0.35551 -0.69960 240 236 240
0.49388 -0.45146 -0.58450 240 235 238
0.49961 -0.45404 -0.58140 241 237 240
0.50533 -0.45663 -0.57831 241 237 238
0.51105 -0.45921 -0.57521 241 235 236
0.51676 -0.46179 -0.57212 239 233 236
0.52248 -0.46437 -0.56902 239 233 237
0.52820 -0.46695 -0.56593 240 235 239
0.53391 -0.46952 -0.56284 240 237 239
0.53962 -0.47210 -0.55974 241 236 240
0.54534 -0.47468 -0.55665 242 238 242
0.24087 -0.34597 -0.71363 244 241 244
0.24663 -0.34857 -0.71051 244 240 242
0.25239 -0.35117 -0.70740 244 241 243
0.25815 -0.35377 -0.70428 244 241 243
0.26390 -0.35637 -0.70116 244 241 244
0.26966 -0.35896 -0.69805 244 240 243
0.48743 -0.45720 -0.58021 240 236 240
0.49314 -0.45977 -0.57712 241 238 241
0.49884 -0.46234 -0.57403 241 237 243
0.50454 -0.46492 -0.57095 241 237 238
0.51025 -0.46749 -0.56786 241 234 236
0.51595 -0.47006 -0.56478 239 235 236
0.52165 -0.47263 -0.56169 240 236 238
0.52734 -0.47520 -0.55861 241 236 240
0.53304 -0.47777 -0.55553 241 235 238
0.53873 -0.48034 -0.55245 243 238 240
0.21218 -0.34167 -0.72137 244 243 246
0.21793 -0.34427 -0.71826 244 243 246
0.22368 -0.34686 -0.71515 245 243 245
0.22942 -0.34945 -0.71204 246 244 246
0.23517 -0.35204 -0.70893 247 245 247
0.24091 -0.35463 -0.70583 247 245 247
0.24666 -0.35722 -0.70272 246 244 245
0.25240 -0.35981 -0.69961 246 244 245
0.25814 -0.36240 -0.69651 247 245 246
0.48102 -0.46290 -0.57594 241 236 238
0.48671 -0.46546 -0.57286 241 234 236
0.49239 -0.46803 -0.56978 240 235 239
0.49808 -0.47059 -0.56671 239 234 237
0.50377 -0.47315 -0.56363 238 232 235
0.50945 -0.47572 -0.56056 238 233 235
0.51513 -0.47828 -0.55748 238 234 235
0.52081 -0.48084 -0.55441 239 233 237
0.52649 -0.48340 -0.55134 238 233 237
0.20085 -0.34515 -0.71977 245 244 247
0.20658 -0.34774 -0.71666 246 244 247
0.21232 -0.35032 -0.71356 246 244 247
0.21805 -0.35290 -0.71046 245 242 245
0.22378 -0.35549 -0.70737 245 242 245
0.22951 -0.35807 -0.70427 246 244 246
0.23524 -0.36065 -0.70117 246 244 247
0.24096 -0.36323 -0.69807 245 244 246
0.24669 -0.36581 -0.69498 245 244 246
0.25241 -0.36839 -0.69188 245 243 246
0.46897 -0.46600 -0.57476 239 236 239
0.47464 -0.46856 -0.57169 240 235 239
0.48032 -0.47112 -0.56863 238 233 236
0.48599 -0.47367 -0.56556 237 232 236
0.49166 -0.47623 -0.56249 236 232 235
0.49733 -0.47879 -0.55943 237 232 233
0.50299 -0.48134 -0.55636 238 233 234
0.50866 -0.48389 -0.55330 238 235 236
0.51432 -0.48645 -0.55023 240 236 237
0.51999 -0.48900 -0.54717 241 237 238
0.18959 -0.34861 -0.71817 246 244 247
0.19531 -0.35119 -0.71508 245 243 246
0.20102 -0.35376 -0.71199 246 244 246
0.20674 -0.35634 -0.70890 245 242 245
0.21246 -0.35891 -0.70581 244 242 244
0.21817 -0.36149 -0.70272 245 242 243
0.22388 -0.36406 -0.69963 245 243 244
0.22959 -0.36663 -0.69654 245 242 245
0.23530 -0.36921 -0.69345 243 241 245
0.24101 -0.37178 -0.69037 244 241 244
0.46265 -0.47164 -0.57053 241 237 239
0.46831 -0.47419 -0.56748 241 236 238
0.47396 -0.47674 -0.56442 239 235 238
0.47962 -0.47929 -0.56136 240 233 238
0.48527 -0.48184 -0.55830 239 234 236
0.49092 -0.48438 -0.55525 240 234 235
0.49657 -0.48693 -0.55219 241 235 237
0.50222 -0.48948 -0.54914 240 236 237
0.50787 -0.49202 -0.54608 241 238 238
0.51352 -0.49457 -0.54303 242 239 241
0.18409 -0.35462 -0.71350 244 243 246
0.18980 -0.35718 -0.71042 243 241 245
0.19550 -0.35975 -0.70734 245 242 244
0.20120 -0.36232 -0.70425 243 240 244
0.20690 -0.36489 -0.70117 243 240 243
0.21259 -0.36745 -0.69810 243 241 243
0.21829 -0.37002 -0.69502 243 242 243
0.22398 -0.37258 -0.69194 243 241 244
0.22968 -0.37515 -0.68886 243 240 243
0.45072 -0.47471 -0.56938 240 234 236
0.45637 -0.47725 -0.56633 239 235 238
0.46201 -0.47979 -0.56328 240 235 238
0.46765 -0.48233 -0.56023 241 237 240
0.47329 -0.48487 -0.55719 242 238 242
0.47892 -0.48741 -0.55414 242 238 240
0.48456 -0.48995 -0.55109 242 238 240
0.49020 -0.49249 -0.54805 242 238 241
0.49583 -0.49502 -0.54500 242 238 241
0.50146 -0.49756 -0.54196 242 239 241
0.50709 -0.50010 -0.53891 245 242 244
0.17295 -0.35803 -0.71193 243 241 244
0.17863 -0.36059 -0.70886 243 241 244
0.18432 -0.36315 -0.70578 245 241 243
0.19000 -0.36571 -0.70271 244 240 242
0.19569 -0.36826 -0.69964 243 240 241
0.20137 -0.37082 -0.69657 243 238 242
0.20705 -0.37338 -0.69350 243 239 242
0.21273 -0.37594 -0.69043 242 241 243
0.21841 -0.37849 -0.68736 243 240 242
0.44450 -0.48029 -0.56519 242 238 239
0.45012 -0.48282 -0.56215 243 239 240
0.45575 -0.48535 -0.55911 242 238 239
0.46137 -0.48789 -0.55608 242 238 241
0.46699 -0.49042 -0.55304 243 238 242
0.47261 -0.49295 -0.55000 243 239 241
0.47823 -0.49548 -0.54696 242 239 240
0.48385 -0.49801 -0.54393 242 239 240
0.48947 -0.50054 -0.54089 242 239 240
0.49509 -0.50307 -0.53786 241 238 240
0.16186 -0.36142 -0.71037 242 239 241
0.16754 -0.36397 -0.70731 241 239 241
0.17321 -0.36652 -0.70424 242 239 241
0.17888 -0.36907 -0.70118 243 238 240
0.18454 -0.37162 -0.69812 242 238 243
0.19021 -0.37417 -0.69506 242 239 242
0.19588 -0.37672 -0.69200 240 237 241
0.20154 -0.37927 -0.68894 241 237 241
0.20720 -0.38182 -0.68588 242 239 242
0.43269 -0.48331 -0.56406 244 241 242
0.43830 -0.48584 -0.56103 242 239 243
0.44391 -0.48836 -0.55800 241 237 240
0.44952 -0.49089 -0.55497 241 238 239
0.45513 -0.49341 -0.55194 241 237 240
0.46074 -0.49593 -0.54891 241 236 240
0.46634 -0.49846 -0.54588 241 236 239
0.47195 -0.50098 -0.54286 242 237 239
0.47755 -0.50350 -0.53983 241 237 239
0.48315 -0.50602 -0.53680 241 237 239
0.15084 -0.36479 -0.70882 243 240 242
0.15650 -0.36733 -0.70576 242 240 242
0.16216 -0.36988 -0.70271 243 240 242
0.16781 -0.37242 -0.69966 242 239 241
0.17346 -0.37496 -0.69660 241 239 241
0.17912 -0.37751 -0.69355 242 240 244
0.18477 -0.38005 -0.69050 243 240 243
0.19042 -0.38259 -0.68745 242 238 240
0.19606 -0.38513 -0.68440 241 238 239
0.42655 -0.48883 -0.55992 241 237 238
0.43215 -0.49135 -0.55689 240 236 239
0.43774 -0.49387 -0.55387 239 235 238
0.44334 -0.49638 -0.55085 240 234 236
0.44893 -0.49890 -0.54783 240 234 238
0.45452 -0.50141 -0.54481 240 235 239
0.46011 -0.50393 -0.54179 240 235 238
0.46570 -0.50644 -0.53878 241 237 239
0.47128 -0.50896 -0.53576 240 237 239
0.47687 -0.51147 -0.53274 239 236 238
0.48245 -0.51398 -0.52973 239 236 240
0.14553 -0.37068 -0.70423 242 240 243
0.15117 -0.37321 -0.70119 242 240 243
0.15681 -0.37575 -0.69814 244 241 243
0.16245 -0.37829 -0.69510 243 240 242
0.16809 -0.38082 -0.69205 243 240 241
0.17372 -0.38336 -0.68901 243 240 243
0.17935 -0.38589 -0.68597 242 239 243
0.18499 -0.38842 -0.68293 242 239 242
0.42045 -0.49432 -0.55579 239 235 235
0.42603 -0.49683 -0.55278 240 235 236
0.43161 -0.49934 -0.54977 239 234 236
0.43719 -0.50185 -0.54676 239 234 237
0.44276 -0.50436 -0.54375 240 234 238
0.44834 -0.50686 -0.54074 240 234 239
0.45391 -0.50937 -0.53773 240 234 236
0.45948 -0.51188 -0.53472 240 234 236
0.46505 -0.51438 -0.53171 239 235 236
0.47062 -0.51689 -0.52870 239 234 236
0.47619 -0.51939 -0.52570 240 236 238
0.13462 -0.37400 -0.70271 244 242 245
0.14025 -0.37653 -0.69967 245 243 245
0.14587 -0.37906 -0.69663 245 244 246
0.15150 -0.38159 -0.69360 246 243 244
0.15712 -0.38412 -0.69056 244 243 245
0.16274 -0.38664 -0.68753 244 240 243
0.16836 -0.38917 -0.68450 243 241 244
0.17398 -0.39169 -0.68146 242 241 243
0.40882 -0.49728 -0.55470 239 234 236
0.41439 -0.49978 -0.55170 239 233 234
0.41995 -0.50228 -0.54869 239 233 234
0.42551 -0.50478 -0.54569 238 232 234
0.43107 -0.50728 -0.54269 236 232 234
0.43663 -0.50978 -0.53969 239 233 237
0.44219 -0.51228 -0.53669 240 234 237
0.44775 -0.51478 -0.53369 239 234 236
0.45331 -0.51728 -0.53069 239 233 234
0.45886 -0.51978 -0.52769 239 234 235
0.46442 -0.52227 -0.52469 239 235 236
0.46997 -0.52477 -0.52169 239 235 237
0.12378 -0.37731 -0.70119 244 242 246
0.12939 -0.37983 -0.69816 244 242 245
0.13500 -0.38235 -0.69514 244 243 245
0.14060 -0.38487 -0.69211 244 243 245
0.14621 -0.38739 -0.68908 244 242 244
0.15182 -0.38991 -0.68606 244 241 245
0.15742 -0.39243 -0.68303 245 241 244
0.16303 -0.39495 -0.68001 245 242 245
0.40281 -0.50271 -0.55062 240 235 236
0.40835 -0.50520 -0.54762 240 235 235
0.41390 -0.50770 -0.54463 238 233 235
0.41945 -0.51019 -0.54164 238 232 234
0.42500 -0.51268 -0.53864 238 232 234
0.43054 -0.51518 -0.53565 239 234 236
0.43608 -0.51767 -0.53266 240 235 236
0.44162 -0.52016 -0.52967 239 234 236
0.44717 -0.52265 -0.52668 240 234 235
0.45271 -0.52514 -0.52369 240 235 237
0.45824 -0.52763 -0.52070 241 236 238
0.46378 -0.53011 -0.51771 241 237 238
0.46932 -0.53260 -0.51473 241 237 239
0.11299 -0.38059 -0.69968 244 243 244
0.11859 -0.38311 -0.69666 243 242 244
0.12418 -0.38562 -0.69365 244 241 243
0.12978 -0.38814 -0.69063 245 242 246
0.13537 -0.39065 -0.68761 244 242 245
0.14096 -0.39316 -0.68460 243 241 244
0.14655 -0.39567 -0.68158 243 240 245
0.15214 -0.39818 -0.67856 243 240 245
0.39683 -0.50811 -0.54656 240 237 238
0.40236 -0.51060 -0.54357 240 235 237
0.40789 -0.51308 -0.54059 240 235 237
0.41342 -0.51557 -0.53760 239 235 237
0.41895 -0.51805 -0.53462 239 236 238
0.42448 -0.52054 -0.53164 240 235 238
0.43001 -0.52302 -0.52866 240 236 238
0.43554 -0.52550 -0.52567 239 236 238
0.44106 -0.52799 -0.52269 240 236 238
0.44659 -0.53047 -0.51971 241 237 239
0.45211 -0.53295 -0.51673 241 237 239
0.45763 -0.53543 -0.51375 242 238 241
0.46315 -0.53791 -0.51078 242 239 240
0.46867 -0.54039 -0.50780 242 238 240
0.10785 -0.38637 -0.69517 243 241 242
0.11343 -0.38888 -0.69217 243 241 244
0.11901 -0.39138 -0.68916 244 240 243
0.12459 -0.39389 -0.68615 244 240 245
0.13016 -0.39639 -0.68314 245 240 243
0.13574 -0.39889 -0.68013 244 240 242
0.14131 -0.40140 -0.67713 243 240 244
0.14688 -0.40390 -0.67412 244 241 244
0.38536 -0.51100 -0.54550 241 236 239
0.39088 -0.51348 -0.54252 241 237 238
0.39640 -0.51596 -0.53955 241 237 238
0.40192 -0.51844 -0.53657 241 237 238
0.40743 -0.52091 -0.53360 241 237 239
0.41295 -0.52339 -0.53062 241 238 239
0.41846 -0.52587 -0.52765 241 237 238
0.42397 -0.52834 -0.52468 241 236 237
0.42948 -0.53082 -0.52170 241 237 238
0.43499 -0.53329 -0.51873 242 237 239
0.44050 -0.53577 -0.51576 241 237 238
0.44601 -0.53824 -0.51279 242 238 239
0.45151 -0.54071 -0.50982 242 239 240
0.45702 -0.54318 -0.50685 242 239 240
0.46252 -0.54566 -0.50388 242 239 240
0.10274 -0.39211 -0.69069 243 239 241
0.10830 -0.39461 -0.68769 242 239 242
0.11386 -0.39711 -0.68469 243 239 241
0.11943 -0.39960 -0.68169 242 240 245
0.12499 -0.40210 -0.67870 243 240 243
0.13055 -0.40460 -0.67570 244 240 241
0.13611 -0.40709 -0.67270 244 240 244
0.37947 -0.51635 -0.54148 242 238 240
0.38497 -0.51882 -0.53851 242 238 241
0.39047 -0.52129 -0.53554 242 239 241
0.39598 -0.52376 -0.53258 242 238 240
0.40148 -0.52623 -0.52961 242 238 240
0.40697 -0.52870 -0.52665 243 239 240
0.41247 -0.53117 -0.52368 242 239 239
0.41797 -0.53363 -0.52072 242 238 238
0.42346 -0.53610 -0.51775 243 239 240
0.42896 -0.53857 -0.51479 243 239 240
0.43445 -0.54103 -0.51183 242 239 239
0.43994 -0.54350 -0.50887 243 239 241
0.44543 -0.54596 -0.50591 244 240 242
0.45092 -0.54843 -0.50295 243 241 242
0.45641 -0.55089 -0.49999 243 241 241
0.46190 -0.55336 -0.49703 242 239 241
0.46739 -0.55582 -0.49407 242 239 240
0.09766 -0.39782 -0.68624 244 240 242
0.10320 -0.40031 -0.68325 243 240 242
0.10875 -0.40280 -0.68025 243 241 242
0.11430 -0.40529 -0.67727 244 240 245
0.11984 -0.40778 -0.67428 245 242 244
0.12539 -0.41026 -0.67129 245 242 243
0.37361 -0.52166 -0.53748 243 240 240
0.37910 -0.52413 -0.53452 243 240 241
0.38458 -0.52659 -0.53156 243 240 241
0.39007 -0.52905 -0.52861 244 240 242
0.39555 -0.53151 -0.52565 243 240 241
0.40104 -0.53397 -0.52269 244 240 243
0.40652 -0.53643 -0.51974 244 241 242
0.41200 -0.53889 -0.51678 244 241 243
0.41748 -0.54135 -0.51383 244 242 242
0.42296 -0.54381 -0.51088 244 242 242
0.42844 -0.54627 -0.50792 244 241 241
0.43392 -0.54873 -0.50497 244 241 242
0.43939 -0.55119 -0.50202 244 241 243
0.44486 -0.55364 -0.49907 244 242 243
0.45034 -0.55610 -0.49612 244 241 242
0.45581 -0.55856 -0.49317 243 240 241
0.46128 -0.56101 -0.49022 242 239 240
0.46675 -0.56347 -0.48727 242 238 240
0.09814 -0.40598 -0.67882 244 242 244
0.10367 -0.40846 -0.67584 245 243 245
0.10920 -0.41094 -0.67286 245 244 247
0.11473 -0.41342 -0.66988 246 244 246
0.36778 -0.52695 -0.53351 244 240 242
0.37325 -0.52940 -0.53056 244 241 242
0.37873 -0.53186 -0.52761 245 241 242
0.38420 -0.53431 -0.52466 244 242 244
0.38967 -0.53677 -0.52171 243 240 242
0.39514 -0.53922 -0.51877 244 240 242
0.40060 -0.54167 -0.51582 244 240 242
0.40607 -0.54413 -0.51287 243 240 243
0.41153 -0.54658 -0.50993 243 241 242
0.41700 -0.54903 -0.50698 243 240 241
0.42246 -0.55148 -0.50404 243 239 242
0.42792 -0.55393 -0.50110 244 240 242
0.43338 -0.55638 -0.49815 243 240 242
0.43884 -0.55883 -0.49521 243 240 242
0.44430 -0.56128 -0.49227 243 240 241
0.44975 -0.56372 -0.48933 242 238 240
0.45521 -0.56617 -0.48639 242 237 239
0.46066 -0.56862 -0.48345 241 236 238
0.35653 -0.52975 -0.53250 243 241 243
0.36199 -0.53220 -0.52956 243 240 244
0.36745 -0.53465 -0.52661 244 241 242
0.37290 -0.53710 -0.52367 244 241 243
0.37836 -0.53954 -0.52074 243 241 244
0.38381 -0.54199 -0.51780 242 240 242
0.38927 -0.54444 -0.51486 242 239 241
0.39472 -0.54688 -0.51192 242 238 240
0.40017 -0.54932 -0.50898 242 238 241
0.40562 -0.55177 -0.50605 242 239 241
0.41107 -0.55421 -0.50311 243 239 242
0.41652 -0.55666 -0.50018 244 239 242
0.42196 -0.55910 -0.49724 242 238 242
0.42741 -0.56154 -0.49431 243 239 242
0.43285 -0.56398 -0.49138 243 239 241
0.43829 -0.56642 -0.48844 242 239 240
0.44374 -0.56886 -0.48551 242 238 240
0.44918 -0.57130 -0.48258 242 238 239
0.45461 -0.57374 -0.47965 241 237 238
0.35079 -0.53498 -0.52856 244 242 244
0.35623 -0.53742 -0.52563 244 241 244
0.36167 -0.53986 -0.52270 244 242 243
0.36712 -0.54230 -0.51976 244 241 242
0.37256 -0.54474 -0.51683 242 240 241
0.37799 -0.54718 -0.51390 243 240 241
0.38343 -0.54962 -0.51097 242 239 240
0.38887 -0.55206 -0.50805 242 238 240
0.39431 -0.55449 -0.50512 242 239 241
0.39974 -0.55693 -0.50219 243 240 242
