ply
format ascii 1.0
element face 0
property list uchar int vertex_indices
element vertex 1251
property float x
property float y
property float z
property uchar diffuse_red
property uchar diffuse_green
property uchar diffuse_blue
end_header
1.11691 -0.52368 -0.41434 254 254 254
1.11953 -0.53156 -0.40689 254 254 254
1.12214 -0.53943 -0.39945 254 254 254
1.12476 -0.54730 -0.39201 254 254 254
1.12737 -0.55517 -0.38458 254 254 254
1.12999 -0.56302 -0.37715 254 254 254
1.08613 -0.49237 -0.44671 254 254 254
1.08875 -0.50023 -0.43928 254 254 254
1.09136 -0.50808 -0.43186 254 254 254
1.09398 -0.51593 -0.42444 254 254 254
1.09659 -0.52377 -0.41702 254 254 254
1.09920 -0.53161 -0.40961 254 254 254
1.10181 -0.53945 -0.40220 254 254 254
1.10442 -0.54728 -0.39480 254 254 254
1.10703 -0.55510 -0.38740 254 254 254
1.14853 -0.67968 -0.26959 252 252 252
1.15111 -0.68743 -0.26227 252 252 252
1.15369 -0.69517 -0.25495 252 252 252
1.15627 -0.70291 -0.24763 252 252 252
1.06864 -0.50043 -0.44183 254 254 254
1.07125 -0.50825 -0.43444 254 254 254
1.07386 -0.51606 -0.42705 254 254 254
1.07647 -0.52386 -0.41967 254 254 254
1.07907 -0.53166 -0.41229 254 254 254
1.08168 -0.53946 -0.40492 254 254 254
1.08428 -0.54725 -0.39755 254 254 254
1.08688 -0.55504 -0.39019 254 254 254
1.12828 -0.67902 -0.27294 252 252 252
1.13085 -0.68673 -0.26565 252 252 252
1.13342 -0.69444 -0.25836 252 252 252
1.13600 -0.70214 -0.25108 252 252 252
1.13857 -0.70984 -0.24380 252 252 252
1.05134 -0.50841 -0.43699 254 254 254
1.05394 -0.51618 -0.42964 254 254 254
1.05654 -0.52395 -0.42230 254 254 254
1.05914 -0.53172 -0.41495 254 254 254
1.06174 -0.53947 -0.40762 254 254 254
1.06433 -0.54723 -0.40028 254 254 254
1.10822 -0.67836 -0.27626 252 252 252
1.11078 -0.68604 -0.26900 252 252 252
1.11335 -0.69371 -0.26175 252 252 252
1.11591 -0.70137 -0.25450 252 252 252
1.11848 -0.70903 -0.24725 252 252 252
1.12104 -0.71669 -0.24001 252 251 252
1.03421 -0.51631 -0.43221 254 254 254
1.03680 -0.52404 -0.42490 254 254 254
1.08835 -0.67771 -0.27954 252 252 252
1.09091 -0.68535 -0.27232 252 252 252
1.09347 -0.69298 -0.26510 252 252 252
1.09603 -0.70061 -0.25788 252 252 252
1.09858 -0.70824 -0.25067 252 252 252
1.10114 -0.71586 -0.24346 252 252 252
1.10369 -0.72347 -0.23626 252 251 251
1.06867 -0.67707 -0.28279 252 253 253
1.07122 -0.68467 -0.27560 252 252 252
1.07377 -0.69227 -0.26842 252 252 252
1.07633 -0.69986 -0.26123 252 252 252
1.07888 -0.70745 -0.25406 252 252 252
1.08143 -0.71503 -0.24688 252 252 252
1.08397 -0.72261 -0.23971 252 251 251
1.08652 -0.73019 -0.23255 252 251 251
1.04917 -0.67643 -0.28601 253 253 253
1.05172 -0.68400 -0.27886 252 252 252
1.05427 -0.69156 -0.27170 252 252 252
1.05681 -0.69912 -0.26455 252 252 252
1.05936 -0.70667 -0.25741 252 252 252
1.06190 -0.71422 -0.25027 252 252 252
1.06444 -0.72176 -0.24313 252 252 252
1.06698 -0.72930 -0.23600 252 251 251
1.03240 -0.68333 -0.28208 253 253 253
1.03494 -0.69086 -0.27496 252 252 252
1.03748 -0.69838 -0.26784 252 252 252
1.04002 -0.70589 -0.26073 252 252 252
1.04256 -0.71341 -0.25362 252 252 252
1.04509 -0.72092 -0.24652 252 252 252
1.04762 -0.72842 -0.23942 252 251 251
1.05016 -0.73592 -0.23232 252 251 251
1.01327 -0.68267 -0.28527 253 253 253
1.01580 -0.69016 -0.27819 252 253 253
1.01833 -0.69765 -0.27110 252 252 252
1.02087 -0.70513 -0.26402 252 252 252
1.02339 -0.71261 -0.25695 252 252 252
1.02592 -0.72008 -0.24987 252 252 252
1.02845 -0.72755 -0.24281 252 252 252
1.03098 -0.73501 -0.23574 252 251 251
0.99431 -0.68201 -0.28844 253 253 253
0.99684 -0.68947 -0.28138 253 253 253
0.99936 -0.69692 -0.27433 252 252 252
1.00189 -0.70437 -0.26728 252 252 252
1.00441 -0.71181 -0.26024 252 252 252
1.00693 -0.71925 -0.25320 252 252 252
1.00945 -0.72669 -0.24616 252 252 252
1.01197 -0.73412 -0.23913 252 252 252
0.89924 -0.45677 -0.50414 254 254 254
0.97805 -0.68879 -0.28455 253 253 253
0.98057 -0.69620 -0.27753 253 253 253
0.98309 -0.70362 -0.27051 252 252 252
0.98560 -0.71103 -0.26350 252 252 252
0.98812 -0.71843 -0.25649 252 252 252
0.99063 -0.72583 -0.24949 252 252 252
0.99315 -0.73323 -0.24249 252 252 252
0.99566 -0.74062 -0.23549 252 251 251
0.88083 -0.45717 -0.50628 254 254 254
0.88338 -0.46469 -0.49917 254 254 254
0.86259 -0.45757 -0.50840 254 254 254
0.86514 -0.46505 -0.50132 254 254 254
0.94099 -0.68744 -0.29079 253 253 253
0.84197 -0.45051 -0.51755 254 254 254
0.84452 -0.45796 -0.51050 254 254 254
0.82154 -0.44352 -0.52663 254 254 254
0.82408 -0.45093 -0.51960 254 254 254
0.80128 -0.43658 -0.53562 254 254 254
0.78119 -0.42971 -0.54454 254 254 254
0.63325 -0.75579 -0.27104 254 254 254
0.63561 -0.76248 -0.26470 254 254 254
0.61075 -0.73488 -0.29292 254 254 254
0.61312 -0.74156 -0.28659 254 254 254
0.61548 -0.74823 -0.28026 254 254 254
0.61784 -0.75490 -0.27394 254 254 254
0.62020 -0.76156 -0.26762 254 254 254
0.58841 -0.71412 -0.31465 254 254 254
0.59078 -0.72077 -0.30834 254 254 254
0.59314 -0.72743 -0.30203 254 254 254
0.59550 -0.73408 -0.29572 254 254 254
0.59785 -0.74073 -0.28941 254 254 254
0.60021 -0.74737 -0.28311 254 254 254
0.60257 -0.75401 -0.27681 254 254 254
0.60492 -0.76065 -0.27052 254 254 254
0.62606 -0.82024 -0.21400 253 253 253
0.62840 -0.82684 -0.20773 253 253 253
0.63074 -0.83344 -0.20147 253 253 253
0.63308 -0.84004 -0.19521 253 253 253
0.63542 -0.84663 -0.18896 252 252 252
0.56623 -0.69349 -0.33623 254 254 254
0.56859 -0.70013 -0.32993 254 254 254
0.57094 -0.70677 -0.32364 254 254 254
0.57330 -0.71340 -0.31735 254 254 254
0.57566 -0.72003 -0.31106 254 254 254
0.57801 -0.72666 -0.30477 254 254 254
0.58037 -0.73328 -0.29849 254 254 254
0.58272 -0.73990 -0.29221 254 254 254
0.58507 -0.74652 -0.28593 254 254 254
0.58742 -0.75313 -0.27966 254 254 254
0.58977 -0.75974 -0.27339 254 254 254
0.59211 -0.76635 -0.26712 254 254 254
0.59446 -0.77295 -0.26086 254 254 254
0.59681 -0.77955 -0.25460 254 254 254
0.59915 -0.78615 -0.24834 254 254 254
0.60149 -0.79274 -0.24208 254 254 254
0.60383 -0.79933 -0.23583 254 254 254
0.60617 -0.80592 -0.22958 254 254 254
0.60851 -0.81251 -0.22334 254 254 254
0.61085 -0.81909 -0.21710 253 253 253
0.61319 -0.82566 -0.21086 253 253 253
0.61552 -0.83224 -0.20462 253 253 253
0.61786 -0.83881 -0.19839 253 253 253
0.54183 -0.66638 -0.36395 254 254 254
0.54419 -0.67301 -0.35767 254 254 254
0.54655 -0.67963 -0.35139 254 254 254
0.54890 -0.68625 -0.34511 254 254 254
0.55126 -0.69287 -0.33883 254 254 254
0.55361 -0.69948 -0.33256 254 254 254
0.55596 -0.70609 -0.32629 254 254 254
0.55831 -0.71269 -0.32002 254 254 254
0.56066 -0.71930 -0.31376 254 254 254
0.56301 -0.72590 -0.30749 254 254 254
0.56536 -0.73249 -0.30124 254 254 254
0.56770 -0.73909 -0.29498 254 254 254
0.57005 -0.74568 -0.28873 254 254 254
0.57239 -0.75226 -0.28248 254 254 254
0.57474 -0.75884 -0.27624 254 254 254
0.57708 -0.76542 -0.27000 254 254 254
0.57942 -0.77200 -0.26376 254 254 253
0.58176 -0.77857 -0.25752 254 254 253
0.58410 -0.78514 -0.25129 254 254 254
0.58643 -0.79171 -0.24506 254 254 254
0.58877 -0.79828 -0.23883 254 254 254
0.59110 -0.80484 -0.23261 254 254 254
0.59344 -0.81139 -0.22639 254 254 254
0.59577 -0.81795 -0.22017 254 254 254
0.59810 -0.82450 -0.21396 253 253 254
0.60043 -0.83104 -0.20775 253 253 253
0.52230 -0.65266 -0.37896 254 254 254
0.52466 -0.65927 -0.37269 254 254 254
0.52701 -0.66587 -0.36643 254 254 254
0.52936 -0.67247 -0.36017 254 254 254
0.53171 -0.67906 -0.35391 254 254 254
0.53406 -0.68566 -0.34766 254 254 254
0.53641 -0.69224 -0.34140 254 254 254
0.53876 -0.69883 -0.33516 254 254 254
0.54110 -0.70541 -0.32891 254 254 254
0.54345 -0.71199 -0.32267 254 254 254
0.54579 -0.71857 -0.31643 254 254 254
0.54813 -0.72514 -0.31020 254 254 254
0.55048 -0.73171 -0.30396 254 254 254
0.55282 -0.73828 -0.29773 254 254 254
0.55516 -0.74484 -0.29151 254 254 254
0.55749 -0.75140 -0.28528 254 254 254
0.55983 -0.75795 -0.27906 254 254 254
0.56217 -0.76451 -0.27285 254 254 254
0.56450 -0.77106 -0.26663 254 254 251
0.56683 -0.77760 -0.26042 254 254 247
0.56917 -0.78415 -0.25421 254 254 251
0.57150 -0.79069 -0.24801 254 254 254
0.57383 -0.79722 -0.24181 254 254 254
0.57615 -0.80376 -0.23561 254 254 254
0.57848 -0.81029 -0.22941 254 254 254
0.58081 -0.81682 -0.22322 254 254 254
0.58313 -0.82334 -0.21703 254 254 254
0.58546 -0.82986 -0.21084 254 254 254
0.50996 -0.65879 -0.37512 254 254 254
0.51231 -0.66536 -0.36888 254 254 254
0.51466 -0.67193 -0.36265 254 254 254
0.51700 -0.67850 -0.35641 254 254 254
0.51934 -0.68507 -0.35018 254 254 254
0.52169 -0.69163 -0.34396 254 254 254
0.52403 -0.69819 -0.33774 254 254 254
0.52637 -0.70474 -0.33152 254 254 254
0.52871 -0.71130 -0.32530 254 254 254
0.53104 -0.71784 -0.31908 254 254 254
0.53338 -0.72439 -0.31287 254 254 254
0.53572 -0.73093 -0.30667 254 254 254
0.53805 -0.73747 -0.30046 254 254 254
0.54038 -0.74401 -0.29426 254 254 254
0.54271 -0.75054 -0.28806 254 254 254
0.54505 -0.75707 -0.28187 254 254 254
0.54738 -0.76360 -0.27567 254 254 254
0.54970 -0.77012 -0.26948 254 254 252
0.55203 -0.77664 -0.26330 254 254 246
0.55436 -0.78316 -0.25712 254 254 249
0.55668 -0.78967 -0.25094 254 254 253
0.55901 -0.79618 -0.24476 254 254 254
0.56133 -0.80269 -0.23858 254 254 254
0.56365 -0.80919 -0.23241 254 254 254
0.56597 -0.81569 -0.22624 254 254 254
0.56829 -0.82219 -0.22008 254 254 254
0.49773 -0.66486 -0.37131 254 254 254
0.50007 -0.67140 -0.36510 254 254 254
0.50241 -0.67794 -0.35890 254 254 254
0.50474 -0.68448 -0.35269 254 254 254
0.50708 -0.69102 -0.34649 254 254 254
0.50942 -0.69755 -0.34029 254 254 254
0.51175 -0.70408 -0.33410 254 254 254
0.51408 -0.71061 -0.32791 254 254 254
0.51642 -0.71713 -0.32172 254 254 254
0.51875 -0.72365 -0.31553 254 254 254
0.52108 -0.73016 -0.30935 254 254 254
0.52340 -0.73668 -0.30317 254 254 254
0.52573 -0.74319 -0.29699 254 254 254
0.52806 -0.74969 -0.29082 254 254 254
0.53038 -0.75620 -0.28465 254 254 254
0.53271 -0.76270 -0.27848 254 254 254
0.53503 -0.76919 -0.27231 254 254 254
0.53735 -0.77569 -0.26615 254 254 253
0.53967 -0.78218 -0.25999 254 254 252
0.54199 -0.78866 -0.25384 254 254 253
0.54431 -0.79515 -0.24768 254 254 254
0.54662 -0.80163 -0.24154 254 254 254
0.54894 -0.80811 -0.23539 254 254 254
0.55125 -0.81458 -0.22924 254 254 254
0.55357 -0.82105 -0.22310 254 254 254
0.48560 -0.67088 -0.36754 254 254 254
0.48793 -0.67739 -0.36136 254 254 254
0.49027 -0.68390 -0.35518 254 254 254
0.49260 -0.69041 -0.34900 254 254 254
0.49492 -0.69692 -0.34283 254 254 254
0.49725 -0.70342 -0.33666 254 254 254
0.49958 -0.70992 -0.33049 254 254 254
0.50191 -0.71642 -0.32433 254 254 254
0.50423 -0.72291 -0.31817 254 254 254
0.50655 -0.72940 -0.31201 254 254 254
0.50888 -0.73589 -0.30585 254 254 254
0.51120 -0.74237 -0.29970 254 254 254
0.51352 -0.74885 -0.29355 254 254 254
0.51584 -0.75533 -0.28740 254 254 254
0.51816 -0.76180 -0.28126 254 254 254
0.52047 -0.76827 -0.27512 254 254 254
0.52279 -0.77474 -0.26898 254 254 254
0.52510 -0.78120 -0.26285 254 254 254
0.52742 -0.78766 -0.25672 254 254 254
0.52973 -0.79412 -0.25059 254 254 254
0.53204 -0.80058 -0.24446 254 254 254
0.53435 -0.80703 -0.23834 254 254 254
0.53666 -0.81348 -0.23222 254 254 254
0.47358 -0.67684 -0.36380 254 254 254
0.47590 -0.68333 -0.35765 254 254 254
0.47823 -0.68981 -0.35150 254 254 254
0.48055 -0.69629 -0.34535 254 254 254
0.48287 -0.70277 -0.33920 254 254 254
0.48519 -0.70924 -0.33306 254 254 254
0.48751 -0.71571 -0.32692 254 254 254
0.48983 -0.72218 -0.32078 254 254 254
0.49215 -0.72864 -0.31465 254 254 254
0.49447 -0.73510 -0.30851 254 254 254
0.49678 -0.74156 -0.30239 254 254 254
0.49910 -0.74801 -0.29626 254 254 254
0.50141 -0.75446 -0.29014 254 254 254
0.50372 -0.76091 -0.28402 254 254 254
0.50603 -0.76736 -0.27790 254 254 254
0.50834 -0.77380 -0.27179 254 254 254
0.51065 -0.78024 -0.26568 254 254 254
0.51296 -0.78667 -0.25957 254 254 254
0.51527 -0.79310 -0.25347 254 254 254
0.51757 -0.79953 -0.24737 254 254 254
0.51988 -0.80596 -0.24127 254 254 254
0.46166 -0.68276 -0.36010 254 254 254
0.46398 -0.68922 -0.35397 254 254 254
0.46629 -0.69567 -0.34784 254 254 254
0.46861 -0.70212 -0.34172 254 254 254
0.47092 -0.70857 -0.33560 254 254 254
0.48479 -0.74718 -0.29895 254 254 254
0.48710 -0.75361 -0.29285 254 254 254
0.48941 -0.76003 -0.28676 254 254 254
0.49171 -0.76645 -0.28066 254 254 254
0.49401 -0.77287 -0.27457 254 254 254
0.49632 -0.77928 -0.26849 254 254 254
0.49862 -0.78569 -0.26240 254 254 254
0.50092 -0.79210 -0.25632 254 254 254
0.50322 -0.79850 -0.25025 254 254 254
0.50552 -0.80490 -0.24417 254 254 254
0.44984 -0.68863 -0.35642 254 254 254
0.45215 -0.69505 -0.35032 254 254 254
0.45446 -0.70148 -0.34422 254 254 254
0.47290 -0.75276 -0.29554 254 254 254
0.47520 -0.75916 -0.28947 254 254 254
0.47750 -0.76555 -0.28340 254 254 254
0.47980 -0.77194 -0.27734 254 254 254
0.48210 -0.77833 -0.27127 254 254 254
0.48439 -0.78471 -0.26521 254 254 254
0.48669 -0.79109 -0.25916 254 254 254
0.48898 -0.79747 -0.25310 254 254 254
0.43812 -0.69444 -0.35277 254 254 254
0.44042 -0.70084 -0.34670 254 254 254
0.46112 -0.75829 -0.29216 254 254 254
0.46341 -0.76466 -0.28612 254 254 254
0.46570 -0.77103 -0.28008 254 254 254
0.46799 -0.77739 -0.27404 254 254 254
0.47028 -0.78375 -0.26800 254 254 254
0.47257 -0.79010 -0.26197 254 254 254
0.42650 -0.70021 -0.34916 254 254 254
0.42880 -0.70658 -0.34311 254 254 254
0.44714 -0.75743 -0.29484 254 254 254
0.44943 -0.76378 -0.28881 254 254 254
0.45171 -0.77012 -0.28280 254 254 254
0.45400 -0.77645 -0.27678 254 254 254
0.45628 -0.78279 -0.27077 254 254 254
0.45857 -0.78912 -0.26476 254 254 254
0.41498 -0.70593 -0.34558 254 254 254
0.41727 -0.71227 -0.33956 254 254 254
0.43327 -0.75658 -0.29749 254 254 254
0.43556 -0.76290 -0.29149 254 254 254
0.43784 -0.76921 -0.28549 254 254 254
0.44012 -0.77552 -0.27950 254 254 254
0.44240 -0.78183 -0.27351 254 254 254
0.40355 -0.71160 -0.34202 254 254 254
0.40584 -0.71791 -0.33603 254 254 254
0.40812 -0.72422 -0.33004 254 254 254
0.41952 -0.75573 -0.30012 254 254 254
0.42179 -0.76203 -0.29414 254 254 254
0.42407 -0.76832 -0.28817 254 254 254
0.42634 -0.77460 -0.28220 254 254 254
0.39222 -0.71722 -0.33850 254 254 254
0.39450 -0.72350 -0.33253 254 254 254
0.39678 -0.72979 -0.32656 254 254 254
0.39905 -0.73607 -0.32060 254 254 254
0.40133 -0.74235 -0.31464 254 254 254
0.40360 -0.74862 -0.30868 254 254 254
0.40587 -0.75489 -0.30273 254 254 254
0.40814 -0.76116 -0.29677 254 254 254
0.41041 -0.76743 -0.29082 254 254 254
0.41268 -0.77369 -0.28488 254 254 254
0.37872 -0.71653 -0.34095 254 254 254
0.38099 -0.72279 -0.33500 254 254 254
0.38326 -0.72905 -0.32906 254 254 254
0.38553 -0.73531 -0.32312 254 254 254
0.38780 -0.74156 -0.31718 254 254 254
0.39006 -0.74781 -0.31125 254 254 254
0.39233 -0.75406 -0.30531 254 254 254
0.39459 -0.76031 -0.29938 254 254 254
0.39686 -0.76655 -0.29346 254 254 254
0.36532 -0.71585 -0.34338 254 254 254
0.36758 -0.72209 -0.33746 254 254 254
0.36985 -0.72832 -0.33154 254 254 254
0.37211 -0.73456 -0.32562 254 254 254
0.37437 -0.74078 -0.31971 254 254 254
0.37663 -0.74701 -0.31379 254 254 254
0.37889 -0.75323 -0.30788 254 254 254
0.38115 -0.75945 -0.30198 254 254 254
0.34750 -0.70274 -0.35761 254 254 254
0.34976 -0.70896 -0.35170 254 254 254
0.35202 -0.71518 -0.34580 254 254 254
0.35428 -0.72139 -0.33990 254 254 254
0.35654 -0.72760 -0.33400 254 254 254
0.35880 -0.73381 -0.32810 254 254 254
0.36105 -0.74001 -0.32221 254 254 254
0.36331 -0.74622 -0.31632 254 254 254
0.36556 -0.75241 -0.31043 254 254 254
0.36782 -0.75861 -0.30455 254 254 254
0.33432 -0.70212 -0.35996 254 254 254
0.33657 -0.70831 -0.35407 254 254 254
0.33883 -0.71450 -0.34819 254 254 254
0.34108 -0.72069 -0.34231 254 254 254
0.34333 -0.72688 -0.33644 254 254 254
0.34559 -0.73307 -0.33056 254 254 254
0.34784 -0.73925 -0.32469 254 254 254
0.35009 -0.74543 -0.31882 254 254 254
0.35234 -0.75160 -0.31296 254 254 254
0.32349 -0.70767 -0.35643 254 254 254
0.32574 -0.71384 -0.35057 254 254 254
0.32798 -0.72001 -0.34471 254 254 254
0.33023 -0.72617 -0.33886 254 254 254
0.33248 -0.73233 -0.33301 254 254 254
0.33472 -0.73849 -0.32716 254 254 254
0.33697 -0.74464 -0.32131 254 254 254
0.31499 -0.71932 -0.34709 254 254 254
0.31723 -0.72546 -0.34126 254 254 254
0.31947 -0.73160 -0.33543 254 254 254
0.32171 -0.73773 -0.32960 254 254 254
0.32395 -0.74386 -0.32378 254 254 254
0.30433 -0.72476 -0.34364 254 254 254
0.30656 -0.73087 -0.33784 254 254 254
0.30880 -0.73698 -0.33203 254 254 254
0.29375 -0.73015 -0.34022 254 254 254
0.29598 -0.73624 -0.33444 254 254 254
0.57717 -0.35509 -0.66710 254 254 254
0.57928 -0.36226 -0.65988 254 254 254
0.55934 -0.34875 -0.67577 254 254 254
0.56145 -0.35589 -0.66857 254 254 254
0.56355 -0.36302 -0.66138 254 254 254
0.54164 -0.34246 -0.68438 254 254 254
0.54375 -0.34957 -0.67720 254 254 254
0.54586 -0.35668 -0.67003 254 254 254
0.54797 -0.36378 -0.66287 254 254 254
0.55007 -0.37087 -0.65571 254 254 254
0.52408 -0.33621 -0.69292 254 254 254
0.52619 -0.34330 -0.68577 254 254 254
0.52830 -0.35038 -0.67862 254 254 254
0.53041 -0.35746 -0.67148 254 254 254
0.53251 -0.36453 -0.66435 254 254 254
0.53462 -0.37159 -0.65722 254 254 254
0.50665 -0.33001 -0.70140 254 254 254
0.50877 -0.33708 -0.69427 254 254 254
0.51087 -0.34414 -0.68714 254 254 254
0.51298 -0.35119 -0.68002 254 254 254
0.51509 -0.35824 -0.67291 254 254 254
0.51719 -0.36528 -0.66581 254 254 254
0.51929 -0.37231 -0.65871 254 254 254
0.48936 -0.32386 -0.70981 254 254 254
0.49147 -0.33090 -0.70270 254 254 254
0.49358 -0.33794 -0.69560 254 254 254
0.49569 -0.34497 -0.68851 254 254 254
0.49779 -0.35199 -0.68142 254 254 254
0.49989 -0.35901 -0.67434 254 254 254
0.50200 -0.36601 -0.66726 254 254 254
0.47219 -0.31775 -0.71816 254 254 254
0.47430 -0.32477 -0.71107 254 254 254
0.47641 -0.33178 -0.70400 254 254 254
0.47852 -0.33879 -0.69692 254 254 254
0.48062 -0.34579 -0.68986 254 254 254
0.48273 -0.35278 -0.68280 254 254 254
0.48483 -0.35977 -0.67575 254 254 254
0.48693 -0.36675 -0.66870 254 254 254
0.45515 -0.31169 -0.72645 254 254 254
0.45726 -0.31869 -0.71938 254 254 254
0.45937 -0.32568 -0.71233 254 254 254
0.46148 -0.33266 -0.70528 254 254 254
0.46359 -0.33964 -0.69823 254 254 254
0.46569 -0.34661 -0.69120 254 254 254
0.46779 -0.35357 -0.68417 254 254 254
0.46989 -0.36052 -0.67715 254 254 254
0.43824 -0.30568 -0.73467 254 254 254
0.44035 -0.31265 -0.72763 254 254 254
0.44246 -0.31962 -0.72060 254 254 254
0.44457 -0.32657 -0.71357 254 254 254
0.44667 -0.33353 -0.70655 254 254 254
0.44878 -0.34047 -0.69954 254 254 254
0.45088 -0.34741 -0.69253 254 254 254
0.45298 -0.35435 -0.68553 254 254 254
0.45508 -0.36127 -0.67853 254 254 254
0.42145 -0.29971 -0.74284 254 254 254
0.42356 -0.30666 -0.73582 254 254 254
0.42567 -0.31360 -0.72881 254 254 254
0.42778 -0.32053 -0.72180 254 254 254
0.42989 -0.32746 -0.71480 254 254 254
0.43199 -0.33439 -0.70781 254 254 254
0.43409 -0.34131 -0.70083 254 254 254
0.43619 -0.34822 -0.69385 254 254 254
0.43829 -0.35512 -0.68687 254 254 254
0.44039 -0.36202 -0.67991 254 254 254
0.40479 -0.29378 -0.75094 254 254 254
0.40690 -0.30071 -0.74395 254 254 254
0.40901 -0.30763 -0.73696 254 254 254
0.41112 -0.31454 -0.72997 254 254 254
0.41322 -0.32145 -0.72300 254 254 254
0.41533 -0.32835 -0.71603 254 254 254
0.41743 -0.33524 -0.70906 254 254 254
0.41953 -0.34213 -0.70210 254 254 254
0.42163 -0.34901 -0.69515 254 254 254
0.42372 -0.35589 -0.68821 254 254 254
0.42582 -0.36276 -0.68127 254 254 254
0.38825 -0.28790 -0.75899 254 254 254
0.39036 -0.29480 -0.75201 254 254 254
0.39247 -0.30170 -0.74504 254 254 254
0.39458 -0.30859 -0.73808 254 254 254
0.39668 -0.31547 -0.73113 254 254 254
0.39879 -0.32235 -0.72418 254 254 254
0.40089 -0.32922 -0.71724 254 254 254
0.40299 -0.33609 -0.71030 254 254 254
0.40508 -0.34295 -0.70337 254 254 254
0.40718 -0.34980 -0.69645 254 254 254
0.40927 -0.35665 -0.68953 254 254 254
0.41137 -0.36349 -0.68262 254 254 254
0.37183 -0.28206 -0.76697 254 254 254
0.37394 -0.28894 -0.76002 254 254 254
0.37605 -0.29581 -0.75307 254 254 254
0.37816 -0.30268 -0.74613 254 254 254
0.38026 -0.30954 -0.73920 254 254 254
0.38237 -0.31640 -0.73228 254 254 254
0.38447 -0.32325 -0.72535 254 254 254
0.38657 -0.33009 -0.71844 254 254 254
0.38866 -0.33693 -0.71153 254 254 254
0.39076 -0.34376 -0.70463 254 254 254
0.39285 -0.35058 -0.69774 254 254 254
0.39494 -0.35740 -0.69085 254 254 254
0.35975 -0.28997 -0.76105 254 254 254
0.36186 -0.29681 -0.75413 254 254 254
0.36396 -0.30365 -0.74722 254 254 254
0.36606 -0.31049 -0.74031 254 254 254
0.36817 -0.31732 -0.73341 254 254 254
0.37026 -0.32414 -0.72652 254 254 254
0.37236 -0.33095 -0.71963 254 254 254
0.37446 -0.33776 -0.71275 254 254 254
0.37655 -0.34456 -0.70588 254 254 254
0.34778 -0.29781 -0.75517 254 254 254
0.34988 -0.30462 -0.74829 254 254 254
0.35198 -0.31143 -0.74141 254 254 254
0.35408 -0.31823 -0.73454 254 254 254
0.35618 -0.32502 -0.72768 254 254 254
0.35827 -0.33181 -0.72082 254 254 254
0.36037 -0.33859 -0.71396 254 254 254
0.33592 -0.30558 -0.74935 254 254 254
0.33802 -0.31236 -0.74250 254 254 254
0.34011 -0.31913 -0.73566 254 254 254
0.34221 -0.32589 -0.72882 254 254 254
0.34430 -0.33265 -0.72199 254 254 254
0.40010 -0.51286 -0.53985 254 254 254
0.38006 -0.49324 -0.56167 254 254 254
0.38210 -0.49982 -0.55502 254 254 254
0.38414 -0.50640 -0.54837 254 254 254
0.38619 -0.51297 -0.54173 254 254 254
0.36012 -0.47373 -0.58337 254 254 254
0.36217 -0.48030 -0.57673 254 254 254
0.36421 -0.48687 -0.57009 254 254 254
0.36626 -0.49343 -0.56346 254 254 254
0.36830 -0.49998 -0.55683 254 254 254
0.37034 -0.50653 -0.55021 254 254 254
0.37238 -0.51308 -0.54359 254 254 254
0.34643 -0.47399 -0.58507 254 254 254
0.34848 -0.48054 -0.57845 254 254 254
0.35052 -0.48708 -0.57184 254 254 254
0.35257 -0.49362 -0.56523 254 254 254
0.35461 -0.50015 -0.55862 254 254 254
0.35665 -0.50667 -0.55203 254 254 254
0.35868 -0.51319 -0.54544 254 254 254
0.36072 -0.51970 -0.53885 254 254 254
0.33286 -0.47425 -0.58675 254 254 254
0.33490 -0.48078 -0.58016 254 254 254
0.33694 -0.48729 -0.57357 254 254 254
0.33898 -0.49380 -0.56698 254 254 254
0.34102 -0.50030 -0.56041 254 254 254
0.34306 -0.50680 -0.55384 254 254 254
0.34509 -0.51330 -0.54727 254 254 254
0.34713 -0.51978 -0.54071 254 254 254
0.32143 -0.48101 -0.58185 254 254 254
0.32347 -0.48750 -0.57529 254 254 254
0.32551 -0.49398 -0.56873 254 254 254
0.32754 -0.50046 -0.56218 254 254 254
0.32958 -0.50694 -0.55563 254 254 254
0.33161 -0.51340 -0.54909 254 254 254
0.33364 -0.51986 -0.54255 254 254 254
0.33567 -0.52632 -0.53602 254 254 254
0.30806 -0.48124 -0.58353 254 254 254
0.31010 -0.48771 -0.57699 254 254 254
0.31214 -0.49417 -0.57046 254 254 254
0.31417 -0.50062 -0.56393 254 254 254
0.31620 -0.50707 -0.55741 254 254 254
0.31823 -0.51351 -0.55089 254 254 254
0.32026 -0.51994 -0.54438 254 254 254
0.32229 -0.52637 -0.53788 254 254 254
0.29684 -0.48792 -0.57868 254 254 254
0.29887 -0.49435 -0.57217 254 254 254
0.30090 -0.50078 -0.56567 254 254 254
0.30293 -0.50720 -0.55917 254 254 254
0.30496 -0.51361 -0.55268 254 254 254
0.30699 -0.52002 -0.54620 254 254 254
0.30901 -0.52643 -0.53972 254 254 254
0.28368 -0.48812 -0.58036 254 254 254
0.28571 -0.49453 -0.57388 254 254 254
0.28774 -0.50093 -0.56740 254 254 254
0.28977 -0.50733 -0.56093 254 254 254
0.29179 -0.51372 -0.55446 254 254 254
0.29382 -0.52010 -0.54800 254 254 254
0.29584 -0.52648 -0.54154 254 254 254
0.29786 -0.53286 -0.53509 254 254 254
0.27265 -0.49471 -0.57557 254 254 254
0.27468 -0.50108 -0.56911 254 254 254
0.27670 -0.50746 -0.56266 254 254 254
0.27872 -0.51382 -0.55622 254 254 254
0.28075 -0.52018 -0.54979 254 254 254
0.28277 -0.52654 -0.54335 254 254 254
0.28479 -0.53289 -0.53693 254 254 254
0.26171 -0.50124 -0.57081 254 254 254
0.26374 -0.50758 -0.56439 254 254 254
0.26576 -0.51393 -0.55797 254 254 254
0.26778 -0.52026 -0.55156 254 254 254
0.26980 -0.52659 -0.54515 254 254 254
0.27181 -0.53292 -0.53875 254 254 254
0.27383 -0.53924 -0.53235 254 254 254
0.25289 -0.51403 -0.55971 254 254 254
0.25491 -0.52034 -0.55332 254 254 254
0.25693 -0.52665 -0.54693 254 254 254
0.25894 -0.53295 -0.54056 254 254 254
0.26095 -0.53924 -0.53418 254 254 254
0.24415 -0.52670 -0.54870 254 254 254
0.24616 -0.53298 -0.54235 254 254 254
0.24817 -0.53925 -0.53600 254 254 254
0.29000 -0.66974 -0.40391 254 254 254
0.29197 -0.67589 -0.39768 254 254 254
0.29394 -0.68204 -0.39145 254 254 254
0.27332 -0.65697 -0.41863 254 254 254
0.27530 -0.66311 -0.41241 254 254 254
0.27727 -0.66925 -0.40620 254 254 254
0.27924 -0.67538 -0.39999 254 254 254
0.28121 -0.68151 -0.39378 254 254 254
0.28318 -0.68763 -0.38758 254 254 254
0.25872 -0.65040 -0.42705 254 254 254
0.26070 -0.65653 -0.42085 254 254 254
0.26267 -0.66265 -0.41466 254 254 254
0.26464 -0.66877 -0.40846 254 254 254
0.26661 -0.67488 -0.40228 254 254 254
0.26858 -0.68098 -0.39609 254 254 254
0.27054 -0.68708 -0.38992 254 254 254
0.27251 -0.69318 -0.38375 254 254 254
0.24225 -0.63777 -0.44161 254 254 254
0.24422 -0.64389 -0.43542 254 254 254
0.24620 -0.64999 -0.42924 254 254 254
0.24817 -0.65610 -0.42306 254 254 254
0.25014 -0.66219 -0.41688 254 254 254
0.25211 -0.66829 -0.41071 254 254 254
0.25407 -0.67437 -0.40455 254 254 254
0.25604 -0.68046 -0.39839 254 254 254
0.25800 -0.68653 -0.39224 254 254 254
0.25996 -0.69261 -0.38609 254 254 254
0.26192 -0.69867 -0.37994 254 254 254
0.22784 -0.63131 -0.44991 254 254 254
0.22982 -0.63741 -0.44374 254 254 254
0.23179 -0.64350 -0.43757 254 254 254
0.23376 -0.64958 -0.43141 254 254 254
0.23573 -0.65566 -0.42525 254 254 254
0.23770 -0.66174 -0.41910 254 254 254
0.23966 -0.66781 -0.41295 254 254 254
0.24163 -0.67388 -0.40681 254 254 254
0.24359 -0.67994 -0.40067 254 254 254
0.24555 -0.68599 -0.39454 254 254 254
0.24751 -0.69204 -0.38841 254 254 254
0.24947 -0.69809 -0.38229 254 254 254
0.25143 -0.70413 -0.37617 254 254 254
0.21353 -0.62490 -0.45815 254 254 254
0.21550 -0.63097 -0.45200 254 254 254
0.21748 -0.63705 -0.44585 254 254 254
0.21945 -0.64312 -0.43970 254 254 254
0.22142 -0.64918 -0.43356 254 254 254
0.22338 -0.65524 -0.42742 254 254 254
0.22535 -0.66129 -0.42129 254 254 254
0.22731 -0.66734 -0.41517 254 254 254
0.22928 -0.67338 -0.40905 254 254 254
0.23124 -0.67942 -0.40293 254 254 254
0.23319 -0.68545 -0.39682 254 254 254
0.23515 -0.69148 -0.39071 254 254 254
0.23711 -0.69750 -0.38461 254 254 254
0.23906 -0.70352 -0.37852 254 254 254
0.24102 -0.70953 -0.37243 254 254 254
0.19734 -0.61246 -0.47249 254 254 254
0.19931 -0.61852 -0.46634 254 254 254
0.20129 -0.62458 -0.46020 254 254 254
0.20326 -0.63064 -0.45407 254 254 254
0.20523 -0.63669 -0.44794 254 254 254
0.20720 -0.64274 -0.44181 254 254 254
0.20916 -0.64878 -0.43569 254 254 254
0.21113 -0.65481 -0.42958 254 254 254
0.21309 -0.66084 -0.42347 254 254 254
0.21505 -0.66687 -0.41737 254 254 254
0.21701 -0.67289 -0.41127 254 254 254
0.21897 -0.67890 -0.40517 254 254 254
0.22093 -0.68492 -0.39909 254 254 254
0.22289 -0.69092 -0.39300 254 254 254
0.22484 -0.69692 -0.38692 254 254 254
0.22679 -0.70292 -0.38085 254 254 254
0.22874 -0.70891 -0.37478 254 254 254
0.18322 -0.60614 -0.48060 254 254 254
0.18519 -0.61219 -0.47447 254 254 254
0.18716 -0.61823 -0.46835 254 254 254
0.18913 -0.62427 -0.46223 254 254 254
0.19110 -0.63031 -0.45612 254 254 254
0.19307 -0.63633 -0.45001 254 254 254
0.19504 -0.64236 -0.44391 254 254 254
0.19700 -0.64838 -0.43781 254 254 254
0.19896 -0.65439 -0.43172 254 254 254
0.20093 -0.66040 -0.42563 254 254 254
0.20289 -0.66640 -0.41955 254 254 254
0.20484 -0.67240 -0.41348 254 254 254
0.20680 -0.67839 -0.40740 254 254 254
0.20875 -0.68438 -0.40134 254 254 254
0.21071 -0.69037 -0.39527 254 254 254
0.21266 -0.69635 -0.38922 254 254 254
0.21461 -0.70232 -0.38316 254 254 254
0.16721 -0.59383 -0.49478 254 254 254
0.16919 -0.59987 -0.48867 254 254 254
0.17116 -0.60590 -0.48255 254 254 254
0.17313 -0.61193 -0.47645 254 254 254
0.17510 -0.61795 -0.47035 254 254 254
0.17707 -0.62396 -0.46425 254 254 254
0.17904 -0.62998 -0.45816 254 254 254
0.18100 -0.63598 -0.45208 254 254 254
0.18297 -0.64198 -0.44599 254 254 254
0.18493 -0.64798 -0.43992 254 254 254
0.18689 -0.65397 -0.43385 254 254 254
0.18885 -0.65996 -0.42778 254 254 254
0.19081 -0.66594 -0.42172 254 254 254
0.19276 -0.67192 -0.41567 254 254 254
0.19472 -0.67789 -0.40961 254 254 254
0.19667 -0.68386 -0.40357 254 254 254
0.19862 -0.68982 -0.39753 254 254 254
0.20057 -0.69578 -0.39149 254 254 254
0.20252 -0.70173 -0.38546 254 254 254
0.15328 -0.58762 -0.50278 254 254 254
0.15525 -0.59364 -0.49668 254 254 254
0.15722 -0.59965 -0.49058 254 254 254
0.15919 -0.60566 -0.48449 254 254 254
0.16116 -0.61166 -0.47841 254 254 254
0.16313 -0.61766 -0.47233 254 254 254
0.16510 -0.62366 -0.46626 254 254 254
0.16706 -0.62965 -0.46019 254 254 254
0.16902 -0.63563 -0.45412 254 254 254
0.17099 -0.64161 -0.44806 254 254 254
0.17295 -0.64759 -0.44201 254 254 254
0.17490 -0.65356 -0.43596 254 254 254
0.17686 -0.65952 -0.42991 254 254 254
0.17882 -0.66548 -0.42387 254 254 254
0.18077 -0.67144 -0.41784 254 254 254
0.18272 -0.67739 -0.41181 254 254 254
0.18467 -0.68333 -0.40579 254 254 254
0.18662 -0.68927 -0.39977 254 254 254
0.18857 -0.69521 -0.39375 254 254 254
0.13943 -0.58144 -0.51072 254 254 254
0.14140 -0.58745 -0.50463 254 254 254
0.14337 -0.59344 -0.49856 254 254 254
0.14534 -0.59943 -0.49248 254 254 254
0.14731 -0.60542 -0.48642 254 254 254
0.14928 -0.61140 -0.48035 254 254 254
0.15125 -0.61738 -0.47430 254 254 254
0.15321 -0.62335 -0.46824 254 254 254
0.15517 -0.62932 -0.46220 254 254 254
0.15713 -0.63528 -0.45615 254 254 254
0.15909 -0.64124 -0.45011 254 254 254
0.16105 -0.64719 -0.44408 254 254 254
0.16301 -0.65314 -0.43805 254 254 254
0.16496 -0.65909 -0.43203 254 254 254
0.16691 -0.66502 -0.42601 254 254 254
0.16886 -0.67096 -0.42000 254 254 254
0.17081 -0.67689 -0.41399 254 254 254
0.17276 -0.68281 -0.40799 254 254 254
0.17471 -0.68873 -0.40199 254 254 254
0.17665 -0.69465 -0.39599 254 254 254
0.12370 -0.56932 -0.52468 254 254 254
0.12567 -0.57531 -0.51861 254 254 254
0.12765 -0.58129 -0.51254 254 254 254
0.12962 -0.58727 -0.50648 254 254 254
0.13159 -0.59325 -0.50042 254 254 254
0.13355 -0.59922 -0.49437 254 254 254
0.13552 -0.60519 -0.48833 254 254 254
0.13749 -0.61115 -0.48229 254 254 254
0.13945 -0.61710 -0.47625 254 254 254
0.14141 -0.62305 -0.47022 254 254 254
0.14337 -0.62900 -0.46419 254 254 254
0.14533 -0.63494 -0.45817 254 254 254
0.14728 -0.64088 -0.45215 254 254 254
0.14924 -0.64681 -0.44614 254 254 254
0.15119 -0.65273 -0.44013 254 254 254
0.15315 -0.65866 -0.43413 254 254 254
0.15510 -0.66457 -0.42813 254 254 254
0.15705 -0.67048 -0.42214 254 254 254
0.15899 -0.67639 -0.41615 254 254 254
0.16094 -0.68229 -0.41017 254 254 254
0.16288 -0.68819 -0.40419 254 254 254
0.11003 -0.56324 -0.53250 254 254 254
0.11201 -0.56922 -0.52645 254 254 254
0.11398 -0.57518 -0.52040 254 254 254
0.11595 -0.58115 -0.51435 254 254 254
0.11792 -0.58710 -0.50831 254 254 254
0.11988 -0.59306 -0.50228 254 254 254
0.12185 -0.59901 -0.49625 254 254 254
0.12381 -0.60495 -0.49022 254 254 254
0.12578 -0.61089 -0.48420 254 254 254
0.12774 -0.61682 -0.47819 254 254 254
0.12970 -0.62275 -0.47218 254 254 254
0.13165 -0.62868 -0.46617 254 254 254
0.13361 -0.63460 -0.46017 254 254 254
0.13556 -0.64051 -0.45418 254 254 254
0.13752 -0.64642 -0.44818 254 254 254
0.13947 -0.65233 -0.44220 254 254 254
0.14142 -0.65823 -0.43622 254 254 254
0.14337 -0.66412 -0.43024 254 254 254
0.14531 -0.67001 -0.42427 254 254 254
0.14726 -0.67590 -0.41830 254 254 254
0.14920 -0.68178 -0.41234 254 254 254
0.09448 -0.55124 -0.54632 254 254 254
0.09645 -0.55720 -0.54027 254 254 254
0.09843 -0.56316 -0.53424 254 254 254
0.10040 -0.56911 -0.52820 254 254 254
0.10237 -0.57506 -0.52217 254 254 254
0.10434 -0.58100 -0.51615 254 254 254
0.10630 -0.58694 -0.51013 254 254 254
0.10827 -0.59287 -0.50412 254 254 254
0.11023 -0.59879 -0.49811 254 254 254
0.11219 -0.60472 -0.49211 254 254 254
0.11415 -0.61063 -0.48611 254 254 254
0.11611 -0.61655 -0.48011 254 254 254
0.11807 -0.62245 -0.47412 254 254 254
0.12002 -0.62836 -0.46814 254 254 254
0.12197 -0.63426 -0.46216 254 254 254
0.12393 -0.64015 -0.45618 254 254 254
0.12588 -0.64604 -0.45021 254 254 254
0.12783 -0.65192 -0.44425 254 254 254
0.12977 -0.65780 -0.43829 254 254 254
0.13172 -0.66368 -0.43233 254 254 254
0.13366 -0.66955 -0.42638 254 254 254
0.13561 -0.67541 -0.42043 254 254 254
0.13755 -0.68127 -0.41449 254 254 254
0.08296 -0.55121 -0.54800 254 254 254
0.08494 -0.55714 -0.54197 254 254 254
0.08691 -0.56308 -0.53596 254 254 254
0.08887 -0.56901 -0.52994 254 254 254
0.09084 -0.57493 -0.52394 254 254 254
0.09281 -0.58085 -0.51794 254 254 254
0.09477 -0.58677 -0.51194 254 254 254
0.09673 -0.59268 -0.50595 254 254 254
0.09869 -0.59858 -0.49996 254 254 254
0.10065 -0.60448 -0.49397 254 254 254
0.10261 -0.61038 -0.48800 254 254 254
0.10457 -0.61627 -0.48202 254 254 254
0.10652 -0.62216 -0.47605 254 254 254
0.10847 -0.62804 -0.47009 254 254 254
0.11042 -0.63392 -0.46413 254 254 254
0.11237 -0.63979 -0.45818 254 254 254
0.11432 -0.64566 -0.45223 254 254 254
0.11627 -0.65152 -0.44628 254 254 254
0.11821 -0.65738 -0.44034 254 254 254
0.12016 -0.66323 -0.43441 254 254 254
0.12210 -0.66908 -0.42848 254 254 254
0.12404 -0.67493 -0.42255 254 254 254
0.07350 -0.55708 -0.54366 254 254 254
0.07547 -0.56300 -0.53767 254 254 254
0.07743 -0.56891 -0.53168 254 254 254
0.07940 -0.57481 -0.52569 254 254 254
0.08136 -0.58071 -0.51971 254 254 254
0.08332 -0.58660 -0.51373 254 254 254
0.08528 -0.59249 -0.50776 254 254 254
0.08724 -0.59838 -0.50179 254 254 254
0.08920 -0.60425 -0.49583 254 254 254
0.09115 -0.61013 -0.48987 254 254 254
0.09310 -0.61600 -0.48392 254 254 254
0.09506 -0.62187 -0.47797 254 254 254
0.09701 -0.62773 -0.47203 254 254 254
0.09896 -0.63358 -0.46609 254 254 254
0.10090 -0.63944 -0.46016 254 254 254
0.10285 -0.64528 -0.45423 254 254 254
0.10479 -0.65112 -0.44830 254 254 254
0.10674 -0.65696 -0.44238 254 254 254
0.10868 -0.66280 -0.43647 254 254 254
0.11062 -0.66862 -0.43056 254 254 254
0.06215 -0.55702 -0.54534 254 254 254
0.06411 -0.56292 -0.53936 254 254 254
0.06607 -0.56880 -0.53339 254 254 254
0.06804 -0.57469 -0.52743 254 254 254
0.07000 -0.58056 -0.52147 254 254 254
0.07196 -0.58644 -0.51551 254 254 254
0.07391 -0.59230 -0.50956 254 254 254
0.07587 -0.59817 -0.50361 254 254 254
0.07782 -0.60403 -0.49767 254 254 254
0.07978 -0.60988 -0.49174 254 254 254
0.08173 -0.61573 -0.48580 254 254 254
0.08368 -0.62157 -0.47988 254 254 254
0.08562 -0.62742 -0.47395 254 254 254
0.08757 -0.63325 -0.46803 254 254 254
0.08951 -0.63908 -0.46212 254 254 254
0.09146 -0.64491 -0.45621 254 254 254
0.09340 -0.65073 -0.45031 254 254 254
0.09534 -0.65655 -0.44441 254 254 254
0.09728 -0.66236 -0.43852 254 254 254
0.09922 -0.66817 -0.43263 254 254 254
0.03907 -0.52164 -0.58283 254 254 254
0.04104 -0.52754 -0.57684 254 254 254
0.04301 -0.53344 -0.57087 254 254 254
0.05087 -0.55697 -0.54700 254 254 254
0.05284 -0.56284 -0.54105 254 254 254
0.05480 -0.56870 -0.53510 254 254 254
0.05676 -0.57456 -0.52915 254 254 254
0.05871 -0.58042 -0.52321 254 254 254
0.06067 -0.58627 -0.51728 254 254 254
0.06263 -0.59212 -0.51135 254 254 254
0.06458 -0.59796 -0.50542 254 254 254
0.06653 -0.60380 -0.49950 254 254 254
0.06848 -0.60963 -0.49358 254 254 254
0.07043 -0.61546 -0.48767 254 254 254
0.07238 -0.62129 -0.48177 254 254 254
0.07432 -0.62711 -0.47586 254 254 254
0.07627 -0.63292 -0.46997 254 254 254
0.07821 -0.63873 -0.46407 254 254 254
0.08015 -0.64454 -0.45818 254 254 254
0.08209 -0.65034 -0.45230 254 254 254
0.08403 -0.65613 -0.44642 254 254 254
0.08596 -0.66193 -0.44055 254 254 254
0.02395 -0.50994 -0.59629 254 254 254
0.02592 -0.51583 -0.59032 254 254 254
0.02789 -0.52171 -0.58436 254 254 254
0.02986 -0.52759 -0.57839 254 254 254
0.03183 -0.53346 -0.57244 254 254 254
0.03379 -0.53933 -0.56648 254 254 254
0.03576 -0.54519 -0.56054 254 254 254
0.03772 -0.55105 -0.55459 254 254 254
0.03968 -0.55691 -0.54865 254 254 254
0.04164 -0.56276 -0.54272 254 254 254
0.04360 -0.56860 -0.53679 254 254 254
0.04556 -0.57444 -0.53087 254 254 254
0.04751 -0.58028 -0.52495 254 254 254
0.04947 -0.58611 -0.51903 254 254 254
0.05142 -0.59194 -0.51312 254 254 254
0.05337 -0.59776 -0.50722 254 254 254
0.05532 -0.60357 -0.50132 254 254 254
0.05727 -0.60939 -0.49542 254 254 254
0.05921 -0.61520 -0.48953 254 254 254
0.06116 -0.62100 -0.48364 254 254 254
0.06310 -0.62680 -0.47776 254 254 254
0.06504 -0.63259 -0.47188 254 254 254
0.06698 -0.63838 -0.46601 254 254 254
0.06892 -0.64417 -0.46014 254 254 254
0.07086 -0.64995 -0.45428 254 254 254
0.07279 -0.65572 -0.44842 254 254 254
0.01088 -0.50418 -0.60373 254 254 254
0.01285 -0.51005 -0.59777 254 254 254
0.01482 -0.51592 -0.59182 254 254 254
0.01679 -0.52178 -0.58587 254 254 254
0.01876 -0.52763 -0.57993 254 254 254
0.02072 -0.53349 -0.57399 254 254 254
0.02269 -0.53933 -0.56806 254 254 254
0.02465 -0.54518 -0.56214 254 254 254
0.02661 -0.55101 -0.55621 254 254 254
0.02857 -0.55685 -0.55029 254 254 254
0.03053 -0.56268 -0.54438 254 254 254
0.03248 -0.56850 -0.53847 254 254 254
0.03444 -0.57432 -0.53257 254 254 254
0.03639 -0.58014 -0.52667 254 254 254
0.03834 -0.58595 -0.52078 254 254 254
0.04029 -0.59175 -0.51489 254 254 254
0.04224 -0.59755 -0.50900 254 254 254
0.04419 -0.60335 -0.50312 254 254 254
0.04613 -0.60914 -0.49724 254 254 254
0.04807 -0.61493 -0.49137 254 254 254
0.05002 -0.62071 -0.48551 254 254 254
0.05196 -0.62649 -0.47964 254 254 254
0.05390 -0.63227 -0.47379 254 254 254
0.05583 -0.63804 -0.46793 254 254 254
0.05777 -0.64380 -0.46209 254 254 254
0.05970 -0.64956 -0.45624 254 254 254
0.06164 -0.65532 -0.45040 254 254 254
-0.00210 -0.49845 -0.61111 254 254 254
-0.00013 -0.50431 -0.60517 254 254 254
0.00184 -0.51016 -0.59923 254 254 254
0.00381 -0.51600 -0.59330 254 254 254
0.00577 -0.52184 -0.58738 254 254 254
0.00774 -0.52768 -0.58146 254 254 254
0.00970 -0.53351 -0.57554 254 254 254
0.01166 -0.53934 -0.56963 254 254 254
0.01362 -0.54516 -0.56372 254 254 254
0.01558 -0.55098 -0.55782 254 254 254
0.01754 -0.55679 -0.55192 254 254 254
0.01949 -0.56260 -0.54603 254 254 254
0.02144 -0.56840 -0.54014 254 254 254
0.02340 -0.57420 -0.53426 254 254 254
0.02535 -0.58000 -0.52838 254 254 254
0.02730 -0.58579 -0.52251 254 254 254
0.02924 -0.59157 -0.51664 254 254 254
0.03119 -0.59735 -0.51077 254 254 254
0.03313 -0.60313 -0.50491 254 254 254
0.03507 -0.60890 -0.49905 254 254 254
0.03702 -0.61467 -0.49320 254 254 254
0.03896 -0.62043 -0.48736 254 254 254
0.04089 -0.62619 -0.48151 254 254 254
0.04283 -0.63194 -0.47568 254 254 254
0.04476 -0.63769 -0.46984 254 254 254
0.04670 -0.64344 -0.46402 254 254 254
0.04863 -0.64918 -0.45819 254 254 254
-0.01697 -0.48692 -0.62438 254 254 254
-0.01500 -0.49277 -0.61845 254 254 254
-0.01303 -0.49860 -0.61252 254 254 254
-0.01106 -0.50444 -0.60660 254 254 254
-0.00909 -0.51027 -0.60069 254 254 254
-0.00713 -0.51609 -0.59478 254 254 254
-0.00516 -0.52191 -0.58887 254 254 254
-0.00320 -0.52773 -0.58297 254 254 254
-0.00124 -0.53354 -0.57708 254 254 254
0.00071 -0.53934 -0.57119 254 254 254
0.00267 -0.54514 -0.56530 254 254 254
0.00463 -0.55094 -0.55942 254 254 254
0.00658 -0.55673 -0.55354 254 254 254
0.00853 -0.56252 -0.54767 254 254 254
0.01048 -0.56830 -0.54180 254 254 254
0.01243 -0.57408 -0.53594 254 254 254
0.01438 -0.57986 -0.53008 254 254 254
0.01633 -0.58563 -0.52422 254 254 254
0.01827 -0.59139 -0.51837 254 254 254
0.02021 -0.59715 -0.51253 254 254 254
0.02216 -0.60291 -0.50669 254 254 254
0.02410 -0.60866 -0.50085 254 254 254
0.02603 -0.61441 -0.49502 254 254 254
0.02797 -0.62015 -0.48919 254 254 254
0.02991 -0.62589 -0.48337 254 254 254
0.03184 -0.63162 -0.47755 254 254 254
0.03377 -0.63735 -0.47174 254 254 254
0.03570 -0.64308 -0.46593 254 254 254
-0.02978 -0.48129 -0.63165 254 254 254
-0.02781 -0.48711 -0.62574 254 254 254
-0.02585 -0.49293 -0.61983 254 254 254
-0.02388 -0.49875 -0.61393 254 254 254
-0.02191 -0.50456 -0.60803 254 254 254
-0.01995 -0.51037 -0.60213 254 254 254
-0.01799 -0.51618 -0.59624 254 254 254
-0.01603 -0.52198 -0.59036 254 254 254
-0.01407 -0.52777 -0.58448 254 254 254
-0.01211 -0.53356 -0.57860 254 254 254
-0.01016 -0.53935 -0.57273 254 254 254
-0.00820 -0.54513 -0.56687 254 254 254
-0.00625 -0.55090 -0.56100 254 254 254
-0.00430 -0.55668 -0.55515 254 254 254
-0.00235 -0.56244 -0.54929 254 254 254
-0.00040 -0.56821 -0.54345 254 254 254
0.00155 -0.57396 -0.53760 254 254 254
0.00349 -0.57972 -0.53176 254 254 254
0.00544 -0.58547 -0.52593 254 254 254
0.00738 -0.59121 -0.52010 254 254 254
0.00932 -0.59695 -0.51427 254 254 254
0.01126 -0.60269 -0.50845 254 254 254
0.01319 -0.60842 -0.50264 254 254 254
0.01513 -0.61415 -0.49683 254 254 254
0.01706 -0.61987 -0.49102 254 254 254
0.01900 -0.62559 -0.48522 254 254 254
0.02093 -0.63130 -0.47942 254 254 254
0.02286 -0.63701 -0.47362 254 254 254
0.02479 -0.64272 -0.46784 254 254 254
-0.04252 -0.47568 -0.63888 254 254 254
-0.04055 -0.48149 -0.63298 254 254 254
-0.03858 -0.48730 -0.62709 254 254 254
-0.03662 -0.49310 -0.62120 254 254 254
-0.03465 -0.49890 -0.61532 254 254 254
-0.03269 -0.50469 -0.60944 254 254 254
-0.03073 -0.51048 -0.60357 254 254 254
-0.02877 -0.51626 -0.59770 254 254 254
-0.02681 -0.52204 -0.59183 254 254 254
-0.02486 -0.52782 -0.58597 254 254 254
-0.02290 -0.53359 -0.58012 254 254 254
-0.02095 -0.53935 -0.57427 254 254 254
-0.01900 -0.54511 -0.56842 254 254 254
-0.01705 -0.55087 -0.56258 254 254 254
-0.01510 -0.55662 -0.55674 254 254 254
-0.01315 -0.56237 -0.55091 254 254 254
-0.01121 -0.56811 -0.54508 254 254 254
-0.00926 -0.57385 -0.53926 254 254 254
-0.00732 -0.57958 -0.53344 254 254 254
-0.00538 -0.58531 -0.52762 254 254 254
-0.00344 -0.59104 -0.52181 254 254 254
-0.00150 -0.59676 -0.51601 254 254 254
0.00043 -0.60247 -0.51021 254 254 254
0.00237 -0.60818 -0.50441 254 254 254
0.00430 -0.61389 -0.49862 254 254 254
0.00623 -0.61959 -0.49283 254 254 254
0.00816 -0.62529 -0.48705 254 254 254
0.01009 -0.63099 -0.48127 254 254 254
0.01202 -0.63668 -0.47549 254 254 254
-0.05714 -0.46432 -0.65195 254 254 254
-0.05518 -0.47012 -0.64607 254 254 254
-0.05321 -0.47591 -0.64019 254 254 254
-0.05124 -0.48170 -0.63431 254 254 254
-0.04928 -0.48749 -0.62844 254 254 254
-0.04732 -0.49327 -0.62257 254 254 254
-0.04535 -0.49904 -0.61671 254 254 254
-0.04339 -0.50482 -0.61085 254 254 254
-0.04144 -0.51058 -0.60499 254 254 254
-0.03948 -0.51635 -0.59914 254 254 254
-0.03752 -0.52211 -0.59330 254 254 254
-0.03557 -0.52786 -0.58746 254 254 254
-0.03362 -0.53361 -0.58162 254 254 254
-0.03167 -0.53935 -0.57579 254 254 254
-0.02972 -0.54510 -0.56996 254 254 254
-0.02777 -0.55083 -0.56414 254 254 254
-0.02583 -0.55656 -0.55833 254 254 254
-0.02388 -0.56229 -0.55251 254 254 254
-0.02194 -0.56801 -0.54670 254 254 254
-0.02000 -0.57373 -0.54090 254 254 254
-0.01806 -0.57945 -0.53510 254 254 254
-0.01612 -0.58515 -0.52931 254 254 254
-0.01418 -0.59086 -0.52351 254 254 254
-0.01225 -0.59656 -0.51773 254 254 254
-0.01031 -0.60226 -0.51195 254 254 254
-0.00838 -0.60795 -0.50617 254 254 254
-0.00645 -0.61364 -0.50040 254 254 254
-0.00452 -0.61932 -0.49463 254 254 254
-0.00259 -0.62500 -0.48887 254 254 254
-0.00067 -0.63067 -0.48311 254 254 254
-0.06972 -0.45880 -0.65908 254 254 254
-0.06775 -0.46458 -0.65321 254 254 254
-0.06579 -0.47036 -0.64734 254 254 254
-0.06382 -0.47614 -0.64148 254 254 254
-0.06186 -0.48191 -0.63562 254 254 254
-0.05990 -0.48767 -0.62977 254 254 254
-0.05794 -0.49343 -0.62392 254 254 254
-0.05598 -0.49919 -0.61808 254 254 254
-0.05402 -0.50494 -0.61224 254 254 254
-0.05207 -0.51069 -0.60641 254 254 254
-0.05011 -0.51643 -0.60058 254 254 254
-0.04816 -0.52217 -0.59475 254 254 254
-0.04621 -0.52790 -0.58893 254 254 254
-0.04426 -0.53363 -0.58312 254 254 254
-0.04231 -0.53936 -0.57731 254 254 254
-0.04037 -0.54508 -0.57150 254 254 254
-0.03842 -0.55080 -0.56570 254 254 254
-0.03648 -0.55651 -0.55990 254 254 254
-0.03454 -0.56221 -0.55410 254 254 254
-0.03260 -0.56792 -0.54832 254 254 254
-0.03066 -0.57362 -0.54253 254 254 254
-0.02872 -0.57931 -0.53675 254 254 254
-0.02678 -0.58500 -0.53098 254 254 254
-0.02485 -0.59069 -0.52520 254 254 254
-0.02292 -0.59637 -0.51944 254 254 254
-0.02099 -0.60204 -0.51368 254 254 254
-0.01906 -0.60771 -0.50792 254 254 254
-0.01713 -0.61338 -0.50216 254 254 254
-0.01520 -0.61905 -0.49642 254 254 254
-0.01328 -0.62470 -0.49067 254 254 254
-0.01135 -0.63036 -0.48493 254 254 254
-0.08419 -0.44755 -0.67202 254 254 254
-0.08222 -0.45332 -0.66616 254 254 254
-0.08025 -0.45909 -0.66030 254 254 254
-0.07829 -0.46485 -0.65445 254 254 254
-0.07632 -0.47061 -0.64861 254 254 254
-0.07436 -0.47636 -0.64277 254 254 254
-0.07240 -0.48211 -0.63693 254 254 254
-0.07044 -0.48786 -0.63110 254 254 254
-0.06849 -0.49360 -0.62527 254 254 254
-0.06653 -0.49933 -0.61945 254 254 254
-0.06458 -0.50507 -0.61363 254 254 254
-0.06262 -0.51079 -0.60781 254 254 254
-0.06067 -0.51652 -0.60200 254 254 254
-0.05872 -0.52223 -0.59620 254 254 254
-0.05677 -0.52795 -0.59040 254 254 254
-0.05483 -0.53366 -0.58460 254 254 254
-0.05288 -0.53936 -0.57881 254 254 254
-0.05094 -0.54506 -0.57302 254 254 254
-0.04900 -0.55076 -0.56724 254 254 254
-0.04706 -0.55645 -0.56146 254 254 254
-0.04512 -0.56214 -0.55569 254 254 254
-0.04318 -0.56782 -0.54992 254 254 254
-0.04124 -0.57350 -0.54415 254 254 254
-0.03931 -0.57918 -0.53839 254 254 254
-0.03738 -0.58485 -0.53263 254 254 254
-0.03544 -0.59051 -0.52688 254 254 254
-0.03351 -0.59617 -0.52114 254 254 254
-0.03159 -0.60183 -0.51539 254 254 254
-0.02966 -0.60748 -0.50965 254 254 254
-0.02773 -0.61313 -0.50392 254 254 254
-0.02581 -0.61877 -0.49819 254 254 254
-0.02389 -0.62441 -0.49247 254 254 254
-0.09661 -0.44211 -0.67904 254 254 254
-0.09464 -0.44787 -0.67320 254 254 254
-0.09267 -0.45362 -0.66736 254 254 254
-0.09071 -0.45937 -0.66152 254 254 254
-0.08875 -0.46511 -0.65569 254 254 254
-0.08679 -0.47085 -0.64986 254 254 254
-0.08483 -0.47658 -0.64404 254 254 254
-0.08287 -0.48231 -0.63822 254 254 254
-0.08092 -0.48804 -0.63241 254 254 254
-0.07896 -0.49376 -0.62660 254 254 254
-0.07701 -0.49948 -0.62080 254 254 254
-0.07506 -0.50519 -0.61500 254 254 254
-0.07311 -0.51090 -0.60921 254 254 254
-0.07116 -0.51660 -0.60342 254 254 254
-0.06921 -0.52230 -0.59763 254 254 254
-0.06727 -0.52799 -0.59185 254 254 254
-0.06532 -0.53368 -0.58607 254 254 254
-0.06338 -0.53937 -0.58030 254 254 254
-0.06144 -0.54505 -0.57453 254 254 254
-0.05950 -0.55072 -0.56877 254 254 254
-0.05756 -0.55640 -0.56301 254 254 254
-0.05562 -0.56206 -0.55726 254 254 254
-0.05369 -0.56773 -0.55151 254 254 254
-0.05176 -0.57339 -0.54576 254 254 254
-0.04982 -0.57904 -0.54002 254 254 254
-0.04789 -0.58469 -0.53428 254 254 254
-0.04596 -0.59034 -0.52855 254 254 254
-0.04404 -0.59598 -0.52282 254 254 254
-0.04211 -0.60162 -0.51710 254 254 254
-0.04019 -0.60725 -0.51138 254 254 254
-0.03826 -0.61288 -0.50566 254 254 254
-0.03634 -0.61850 -0.49995 254 254 254
-0.10895 -0.43672 -0.68602 254 254 254
-0.10698 -0.44246 -0.68019 254 254 254
-0.10502 -0.44819 -0.67436 254 254 254
-0.10306 -0.45392 -0.66854 254 254 254
-0.10110 -0.45965 -0.66273 254 254 254
-0.09914 -0.46537 -0.65692 254 254 254
-0.09718 -0.47109 -0.65111 254 254 254
-0.09522 -0.47681 -0.64531 254 254 254
-0.09327 -0.48252 -0.63951 254 254 254
-0.09132 -0.48822 -0.63372 254 254 254
-0.08936 -0.49392 -0.62793 254 254 254
-0.08741 -0.49962 -0.62215 254 254 254
-0.08546 -0.50531 -0.61637 254 254 254
-0.08352 -0.51100 -0.61059 254 254 254
-0.08157 -0.51668 -0.60482 254 254 254
-0.07963 -0.52236 -0.59906 254 254 254
-0.07768 -0.52803 -0.59329 254 254 254
-0.07574 -0.53370 -0.58754 254 254 254
-0.07380 -0.53937 -0.58178 254 254 254
-0.07187 -0.54503 -0.57603 254 254 254
-0.06993 -0.55069 -0.57029 254 254 254
-0.06799 -0.55634 -0.56455 254 254 254
-0.06606 -0.56199 -0.55881 254 254 254
-0.06413 -0.56763 -0.55308 254 254 254
-0.06220 -0.57327 -0.54736 254 254 254
-0.06027 -0.57891 -0.54164 254 254 254
-0.05834 -0.58454 -0.53592 254 254 254
-0.05641 -0.59017 -0.53020 254 254 254
-0.05449 -0.59579 -0.52450 254 254 254
-0.05256 -0.60141 -0.51879 254 254 254
-0.05064 -0.60702 -0.51309 254 254 254
-0.04872 -0.61263 -0.50739 254 254 254
-0.04680 -0.61824 -0.50170 254 254 254
-0.12318 -0.42562 -0.69877 254 254 254
-0.12122 -0.43135 -0.69295 254 254 254
-0.11925 -0.43707 -0.68714 254 254 254
-0.11729 -0.44280 -0.68133 254 254 254
