ply
format ascii 1.0
element face 0
property list uchar int vertex_indices
element vertex 1226
property float x
property float y
property float z
property uchar diffuse_red
property uchar diffuse_green
property uchar diffuse_blue
end_header
0.01221 -0.60779 -0.49675 254 254 254
0.01385 -0.61293 -0.49189 254 254 254
0.01548 -0.61808 -0.48703 254 254 254
0.01712 -0.62322 -0.48217 254 254 254
0.01875 -0.62837 -0.47731 254 254 254
0.02039 -0.63352 -0.47245 254 254 254
0.02202 -0.63866 -0.46759 254 254 254
0.02366 -0.64381 -0.46273 254 254 253
0.02529 -0.64896 -0.45786 254 254 254
-0.04318 -0.46333 -0.63449 254 254 253
-0.04156 -0.46845 -0.62966 254 254 253
-0.03993 -0.47357 -0.62482 254 254 254
-0.03831 -0.47868 -0.61999 254 254 254
-0.03668 -0.48380 -0.61515 254 254 254
-0.03506 -0.48892 -0.61032 254 254 254
-0.03343 -0.49404 -0.60548 254 254 254
-0.03180 -0.49916 -0.60065 254 254 254
-0.03018 -0.50428 -0.59581 254 254 254
-0.02855 -0.50940 -0.59098 254 254 254
-0.02693 -0.51452 -0.58614 254 254 254
-0.02530 -0.51964 -0.58130 254 254 254
-0.02367 -0.52476 -0.57647 254 254 254
-0.02205 -0.52988 -0.57163 254 254 254
-0.02042 -0.53500 -0.56679 254 254 253
-0.01879 -0.54012 -0.56195 254 254 253
-0.01717 -0.54524 -0.55712 254 254 254
-0.01554 -0.55036 -0.55228 254 254 254
-0.01391 -0.55548 -0.54744 254 254 254
-0.01229 -0.56061 -0.54260 254 254 254
-0.01066 -0.56573 -0.53776 254 254 254
-0.00903 -0.57085 -0.53292 254 254 254
-0.00740 -0.57598 -0.52808 254 254 254
-0.00578 -0.58110 -0.52324 254 254 254
-0.00415 -0.58622 -0.51840 254 254 254
-0.00252 -0.59135 -0.51356 254 254 254
-0.00089 -0.59647 -0.50872 254 254 254
0.00073 -0.60160 -0.50388 254 254 254
0.00236 -0.60672 -0.49903 254 254 254
0.00399 -0.61185 -0.49419 254 254 254
0.00562 -0.61698 -0.48935 254 254 254
0.00725 -0.62210 -0.48451 254 254 254
0.00888 -0.62723 -0.47966 254 254 254
0.01050 -0.63236 -0.47482 254 254 254
0.01213 -0.63748 -0.46998 254 254 254
0.01376 -0.64261 -0.46513 254 254 253
-0.05441 -0.45770 -0.64108 254 254 254
-0.05279 -0.46280 -0.63626 254 254 254
-0.05117 -0.46789 -0.63145 254 254 254
-0.04955 -0.47299 -0.62663 254 254 253
-0.04793 -0.47809 -0.62181 254 254 254
-0.04631 -0.48319 -0.61700 254 254 254
-0.04469 -0.48829 -0.61218 254 254 254
-0.04308 -0.49339 -0.60736 254 254 254
-0.04146 -0.49849 -0.60254 254 254 254
-0.03984 -0.50359 -0.59773 254 254 254
-0.03822 -0.50869 -0.59291 254 254 254
-0.03660 -0.51379 -0.58809 254 254 254
-0.03498 -0.51889 -0.58327 254 254 254
-0.03336 -0.52400 -0.57845 254 254 254
-0.03174 -0.52910 -0.57363 254 254 254
-0.03012 -0.53420 -0.56881 254 254 254
-0.02849 -0.53930 -0.56399 254 254 254
-0.02687 -0.54440 -0.55917 254 254 253
-0.02525 -0.54951 -0.55435 254 254 254
-0.02363 -0.55461 -0.54953 254 254 254
-0.02201 -0.55972 -0.54471 254 254 254
-0.02039 -0.56482 -0.53988 254 254 254
-0.01877 -0.56992 -0.53506 254 254 254
-0.01715 -0.57503 -0.53024 254 254 254
-0.01553 -0.58013 -0.52542 254 254 254
-0.01391 -0.58524 -0.52059 254 254 254
-0.01228 -0.59035 -0.51577 254 254 254
-0.01066 -0.59545 -0.51095 254 254 254
-0.00904 -0.60056 -0.50612 254 254 253
-0.00742 -0.60566 -0.50130 254 254 253
-0.00580 -0.61077 -0.49648 254 254 254
-0.00418 -0.61588 -0.49165 254 254 254
-0.00255 -0.62099 -0.48683 254 254 254
-0.00093 -0.62609 -0.48200 254 254 254
0.00069 -0.63120 -0.47717 254 254 254
0.00231 -0.63631 -0.47235 254 254 254
0.00394 -0.64142 -0.46752 254 254 253
-0.06394 -0.45718 -0.64282 254 254 254
-0.06233 -0.46226 -0.63802 254 254 254
-0.06072 -0.46734 -0.63322 254 254 254
-0.05910 -0.47242 -0.62843 254 254 254
-0.05749 -0.47750 -0.62363 254 254 254
-0.05588 -0.48258 -0.61883 254 254 254
-0.05426 -0.48766 -0.61403 254 254 254
-0.05265 -0.49275 -0.60923 254 254 254
-0.05104 -0.49783 -0.60443 254 254 254
-0.04942 -0.50291 -0.59963 254 254 254
-0.04781 -0.50799 -0.59482 254 254 254
-0.04620 -0.51307 -0.59002 254 254 254
-0.04458 -0.51816 -0.58522 254 254 254
-0.04297 -0.52324 -0.58042 254 254 254
-0.04135 -0.52832 -0.57562 254 254 254
-0.03974 -0.53341 -0.57082 254 254 254
-0.03812 -0.53849 -0.56601 254 254 254
-0.03651 -0.54358 -0.56121 254 254 254
-0.03490 -0.54866 -0.55641 254 254 254
-0.03328 -0.55375 -0.55160 254 254 254
-0.03167 -0.55883 -0.54680 254 254 254
-0.03005 -0.56392 -0.54199 254 254 254
-0.02844 -0.56900 -0.53719 254 254 254
-0.02682 -0.57409 -0.53238 254 254 254
-0.02521 -0.57918 -0.52758 254 254 254
-0.02359 -0.58426 -0.52277 254 254 254
-0.02198 -0.58935 -0.51797 254 254 254
-0.02036 -0.59444 -0.51316 254 254 254
-0.01875 -0.59953 -0.50836 254 254 254
-0.01713 -0.60461 -0.50355 254 254 254
-0.01551 -0.60970 -0.49874 254 254 254
-0.01390 -0.61479 -0.49394 254 254 254
-0.01228 -0.61988 -0.48913 254 254 254
-0.01067 -0.62497 -0.48432 254 254 254
-0.00905 -0.63006 -0.47951 254 254 254
-0.00743 -0.63515 -0.47470 254 254 254
-0.00582 -0.64024 -0.46989 254 254 254
-0.07501 -0.45161 -0.64933 254 254 252
-0.07340 -0.45667 -0.64455 254 254 254
-0.07180 -0.46173 -0.63977 254 254 253
-0.07019 -0.46679 -0.63499 254 254 253
-0.06858 -0.47186 -0.63021 254 254 254
-0.06698 -0.47692 -0.62542 254 254 254
-0.06537 -0.48198 -0.62064 254 254 254
-0.06376 -0.48704 -0.61586 254 254 254
-0.06216 -0.49211 -0.61108 254 254 254
-0.06055 -0.49717 -0.60629 254 254 254
-0.05894 -0.50223 -0.60151 254 254 254
-0.05733 -0.50730 -0.59673 254 254 254
-0.05573 -0.51236 -0.59194 254 254 254
-0.05412 -0.51743 -0.58716 254 254 254
-0.05251 -0.52249 -0.58237 254 254 254
-0.05090 -0.52756 -0.57759 254 254 254
-0.04929 -0.53262 -0.57280 254 254 254
-0.04769 -0.53769 -0.56802 254 254 254
-0.04608 -0.54275 -0.56323 254 254 254
-0.04447 -0.54782 -0.55845 254 254 254
-0.04286 -0.55289 -0.55366 254 254 254
-0.04125 -0.55795 -0.54888 254 254 254
-0.03964 -0.56302 -0.54409 254 254 254
-0.03803 -0.56809 -0.53930 254 254 254
-0.03643 -0.57316 -0.53451 254 254 254
-0.03482 -0.57822 -0.52973 254 254 254
-0.03321 -0.58329 -0.52494 254 254 254
-0.03160 -0.58836 -0.52015 254 254 253
-0.02999 -0.59343 -0.51536 254 254 253
-0.02838 -0.59850 -0.51057 254 254 254
-0.02677 -0.60357 -0.50578 254 254 254
-0.02516 -0.60864 -0.50099 254 254 254
-0.02355 -0.61371 -0.49620 254 254 254
-0.02194 -0.61878 -0.49141 254 254 254
-0.02033 -0.62385 -0.48662 254 254 254
-0.01872 -0.62892 -0.48183 254 254 254
-0.01711 -0.63400 -0.47704 254 254 254
-0.08600 -0.44608 -0.65579 254 254 252
-0.08440 -0.45112 -0.65103 254 254 253
-0.08280 -0.45616 -0.64627 254 254 254
-0.08120 -0.46121 -0.64150 254 254 254
-0.07960 -0.46625 -0.63674 254 254 253
-0.07800 -0.47129 -0.63197 254 254 254
-0.07640 -0.47634 -0.62721 254 254 254
-0.07480 -0.48138 -0.62245 254 254 254
-0.07319 -0.48643 -0.61768 254 254 254
-0.07159 -0.49147 -0.61291 254 254 254
-0.06999 -0.49652 -0.60815 254 254 254
-0.06839 -0.50156 -0.60338 254 254 254
-0.06679 -0.50661 -0.59862 254 254 254
-0.06519 -0.51165 -0.59385 254 254 253
-0.06359 -0.51670 -0.58908 254 254 253
-0.06198 -0.52175 -0.58432 254 254 254
-0.06038 -0.52679 -0.57955 254 254 254
-0.05878 -0.53184 -0.57478 254 254 254
-0.05718 -0.53689 -0.57001 254 254 254
-0.05558 -0.54194 -0.56524 254 254 254
-0.05397 -0.54698 -0.56048 254 254 254
-0.05237 -0.55203 -0.55571 254 254 254
-0.05077 -0.55708 -0.55094 254 254 254
-0.04917 -0.56213 -0.54617 254 254 254
-0.04756 -0.56718 -0.54140 254 254 254
-0.04596 -0.57223 -0.53663 254 254 254
-0.04436 -0.57728 -0.53186 254 254 254
-0.04275 -0.58233 -0.52709 254 254 254
-0.04115 -0.58738 -0.52232 254 254 254
-0.03955 -0.59243 -0.51754 254 254 254
-0.03794 -0.59748 -0.51277 254 254 254
-0.03634 -0.60253 -0.50800 254 254 254
-0.03474 -0.60759 -0.50323 254 254 254
-0.03313 -0.61264 -0.49846 254 254 254
-0.03153 -0.61769 -0.49368 254 254 254
-0.02993 -0.62274 -0.48891 254 254 254
-0.02832 -0.62780 -0.48414 254 254 253
-0.02672 -0.63285 -0.47936 254 254 254
-0.09532 -0.44561 -0.65746 254 254 251
-0.09372 -0.45064 -0.65272 254 254 253
-0.09213 -0.45566 -0.64797 254 254 254
-0.09053 -0.46069 -0.64322 254 254 254
-0.08894 -0.46571 -0.63848 254 254 254
-0.08734 -0.47074 -0.63373 254 254 254
-0.08575 -0.47576 -0.62898 254 254 254
-0.08415 -0.48079 -0.62424 254 254 254
-0.08256 -0.48581 -0.61949 254 254 254
-0.08096 -0.49084 -0.61474 254 254 254
-0.07937 -0.49587 -0.60999 254 254 254
-0.07777 -0.50090 -0.60524 254 254 254
-0.07618 -0.50592 -0.60049 254 254 254
-0.07458 -0.51095 -0.59574 254 254 254
-0.07299 -0.51598 -0.59099 254 254 254
-0.07139 -0.52101 -0.58624 254 254 253
-0.06979 -0.52604 -0.58149 254 254 253
-0.06820 -0.53107 -0.57674 254 254 253
-0.06660 -0.53609 -0.57199 254 254 254
-0.06501 -0.54112 -0.56724 254 254 254
-0.06341 -0.54615 -0.56249 254 254 254
-0.06181 -0.55118 -0.55774 254 254 254
-0.06022 -0.55622 -0.55298 254 254 254
-0.05862 -0.56125 -0.54823 254 254 254
-0.05702 -0.56628 -0.54348 254 254 254
-0.05543 -0.57131 -0.53873 254 254 254
-0.05383 -0.57634 -0.53397 254 254 253
-0.05223 -0.58137 -0.52922 254 254 254
-0.05064 -0.58641 -0.52446 254 254 254
-0.04904 -0.59144 -0.51971 254 254 254
-0.04744 -0.59647 -0.51496 254 254 254
-0.04584 -0.60151 -0.51020 254 254 254
-0.04425 -0.60654 -0.50545 254 254 254
-0.04265 -0.61157 -0.50069 254 254 254
-0.04105 -0.61661 -0.49594 254 254 254
-0.03945 -0.62164 -0.49118 254 254 254
-0.03786 -0.62668 -0.48642 254 254 254
-0.10615 -0.44014 -0.66385 254 253 253
-0.10457 -0.44515 -0.65912 254 254 252
-0.10298 -0.45015 -0.65439 254 254 253
-0.10139 -0.45516 -0.64966 254 254 253
-0.09980 -0.46017 -0.64493 254 254 254
-0.09821 -0.46517 -0.64020 254 254 254
-0.09662 -0.47018 -0.63547 254 254 253
-0.09503 -0.47519 -0.63074 254 254 254
-0.09344 -0.48020 -0.62601 254 254 254
-0.09186 -0.48521 -0.62128 254 254 254
-0.09027 -0.49022 -0.61655 254 254 254
-0.08868 -0.49522 -0.61182 254 254 254
-0.08709 -0.50023 -0.60709 254 254 254
-0.08550 -0.50524 -0.60235 254 254 254
-0.08391 -0.51025 -0.59762 254 254 254
-0.08232 -0.51526 -0.59289 254 254 254
-0.08073 -0.52027 -0.58816 254 254 254
-0.07914 -0.52528 -0.58342 254 254 254
-0.07755 -0.53030 -0.57869 254 254 254
-0.07596 -0.53531 -0.57395 254 254 253
-0.07437 -0.54032 -0.56922 254 254 254
-0.07278 -0.54533 -0.56449 254 254 254
-0.07119 -0.55034 -0.55975 254 254 254
-0.06960 -0.55536 -0.55502 254 254 254
-0.06801 -0.56037 -0.55028 254 254 254
-0.06642 -0.56538 -0.54555 254 254 254
-0.06483 -0.57040 -0.54081 254 254 254
-0.06323 -0.57541 -0.53607 254 254 254
-0.06164 -0.58042 -0.53134 254 254 253
-0.06005 -0.58544 -0.52660 254 254 254
-0.05846 -0.59045 -0.52186 254 254 254
-0.05687 -0.59547 -0.51712 254 254 254
-0.05528 -0.60048 -0.51239 254 254 254
-0.05369 -0.60550 -0.50765 254 254 254
-0.05210 -0.61052 -0.50291 254 254 254
-0.05050 -0.61553 -0.49817 254 254 254
-0.04891 -0.62055 -0.49343 254 254 254
-0.04732 -0.62557 -0.48869 254 254 254
-0.11691 -0.43471 -0.67019 254 254 250
-0.11533 -0.43970 -0.66548 254 254 252
-0.11375 -0.44469 -0.66077 254 254 254
-0.11217 -0.44968 -0.65606 254 254 254
-0.11058 -0.45466 -0.65134 254 254 254
-0.10900 -0.45965 -0.64663 254 254 253
-0.10742 -0.46464 -0.64192 254 254 253
-0.10584 -0.46963 -0.63720 254 254 253
-0.10425 -0.47462 -0.63249 254 254 253
-0.10267 -0.47961 -0.62778 254 254 254
-0.10109 -0.48460 -0.62306 254 254 254
-0.09950 -0.48959 -0.61835 254 254 254
-0.09792 -0.49459 -0.61363 254 254 254
-0.09634 -0.49958 -0.60892 254 254 254
-0.09475 -0.50457 -0.60420 254 254 254
-0.09317 -0.50956 -0.59949 254 254 254
-0.09159 -0.51455 -0.59477 254 254 254
-0.09000 -0.51955 -0.59006 254 254 254
-0.08842 -0.52454 -0.58534 254 254 254
-0.08683 -0.52953 -0.58062 254 254 254
-0.08525 -0.53453 -0.57591 254 254 254
-0.08366 -0.53952 -0.57119 254 254 254
-0.08208 -0.54451 -0.56647 254 254 254
-0.08050 -0.54951 -0.56175 254 254 254
-0.07891 -0.55450 -0.55703 254 254 254
-0.07733 -0.55950 -0.55232 254 254 254
-0.07574 -0.56449 -0.54760 254 254 254
-0.07416 -0.56949 -0.54288 254 254 254
-0.07257 -0.57449 -0.53816 254 254 254
-0.07099 -0.57948 -0.53344 254 254 254
-0.06940 -0.58448 -0.52872 254 254 254
-0.06782 -0.58948 -0.52400 254 254 254
-0.06623 -0.59447 -0.51928 254 254 254
-0.06465 -0.59947 -0.51456 254 254 254
-0.06306 -0.60447 -0.50984 254 254 254
-0.06147 -0.60947 -0.50511 254 254 254
-0.05989 -0.61446 -0.50039 254 254 254
-0.05830 -0.61946 -0.49567 254 254 254
-0.12602 -0.43429 -0.67179 254 254 253
-0.12444 -0.43926 -0.66710 254 254 252
-0.12287 -0.44423 -0.66240 254 254 253
-0.12129 -0.44920 -0.65771 254 254 254
-0.11971 -0.45417 -0.65301 254 254 254
-0.11814 -0.45914 -0.64832 254 254 254
-0.11656 -0.46411 -0.64362 254 254 253
-0.11498 -0.46909 -0.63892 254 254 252
-0.11341 -0.47406 -0.63423 254 254 250
-0.11183 -0.47903 -0.62953 254 254 251
-0.11025 -0.48400 -0.62483 254 254 253
-0.10867 -0.48898 -0.62013 254 254 254
-0.10710 -0.49395 -0.61544 254 254 253
-0.10552 -0.49892 -0.61074 254 254 253
-0.10394 -0.50390 -0.60604 254 254 253
-0.10236 -0.50887 -0.60134 254 254 254
-0.10079 -0.51385 -0.59664 254 254 253
-0.09921 -0.51882 -0.59194 254 254 253
-0.09763 -0.52380 -0.58724 254 254 254
-0.09605 -0.52877 -0.58254 254 254 254
-0.09447 -0.53375 -0.57784 254 254 254
-0.09290 -0.53873 -0.57314 254 254 254
-0.09132 -0.54370 -0.56844 254 254 254
-0.08974 -0.54868 -0.56374 254 254 254
-0.08816 -0.55366 -0.55904 254 254 254
-0.08658 -0.55863 -0.55434 254 254 254
-0.08500 -0.56361 -0.54963 254 254 254
-0.08342 -0.56859 -0.54493 254 254 254
-0.08184 -0.57357 -0.54023 254 254 254
-0.08026 -0.57855 -0.53553 254 254 254
-0.07869 -0.58352 -0.53082 254 254 254
-0.07711 -0.58850 -0.52612 254 254 254
-0.07553 -0.59348 -0.52142 254 254 254
-0.07395 -0.59846 -0.51671 254 254 254
-0.07237 -0.60344 -0.51201 254 254 254
-0.07079 -0.60842 -0.50730 254 254 254
-0.06921 -0.61340 -0.50260 254 254 254
-0.06763 -0.61839 -0.49789 254 254 254
-0.13663 -0.42892 -0.67806 254 254 251
-0.13506 -0.43387 -0.67338 254 254 252
-0.13349 -0.43882 -0.66871 254 254 252
-0.13192 -0.44377 -0.66403 254 254 253
-0.13035 -0.44873 -0.65935 254 254 254
-0.12878 -0.45368 -0.65467 254 254 254
-0.12721 -0.45864 -0.64999 254 254 254
-0.12564 -0.46359 -0.64531 254 254 253
-0.12407 -0.46854 -0.64063 254 254 252
-0.12250 -0.47350 -0.63595 254 254 252
-0.12092 -0.47845 -0.63127 254 254 252
-0.11935 -0.48341 -0.62659 254 254 252
-0.11778 -0.48836 -0.62191 254 254 254
-0.11621 -0.49332 -0.61723 254 254 254
-0.11464 -0.49828 -0.61254 254 254 254
-0.11307 -0.50323 -0.60786 254 254 252
-0.11149 -0.50819 -0.60318 254 254 252
-0.10992 -0.51315 -0.59850 254 254 254
-0.10835 -0.51810 -0.59381 254 254 254
-0.10678 -0.52306 -0.58913 254 254 254
-0.10521 -0.52802 -0.58445 254 254 254
-0.10363 -0.53298 -0.57976 254 254 254
-0.10206 -0.53794 -0.57508 254 254 254
-0.10049 -0.54290 -0.57040 254 254 254
-0.09892 -0.54785 -0.56571 254 254 254
-0.09734 -0.55281 -0.56103 254 254 254
-0.09577 -0.55777 -0.55634 254 254 254
-0.09420 -0.56273 -0.55166 254 254 254
-0.09262 -0.56769 -0.54697 254 254 254
-0.09105 -0.57266 -0.54229 254 254 254
-0.08948 -0.57762 -0.53760 254 254 254
-0.08790 -0.58258 -0.53291 254 254 254
-0.08633 -0.58754 -0.52823 254 254 254
-0.08476 -0.59250 -0.52354 254 254 254
-0.08318 -0.59746 -0.51885 254 254 254
-0.08161 -0.60243 -0.51416 254 254 254
-0.08004 -0.60739 -0.50948 254 254 254
-0.07846 -0.61235 -0.50479 254 254 254
-0.07689 -0.61732 -0.50010 254 254 254
-0.14717 -0.42358 -0.68429 254 254 254
-0.14561 -0.42852 -0.67962 254 254 254
-0.14404 -0.43345 -0.67496 254 254 253
-0.14248 -0.43839 -0.67030 254 254 254
-0.14091 -0.44332 -0.66564 254 254 253
-0.13935 -0.44826 -0.66098 254 254 254
-0.13778 -0.45319 -0.65631 254 254 254
-0.13622 -0.45813 -0.65165 254 254 254
-0.13465 -0.46307 -0.64699 254 254 254
-0.13309 -0.46801 -0.64232 254 254 254
-0.13152 -0.47294 -0.63766 254 254 253
-0.12996 -0.47788 -0.63300 254 254 253
-0.12839 -0.48282 -0.62833 254 254 254
-0.12682 -0.48776 -0.62367 254 254 254
-0.12526 -0.49269 -0.61900 254 254 254
-0.12369 -0.49763 -0.61434 254 254 254
-0.12213 -0.50257 -0.60967 254 254 254
-0.12056 -0.50751 -0.60501 254 254 254
-0.11899 -0.51245 -0.60034 254 254 254
-0.11743 -0.51739 -0.59567 254 254 254
-0.11586 -0.52233 -0.59101 254 254 254
-0.11429 -0.52727 -0.58634 254 254 254
-0.11273 -0.53221 -0.58167 254 254 254
-0.11116 -0.53715 -0.57701 254 254 254
-0.10959 -0.54210 -0.57234 254 254 254
-0.10803 -0.54704 -0.56767 254 254 254
-0.10646 -0.55198 -0.56300 254 254 254
-0.10489 -0.55692 -0.55833 254 254 253
-0.10333 -0.56186 -0.55367 254 254 254
-0.10176 -0.56681 -0.54900 254 254 254
-0.10019 -0.57175 -0.54433 254 254 254
-0.09862 -0.57669 -0.53966 254 254 254
-0.09706 -0.58164 -0.53499 254 254 254
-0.09549 -0.58658 -0.53032 254 254 254
-0.09392 -0.59153 -0.52565 254 254 254
-0.09235 -0.59647 -0.52098 254 254 254
-0.09079 -0.60142 -0.51630 254 254 254
-0.08922 -0.60636 -0.51163 254 254 254
-0.08765 -0.61131 -0.50696 254 254 254
-0.15608 -0.42320 -0.68582 254 254 253
-0.15452 -0.42812 -0.68118 254 254 254
-0.15296 -0.43304 -0.67653 254 254 254
-0.15140 -0.43796 -0.67189 254 254 254
-0.14984 -0.44287 -0.66724 254 254 254
-0.14828 -0.44779 -0.66259 254 254 254
-0.14672 -0.45271 -0.65795 254 254 254
-0.14516 -0.45763 -0.65330 254 254 254
-0.14360 -0.46255 -0.64865 254 254 253
-0.14204 -0.46747 -0.64401 254 254 252
-0.14048 -0.47239 -0.63936 254 254 253
-0.13892 -0.47731 -0.63471 254 254 254
-0.13736 -0.48223 -0.63006 254 254 254
-0.13580 -0.48715 -0.62542 254 254 254
-0.13424 -0.49207 -0.62077 254 254 254
-0.13268 -0.49699 -0.61612 254 254 254
-0.13112 -0.50192 -0.61147 254 254 254
-0.12956 -0.50684 -0.60682 254 254 254
-0.12800 -0.51176 -0.60217 254 254 254
-0.12644 -0.51668 -0.59752 254 254 254
-0.12488 -0.52161 -0.59287 254 254 254
-0.12332 -0.52653 -0.58822 254 254 254
-0.12176 -0.53145 -0.58357 254 254 254
-0.12020 -0.53638 -0.57892 254 254 254
-0.11864 -0.54130 -0.57427 254 254 254
-0.11708 -0.54622 -0.56962 254 254 254
-0.11551 -0.55115 -0.56496 254 254 254
-0.11395 -0.55607 -0.56031 254 254 254
-0.11239 -0.56100 -0.55566 254 254 253
-0.11083 -0.56593 -0.55101 254 254 254
-0.10927 -0.57085 -0.54635 254 254 254
-0.10771 -0.57578 -0.54170 254 254 254
-0.10615 -0.58070 -0.53705 254 254 254
-0.10458 -0.58563 -0.53239 254 254 254
-0.10302 -0.59056 -0.52774 254 254 254
-0.10146 -0.59548 -0.52309 254 254 254
-0.09990 -0.60041 -0.51843 254 254 254
-0.09833 -0.60534 -0.51378 254 254 254
-0.09677 -0.61027 -0.50912 254 254 254
-0.16647 -0.41793 -0.69197 254 254 253
-0.16492 -0.42283 -0.68735 254 254 252
-0.16337 -0.42773 -0.68272 254 254 252
-0.16181 -0.43263 -0.67809 254 254 253
-0.16026 -0.43753 -0.67346 254 254 253
-0.15871 -0.44243 -0.66883 254 254 253
-0.15715 -0.44733 -0.66420 254 254 254
-0.15560 -0.45223 -0.65957 254 254 254
-0.15404 -0.45713 -0.65494 254 254 254
-0.15249 -0.46204 -0.65031 254 254 254
-0.15094 -0.46694 -0.64568 254 254 254
-0.14938 -0.47184 -0.64105 254 254 253
-0.14783 -0.47674 -0.63642 254 254 254
-0.14627 -0.48165 -0.63178 254 254 254
-0.14472 -0.48655 -0.62715 254 254 254
-0.14317 -0.49146 -0.62252 254 254 253
-0.14161 -0.49636 -0.61789 254 254 254
-0.14006 -0.50126 -0.61325 254 254 254
-0.13850 -0.50617 -0.60862 254 254 253
-0.13695 -0.51107 -0.60399 254 254 252
-0.13539 -0.51598 -0.59935 254 254 253
-0.13384 -0.52089 -0.59472 254 254 254
-0.13228 -0.52579 -0.59009 254 254 254
-0.13073 -0.53070 -0.58545 254 254 254
-0.12917 -0.53560 -0.58082 254 254 254
-0.12762 -0.54051 -0.57618 254 254 254
-0.12606 -0.54542 -0.57155 254 254 254
-0.12451 -0.55033 -0.56691 254 254 254
-0.12295 -0.55523 -0.56228 254 254 254
-0.12139 -0.56014 -0.55764 254 254 254
-0.11984 -0.56505 -0.55300 254 254 254
-0.11828 -0.56996 -0.54837 254 254 254
-0.11673 -0.57487 -0.54373 254 254 254
-0.11517 -0.57978 -0.53909 254 254 254
-0.11361 -0.58469 -0.53446 254 254 254
-0.11206 -0.58960 -0.52982 254 254 254
-0.11050 -0.59451 -0.52518 254 254 254
-0.10895 -0.59942 -0.52054 254 254 254
-0.10739 -0.60433 -0.51590 254 254 253
-0.17525 -0.41757 -0.69347 254 254 254
-0.17370 -0.42245 -0.68886 254 254 253
-0.17215 -0.42734 -0.68425 254 254 253
-0.17060 -0.43222 -0.67963 254 254 254
-0.16906 -0.43710 -0.67502 254 254 254
-0.16751 -0.44199 -0.67041 254 254 254
-0.16596 -0.44687 -0.66579 254 254 254
-0.16441 -0.45176 -0.66118 254 254 254
-0.16287 -0.45664 -0.65657 254 254 254
-0.16132 -0.46153 -0.65195 254 254 254
-0.15977 -0.46641 -0.64734 254 254 254
-0.15822 -0.47130 -0.64272 254 254 254
-0.15667 -0.47618 -0.63811 254 254 254
-0.15512 -0.48107 -0.63349 254 254 254
-0.15357 -0.48596 -0.62888 254 254 254
-0.15203 -0.49084 -0.62426 254 254 254
-0.15048 -0.49573 -0.61964 254 254 254
-0.14893 -0.50062 -0.61503 254 254 254
-0.14738 -0.50551 -0.61041 254 254 254
-0.14583 -0.51039 -0.60579 254 254 254
-0.14428 -0.51528 -0.60118 254 254 253
-0.14273 -0.52017 -0.59656 254 254 254
-0.14118 -0.52506 -0.59194 254 254 254
-0.13963 -0.52995 -0.58732 254 254 254
-0.13808 -0.53484 -0.58270 254 254 254
-0.13653 -0.53973 -0.57808 254 254 254
-0.13498 -0.54462 -0.57347 254 254 254
-0.13343 -0.54951 -0.56885 254 254 254
-0.13188 -0.55440 -0.56423 254 254 254
-0.13033 -0.55929 -0.55961 254 254 254
-0.12878 -0.56418 -0.55499 254 254 254
-0.12723 -0.56907 -0.55037 254 254 254
-0.12568 -0.57396 -0.54575 254 254 254
-0.12413 -0.57886 -0.54112 254 254 254
-0.12258 -0.58375 -0.53650 254 254 254
-0.12103 -0.58864 -0.53188 254 254 254
-0.11948 -0.59353 -0.52726 254 254 254
-0.11793 -0.59843 -0.52264 254 254 254
-0.11638 -0.60332 -0.51802 254 254 254
-0.18550 -0.41235 -0.69955 254 254 254
-0.18396 -0.41722 -0.69496 254 254 254
-0.18242 -0.42208 -0.69036 254 254 254
-0.18088 -0.42695 -0.68577 254 254 254
-0.17934 -0.43182 -0.68117 254 254 253
-0.17779 -0.43668 -0.67657 254 254 254
-0.17625 -0.44155 -0.67198 254 254 254
-0.17471 -0.44642 -0.66738 254 254 254
-0.17317 -0.45128 -0.66278 254 254 254
-0.17162 -0.45615 -0.65818 254 254 254
-0.17008 -0.46102 -0.65358 254 254 254
-0.16854 -0.46589 -0.64899 254 254 254
-0.16700 -0.47076 -0.64439 254 254 254
-0.16545 -0.47563 -0.63979 254 254 254
-0.16391 -0.48050 -0.63519 254 254 254
-0.16237 -0.48536 -0.63059 254 254 254
-0.16082 -0.49023 -0.62599 254 254 254
-0.15928 -0.49510 -0.62139 254 254 254
-0.15774 -0.49998 -0.61679 254 254 253
-0.15620 -0.50485 -0.61219 254 254 254
-0.15465 -0.50972 -0.60759 254 254 254
-0.15311 -0.51459 -0.60298 254 254 254
-0.15156 -0.51946 -0.59838 254 254 254
-0.15002 -0.52433 -0.59378 254 254 254
-0.14848 -0.52920 -0.58918 254 254 254
-0.14693 -0.53408 -0.58458 254 254 254
-0.14539 -0.53895 -0.57997 254 254 254
-0.14384 -0.54382 -0.57537 254 254 254
-0.14230 -0.54870 -0.57077 254 254 254
-0.14076 -0.55357 -0.56616 254 254 254
-0.13921 -0.55844 -0.56156 254 254 254
-0.13767 -0.56332 -0.55696 254 254 254
-0.13612 -0.56819 -0.55235 254 254 254
-0.13458 -0.57307 -0.54775 254 254 254
-0.13303 -0.57794 -0.54314 254 254 254
-0.13149 -0.58282 -0.53854 254 254 254
-0.12994 -0.58769 -0.53393 254 254 254
-0.12840 -0.59257 -0.52933 254 254 254
-0.12685 -0.59744 -0.52472 254 254 254
-0.19569 -0.40717 -0.70560 254 254 253
-0.19415 -0.41202 -0.70102 254 254 253
-0.19262 -0.41687 -0.69644 254 254 254
-0.19108 -0.42171 -0.69186 254 254 254
-0.18954 -0.42656 -0.68727 254 254 254
-0.18801 -0.43141 -0.68269 254 254 254
-0.18647 -0.43626 -0.67811 254 254 254
-0.18493 -0.44111 -0.67353 254 254 254
-0.18340 -0.44596 -0.66895 254 254 253
-0.18186 -0.45081 -0.66437 254 254 252
-0.18032 -0.45567 -0.65979 254 254 253
-0.17879 -0.46052 -0.65520 254 254 254
-0.17725 -0.46537 -0.65062 254 254 254
-0.17571 -0.47022 -0.64604 254 254 254
-0.17418 -0.47507 -0.64146 254 254 254
-0.17264 -0.47992 -0.63687 254 254 253
-0.17110 -0.48478 -0.63229 254 254 254
-0.16956 -0.48963 -0.62770 254 254 254
-0.16803 -0.49448 -0.62312 254 254 254
-0.16649 -0.49934 -0.61854 254 254 254
-0.16495 -0.50419 -0.61395 254 254 254
-0.16341 -0.50905 -0.60937 254 254 254
-0.16187 -0.51390 -0.60478 254 254 254
-0.16034 -0.51875 -0.60019 254 254 254
-0.15880 -0.52361 -0.59561 254 254 254
-0.15726 -0.52846 -0.59102 254 254 254
-0.15572 -0.53332 -0.58644 254 254 254
-0.15418 -0.53818 -0.58185 254 254 254
-0.15264 -0.54303 -0.57726 254 254 254
-0.15111 -0.54789 -0.57268 254 254 254
-0.14957 -0.55275 -0.56809 254 254 254
-0.14803 -0.55760 -0.56350 254 254 254
-0.14649 -0.56246 -0.55891 254 254 254
-0.14495 -0.56732 -0.55432 254 254 254
-0.14341 -0.57218 -0.54973 254 254 254
-0.14187 -0.57703 -0.54515 254 254 254
-0.14033 -0.58189 -0.54056 254 254 254
-0.13879 -0.58675 -0.53597 254 254 254
-0.13725 -0.59161 -0.53138 254 254 254
-0.13571 -0.59647 -0.52679 254 254 254
-0.20427 -0.40685 -0.70703 254 254 254
-0.20274 -0.41168 -0.70247 254 254 254
-0.20121 -0.41652 -0.69790 254 254 253
-0.19968 -0.42135 -0.69334 254 254 253
-0.19815 -0.42618 -0.68877 254 254 254
-0.19662 -0.43101 -0.68421 254 254 254
-0.19509 -0.43585 -0.67964 254 254 253
-0.19356 -0.44068 -0.67508 254 254 252
-0.19202 -0.44551 -0.67051 254 254 253
-0.19049 -0.45035 -0.66595 254 254 254
-0.18896 -0.45518 -0.66138 254 254 253
-0.18743 -0.46002 -0.65681 254 254 254
-0.18590 -0.46485 -0.65225 254 254 254
-0.18437 -0.46969 -0.64768 254 254 254
-0.18284 -0.47452 -0.64311 254 254 253
-0.18130 -0.47936 -0.63854 254 254 252
-0.17977 -0.48419 -0.63398 254 254 251
-0.17824 -0.48903 -0.62941 254 254 253
-0.17671 -0.49387 -0.62484 254 254 254
-0.17518 -0.49870 -0.62027 254 254 254
-0.17364 -0.50354 -0.61570 254 254 254
-0.17211 -0.50838 -0.61113 254 254 254
-0.17058 -0.51322 -0.60656 254 254 254
-0.16905 -0.51805 -0.60199 254 254 254
-0.16751 -0.52289 -0.59742 254 254 254
-0.16598 -0.52773 -0.59285 254 254 254
-0.16445 -0.53257 -0.58828 254 254 254
-0.16292 -0.53741 -0.58371 254 254 254
-0.16138 -0.54225 -0.57914 254 254 254
-0.15985 -0.54709 -0.57457 254 254 254
-0.15832 -0.55193 -0.57000 254 254 254
-0.15678 -0.55677 -0.56543 254 254 254
-0.15525 -0.56161 -0.56085 254 254 254
-0.15372 -0.56645 -0.55628 254 254 254
-0.15218 -0.57129 -0.55171 254 254 254
-0.15065 -0.57613 -0.54714 254 254 254
-0.14912 -0.58097 -0.54256 254 254 253
-0.14758 -0.58582 -0.53799 254 254 252
-0.14605 -0.59066 -0.53341 254 254 252
-0.21127 -0.41135 -0.70391 254 254 254
-0.20975 -0.41617 -0.69936 254 254 254
-0.20822 -0.42098 -0.69481 254 254 253
-0.20670 -0.42580 -0.69026 254 254 254
-0.20517 -0.43062 -0.68571 254 254 254
-0.20364 -0.43543 -0.68116 254 254 254
-0.20212 -0.44025 -0.67661 254 254 254
-0.20059 -0.44507 -0.67206 254 254 253
-0.19907 -0.44988 -0.66751 254 254 254
-0.19754 -0.45470 -0.66296 254 254 254
-0.19602 -0.45952 -0.65841 254 254 254
-0.19449 -0.46434 -0.65386 254 254 254
-0.19296 -0.46916 -0.64931 254 254 254
-0.19144 -0.47398 -0.64476 254 254 254
-0.18991 -0.47880 -0.64021 254 254 253
-0.18839 -0.48361 -0.63565 254 254 253
-0.18686 -0.48843 -0.63110 254 254 253
-0.18533 -0.49325 -0.62655 254 254 254
-0.18381 -0.49807 -0.62200 254 254 254
-0.18228 -0.50289 -0.61744 254 254 254
-0.18075 -0.50772 -0.61289 254 254 254
-0.17923 -0.51254 -0.60833 254 254 253
-0.17770 -0.51736 -0.60378 254 254 254
-0.17617 -0.52218 -0.59923 254 254 254
-0.17464 -0.52700 -0.59467 254 254 254
-0.17312 -0.53182 -0.59012 254 254 254
-0.17159 -0.53665 -0.58556 254 254 254
-0.17006 -0.54147 -0.58101 254 254 254
-0.16853 -0.54629 -0.57645 254 254 254
-0.16701 -0.55112 -0.57190 254 254 254
-0.16548 -0.55594 -0.56734 254 254 254
-0.16395 -0.56076 -0.56278 254 254 254
-0.16242 -0.56559 -0.55823 254 254 254
-0.16090 -0.57041 -0.55367 254 254 254
-0.15937 -0.57524 -0.54911 254 254 253
-0.15784 -0.58006 -0.54455 254 254 254
-0.15631 -0.58489 -0.54000 254 254 254
-0.15478 -0.58971 -0.53544 254 254 254
-0.21822 -0.41582 -0.70081 254 254 253
-0.21670 -0.42062 -0.69627 254 254 253
-0.21518 -0.42542 -0.69174 254 254 253
-0.21366 -0.43022 -0.68721 254 254 254
-0.21214 -0.43502 -0.68267 254 254 254
-0.21062 -0.43982 -0.67814 254 254 254
-0.20910 -0.44462 -0.67360 254 254 254
-0.20758 -0.44942 -0.66907 254 254 254
-0.20606 -0.45423 -0.66453 254 254 254
-0.20454 -0.45903 -0.66000 254 254 254
-0.20302 -0.46383 -0.65546 254 254 254
-0.20150 -0.46863 -0.65093 254 254 253
-0.19998 -0.47343 -0.64639 254 254 252
-0.19846 -0.47824 -0.64186 254 254 253
-0.19694 -0.48304 -0.63732 254 254 254
-0.19542 -0.48784 -0.63278 254 254 254
-0.19390 -0.49265 -0.62824 254 254 254
-0.19238 -0.49745 -0.62371 254 254 254
-0.19085 -0.50225 -0.61917 254 254 254
-0.18933 -0.50706 -0.61463 254 254 254
-0.18781 -0.51186 -0.61009 254 254 254
-0.18629 -0.51667 -0.60556 254 254 254
-0.18477 -0.52147 -0.60102 254 254 254
-0.18325 -0.52628 -0.59648 254 254 254
-0.18173 -0.53108 -0.59194 254 254 254
-0.18020 -0.53589 -0.58740 254 254 254
-0.17868 -0.54070 -0.58286 254 254 254
-0.17716 -0.54550 -0.57832 254 254 254
-0.17564 -0.55031 -0.57378 254 254 254
-0.17411 -0.55512 -0.56924 254 254 254
-0.17259 -0.55992 -0.56470 254 254 254
-0.17107 -0.56473 -0.56016 254 254 254
-0.16955 -0.56954 -0.55562 254 254 254
-0.16803 -0.57435 -0.55107 254 254 254
-0.16650 -0.57916 -0.54653 254 254 254
-0.16498 -0.58396 -0.54199 254 254 254
-0.16346 -0.58877 -0.53745 254 254 254
-0.22513 -0.42026 -0.69773 254 254 253
-0.22361 -0.42505 -0.69321 254 254 253
-0.22210 -0.42983 -0.68869 254 254 253
-0.22058 -0.43462 -0.68417 254 254 254
-0.21907 -0.43940 -0.67965 254 254 254
-0.21756 -0.44418 -0.67513 254 254 254
-0.21604 -0.44897 -0.67061 254 254 254
-0.21453 -0.45375 -0.66609 254 254 254
-0.21301 -0.45854 -0.66158 254 254 254
-0.21150 -0.46332 -0.65706 254 254 254
-0.20998 -0.46811 -0.65253 254 254 253
-0.20846 -0.47289 -0.64801 254 254 252
-0.20695 -0.47768 -0.64349 254 254 251
-0.20543 -0.48247 -0.63897 254 254 252
-0.20392 -0.48725 -0.63445 254 254 253
-0.20240 -0.49204 -0.62993 254 254 253
-0.20089 -0.49683 -0.62541 254 254 254
-0.19937 -0.50162 -0.62089 254 254 254
-0.19786 -0.50640 -0.61636 254 254 254
-0.19634 -0.51119 -0.61184 254 254 253
-0.19482 -0.51598 -0.60732 254 254 253
-0.19331 -0.52077 -0.60280 254 254 254
-0.19179 -0.52556 -0.59827 254 254 254
-0.19027 -0.53035 -0.59375 254 254 254
-0.18876 -0.53514 -0.58922 254 254 254
-0.18724 -0.53993 -0.58470 254 254 254
-0.18573 -0.54472 -0.58018 254 254 254
-0.18421 -0.54951 -0.57565 254 254 254
-0.18269 -0.55430 -0.57113 254 254 254
-0.18117 -0.55909 -0.56660 254 254 254
-0.17966 -0.56388 -0.56207 254 254 254
-0.17814 -0.56867 -0.55755 254 254 254
-0.17662 -0.57346 -0.55302 254 254 254
-0.17511 -0.57826 -0.54850 254 254 254
-0.17359 -0.58305 -0.54397 254 254 254
-0.23199 -0.42468 -0.69467 254 254 252
-0.23048 -0.42944 -0.69016 254 254 251
-0.22897 -0.43421 -0.68566 254 254 253
-0.22746 -0.43898 -0.68116 254 254 254
-0.22595 -0.44375 -0.67665 254 254 254
-0.22444 -0.44851 -0.67215 254 254 254
-0.22293 -0.45328 -0.66765 254 254 254
-0.22142 -0.45805 -0.66314 254 254 254
-0.21991 -0.46282 -0.65864 254 254 254
-0.21840 -0.46759 -0.65413 254 254 253
-0.21689 -0.47236 -0.64963 254 254 253
-0.21538 -0.47713 -0.64512 254 254 253
-0.21387 -0.48190 -0.64062 254 254 253
-0.21236 -0.48667 -0.63611 254 254 253
-0.21085 -0.49144 -0.63160 254 254 254
-0.20934 -0.49621 -0.62710 254 254 254
-0.20783 -0.50098 -0.62259 254 254 254
-0.20632 -0.50576 -0.61808 254 254 254
-0.20481 -0.51053 -0.61358 254 254 254
-0.20330 -0.51530 -0.60907 254 254 254
-0.20179 -0.52007 -0.60456 254 254 254
-0.20028 -0.52484 -0.60005 254 254 254
-0.19877 -0.52962 -0.59554 254 254 254
-0.19726 -0.53439 -0.59104 254 254 254
-0.19574 -0.53916 -0.58653 254 254 254
-0.19423 -0.54394 -0.58202 254 254 254
-0.19272 -0.54871 -0.57751 254 254 254
-0.19121 -0.55349 -0.57300 254 254 254
-0.18970 -0.55826 -0.56849 254 254 254
-0.18819 -0.56304 -0.56398 254 254 254
-0.18668 -0.56781 -0.55947 254 254 254
-0.18516 -0.57259 -0.55496 254 254 254
-0.18365 -0.57736 -0.55045 254 254 254
-0.18214 -0.58214 -0.54594 254 254 254
-0.23880 -0.42906 -0.69163 254 254 252
-0.23730 -0.43381 -0.68714 254 254 252
-0.23579 -0.43856 -0.68265 254 254 253
-0.23429 -0.44331 -0.67816 254 254 254
-0.23278 -0.44806 -0.67367 254 254 254
-0.23128 -0.45282 -0.66919 254 254 253
-0.22978 -0.45757 -0.66470 254 254 253
-0.22827 -0.46232 -0.66021 254 254 253
-0.22677 -0.46707 -0.65572 254 254 252
-0.22526 -0.47183 -0.65123 254 254 253
-0.22376 -0.47658 -0.64674 254 254 253
-0.22225 -0.48134 -0.64225 254 254 254
-0.22075 -0.48609 -0.63776 254 254 253
-0.21924 -0.49085 -0.63327 254 254 253
-0.21774 -0.49560 -0.62877 254 254 253
-0.21623 -0.50036 -0.62428 254 254 254
-0.21473 -0.50511 -0.61979 254 254 254
-0.21322 -0.50987 -0.61530 254 254 254
-0.21172 -0.51462 -0.61081 254 254 253
-0.21021 -0.51938 -0.60632 254 254 254
-0.20871 -0.52414 -0.60182 254 254 254
-0.20720 -0.52889 -0.59733 254 254 254
-0.20570 -0.53365 -0.59284 254 254 254
-0.20419 -0.53841 -0.58834 254 254 254
-0.20268 -0.54316 -0.58385 254 254 254
-0.20118 -0.54792 -0.57936 254 254 254
-0.19967 -0.55268 -0.57486 254 254 254
-0.19817 -0.55744 -0.57037 254 254 254
-0.19666 -0.56220 -0.56587 254 254 254
-0.19515 -0.56696 -0.56138 254 254 253
-0.19365 -0.57172 -0.55688 254 254 253
-0.19214 -0.57647 -0.55239 254 254 254
-0.24557 -0.43341 -0.68861 254 254 252
-0.24407 -0.43814 -0.68413 254 254 251
-0.24257 -0.44288 -0.67966 254 254 253
-0.24107 -0.44762 -0.67519 254 254 254
-0.23957 -0.45235 -0.67071 254 254 252
-0.23807 -0.45709 -0.66624 254 254 250
-0.23657 -0.46183 -0.66177 254 254 250
-0.23507 -0.46656 -0.65729 254 254 253
-0.23358 -0.47130 -0.65282 254 254 252
-0.23208 -0.47604 -0.64834 254 254 252
-0.23058 -0.48078 -0.64387 254 254 251
-0.22908 -0.48551 -0.63939 254 254 253
-0.22758 -0.49025 -0.63492 254 254 253
-0.22608 -0.49499 -0.63044 254 254 253
-0.22458 -0.49973 -0.62596 254 254 254
-0.22308 -0.50447 -0.62149 254 254 254
-0.22158 -0.50921 -0.61701 254 254 254
-0.22008 -0.51395 -0.61253 254 254 253
-0.21858 -0.51869 -0.60806 254 254 253
-0.21708 -0.52343 -0.60358 254 254 254
-0.21558 -0.52817 -0.59910 254 254 254
-0.21408 -0.53291 -0.59462 254 254 254
-0.21258 -0.53765 -0.59015 254 254 254
-0.21108 -0.54239 -0.58567 254 254 254
-0.20958 -0.54714 -0.58119 254 254 254
-0.20808 -0.55188 -0.57671 254 254 254
-0.20657 -0.55662 -0.57223 254 254 254
-0.20507 -0.56136 -0.56775 254 254 254
-0.20357 -0.56611 -0.56327 254 254 254
-0.20207 -0.57085 -0.55879 254 254 253
-0.25229 -0.43773 -0.68561 254 254 252
-0.25079 -0.44245 -0.68115 254 254 251
-0.24930 -0.44717 -0.67669 254 254 252
-0.24781 -0.45189 -0.67223 254 254 253
-0.24631 -0.45661 -0.66778 254 254 253
-0.24482 -0.46133 -0.66332 254 254 251
-0.24333 -0.46605 -0.65886 253 254 251
-0.24183 -0.47078 -0.65440 254 254 252
-0.24034 -0.47550 -0.64994 254 254 253
-0.23884 -0.48022 -0.64548 254 254 252
-0.23735 -0.48494 -0.64102 254 254 251
-0.23586 -0.48966 -0.63656 254 254 252
-0.23436 -0.49439 -0.63210 254 254 253
-0.23287 -0.49911 -0.62764 254 254 252
-0.23137 -0.50383 -0.62317 254 254 253
-0.22988 -0.50856 -0.61871 254 254 253
-0.22838 -0.51328 -0.61425 254 254 253
-0.22689 -0.51801 -0.60979 254 254 252
-0.22539 -0.52273 -0.60533 254 254 253
-0.22390 -0.52746 -0.60086 254 254 254
-0.22240 -0.53218 -0.59640 254 254 254
-0.22091 -0.53691 -0.59194 254 254 254
-0.21941 -0.54163 -0.58747 254 254 254
-0.21792 -0.54636 -0.58301 254 254 254
-0.21642 -0.55108 -0.57855 254 254 254
-0.21493 -0.55581 -0.57408 254 254 254
-0.21343 -0.56054 -0.56962 254 254 254
-0.21194 -0.56526 -0.56515 254 254 254
-0.21044 -0.56999 -0.56069 254 254 254
-0.25897 -0.44203 -0.68263 254 254 251
-0.25748 -0.44673 -0.67819 253 254 251
-0.25599 -0.45143 -0.67374 253 254 249
-0.25450 -0.45614 -0.66930 253 254 250
-0.25301 -0.46084 -0.66486 254 254 251
-0.25152 -0.46555 -0.66041 254 254 249
-0.25003 -0.47026 -0.65597 253 254 250
-0.24855 -0.47496 -0.65152 254 254 252
-0.24706 -0.47967 -0.64708 254 254 253
-0.24557 -0.48437 -0.64263 254 254 253
-0.24408 -0.48908 -0.63819 254 254 250
-0.24259 -0.49379 -0.63374 254 254 251
-0.24110 -0.49850 -0.62929 254 254 252
-0.23961 -0.50320 -0.62485 254 254 250
-0.23812 -0.50791 -0.62040 254 254 251
-0.23663 -0.51262 -0.61595 254 254 252
-0.23514 -0.51733 -0.61151 254 254 253
-0.23365 -0.52204 -0.60706 254 254 253
-0.23216 -0.52674 -0.60261 254 254 253
-0.23067 -0.53145 -0.59816 254 254 254
-0.22918 -0.53616 -0.59372 254 254 254
-0.22769 -0.54087 -0.58927 254 254 254
-0.22620 -0.54558 -0.58482 254 254 253
-0.22471 -0.55029 -0.58037 254 254 254
-0.22322 -0.55500 -0.57592 254 254 254
-0.22173 -0.55971 -0.57147 254 254 254
-0.22024 -0.56443 -0.56702 254 254 254
-0.21875 -0.56914 -0.56257 254 254 254
-0.26560 -0.44629 -0.67967 254 254 249
-0.26412 -0.45098 -0.67524 253 254 250
-0.26263 -0.45567 -0.67081 254 254 248
-0.26115 -0.46036 -0.66638 253 254 248
-0.25967 -0.46505 -0.66195 254 254 253
-0.25818 -0.46974 -0.65752 254 254 253
-0.25670 -0.47443 -0.65309 254 254 252
-0.25521 -0.47912 -0.64866 254 254 252
-0.25373 -0.48381 -0.64423 254 254 252
-0.25225 -0.48850 -0.63980 254 254 252
-0.25076 -0.49319 -0.63537 254 254 250
-0.24928 -0.49788 -0.63094 254 254 251
-0.24780 -0.50257 -0.62651 254 254 252
-0.24631 -0.50727 -0.62208 254 254 250
-0.24483 -0.51196 -0.61765 254 254 251
-0.24334 -0.51665 -0.61321 254 254 251
-0.24186 -0.52134 -0.60878 254 254 252
-0.24037 -0.52604 -0.60435 254 254 253
-0.23889 -0.53073 -0.59992 254 254 253
-0.23740 -0.53543 -0.59548 254 254 254
-0.23592 -0.54012 -0.59105 254 254 254
-0.23443 -0.54481 -0.58662 254 254 254
-0.23295 -0.54951 -0.58218 254 254 254
-0.23146 -0.55420 -0.57775 254 254 254
-0.22998 -0.55890 -0.57331 254 254 254
-0.22849 -0.56359 -0.56888 254 254 254
-0.27219 -0.45053 -0.67673 254 253 247
-0.27071 -0.45520 -0.67232 254 254 250
-0.26923 -0.45988 -0.66790 253 254 251
-0.26775 -0.46455 -0.66349 253 254 250
-0.26627 -0.46922 -0.65907 254 254 252
-0.26480 -0.47390 -0.65466 254 254 252
-0.26332 -0.47857 -0.65024 254 254 252
-0.26184 -0.48325 -0.64583 254 254 251
-0.26036 -0.48792 -0.64141 253 254 251
-0.25888 -0.49260 -0.63700 253 254 251
-0.25740 -0.49728 -0.63258 253 254 251
-0.25592 -0.50195 -0.62816 254 254 251
-0.25445 -0.50663 -0.62375 254 254 251
-0.25297 -0.51130 -0.61933 254 254 251
-0.25149 -0.51598 -0.61491 254 254 252
-0.25001 -0.52066 -0.61049 254 254 253
-0.24853 -0.52534 -0.60608 254 254 253
-0.24705 -0.53001 -0.60166 254 254 253
-0.24557 -0.53469 -0.59724 254 254 253
-0.24409 -0.53937 -0.59282 254 254 251
-0.24261 -0.54405 -0.58840 254 254 252
-0.24113 -0.54873 -0.58398 254 254 254
-0.23965 -0.55341 -0.57956 254 254 254
-0.23817 -0.55809 -0.57514 254 254 253
-0.27873 -0.45474 -0.67381 254 253 248
-0.27726 -0.45940 -0.66941 254 254 250
-0.27579 -0.46406 -0.66501 254 254 252
-0.27431 -0.46871 -0.66061 254 254 251
-0.27284 -0.47337 -0.65621 254 254 252
-0.27137 -0.47803 -0.65181 253 254 252
-0.26989 -0.48269 -0.64741 253 254 251
-0.26842 -0.48735 -0.64301 254 254 250
-0.26695 -0.49201 -0.63861 254 254 250
-0.26547 -0.49667 -0.63420 254 254 251
-0.26400 -0.50133 -0.62980 254 254 252
-0.26253 -0.50599 -0.62540 254 254 252
-0.26105 -0.51065 -0.62100 254 254 250
-0.25958 -0.51532 -0.61660 253 254 250
-0.25810 -0.51998 -0.61219 254 254 252
-0.25663 -0.52464 -0.60779 254 254 253
-0.25516 -0.52930 -0.60339 254 254 253
-0.25368 -0.53396 -0.59898 254 254 253
-0.25221 -0.53863 -0.59458 254 254 253
-0.25073 -0.54329 -0.59017 254 254 252
-0.24926 -0.54795 -0.58577 254 254 253
-0.24778 -0.55262 -0.58137 254 254 254
-0.24631 -0.55728 -0.57696 254 254 254
-0.28524 -0.45892 -0.67091 254 254 248
-0.28377 -0.46356 -0.66652 254 254 250
-0.28230 -0.46821 -0.66214 254 254 252
-0.28083 -0.47285 -0.65775 254 254 251
-0.27936 -0.47749 -0.65337 254 254 250
-0.27790 -0.48214 -0.64898 253 253 249
-0.27643 -0.48678 -0.64459 254 253 248
-0.27496 -0.49143 -0.64021 254 254 248
-0.27349 -0.49607 -0.63582 254 254 246
-0.27202 -0.50072 -0.63143 254 253 247
-0.27055 -0.50536 -0.62705 253 254 251
-0.26908 -0.51001 -0.62266 254 254 252
-0.26761 -0.51465 -0.61827 254 254 250
-0.26615 -0.51930 -0.61388 253 254 249
-0.26468 -0.52395 -0.60949 253 254 249
-0.26321 -0.52859 -0.60510 254 254 250
-0.26174 -0.53324 -0.60071 254 254 253
-0.26027 -0.53789 -0.59633 254 254 253
-0.25880 -0.54254 -0.59194 254 254 254
-0.25733 -0.54718 -0.58755 254 254 254
-0.25586 -0.55183 -0.58316 254 254 254
-0.29170 -0.46307 -0.66803 254 253 246
-0.29023 -0.46770 -0.66366 254 253 249
-0.28877 -0.47233 -0.65928 254 254 250
-0.28731 -0.47696 -0.65491 254 254 248
-0.28584 -0.48159 -0.65054 254 253 247
-0.28438 -0.48622 -0.64617 253 253 244
-0.28292 -0.49085 -0.64180 253 253 244
-0.28145 -0.49548 -0.63742 254 253 247
-0.27999 -0.50011 -0.63305 254 253 247
-0.27853 -0.50474 -0.62868 254 253 247
-0.27706 -0.50937 -0.62431 254 254 250
-0.27560 -0.51400 -0.61993 254 254 252
-0.27413 -0.51863 -0.61556 254 254 252
-0.27267 -0.52326 -0.61118 253 254 250
-0.27121 -0.52789 -0.60681 253 254 249
-0.26974 -0.53252 -0.60244 253 254 251
-0.26828 -0.53715 -0.59806 254 254 253
-0.26681 -0.54179 -0.59369 254 254 254
-0.26535 -0.54642 -0.58931 254 254 254
-0.26389 -0.55105 -0.58494 254 254 253
-0.29811 -0.46720 -0.66516 254 253 248
-0.29666 -0.47182 -0.66081 254 254 248
-0.29520 -0.47643 -0.65645 254 254 249
-0.29374 -0.48104 -0.65209 253 253 245
-0.29228 -0.48566 -0.64773 253 254 248
-0.29082 -0.49027 -0.64338 254 254 249
-0.28937 -0.49488 -0.63902 253 253 246
-0.28791 -0.49950 -0.63466 254 253 247
-0.28645 -0.50411 -0.63030 254 253 248
-0.28499 -0.50873 -0.62594 254 254 248
-0.28353 -0.51334 -0.62158 254 253 249
-0.28207 -0.51796 -0.61722 254 254 251
-0.28061 -0.52258 -0.61286 254 254 252
-0.27915 -0.52719 -0.60850 253 254 252
-0.27769 -0.53181 -0.60414 253 254 252
-0.27624 -0.53643 -0.59978 254 254 252
-0.27478 -0.54104 -0.59542 254 254 253
-0.27332 -0.54566 -0.59106 254 254 254
-0.27186 -0.55028 -0.58670 254 254 253
-0.30449 -0.47130 -0.66232 254 254 250
-0.30304 -0.47590 -0.65798 253 253 244
-0.30159 -0.48050 -0.65363 253 253 240
-0.30013 -0.48510 -0.64929 253 253 243
-0.29868 -0.48970 -0.64495 254 253 245
-0.29722 -0.49430 -0.64060 254 254 247
-0.29577 -0.49890 -0.63626 253 253 246
-0.29432 -0.50350 -0.63191 253 253 244
-0.29286 -0.50810 -0.62757 253 253 245
-0.29141 -0.51270 -0.62322 254 254 250
-0.28996 -0.51730 -0.61888 254 254 249
-0.28850 -0.52190 -0.61453 254 253 247
-0.28705 -0.52650 -0.61019 254 253 248
-0.28559 -0.53110 -0.60584 253 253 249
-0.28414 -0.53570 -0.60150 253 254 251
-0.28269 -0.54030 -0.59715 254 254 252
-0.28123 -0.54491 -0.59280 254 254 252
-0.31083 -0.47538 -0.65949 253 254 246
-0.30938 -0.47996 -0.65516 253 252 243
-0.30793 -0.48454 -0.65083 253 253 241
-0.30648 -0.48913 -0.64651 253 253 242
-0.30503 -0.49371 -0.64218 253 253 244
-0.30358 -0.49830 -0.63785 253 252 244
-0.30214 -0.50288 -0.63352 253 253 245
-0.30069 -0.50747 -0.62919 254 253 246
-0.29924 -0.51205 -0.62485 253 253 246
-0.29779 -0.51664 -0.62052 254 253 247
-0.29634 -0.52122 -0.61619 253 254 245
-0.29489 -0.52581 -0.61186 253 253 243
-0.29344 -0.53040 -0.60753 253 254 245
-0.29199 -0.53498 -0.60320 254 253 248
-0.29054 -0.53957 -0.59887 254 254 250
-0.28909 -0.54416 -0.59453 254 254 250
-0.31712 -0.47943 -0.65668 253 253 242
-0.31568 -0.48399 -0.65237 253 252 241
-0.31423 -0.48856 -0.64805 253 252 242
-0.31279 -0.49313 -0.64374 253 254 244
-0.31135 -0.49770 -0.63942 253 253 244
-0.30990 -0.50227 -0.63511 253 253 248
-0.30846 -0.50684 -0.63079 254 254 250
-0.30702 -0.51141 -0.62647 254 253 247
-0.30557 -0.51598 -0.62216 254 253 246
-0.30413 -0.52055 -0.61784 253 253 246
-0.30268 -0.52512 -0.61352 253 253 247
-0.30124 -0.52970 -0.60921 253 254 246
-0.29979 -0.53427 -0.60489 253 254 246
-0.29835 -0.53884 -0.60057 254 253 249
-0.32338 -0.48345 -0.65389 253 252 240
-0.32194 -0.48800 -0.64959 253 252 236
-0.32050 -0.49256 -0.64529 253 253 243
-0.31906 -0.49711 -0.64099 253 254 247
-0.31762 -0.50167 -0.63669 253 253 243
-0.31618 -0.50622 -0.63239 254 253 245
-0.31474 -0.51078 -0.62808 254 254 248
-0.31330 -0.51533 -0.62378 254 253 246
-0.31186 -0.51989 -0.61948 254 253 247
-0.31042 -0.52444 -0.61517 253 253 246
-0.30899 -0.52900 -0.61087 253 253 243
-0.30755 -0.53356 -0.60657 253 253 243
-0.30611 -0.53811 -0.60226 253 253 247
-0.32959 -0.48744 -0.65112 252 252 241
-0.32816 -0.49198 -0.64683 253 252 241
-0.32672 -0.49652 -0.64255 253 253 242
-0.32529 -0.50106 -0.63826 253 253 239
-0.32385 -0.50560 -0.63397 253 254 244
-0.32242 -0.51014 -0.62968 253 254 245
-0.32099 -0.51469 -0.62539 253 253 244
-0.31955 -0.51923 -0.62110 253 254 246
-0.31812 -0.52377 -0.61682 254 253 246
-0.31668 -0.52831 -0.61253 253 253 247
-0.31525 -0.53285 -0.60824 253 252 246
-0.33576 -0.49141 -0.64837 253 252 240
-0.33433 -0.49594 -0.64409 253 252 244
-0.33291 -0.50046 -0.63982 253 254 245
-0.33148 -0.50499 -0.63554 254 254 244
-0.33005 -0.50952 -0.63127 253 253 244
-0.32862 -0.51404 -0.62700 253 253 242
-0.32719 -0.51857 -0.62272 253 253 240
-0.32576 -0.52310 -0.61845 253 254 244
-0.32433 -0.52762 -0.61417 253 253 244
-0.32290 -0.53215 -0.60989 253 253 245
-0.34190 -0.49536 -0.64563 253 252 239
-0.34047 -0.49987 -0.64137 253 252 242
-0.33905 -0.50438 -0.63711 254 253 246
-0.33763 -0.50889 -0.63285 254 254 249
-0.33620 -0.51340 -0.62859 253 251 244
-0.33478 -0.51792 -0.62433 253 252 243
-0.33335 -0.52243 -0.62006 253 253 242
-0.33193 -0.52694 -0.61580 253 254 246
-0.34799 -0.49928 -0.64291 252 252 237
-0.34657 -0.50378 -0.63866 252 252 241
-0.34515 -0.50827 -0.63442 253 252 243
-0.34374 -0.51277 -0.63017 253 253 245
-0.34232 -0.51727 -0.62592 252 252 243
-0.34090 -0.52177 -0.62167 253 252 241
-0.33948 -0.52626 -0.61743 253 252 240
-0.35405 -0.50318 -0.64021 252 251 234
-0.35264 -0.50766 -0.63597 253 252 240
-0.35122 -0.51214 -0.63174 253 251 239
-0.34981 -0.51662 -0.62751 252 252 244
-0.34839 -0.52111 -0.62327 252 253 246
-0.34698 -0.52559 -0.61904 253 252 239
-0.36007 -0.50705 -0.63752 252 251 235
-0.35866 -0.51151 -0.63330 252 251 237
-0.35725 -0.51598 -0.62908 252 250 236
-0.35584 -0.52045 -0.62486 252 251 240
1.53567 -0.34877 -0.48427 254 254 254
1.54019 -0.35734 -0.47589 254 254 254
1.54471 -0.36590 -0.46751 254 254 254
1.50198 -0.34341 -0.49437 254 254 254
1.50647 -0.35192 -0.48604 254 254 254
1.51096 -0.36043 -0.47771 254 254 254
1.51545 -0.36894 -0.46939 254 254 254
1.51994 -0.37746 -0.46106 254 254 254
1.52443 -0.38597 -0.45273 254 254 254
1.46871 -0.33811 -0.50434 254 254 254
1.47317 -0.34657 -0.49607 254 254 254
1.47763 -0.35503 -0.48779 254 254 254
1.48209 -0.36349 -0.47951 254 254 254
1.48655 -0.37195 -0.47124 254 254 254
1.49102 -0.38041 -0.46296 254 254 254
1.49548 -0.38886 -0.45469 254 254 254
1.49994 -0.39732 -0.44641 254 254 254
1.50440 -0.40577 -0.43814 254 254 254
1.50886 -0.41423 -0.42987 254 254 254
1.43140 -0.32447 -0.52242 254 254 254
1.43584 -0.33288 -0.51420 254 254 254
1.44027 -0.34129 -0.50597 254 254 254
1.44471 -0.34969 -0.49774 254 254 254
1.44915 -0.35810 -0.48952 254 254 254
1.45358 -0.36651 -0.48129 254 254 254
1.45802 -0.37491 -0.47307 254 254 254
1.46245 -0.38332 -0.46484 254 254 254
1.46689 -0.39172 -0.45662 254 254 254
1.47132 -0.40013 -0.44840 254 254 254
1.47575 -0.40853 -0.44017 254 254 254
1.48019 -0.41693 -0.43195 254 254 254
1.48462 -0.42534 -0.42373 254 254 254
1.48905 -0.43374 -0.41551 254 254 254
1.49349 -0.44214 -0.40729 254 254 254
1.39896 -0.31935 -0.53210 254 254 254
1.40337 -0.32771 -0.52393 254 254 254
1.40778 -0.33607 -0.51575 254 254 254
1.41219 -0.34442 -0.50757 254 254 254
1.41660 -0.35278 -0.49940 254 254 254
1.42101 -0.36113 -0.49122 254 254 254
1.42542 -0.36949 -0.48305 254 254 254
1.42983 -0.37784 -0.47487 254 254 254
1.43424 -0.38620 -0.46670 254 254 254
1.43865 -0.39455 -0.45853 254 254 254
1.44305 -0.40290 -0.45035 254 254 254
1.44746 -0.41126 -0.44218 254 254 254
1.45187 -0.41961 -0.43401 254 254 254
1.45628 -0.42796 -0.42584 254 254 254
1.46068 -0.43631 -0.41767 254 254 254
1.46509 -0.44466 -0.40950 254 254 254
1.46950 -0.45301 -0.40133 254 254 254
1.47390 -0.46135 -0.39316 254 254 254
1.34059 -0.26444 -0.59045 254 254 254
1.34498 -0.27275 -0.58232 254 254 254
1.34936 -0.28106 -0.57419 254 254 254
1.35375 -0.28937 -0.56606 254 254 254
1.35814 -0.29768 -0.55793 254 254 254
1.36252 -0.30599 -0.54980 254 254 254
1.36691 -0.31429 -0.54167 254 254 254
1.37129 -0.32260 -0.53354 254 254 254
1.37568 -0.33091 -0.52541 254 254 254
1.38006 -0.33922 -0.51728 254 254 254
1.38445 -0.34752 -0.50916 254 254 254
1.38883 -0.35583 -0.50103 254 254 254
1.39322 -0.36413 -0.49291 254 254 254
1.39760 -0.37243 -0.48478 254 254 254
