ply
format ascii 1.0
element face 0
property list uchar int vertex_indices
element vertex 1256
property float x
property float y
property float z
property uchar diffuse_red
property uchar diffuse_green
property uchar diffuse_blue
end_header
1.39905 -0.48932 -0.38762 254 254 254
1.40345 -0.49731 -0.37958 254 254 254
1.40785 -0.50531 -0.37154 254 254 254
1.41226 -0.51331 -0.36350 254 254 254
1.41666 -0.52131 -0.35546 254 254 254
1.42107 -0.52931 -0.34742 254 254 254
1.21939 -0.21613 -0.66673 254 254 254
1.22374 -0.22403 -0.65879 254 254 254
1.22809 -0.23194 -0.65084 254 254 254
1.23244 -0.23984 -0.64290 254 254 254
1.23679 -0.24775 -0.63495 254 254 254
1.24114 -0.25566 -0.62700 254 254 254
1.24550 -0.26357 -0.61905 254 254 254
1.24985 -0.27148 -0.61110 254 254 254
1.25420 -0.27939 -0.60315 254 254 254
1.25856 -0.28730 -0.59520 254 254 254
1.26291 -0.29522 -0.58724 254 254 254
1.26727 -0.30314 -0.57928 254 254 254
1.27163 -0.31105 -0.57133 254 254 254
1.27599 -0.31897 -0.56337 254 254 254
1.28034 -0.32689 -0.55541 254 254 254
1.28470 -0.33481 -0.54745 254 254 254
1.28906 -0.34274 -0.53948 254 254 254
1.29342 -0.35066 -0.53152 254 254 254
1.29779 -0.35859 -0.52355 254 254 254
1.30215 -0.36651 -0.51559 254 254 254
1.30651 -0.37444 -0.50762 254 254 254
1.31088 -0.38237 -0.49965 254 254 254
1.31524 -0.39030 -0.49168 254 254 254
1.31960 -0.39823 -0.48371 254 254 254
1.32397 -0.40617 -0.47573 254 254 254
1.32834 -0.41410 -0.46776 254 254 254
1.33271 -0.42204 -0.45978 254 254 254
1.33707 -0.42997 -0.45180 254 254 254
1.34144 -0.43791 -0.44383 254 254 254
1.34581 -0.44585 -0.43585 254 254 254
1.35018 -0.45379 -0.42786 254 254 254
1.35455 -0.46174 -0.41988 254 254 254
1.35892 -0.46968 -0.41190 254 254 254
1.36330 -0.47763 -0.40391 254 254 254
1.36767 -0.48557 -0.39592 254 254 254
1.37204 -0.49352 -0.38794 254 254 254
1.37642 -0.50147 -0.37995 254 254 254
1.38079 -0.50942 -0.37196 254 254 254
1.38517 -0.51737 -0.36396 254 254 254
1.38955 -0.52532 -0.35597 254 254 254
1.39393 -0.53328 -0.34798 254 254 254
1.39830 -0.54124 -0.33998 254 254 254
1.40268 -0.54919 -0.33198 254 254 253
1.23260 -0.29266 -0.59429 254 254 254
1.23693 -0.30053 -0.58638 254 254 254
1.24126 -0.30840 -0.57847 254 254 254
1.24559 -0.31627 -0.57056 254 254 254
1.24992 -0.32415 -0.56265 254 254 254
1.25425 -0.33202 -0.55474 254 254 254
1.25858 -0.33990 -0.54682 254 254 254
1.26291 -0.34777 -0.53891 254 254 254
1.26725 -0.35565 -0.53099 254 254 254
1.27158 -0.36353 -0.52307 254 254 254
1.27591 -0.37141 -0.51515 254 254 254
1.28025 -0.37929 -0.50723 254 254 254
1.28458 -0.38717 -0.49931 254 254 254
1.28892 -0.39506 -0.49138 254 254 254
1.29326 -0.40294 -0.48346 254 254 254
1.29760 -0.41083 -0.47553 254 254 254
1.30194 -0.41872 -0.46760 254 254 254
1.30627 -0.42661 -0.45968 254 254 254
1.31061 -0.43450 -0.45174 254 254 254
1.31496 -0.44239 -0.44381 254 254 254
1.31930 -0.45028 -0.43588 254 254 254
1.32364 -0.45818 -0.42795 254 254 254
1.32798 -0.46608 -0.42001 254 254 254
1.33233 -0.47397 -0.41207 254 254 254
1.33667 -0.48187 -0.40413 254 254 254
1.34102 -0.48977 -0.39620 254 254 254
1.34536 -0.49767 -0.38825 254 254 254
1.34971 -0.50558 -0.38031 254 254 254
1.35406 -0.51348 -0.37237 254 254 254
1.35840 -0.52139 -0.36442 254 254 254
1.36275 -0.52929 -0.35648 254 254 254
1.36710 -0.53720 -0.34853 254 254 254
1.37145 -0.54511 -0.34058 254 254 254
1.37580 -0.55302 -0.33263 254 254 254
1.38016 -0.56093 -0.32468 254 254 254
1.38451 -0.56884 -0.31673 254 254 254
1.24137 -0.36058 -0.53047 254 254 254
1.24568 -0.36841 -0.52259 254 254 254
1.24999 -0.37625 -0.51472 254 254 254
1.25429 -0.38408 -0.50685 254 254 254
1.25860 -0.39192 -0.49897 254 254 254
1.26291 -0.39976 -0.49109 254 254 254
1.26722 -0.40760 -0.48321 254 254 254
1.27153 -0.41544 -0.47533 254 254 254
1.27584 -0.42328 -0.46745 254 254 254
1.28015 -0.43113 -0.45957 254 254 254
1.28447 -0.43897 -0.45169 254 254 254
1.28878 -0.44682 -0.44380 254 254 254
1.29309 -0.45467 -0.43591 254 254 254
1.29741 -0.46251 -0.42803 254 254 254
1.30172 -0.47036 -0.42014 254 254 254
1.30604 -0.47822 -0.41225 254 254 254
1.31036 -0.48607 -0.40436 254 254 254
1.31467 -0.49392 -0.39646 254 254 254
1.31899 -0.50178 -0.38857 254 254 254
1.32331 -0.50963 -0.38067 254 254 254
1.32763 -0.51749 -0.37278 254 254 254
1.33195 -0.52535 -0.36488 254 254 254
1.33627 -0.53321 -0.35698 254 254 254
1.34059 -0.54107 -0.34908 254 254 254
1.34492 -0.54894 -0.34117 254 254 254
1.34924 -0.55680 -0.33327 254 254 254
1.35356 -0.56467 -0.32537 254 254 254
1.35789 -0.57253 -0.31746 254 254 254
1.36221 -0.58040 -0.30955 254 254 254
1.36654 -0.58827 -0.30164 254 254 252
1.22436 -0.38103 -0.51430 254 254 254
1.22864 -0.38882 -0.50647 254 254 254
1.23292 -0.39661 -0.49864 254 254 254
1.23720 -0.40441 -0.49081 254 254 254
1.24149 -0.41220 -0.48297 254 254 254
1.24577 -0.42000 -0.47514 254 254 254
1.25005 -0.42779 -0.46730 254 254 254
1.25434 -0.43559 -0.45947 254 254 254
1.25862 -0.44339 -0.45163 254 254 254
1.26291 -0.45119 -0.44379 254 254 254
1.26720 -0.45900 -0.43595 254 254 254
1.27148 -0.46680 -0.42811 254 254 254
1.27577 -0.47460 -0.42026 254 254 254
1.28006 -0.48241 -0.41242 254 254 254
1.28435 -0.49022 -0.40457 254 254 254
1.28864 -0.49803 -0.39673 254 254 254
1.29293 -0.50584 -0.38888 254 254 254
1.29722 -0.51365 -0.38103 254 254 254
1.30152 -0.52146 -0.37318 254 254 254
1.30581 -0.52927 -0.36533 254 254 254
1.31010 -0.53709 -0.35747 254 254 254
1.31440 -0.54490 -0.34962 254 254 254
1.31869 -0.55272 -0.34176 254 254 254
1.32299 -0.56054 -0.33390 254 254 254
1.32728 -0.56836 -0.32605 254 254 254
1.33158 -0.57618 -0.31819 254 254 254
1.33588 -0.58400 -0.31032 254 254 254
1.34018 -0.59183 -0.30246 254 254 254
1.34448 -0.59965 -0.29460 254 254 253
1.20754 -0.40125 -0.49831 254 254 254
1.21179 -0.40900 -0.49052 254 254 254
1.21605 -0.41675 -0.48273 254 254 254
1.22031 -0.42450 -0.47494 254 254 254
1.22456 -0.43225 -0.46715 254 254 254
1.22882 -0.44001 -0.45936 254 254 254
1.23308 -0.44776 -0.45157 254 254 254
1.23734 -0.45552 -0.44378 254 254 254
1.24160 -0.46327 -0.43598 254 254 254
1.24586 -0.47103 -0.42819 254 254 254
1.25012 -0.47879 -0.42039 254 254 254
1.25438 -0.48655 -0.41259 254 254 254
1.25864 -0.49432 -0.40479 254 254 254
1.26291 -0.50208 -0.39699 254 254 254
1.26717 -0.50984 -0.38918 254 254 254
1.27144 -0.51761 -0.38138 254 254 254
1.27570 -0.52538 -0.37358 254 254 254
1.27997 -0.53315 -0.36577 254 254 254
1.28423 -0.54092 -0.35796 254 254 254
1.28850 -0.54869 -0.35015 254 254 254
1.29277 -0.55646 -0.34234 254 254 254
1.29704 -0.56423 -0.33453 254 254 254
1.30131 -0.57201 -0.32672 254 254 254
1.30558 -0.57979 -0.31890 254 254 254
1.30985 -0.58756 -0.31109 254 254 254
1.31412 -0.59534 -0.30327 254 254 254
1.31839 -0.60312 -0.29545 254 254 254
1.32267 -0.61090 -0.28763 254 254 254
1.18668 -0.41354 -0.49024 254 254 254
1.19091 -0.42125 -0.48250 254 254 254
1.19514 -0.42895 -0.47475 254 254 254
1.19937 -0.43666 -0.46701 254 254 254
1.20360 -0.44437 -0.45926 254 254 254
1.20783 -0.45208 -0.45151 254 254 254
1.21206 -0.45979 -0.44377 254 254 254
1.21630 -0.46750 -0.43602 254 254 254
1.22053 -0.47522 -0.42826 254 254 254
1.22476 -0.48293 -0.42051 254 254 254
1.22900 -0.49065 -0.41276 254 254 254
1.23324 -0.49837 -0.40500 254 254 254
1.23747 -0.50609 -0.39725 254 254 254
1.24171 -0.51381 -0.38949 254 254 254
1.24595 -0.52153 -0.38173 254 254 254
1.25019 -0.52925 -0.37397 254 254 254
1.25443 -0.53698 -0.36621 254 254 254
1.25867 -0.54470 -0.35844 254 254 254
1.26291 -0.55243 -0.35068 254 254 254
1.26715 -0.56016 -0.34292 254 254 254
1.27139 -0.56789 -0.33515 254 254 254
1.27563 -0.57562 -0.32738 254 254 254
1.27988 -0.58335 -0.31961 254 254 254
1.28412 -0.59108 -0.31184 254 254 254
1.28837 -0.59882 -0.30407 254 254 254
1.29261 -0.60655 -0.29630 254 254 254
1.29686 -0.61429 -0.28852 254 254 254
1.30110 -0.62203 -0.28075 254 254 254
1.30535 -0.62977 -0.27297 254 254 253
1.17026 -0.43335 -0.47456 254 254 254
1.17446 -0.44102 -0.46686 254 254 254
1.17867 -0.44868 -0.45916 254 254 254
1.18287 -0.45635 -0.45146 254 254 254
1.18708 -0.46402 -0.44375 254 254 254
1.19128 -0.47169 -0.43605 254 254 254
1.19549 -0.47936 -0.42834 254 254 254
1.19970 -0.48703 -0.42063 254 254 254
1.20391 -0.49470 -0.41292 254 254 254
1.20812 -0.50237 -0.40521 254 254 254
1.21233 -0.51005 -0.39750 254 254 254
1.21654 -0.51773 -0.38979 254 254 254
1.22075 -0.52540 -0.38207 254 254 254
1.22496 -0.53308 -0.37436 254 254 254
1.22918 -0.54076 -0.36664 254 254 254
1.23339 -0.54844 -0.35892 254 254 254
1.23760 -0.55613 -0.35120 254 254 254
1.24182 -0.56381 -0.34348 254 254 254
1.24604 -0.57150 -0.33576 254 254 254
1.25025 -0.57918 -0.32804 254 254 254
1.25447 -0.58687 -0.32031 254 254 254
1.25869 -0.59456 -0.31259 254 254 254
1.26291 -0.60225 -0.30486 254 254 254
1.26712 -0.60994 -0.29713 254 254 254
1.27134 -0.61763 -0.28940 254 254 254
1.27556 -0.62533 -0.28167 254 254 254
1.27979 -0.63302 -0.27394 254 254 254
1.28401 -0.64072 -0.26621 254 254 254
1.28823 -0.64842 -0.25847 254 254 253
1.14984 -0.44532 -0.46672 254 254 254
1.15402 -0.45295 -0.45906 254 254 254
1.15820 -0.46057 -0.45140 254 254 254
1.16238 -0.46819 -0.44374 254 254 254
1.16656 -0.47582 -0.43608 254 254 254
1.17074 -0.48345 -0.42842 254 254 254
1.17492 -0.49108 -0.42075 254 254 254
1.17910 -0.49870 -0.41309 254 254 254
1.18329 -0.50634 -0.40542 254 254 254
1.18747 -0.51397 -0.39775 254 254 254
1.19166 -0.52160 -0.39008 254 254 254
1.19584 -0.52923 -0.38241 254 254 254
1.20003 -0.53687 -0.37474 254 254 254
1.20422 -0.54451 -0.36707 254 254 254
1.20840 -0.55214 -0.35939 254 254 254
1.21259 -0.55978 -0.35172 254 254 254
1.21678 -0.56742 -0.34404 254 254 254
1.22097 -0.57507 -0.33637 254 254 254
1.22516 -0.58271 -0.32869 254 254 254
1.22935 -0.59035 -0.32101 254 254 254
1.23354 -0.59800 -0.31332 254 254 254
1.23774 -0.60564 -0.30564 254 254 254
1.24193 -0.61329 -0.29796 254 254 254
1.24612 -0.62094 -0.29027 254 254 254
1.25032 -0.62859 -0.28259 254 254 254
1.25451 -0.63624 -0.27490 254 254 254
1.25871 -0.64390 -0.26721 254 254 254
1.26290 -0.65155 -0.25952 254 254 254
1.26710 -0.65920 -0.25183 254 254 254
1.27130 -0.66686 -0.24413 254 254 253
1.27550 -0.67452 -0.23644 254 254 251
1.27970 -0.68218 -0.22875 254 253 251
1.28390 -0.68984 -0.22105 254 254 254
1.12965 -0.45716 -0.45896 254 254 254
1.13380 -0.46474 -0.45135 254 254 254
1.13795 -0.47232 -0.44373 254 254 254
1.14211 -0.47991 -0.43611 254 254 254
1.14627 -0.48749 -0.42849 254 254 254
1.15042 -0.49508 -0.42087 254 254 254
1.15458 -0.50266 -0.41325 254 254 254
1.15874 -0.51025 -0.40563 254 254 254
1.16290 -0.51784 -0.39800 254 254 254
1.16706 -0.52543 -0.39038 254 254 254
1.17122 -0.53302 -0.38275 254 254 254
1.17538 -0.54061 -0.37512 254 254 254
1.17954 -0.54821 -0.36749 254 254 254
1.18370 -0.55580 -0.35986 254 254 254
1.18786 -0.56340 -0.35223 254 254 254
1.19203 -0.57100 -0.34460 254 254 254
1.19619 -0.57859 -0.33696 254 254 254
1.20035 -0.58619 -0.32933 254 254 254
1.20452 -0.59379 -0.32169 254 254 254
1.20868 -0.60140 -0.31405 254 254 254
1.21285 -0.60900 -0.30641 254 254 254
1.21702 -0.61661 -0.29877 254 254 254
1.22119 -0.62421 -0.29113 254 254 254
1.22536 -0.63182 -0.28349 254 254 254
1.22952 -0.63943 -0.27584 254 254 254
1.23369 -0.64704 -0.26820 254 254 254
1.23786 -0.65465 -0.26055 254 254 254
1.24204 -0.66226 -0.25291 254 254 254
1.24621 -0.66987 -0.24526 254 254 254
1.25038 -0.67749 -0.23761 254 254 254
1.25455 -0.68510 -0.22996 254 254 254
1.25873 -0.69272 -0.22230 254 254 253
1.26290 -0.70034 -0.21465 254 254 254
1.26708 -0.70796 -0.20699 254 254 254
1.11381 -0.47641 -0.44372 254 254 254
1.11794 -0.48395 -0.43614 254 254 254
1.12207 -0.49149 -0.42857 254 254 254
1.12620 -0.49903 -0.42099 254 254 254
1.13033 -0.50658 -0.41341 254 254 254
1.13446 -0.51412 -0.40583 254 254 254
1.13860 -0.52167 -0.39825 254 254 254
1.14273 -0.52922 -0.39067 254 254 254
1.14687 -0.53676 -0.38308 254 254 254
1.15100 -0.54431 -0.37550 254 254 254
1.15514 -0.55187 -0.36791 254 254 254
1.15927 -0.55942 -0.36032 254 254 254
1.16341 -0.56697 -0.35273 254 254 254
1.16755 -0.57453 -0.34514 254 254 254
1.17169 -0.58208 -0.33755 254 254 254
1.17583 -0.58964 -0.32996 254 254 254
1.17997 -0.59720 -0.32237 254 254 254
1.18411 -0.60476 -0.31477 254 254 254
1.18825 -0.61232 -0.30718 254 254 254
1.19239 -0.61988 -0.29958 254 254 254
1.19653 -0.62744 -0.29198 254 254 254
1.20068 -0.63501 -0.28438 254 254 254
1.20482 -0.64257 -0.27678 254 254 254
1.20896 -0.65014 -0.26918 254 254 254
1.21311 -0.65771 -0.26158 254 254 254
1.21725 -0.66528 -0.25397 254 254 254
1.22140 -0.67285 -0.24637 254 254 254
1.22555 -0.68042 -0.23876 254 254 254
1.22970 -0.68799 -0.23115 254 254 254
1.23384 -0.69557 -0.22354 254 254 254
1.23799 -0.70314 -0.21593 254 254 254
1.24214 -0.71072 -0.20832 254 254 254
1.24629 -0.71830 -0.20071 254 254 254
1.25044 -0.72587 -0.19309 254 254 253
1.09404 -0.48794 -0.43618 254 254 254
1.09814 -0.49544 -0.42864 254 254 254
1.10225 -0.50294 -0.42111 254 254 254
1.10636 -0.51045 -0.41357 254 254 254
1.11046 -0.51795 -0.40603 254 254 254
1.11457 -0.52545 -0.39849 254 254 254
1.11868 -0.53296 -0.39095 254 254 254
1.12279 -0.54047 -0.38341 254 254 254
1.12690 -0.54797 -0.37587 254 254 254
1.13101 -0.55548 -0.36832 254 254 254
1.13512 -0.56299 -0.36078 254 254 254
1.13923 -0.57051 -0.35323 254 254 254
1.14335 -0.57802 -0.34569 254 254 254
1.14746 -0.58553 -0.33814 254 254 254
1.15157 -0.59305 -0.33059 254 254 254
1.15569 -0.60056 -0.32304 254 254 254
1.15980 -0.60808 -0.31549 254 254 254
1.16392 -0.61560 -0.30793 254 254 254
1.16804 -0.62312 -0.30038 254 254 254
1.17215 -0.63064 -0.29282 254 254 254
1.17627 -0.63816 -0.28526 254 254 254
1.18039 -0.64569 -0.27771 254 254 254
1.18451 -0.65321 -0.27015 254 254 254
1.18863 -0.66074 -0.26259 254 254 254
1.19275 -0.66826 -0.25503 254 254 254
1.19687 -0.67579 -0.24746 254 254 254
1.20099 -0.68332 -0.23990 254 254 254
1.20512 -0.69085 -0.23233 254 254 254
1.20924 -0.69838 -0.22477 254 254 254
1.21336 -0.70592 -0.21720 254 254 254
1.21749 -0.71345 -0.20963 254 254 254
1.22161 -0.72099 -0.20206 254 254 254
1.22574 -0.72852 -0.19449 254 254 254
1.22986 -0.73606 -0.18692 254 254 253
1.07448 -0.49935 -0.42871 254 254 254
1.07856 -0.50681 -0.42122 254 254 254
1.08265 -0.51427 -0.41373 254 254 254
1.08673 -0.52174 -0.40623 254 254 254
1.09081 -0.52920 -0.39873 254 254 254
1.09490 -0.53666 -0.39124 254 254 254
1.09898 -0.54413 -0.38374 254 254 254
1.10307 -0.55159 -0.37624 254 254 254
1.10715 -0.55906 -0.36873 254 254 254
1.11124 -0.56653 -0.36123 254 254 254
1.11533 -0.57400 -0.35373 254 254 254
1.11942 -0.58147 -0.34622 254 254 254
1.12350 -0.58894 -0.33872 254 254 254
1.12759 -0.59642 -0.33121 254 254 254
1.13168 -0.60389 -0.32370 254 254 254
1.13577 -0.61137 -0.31619 254 254 254
1.13986 -0.61884 -0.30868 254 254 254
1.14396 -0.62632 -0.30117 254 254 254
1.14805 -0.63380 -0.29365 254 254 254
1.15214 -0.64128 -0.28614 254 254 254
1.15624 -0.64876 -0.27862 254 254 254
1.16033 -0.65625 -0.27110 254 254 254
1.16443 -0.66373 -0.26359 254 254 254
1.16852 -0.67122 -0.25607 254 254 254
1.17262 -0.67870 -0.24855 254 254 254
1.17671 -0.68619 -0.24103 254 254 254
1.18081 -0.69368 -0.23350 254 254 254
1.18491 -0.70117 -0.22598 254 254 254
1.18901 -0.70866 -0.21845 254 254 254
1.19311 -0.71615 -0.21093 254 254 254
1.19721 -0.72364 -0.20340 254 254 254
1.20131 -0.73114 -0.19587 254 254 254
1.20541 -0.73864 -0.18834 254 254 254
1.20951 -0.74613 -0.18081 254 254 254
1.21362 -0.75363 -0.17328 254 254 253
1.05514 -0.51064 -0.42133 254 254 254
1.05920 -0.51806 -0.41388 254 254 254
1.06326 -0.52548 -0.40643 254 254 254
1.06732 -0.53290 -0.39897 254 254 254
1.07138 -0.54032 -0.39152 254 254 254
1.07544 -0.54775 -0.38406 254 254 254
1.07950 -0.55517 -0.37660 254 254 254
1.08356 -0.56260 -0.36914 254 254 254
1.08762 -0.57003 -0.36168 254 254 254
1.09169 -0.57746 -0.35422 254 254 254
1.09575 -0.58489 -0.34675 254 254 254
1.09981 -0.59232 -0.33929 254 254 254
1.10388 -0.59975 -0.33182 254 254 254
1.10794 -0.60718 -0.32435 254 254 254
1.11201 -0.61462 -0.31689 254 254 254
1.11608 -0.62205 -0.30942 254 254 254
1.12014 -0.62949 -0.30195 254 254 254
1.12421 -0.63693 -0.29447 254 254 254
1.12828 -0.64437 -0.28700 254 254 254
1.13235 -0.65181 -0.27953 254 254 254
1.13642 -0.65925 -0.27205 254 254 254
1.14049 -0.66669 -0.26458 254 254 254
1.14456 -0.67413 -0.25710 254 254 254
1.14863 -0.68158 -0.24962 254 254 254
1.15270 -0.68903 -0.24214 254 254 254
1.15678 -0.69647 -0.23466 254 254 254
1.16085 -0.70392 -0.22718 254 254 254
1.16492 -0.71137 -0.21969 254 254 254
1.16900 -0.71882 -0.21221 254 254 254
1.17307 -0.72627 -0.20472 254 254 254
1.17715 -0.73373 -0.19724 254 254 254
1.18123 -0.74118 -0.18975 254 254 254
1.18530 -0.74864 -0.18226 254 254 254
1.18938 -0.75609 -0.17477 254 254 254
1.19346 -0.76355 -0.16728 254 254 254
1.19754 -0.77101 -0.15978 254 254 253
1.03601 -0.52180 -0.41404 254 254 254
1.04005 -0.52918 -0.40662 254 254 254
1.04408 -0.53656 -0.39921 254 254 254
1.04812 -0.54394 -0.39179 254 254 254
1.05215 -0.55133 -0.38438 254 254 254
1.05619 -0.55871 -0.37696 254 254 254
1.06023 -0.56610 -0.36954 254 254 254
1.06427 -0.57348 -0.36212 254 254 254
1.06830 -0.58087 -0.35470 254 254 254
1.07234 -0.58826 -0.34728 254 254 254
1.07638 -0.59565 -0.33985 254 254 254
1.08042 -0.60304 -0.33243 254 254 254
1.08446 -0.61044 -0.32500 254 254 254
1.08851 -0.61783 -0.31757 254 254 254
1.09255 -0.62523 -0.31015 254 254 254
1.09659 -0.63262 -0.30272 254 254 254
1.10064 -0.64002 -0.29529 254 254 254
1.10468 -0.64742 -0.28785 254 254 254
1.10872 -0.65482 -0.28042 254 254 254
1.11277 -0.66222 -0.27299 254 254 254
1.11682 -0.66962 -0.26555 254 254 254
1.12086 -0.67702 -0.25812 254 254 254
1.12491 -0.68443 -0.25068 254 254 254
1.12896 -0.69183 -0.24324 254 254 254
1.13301 -0.69924 -0.23580 254 254 254
1.13706 -0.70665 -0.22836 254 254 254
1.14111 -0.71405 -0.22092 254 254 254
1.14516 -0.72146 -0.21348 254 254 254
1.14921 -0.72888 -0.20603 254 254 254
1.15326 -0.73629 -0.19859 254 254 254
1.15731 -0.74370 -0.19114 254 254 254
1.16136 -0.75112 -0.18369 254 254 254
1.16542 -0.75853 -0.17624 254 254 254
1.16947 -0.76595 -0.16879 254 254 254
1.17353 -0.77337 -0.16134 254 254 254
1.17758 -0.78078 -0.15389 254 254 254
1.18164 -0.78821 -0.14644 254 254 253
1.01709 -0.53284 -0.40681 254 254 254
1.02110 -0.54018 -0.39944 254 254 254
1.02511 -0.54752 -0.39207 254 254 254
1.02912 -0.55487 -0.38469 254 254 254
1.03314 -0.56221 -0.37731 254 254 254
1.03715 -0.56956 -0.36993 254 254 254
1.04116 -0.57691 -0.36256 254 254 254
1.04518 -0.58425 -0.35518 254 254 254
1.04919 -0.59160 -0.34779 254 254 254
1.05321 -0.59895 -0.34041 254 254 254
1.05723 -0.60630 -0.33303 254 254 254
1.06124 -0.61366 -0.32564 254 254 254
1.06526 -0.62101 -0.31826 254 254 254
1.06928 -0.62836 -0.31087 254 254 254
1.07330 -0.63572 -0.30348 254 254 254
1.07732 -0.64308 -0.29609 254 254 254
1.08134 -0.65043 -0.28870 254 254 254
1.08536 -0.65779 -0.28131 254 254 254
1.08938 -0.66515 -0.27391 254 254 254
1.09340 -0.67252 -0.26652 254 254 254
1.09743 -0.67988 -0.25913 254 254 254
1.10145 -0.68724 -0.25173 254 254 254
1.10547 -0.69461 -0.24433 254 254 254
1.10950 -0.70197 -0.23693 254 254 254
1.11352 -0.70934 -0.22953 254 254 254
1.11755 -0.71671 -0.22213 254 254 254
1.12158 -0.72408 -0.21473 254 254 254
1.12560 -0.73145 -0.20733 254 254 254
1.12963 -0.73882 -0.19992 254 254 254
1.13366 -0.74619 -0.19252 254 254 254
1.13769 -0.75357 -0.18511 254 254 254
1.14172 -0.76094 -0.17770 254 254 254
1.14575 -0.76832 -0.17029 254 254 254
1.14978 -0.77569 -0.16288 254 254 254
1.15381 -0.78307 -0.15547 254 254 254
1.15784 -0.79045 -0.14806 254 254 254
1.16187 -0.79783 -0.14065 254 254 254
1.16591 -0.80522 -0.13323 254 254 253
1.16994 -0.81260 -0.12581 254 254 252
1.17398 -0.81998 -0.11840 254 254 251
0.99438 -0.53646 -0.40700 254 254 254
0.99837 -0.54376 -0.39967 254 254 254
1.00236 -0.55107 -0.39234 254 254 254
1.00635 -0.55837 -0.38500 254 254 254
1.01034 -0.56568 -0.37766 254 254 254
1.01433 -0.57298 -0.37033 254 254 254
1.01832 -0.58029 -0.36299 254 254 254
1.02231 -0.58760 -0.35565 254 254 254
1.02630 -0.59491 -0.34831 254 254 254
1.03029 -0.60222 -0.34096 254 254 254
1.03428 -0.60953 -0.33362 254 254 254
1.03828 -0.61684 -0.32628 254 254 254
1.04227 -0.62415 -0.31893 254 254 254
1.04627 -0.63147 -0.31158 254 254 254
1.05026 -0.63878 -0.30423 254 254 254
1.05426 -0.64610 -0.29689 254 254 254
1.05825 -0.65342 -0.28953 254 254 254
1.06225 -0.66074 -0.28218 254 254 254
1.06625 -0.66806 -0.27483 254 254 254
1.07025 -0.67538 -0.26748 254 254 254
1.07425 -0.68270 -0.26012 254 254 254
1.07825 -0.69003 -0.25277 254 254 254
1.08225 -0.69735 -0.24541 254 254 254
1.08625 -0.70468 -0.23805 254 254 254
1.09025 -0.71200 -0.23069 254 254 254
1.09425 -0.71933 -0.22333 254 254 254
1.09825 -0.72666 -0.21597 254 254 254
1.10226 -0.73399 -0.20861 254 254 254
1.10626 -0.74132 -0.20124 254 254 254
1.11026 -0.74866 -0.19388 254 254 254
1.11427 -0.75599 -0.18651 254 254 254
1.11828 -0.76332 -0.17914 254 254 254
1.12228 -0.77066 -0.17178 254 254 254
1.12629 -0.77800 -0.16441 254 254 254
1.13030 -0.78534 -0.15704 254 254 254
1.13430 -0.79268 -0.14966 254 254 254
1.13831 -0.80002 -0.14229 254 254 254
1.14232 -0.80736 -0.13492 254 254 254
1.14633 -0.81470 -0.12754 254 254 254
1.15034 -0.82205 -0.12017 254 254 254
1.15435 -0.82939 -0.11279 254 254 253
1.15837 -0.83674 -0.10541 254 254 253
1.16238 -0.84408 -0.09803 254 254 253
0.97192 -0.54005 -0.40719 254 254 254
0.97589 -0.54731 -0.39990 254 254 254
0.97985 -0.55457 -0.39260 254 254 254
0.98382 -0.56183 -0.38531 254 254 254
0.98778 -0.56910 -0.37801 254 254 254
0.99175 -0.57637 -0.37071 254 254 254
0.99572 -0.58363 -0.36341 254 254 254
0.99968 -0.59090 -0.35611 254 254 254
1.00365 -0.59817 -0.34881 254 254 254
1.00762 -0.60544 -0.34151 254 254 254
1.01159 -0.61272 -0.33421 254 254 254
1.01556 -0.61999 -0.32690 254 254 254
1.01953 -0.62726 -0.31960 254 254 254
1.02350 -0.63454 -0.31229 254 254 254
1.02747 -0.64181 -0.30498 254 254 254
1.03145 -0.64909 -0.29767 254 254 254
1.03542 -0.65637 -0.29036 254 254 254
1.03939 -0.66365 -0.28305 254 254 254
1.04337 -0.67093 -0.27574 254 254 254
1.04734 -0.67821 -0.26842 254 254 254
1.05132 -0.68550 -0.26111 254 254 254
1.05529 -0.69278 -0.25379 254 254 254
1.05927 -0.70007 -0.24648 254 254 254
1.06325 -0.70735 -0.23916 254 254 254
1.06723 -0.71464 -0.23184 254 254 254
1.07120 -0.72193 -0.22452 254 254 254
1.07518 -0.72922 -0.21720 254 254 254
1.07916 -0.73651 -0.20987 254 254 254
1.08314 -0.74380 -0.20255 254 254 254
1.08712 -0.75109 -0.19522 254 254 254
1.09111 -0.75839 -0.18790 254 254 254
1.09509 -0.76568 -0.18057 254 254 254
1.09907 -0.77298 -0.17324 254 254 254
1.10305 -0.78028 -0.16591 254 254 254
1.10704 -0.78758 -0.15858 254 254 254
1.11102 -0.79488 -0.15125 254 254 254
1.11501 -0.80218 -0.14392 254 254 254
1.11899 -0.80948 -0.13659 254 254 254
1.12298 -0.81678 -0.12925 254 254 254
1.12697 -0.82409 -0.12191 254 254 254
1.13096 -0.83139 -0.11458 254 254 254
1.13494 -0.83870 -0.10724 254 254 254
1.13893 -0.84600 -0.09990 254 254 253
1.14292 -0.85331 -0.09256 254 254 251
0.94970 -0.54359 -0.40738 254 254 254
0.95364 -0.55081 -0.40013 254 254 254
0.95759 -0.55804 -0.39287 254 254 254
0.96153 -0.56526 -0.38561 254 254 254
0.96547 -0.57249 -0.37836 254 254 254
0.96941 -0.57972 -0.37110 254 254 254
0.97336 -0.58694 -0.36384 254 254 254
0.97730 -0.59417 -0.35658 254 254 254
0.98125 -0.60140 -0.34931 254 254 254
0.98519 -0.60864 -0.34205 254 254 254
0.98914 -0.61587 -0.33479 254 254 254
0.99309 -0.62310 -0.32752 254 254 254
0.99703 -0.63034 -0.32026 254 254 254
1.00098 -0.63757 -0.31299 254 254 254
1.00493 -0.64481 -0.30572 254 254 254
1.00888 -0.65205 -0.29845 254 254 254
1.01283 -0.65929 -0.29118 254 254 254
1.01678 -0.66653 -0.28391 254 254 254
1.02073 -0.67377 -0.27663 254 254 254
1.02468 -0.68102 -0.26936 254 254 254
1.02864 -0.68826 -0.26208 254 254 254
1.03259 -0.69550 -0.25481 254 254 254
1.03654 -0.70275 -0.24753 254 254 254
1.04050 -0.71000 -0.24025 254 254 254
1.04445 -0.71725 -0.23297 254 254 254
1.04841 -0.72450 -0.22569 254 254 254
1.05236 -0.73175 -0.21841 254 254 254
1.05632 -0.73900 -0.21113 254 254 254
1.06028 -0.74625 -0.20384 254 254 254
1.06423 -0.75350 -0.19656 254 254 254
1.06819 -0.76076 -0.18927 254 254 254
1.07215 -0.76802 -0.18198 254 254 254
1.07611 -0.77527 -0.17469 254 254 254
1.08007 -0.78253 -0.16740 254 254 254
1.08403 -0.78979 -0.16011 254 254 254
1.08799 -0.79705 -0.15282 254 254 254
1.09195 -0.80431 -0.14553 254 254 254
1.09592 -0.81157 -0.13824 254 254 254
1.09988 -0.81884 -0.13094 254 254 254
1.10384 -0.82610 -0.12364 254 254 254
1.10781 -0.83337 -0.11635 254 254 254
1.11177 -0.84064 -0.10905 254 254 254
1.11574 -0.84790 -0.10175 254 254 254
1.11971 -0.85517 -0.09445 254 254 254
1.12367 -0.86244 -0.08715 254 254 252
1.12764 -0.86972 -0.07984 254 254 251
0.92772 -0.54709 -0.40756 254 254 254
0.93164 -0.55428 -0.40035 254 254 254
0.93556 -0.56147 -0.39313 254 254 254
0.93948 -0.56865 -0.38591 254 254 254
0.94340 -0.57584 -0.37870 254 254 254
0.94732 -0.58303 -0.37148 254 254 254
0.95124 -0.59022 -0.36426 254 254 254
0.95516 -0.59741 -0.35703 254 254 254
0.95909 -0.60460 -0.34981 254 254 254
0.96301 -0.61180 -0.34259 254 254 254
0.96693 -0.61899 -0.33536 254 254 254
0.97086 -0.62619 -0.32813 254 254 254
0.97478 -0.63338 -0.32091 254 254 254
0.97871 -0.64058 -0.31368 254 254 254
0.98263 -0.64778 -0.30645 254 254 254
0.98656 -0.65498 -0.29922 254 254 254
0.99048 -0.66218 -0.29199 254 254 254
0.99441 -0.66938 -0.28475 254 254 254
0.99834 -0.67658 -0.27752 254 254 254
1.00227 -0.68379 -0.27028 254 254 254
1.00620 -0.69099 -0.26305 254 254 254
1.01013 -0.69820 -0.25581 254 254 254
1.01406 -0.70541 -0.24857 254 254 254
1.01799 -0.71262 -0.24133 254 254 254
1.02192 -0.71982 -0.23409 254 254 254
1.02585 -0.72704 -0.22685 254 254 254
1.02979 -0.73425 -0.21961 254 254 254
1.03372 -0.74146 -0.21237 254 254 254
1.03766 -0.74867 -0.20512 254 254 254
1.04159 -0.75589 -0.19787 254 254 254
1.04553 -0.76311 -0.19063 254 254 254
1.04946 -0.77032 -0.18338 254 254 254
1.05340 -0.77754 -0.17613 254 254 254
1.05733 -0.78476 -0.16888 254 254 254
1.06127 -0.79198 -0.16163 254 254 254
1.06521 -0.79920 -0.15438 254 254 254
1.06915 -0.80643 -0.14712 254 254 254
1.07309 -0.81365 -0.13987 254 254 254
1.07703 -0.82087 -0.13261 254 254 254
1.08097 -0.82810 -0.12535 254 254 254
1.08491 -0.83533 -0.11810 254 254 254
1.08885 -0.84255 -0.11084 254 254 254
1.09280 -0.84978 -0.10358 254 254 254
1.09674 -0.85701 -0.09632 254 254 254
1.10068 -0.86425 -0.08905 254 254 254
1.10463 -0.87148 -0.08179 254 254 254
1.10857 -0.87871 -0.07453 254 254 254
1.11252 -0.88595 -0.06726 254 254 254
0.86316 -0.47202 -0.48662 254 254 254
0.86705 -0.47916 -0.47946 254 254 254
0.87094 -0.48629 -0.47229 254 254 254
0.87483 -0.49343 -0.46512 254 254 254
0.87872 -0.50057 -0.45795 254 254 254
0.88262 -0.50771 -0.45079 254 254 254
0.88651 -0.51485 -0.44361 254 254 254
0.89040 -0.52199 -0.43644 254 254 254
0.89429 -0.52913 -0.42927 254 254 254
0.89819 -0.53627 -0.42210 254 254 254
0.90208 -0.54342 -0.41492 254 254 254
0.90598 -0.55056 -0.40775 254 254 254
0.90987 -0.55771 -0.40057 254 254 254
0.91377 -0.56486 -0.39339 254 254 254
0.91767 -0.57201 -0.38621 254 254 254
0.92156 -0.57916 -0.37903 254 254 254
0.92546 -0.58631 -0.37185 254 254 254
0.92936 -0.59346 -0.36467 254 254 254
0.93326 -0.60061 -0.35749 254 254 254
0.93716 -0.60777 -0.35030 254 254 254
0.94106 -0.61492 -0.34312 254 254 254
0.94496 -0.62208 -0.33593 254 254 254
0.94886 -0.62923 -0.32874 254 254 254
0.95276 -0.63639 -0.32155 254 254 254
0.95667 -0.64355 -0.31436 254 254 254
0.96057 -0.65071 -0.30717 254 254 254
0.96447 -0.65787 -0.29998 254 254 254
0.96838 -0.66504 -0.29279 254 254 254
0.97228 -0.67220 -0.28559 254 254 254
0.97619 -0.67936 -0.27840 254 254 254
0.98009 -0.68653 -0.27120 254 254 254
0.98400 -0.69370 -0.26400 254 254 254
0.98791 -0.70087 -0.25681 254 254 254
0.99182 -0.70803 -0.24961 254 254 254
0.99572 -0.71521 -0.24240 254 254 254
0.99963 -0.72238 -0.23520 254 254 254
1.00354 -0.72955 -0.22800 254 254 254
1.00745 -0.73672 -0.22080 254 254 254
1.01136 -0.74390 -0.21359 254 254 254
1.01528 -0.75107 -0.20639 254 254 254
1.01919 -0.75825 -0.19918 254 254 254
1.02310 -0.76543 -0.19197 254 254 254
1.02701 -0.77261 -0.18476 254 254 254
1.03093 -0.77979 -0.17755 254 254 254
1.03484 -0.78697 -0.17034 254 254 254
1.03876 -0.79415 -0.16313 254 254 254
1.04267 -0.80133 -0.15591 254 254 254
1.04659 -0.80852 -0.14870 254 254 254
1.05051 -0.81570 -0.14148 254 254 254
1.05442 -0.82289 -0.13427 254 254 254
1.05834 -0.83007 -0.12705 254 254 254
1.06226 -0.83726 -0.11983 254 254 254
1.06618 -0.84445 -0.11261 254 254 254
1.07010 -0.85164 -0.10539 254 254 254
1.07402 -0.85884 -0.09816 254 254 254
1.07794 -0.86603 -0.09094 254 254 254
1.08186 -0.87322 -0.08372 254 254 254
1.08578 -0.88042 -0.07649 254 254 254
1.08971 -0.88761 -0.06926 254 254 254
1.09363 -0.89481 -0.06204 254 254 254
1.09755 -0.90201 -0.05481 254 254 253
0.83803 -0.46877 -0.49351 254 254 254
0.84189 -0.47587 -0.48638 254 254 254
0.84576 -0.48296 -0.47926 254 254 254
0.84963 -0.49006 -0.47213 254 254 254
0.85350 -0.49716 -0.46500 254 254 254
0.85737 -0.50426 -0.45787 254 254 254
0.86123 -0.51136 -0.45074 254 254 254
0.86510 -0.51847 -0.44360 254 254 254
0.86897 -0.52557 -0.43647 254 254 254
0.87285 -0.53267 -0.42934 254 254 254
0.87672 -0.53978 -0.42220 254 254 254
0.88059 -0.54689 -0.41506 254 254 254
0.88446 -0.55399 -0.40793 254 254 254
0.88834 -0.56110 -0.40079 254 254 254
0.89221 -0.56821 -0.39365 254 254 254
0.89608 -0.57532 -0.38651 254 254 254
0.89996 -0.58244 -0.37937 254 254 254
0.90383 -0.58955 -0.37222 254 254 254
0.90771 -0.59666 -0.36508 254 254 254
0.91159 -0.60378 -0.35793 254 254 254
0.91547 -0.61090 -0.35079 254 254 254
0.91934 -0.61801 -0.34364 254 254 254
0.92322 -0.62513 -0.33649 254 254 254
0.92710 -0.63225 -0.32934 254 254 254
0.93098 -0.63937 -0.32219 254 254 254
0.93486 -0.64649 -0.31504 254 254 254
0.93874 -0.65362 -0.30789 254 254 254
0.94262 -0.66074 -0.30073 254 254 254
0.94651 -0.66786 -0.29358 254 254 254
0.95039 -0.67499 -0.28642 254 254 254
0.95427 -0.68212 -0.27927 254 254 254
0.95815 -0.68924 -0.27211 254 254 254
0.96204 -0.69637 -0.26495 254 254 254
0.96592 -0.70350 -0.25779 254 254 254
0.96981 -0.71063 -0.25063 254 254 254
0.97370 -0.71777 -0.24346 254 254 254
0.97758 -0.72490 -0.23630 254 254 254
0.98147 -0.73203 -0.22914 254 254 254
0.98536 -0.73917 -0.22197 254 254 254
0.98925 -0.74631 -0.21480 254 254 254
0.99313 -0.75344 -0.20764 254 254 254
0.99702 -0.76058 -0.20047 254 254 254
1.00091 -0.76772 -0.19330 254 254 254
1.00481 -0.77486 -0.18613 254 254 254
1.00870 -0.78201 -0.17896 254 254 254
1.01259 -0.78915 -0.17178 254 254 254
1.01648 -0.79629 -0.16461 254 254 254
1.02037 -0.80344 -0.15743 254 254 254
1.02427 -0.81058 -0.15026 254 254 254
1.02816 -0.81773 -0.14308 254 254 254
1.03206 -0.82488 -0.13590 254 254 254
1.03595 -0.83203 -0.12872 254 254 254
1.03985 -0.83918 -0.12154 254 254 254
1.04374 -0.84633 -0.11436 254 254 254
1.04764 -0.85348 -0.10718 254 254 254
1.05154 -0.86064 -0.09999 254 254 254
1.05544 -0.86779 -0.09281 254 254 254
1.05934 -0.87495 -0.08562 254 254 254
1.06324 -0.88210 -0.07844 254 254 254
1.06714 -0.88926 -0.07125 254 254 254
1.07104 -0.89642 -0.06406 254 254 254
1.07494 -0.90358 -0.05687 254 254 254
1.07884 -0.91074 -0.04968 254 254 254
0.80547 -0.45144 -0.51450 254 254 254
0.80932 -0.45850 -0.50741 254 254 254
0.81316 -0.46555 -0.50032 254 254 254
0.81700 -0.47261 -0.49324 254 254 254
0.82085 -0.47967 -0.48615 254 254 254
0.82469 -0.48673 -0.47906 254 254 254
0.82854 -0.49379 -0.47197 254 254 254
0.83238 -0.50085 -0.46488 254 254 254
0.83623 -0.50792 -0.45778 254 254 254
0.84008 -0.51498 -0.45069 254 254 254
0.84393 -0.52205 -0.44359 254 254 254
0.84778 -0.52911 -0.43650 254 254 254
0.85162 -0.53618 -0.42940 254 254 254
0.85547 -0.54325 -0.42230 254 254 254
0.85932 -0.55032 -0.41521 254 254 254
0.86317 -0.55739 -0.40811 254 254 254
0.86703 -0.56446 -0.40100 254 254 254
0.87088 -0.57153 -0.39390 254 254 254
0.87473 -0.57861 -0.38680 254 254 254
0.87858 -0.58568 -0.37969 254 254 254
0.88244 -0.59276 -0.37259 254 254 254
0.88629 -0.59983 -0.36548 254 254 254
0.89015 -0.60691 -0.35838 254 254 254
0.89400 -0.61399 -0.35127 254 254 254
0.89786 -0.62107 -0.34416 254 254 254
0.90171 -0.62815 -0.33705 254 254 254
0.90557 -0.63523 -0.32994 254 254 254
0.90943 -0.64232 -0.32282 254 254 254
0.91329 -0.64940 -0.31571 254 254 254
0.91715 -0.65649 -0.30859 254 254 254
0.92100 -0.66357 -0.30148 254 254 254
0.92486 -0.67066 -0.29436 254 254 254
0.92872 -0.67775 -0.28724 254 254 254
0.93259 -0.68484 -0.28012 254 254 254
0.93645 -0.69193 -0.27300 254 254 254
0.94031 -0.69902 -0.26588 254 254 254
0.94417 -0.70611 -0.25876 254 254 254
0.94804 -0.71321 -0.25164 254 254 254
0.95190 -0.72030 -0.24451 254 254 254
0.95576 -0.72740 -0.23739 254 254 254
0.95963 -0.73449 -0.23026 254 254 254
0.96349 -0.74159 -0.22313 254 254 254
0.96736 -0.74869 -0.21601 254 254 254
0.97123 -0.75579 -0.20888 254 254 254
0.97510 -0.76289 -0.20174 254 254 254
0.97896 -0.76999 -0.19461 254 254 254
0.98283 -0.77710 -0.18748 254 254 254
0.98670 -0.78420 -0.18035 254 254 254
0.99057 -0.79131 -0.17321 254 254 254
0.99444 -0.79841 -0.16608 254 254 254
0.99831 -0.80552 -0.15894 254 254 254
1.00218 -0.81263 -0.15180 254 254 254
1.00605 -0.81974 -0.14466 254 254 254
1.00993 -0.82685 -0.13752 254 254 254
1.01380 -0.83396 -0.13038 254 254 254
1.01767 -0.84107 -0.12324 254 254 254
1.02155 -0.84819 -0.11609 254 254 254
1.02542 -0.85530 -0.10895 254 254 254
1.02930 -0.86242 -0.10180 254 254 254
0.78091 -0.44833 -0.52116 254 254 254
0.78474 -0.45535 -0.51411 254 254 254
0.78856 -0.46237 -0.50707 254 254 254
0.79238 -0.46939 -0.50002 254 254 254
0.79620 -0.47641 -0.49297 254 254 254
0.80002 -0.48344 -0.48591 254 254 254
0.80385 -0.49046 -0.47886 254 254 254
0.80767 -0.49748 -0.47181 254 254 254
0.81149 -0.50451 -0.46475 254 254 254
0.81532 -0.51154 -0.45770 254 254 254
0.81914 -0.51856 -0.45064 254 254 254
0.82297 -0.52559 -0.44359 254 254 254
0.82680 -0.53262 -0.43653 254 254 254
0.83063 -0.53965 -0.42947 254 254 254
0.83445 -0.54668 -0.42241 254 254 254
0.83828 -0.55372 -0.41534 254 254 254
0.84211 -0.56075 -0.40828 254 254 254
0.84594 -0.56778 -0.40122 254 254 254
0.84977 -0.57482 -0.39415 254 254 254
0.85360 -0.58186 -0.38709 254 254 254
0.85743 -0.58889 -0.38002 254 254 254
0.86126 -0.59593 -0.37295 254 254 254
0.86510 -0.60297 -0.36588 254 254 254
0.86893 -0.61001 -0.35881 254 254 254
0.87276 -0.61706 -0.35174 254 254 254
0.87660 -0.62410 -0.34467 254 254 254
0.88043 -0.63114 -0.33760 254 254 254
0.88427 -0.63819 -0.33052 254 254 254
0.88810 -0.64523 -0.32345 254 254 254
0.89194 -0.65228 -0.31637 254 254 254
0.89578 -0.65933 -0.30929 254 254 254
0.89961 -0.66638 -0.30222 254 254 254
0.90345 -0.67343 -0.29514 254 254 254
0.90729 -0.68048 -0.28806 254 254 254
0.91113 -0.68753 -0.28097 254 254 254
0.91497 -0.69459 -0.27389 254 254 254
0.91881 -0.70164 -0.26681 254 254 254
0.92265 -0.70870 -0.25972 254 254 254
0.92649 -0.71575 -0.25264 254 254 254
0.93033 -0.72281 -0.24555 254 254 254
0.93418 -0.72987 -0.23846 254 254 254
0.93802 -0.73693 -0.23137 254 254 254
0.94186 -0.74399 -0.22428 254 254 254
0.94571 -0.75105 -0.21719 254 254 254
0.94955 -0.75811 -0.21010 254 254 254
0.95340 -0.76518 -0.20301 254 254 254
0.95724 -0.77224 -0.19591 254 254 254
0.96109 -0.77931 -0.18882 254 254 254
0.96494 -0.78638 -0.18172 254 254 254
0.96878 -0.79344 -0.17462 254 254 254
0.97263 -0.80051 -0.16753 254 254 254
0.97648 -0.80758 -0.16043 254 254 254
0.98033 -0.81465 -0.15333 254 254 254
0.98418 -0.82173 -0.14623 254 254 254
0.98803 -0.82880 -0.13912 254 254 254
0.99188 -0.83587 -0.13202 254 254 254
0.99573 -0.84295 -0.12491 254 254 254
0.76421 -0.45922 -0.51374 254 254 254
0.76801 -0.46621 -0.50672 254 254 254
0.77181 -0.47319 -0.49971 254 254 254
0.77561 -0.48018 -0.49270 254 254 254
0.77941 -0.48716 -0.48568 254 254 254
0.78322 -0.49415 -0.47867 254 254 254
0.78702 -0.50114 -0.47165 254 254 254
0.79082 -0.50813 -0.46463 254 254 254
0.79463 -0.51512 -0.45762 254 254 254
0.79843 -0.52211 -0.45060 254 254 254
0.80223 -0.52910 -0.44358 254 254 254
0.80604 -0.53609 -0.43655 254 254 254
0.80985 -0.54309 -0.42953 254 254 254
0.81365 -0.55008 -0.42251 254 254 254
0.81746 -0.55708 -0.41548 254 254 254
0.82127 -0.56407 -0.40846 254 254 254
0.82507 -0.57107 -0.40143 254 254 254
0.82888 -0.57807 -0.39440 254 254 254
0.83269 -0.58507 -0.38737 254 254 254
0.83650 -0.59207 -0.38034 254 254 254
0.84031 -0.59907 -0.37331 254 254 254
0.84412 -0.60608 -0.36628 254 254 254
0.84793 -0.61308 -0.35925 254 254 254
0.85175 -0.62009 -0.35221 254 254 254
0.85556 -0.62709 -0.34518 254 254 254
0.85937 -0.63410 -0.33814 254 254 254
0.86318 -0.64111 -0.33110 254 254 254
0.86700 -0.64812 -0.32407 254 254 254
0.87081 -0.65513 -0.31703 254 254 254
0.87463 -0.66214 -0.30999 254 254 254
0.87844 -0.66915 -0.30294 254 254 254
0.88226 -0.67617 -0.29590 254 254 254
0.88608 -0.68318 -0.28886 254 254 254
0.88990 -0.69020 -0.28181 254 254 254
0.89371 -0.69722 -0.27477 254 254 254
0.89753 -0.70423 -0.26772 254 254 254
0.90135 -0.71125 -0.26068 254 254 254
0.90517 -0.71827 -0.25363 254 254 254
0.90899 -0.72529 -0.24658 254 254 254
0.91281 -0.73231 -0.23953 254 254 254
0.91663 -0.73934 -0.23247 254 254 254
0.92046 -0.74636 -0.22542 254 254 254
0.92428 -0.75339 -0.21837 254 254 254
0.92810 -0.76041 -0.21131 254 254 254
0.93193 -0.76744 -0.20426 254 254 254
0.93575 -0.77447 -0.19720 254 254 254
0.93957 -0.78150 -0.19014 254 254 254
0.94340 -0.78853 -0.18308 254 254 254
0.94723 -0.79556 -0.17602 254 254 254
0.95105 -0.80259 -0.16896 254 254 254
0.95488 -0.80962 -0.16190 254 254 254
0.95871 -0.81666 -0.15484 254 254 254
0.96254 -0.82369 -0.14777 254 254 254
0.96636 -0.83073 -0.14071 254 254 254
0.97019 -0.83777 -0.13364 254 254 254
0.97402 -0.84481 -0.12657 254 254 254
0.75146 -0.47695 -0.49941 254 254 254
0.75524 -0.48390 -0.49243 254 254 254
0.75902 -0.49085 -0.48546 254 254 254
0.76280 -0.49780 -0.47848 254 254 254
0.76658 -0.50475 -0.47150 254 254 254
0.77036 -0.51170 -0.46452 254 254 254
0.77415 -0.51866 -0.45753 254 254 254
0.77793 -0.52561 -0.45055 254 254 254
0.78171 -0.53257 -0.44357 254 254 254
0.78550 -0.53953 -0.43658 254 254 254
0.78928 -0.54648 -0.42959 254 254 254
0.79307 -0.55344 -0.42261 254 254 254
0.79685 -0.56040 -0.41562 254 254 254
0.80064 -0.56736 -0.40863 254 254 254
0.80443 -0.57433 -0.40164 254 254 254
0.80821 -0.58129 -0.39465 254 254 254
0.81200 -0.58825 -0.38766 254 254 254
0.81579 -0.59522 -0.38066 254 254 254
0.81958 -0.60218 -0.37367 254 254 254
0.82337 -0.60915 -0.36667 254 254 254
0.82716 -0.61612 -0.35968 254 254 254
0.83095 -0.62309 -0.35268 254 254 254
0.83474 -0.63006 -0.34568 254 254 254
0.83853 -0.63703 -0.33868 254 254 254
0.84232 -0.64400 -0.33168 254 254 254
0.84612 -0.65098 -0.32468 254 254 254
0.84991 -0.65795 -0.31768 254 254 254
0.85370 -0.66493 -0.31067 254 254 254
0.85750 -0.67190 -0.30367 254 254 254
0.86129 -0.67888 -0.29666 254 254 254
0.86509 -0.68586 -0.28965 254 254 254
0.86888 -0.69284 -0.28265 254 254 254
0.87268 -0.69982 -0.27564 254 254 254
0.87648 -0.70680 -0.26863 254 254 254
0.88028 -0.71378 -0.26162 254 254 254
0.88407 -0.72076 -0.25461 254 254 254
0.88787 -0.72775 -0.24759 254 254 254
0.89167 -0.73473 -0.24058 254 254 254
0.89547 -0.74172 -0.23356 254 254 254
0.89927 -0.74871 -0.22655 254 254 254
0.90307 -0.75570 -0.21953 254 254 254
0.90688 -0.76269 -0.21251 254 254 254
0.91068 -0.76968 -0.20549 254 254 254
0.91448 -0.77667 -0.19847 254 254 254
0.91828 -0.78366 -0.19145 254 254 254
0.92209 -0.79066 -0.18443 254 254 254
0.92589 -0.79765 -0.17741 254 254 254
0.92970 -0.80465 -0.17038 254 254 254
0.93350 -0.81164 -0.16336 254 254 254
0.93731 -0.81864 -0.15633 254 254 254
0.94112 -0.82564 -0.14930 254 254 254
0.94492 -0.83264 -0.14228 254 254 254
0.94873 -0.83964 -0.13525 254 254 254
0.73884 -0.49450 -0.48523 254 254 254
0.74260 -0.50141 -0.47829 254 254 254
0.74636 -0.50833 -0.47134 254 254 254
0.75012 -0.51525 -0.46440 254 254 254
0.75388 -0.52216 -0.45745 254 254 254
0.75764 -0.52908 -0.45050 254 254 254
0.76140 -0.53600 -0.44356 254 254 254
0.76517 -0.54292 -0.43661 254 254 254
0.76893 -0.54985 -0.42966 254 254 254
0.77269 -0.55677 -0.42271 254 254 254
0.77646 -0.56369 -0.41575 254 254 254
0.78022 -0.57062 -0.40880 254 254 254
0.78399 -0.57755 -0.40185 254 254 254
0.78776 -0.58447 -0.39489 254 254 254
0.79152 -0.59140 -0.38794 254 254 254
0.79529 -0.59833 -0.38098 254 254 254
0.79906 -0.60526 -0.37402 254 254 254
0.80283 -0.61219 -0.36706 254 254 254
0.80659 -0.61912 -0.36010 254 254 254
0.81036 -0.62606 -0.35314 254 254 254
0.81413 -0.63299 -0.34618 254 254 254
0.81791 -0.63993 -0.33921 254 254 254
0.82168 -0.64686 -0.33225 254 254 254
0.82545 -0.65380 -0.32528 254 254 254
0.82922 -0.66074 -0.31832 254 254 254
0.83299 -0.66768 -0.31135 254 254 254
0.83677 -0.67462 -0.30438 254 254 254
0.84054 -0.68156 -0.29741 254 254 254
0.84431 -0.68850 -0.29044 254 254 254
0.84809 -0.69545 -0.28347 254 254 254
0.85186 -0.70239 -0.27650 254 254 254
0.85564 -0.70934 -0.26952 254 254 254
0.85942 -0.71628 -0.26255 254 254 254
0.86319 -0.72323 -0.25557 254 254 254
0.86697 -0.73018 -0.24860 254 254 254
0.87075 -0.73713 -0.24162 254 254 254
0.87453 -0.74408 -0.23464 254 254 254
0.87831 -0.75103 -0.22766 254 254 254
0.88209 -0.75798 -0.22068 254 254 254
0.88587 -0.76494 -0.21370 254 254 254
0.88965 -0.77189 -0.20672 254 254 254
0.89343 -0.77885 -0.19973 254 254 254
0.89721 -0.78580 -0.19275 254 254 254
0.90100 -0.79276 -0.18576 254 254 254
0.90478 -0.79972 -0.17878 254 254 254
0.90856 -0.80668 -0.17179 254 254 254
0.91235 -0.81364 -0.16480 254 254 254
0.91613 -0.82060 -0.15781 254 254 254
0.72260 -0.50499 -0.47810 254 254 254
0.72634 -0.51187 -0.47119 254 254 254
0.73008 -0.51875 -0.46428 254 254 254
0.73382 -0.52563 -0.45737 254 254 254
0.73756 -0.53252 -0.45046 254 254 254
0.74130 -0.53940 -0.44355 254 254 254
0.74505 -0.54629 -0.43663 254 254 254
0.74879 -0.55317 -0.42972 254 254 254
0.75253 -0.56006 -0.42280 254 254 254
0.75628 -0.56695 -0.41589 254 254 254
0.76002 -0.57384 -0.40897 254 254 254
0.76376 -0.58073 -0.40205 254 254 254
0.76751 -0.58762 -0.39513 254 254 254
0.77126 -0.59452 -0.38821 254 254 254
0.77500 -0.60141 -0.38129 254 254 254
0.77875 -0.60831 -0.37437 254 254 254
0.78250 -0.61520 -0.36744 254 254 254
0.78624 -0.62210 -0.36052 254 254 254
0.78999 -0.62900 -0.35359 254 254 254
0.79374 -0.63590 -0.34667 254 254 254
0.79749 -0.64280 -0.33974 254 254 254
0.80124 -0.64970 -0.33281 254 254 254
0.80499 -0.65660 -0.32588 254 254 254
0.80874 -0.66350 -0.31895 254 254 254
0.81250 -0.67041 -0.31202 254 254 254
0.81625 -0.67731 -0.30509 254 254 254
0.82000 -0.68422 -0.29816 254 254 254
0.82376 -0.69112 -0.29122 254 254 254
0.82751 -0.69803 -0.28429 254 254 254
0.83126 -0.70494 -0.27735 254 254 254
0.83502 -0.71185 -0.27041 254 254 254
0.83877 -0.71876 -0.26347 254 254 254
0.84253 -0.72567 -0.25653 254 254 254
0.84629 -0.73259 -0.24959 254 254 254
0.85004 -0.73950 -0.24265 254 254 254
0.85380 -0.74641 -0.23571 254 254 254
0.85756 -0.75333 -0.22877 254 254 254
0.86132 -0.76025 -0.22182 254 254 254
0.86508 -0.76717 -0.21488 254 254 254
0.86884 -0.77408 -0.20793 254 254 254
0.87260 -0.78100 -0.20098 254 254 254
0.87636 -0.78793 -0.19403 254 254 254
0.88012 -0.79485 -0.18708 254 254 254
0.88389 -0.80177 -0.18013 254 254 254
0.88765 -0.80869 -0.17318 254 254 254
0.89141 -0.81562 -0.16623 254 254 254
0.70653 -0.51537 -0.47104 254 254 254
0.71025 -0.52222 -0.46417 254 254 254
0.71397 -0.52907 -0.45729 254 254 254
0.71769 -0.53592 -0.45042 254 254 254
0.72141 -0.54277 -0.44354 254 254 254
0.72513 -0.54962 -0.43666 254 254 254
0.72885 -0.55647 -0.42978 254 254 254
0.73258 -0.56332 -0.42290 254 254 254
0.73630 -0.57018 -0.41602 254 254 254
0.74002 -0.57703 -0.40914 254 254 254
0.74375 -0.58389 -0.40225 254 254 254
0.74747 -0.59074 -0.39537 254 254 254
0.75120 -0.59760 -0.38849 254 254 254
0.75492 -0.60446 -0.38160 254 254 254
0.75865 -0.61132 -0.37471 254 254 254
0.76238 -0.61818 -0.36782 254 254 254
0.76610 -0.62504 -0.36094 254 254 254
0.76983 -0.63191 -0.35405 254 254 254
0.77356 -0.63877 -0.34716 254 254 254
0.77729 -0.64563 -0.34026 254 254 254
0.78102 -0.65250 -0.33337 254 254 254
0.78475 -0.65937 -0.32648 254 254 254
0.78848 -0.66623 -0.31958 254 254 254
0.79221 -0.67310 -0.31269 254 254 254
0.79594 -0.67997 -0.30579 254 254 254
0.79967 -0.68684 -0.29889 254 254 254
0.80341 -0.69372 -0.29199 254 254 254
0.80714 -0.70059 -0.28509 254 254 254
0.81087 -0.70746 -0.27819 254 254 254
0.81461 -0.71434 -0.27129 254 254 254
0.81834 -0.72121 -0.26439 254 254 254
0.82208 -0.72809 -0.25748 254 254 254
0.82581 -0.73497 -0.25058 254 254 254
0.82955 -0.74185 -0.24367 254 254 254
0.83329 -0.74873 -0.23677 254 254 254
0.83703 -0.75561 -0.22986 254 254 254
0.84076 -0.76249 -0.22295 254 254 254
0.84450 -0.76937 -0.21604 254 254 254
0.84824 -0.77625 -0.20913 254 254 254
0.85198 -0.78314 -0.20222 254 254 254
0.85572 -0.79002 -0.19530 254 254 254
0.85946 -0.79691 -0.18839 254 254 254
0.86320 -0.80380 -0.18147 254 254 254
0.86695 -0.81069 -0.17456 254 254 254
0.87069 -0.81758 -0.16764 254 254 254
0.87443 -0.82447 -0.16072 254 254 254
0.87818 -0.83136 -0.15381 254 254 254
0.88192 -0.83825 -0.14689 254 254 254
0.88566 -0.84514 -0.13996 254 254 254
0.88941 -0.85204 -0.13304 254 254 254
0.89316 -0.85893 -0.12612 254 254 254
0.89690 -0.86583 -0.11920 254 254 254
0.90065 -0.87273 -0.11227 254 254 254
0.90440 -0.87963 -0.10535 254 254 254
0.90814 -0.88653 -0.09842 254 254 254
0.91189 -0.89343 -0.09149 254 254 254
0.91564 -0.90033 -0.08456 254 254 254
0.69062 -0.52565 -0.46405 254 254 254
0.69432 -0.53247 -0.45721 254 254 254
0.69802 -0.53928 -0.45037 254 254 254
0.70172 -0.54610 -0.44353 254 254 254
0.70542 -0.55291 -0.43669 254 254 254
0.70912 -0.55973 -0.42984 254 254 254
0.71282 -0.56655 -0.42300 254 254 254
0.71652 -0.57337 -0.41615 254 254 254
0.72023 -0.58019 -0.40930 254 254 254
0.72393 -0.58701 -0.40246 254 254 254
0.72764 -0.59383 -0.39561 254 254 254
0.73134 -0.60065 -0.38876 254 254 254
0.73505 -0.60748 -0.38191 254 254 254
0.73875 -0.61430 -0.37505 254 254 254
0.74246 -0.62113 -0.36820 254 254 254
0.74617 -0.62796 -0.36135 254 254 254
0.74987 -0.63479 -0.35449 254 254 254
0.75358 -0.64161 -0.34764 254 254 254
0.75729 -0.64844 -0.34078 254 254 254
0.76100 -0.65528 -0.33392 254 254 254
0.76471 -0.66211 -0.32706 254 254 254
0.76842 -0.66894 -0.32020 254 254 254
0.77213 -0.67577 -0.31334 254 254 254
0.77584 -0.68261 -0.30648 254 254 254
0.77955 -0.68945 -0.29962 254 254 254
0.78327 -0.69628 -0.29276 254 254 254
0.78698 -0.70312 -0.28589 254 254 254
0.79069 -0.70996 -0.27902 254 254 254
0.79441 -0.71680 -0.27216 254 254 254
0.79812 -0.72364 -0.26529 254 254 254
0.80184 -0.73048 -0.25842 254 254 254
0.80555 -0.73732 -0.25155 254 254 254
0.80927 -0.74417 -0.24468 254 254 254
0.81298 -0.75101 -0.23781 254 254 254
0.81670 -0.75786 -0.23094 254 254 254
0.82042 -0.76470 -0.22406 254 254 254
0.82414 -0.77155 -0.21719 254 254 254
0.82785 -0.77840 -0.21031 254 254 254
0.83157 -0.78525 -0.20344 254 254 254
0.83529 -0.79210 -0.19656 254 254 254
0.83901 -0.79895 -0.18968 254 254 254
0.84274 -0.80581 -0.18280 254 254 254
0.84646 -0.81266 -0.17592 254 254 254
0.85018 -0.81951 -0.16904 254 254 254
0.85390 -0.82637 -0.16216 254 254 254
0.85762 -0.83323 -0.15528 254 254 254
0.86135 -0.84008 -0.14839 254 254 254
0.86507 -0.84694 -0.14151 254 254 254
0.86880 -0.85380 -0.13462 254 254 254
0.87252 -0.86066 -0.12773 254 254 254
0.87625 -0.86752 -0.12084 254 254 254
0.87997 -0.87439 -0.11395 254 254 254
0.88370 -0.88125 -0.10706 254 254 254
0.88743 -0.88811 -0.10017 254 254 254
0.89115 -0.89498 -0.09328 254 254 254
0.89488 -0.90184 -0.08639 254 254 254
0.89861 -0.90871 -0.07949 254 254 254
0.90234 -0.91558 -0.07260 254 254 254
0.90607 -0.92245 -0.06570 254 254 254
0.90980 -0.92932 -0.05880 254 254 254
0.67486 -0.53583 -0.45713 254 254 254
0.67854 -0.54261 -0.45033 254 254 254
