ply
format ascii 1.0
element face 0
property list uchar int vertex_indices
element vertex 1268
property float x
property float y
property float z
property uchar diffuse_red
property uchar diffuse_green
property uchar diffuse_blue
end_header
1.87349 -3.33922 -0.13473 166 179 172
1.87305 -3.35198 -0.12356 156 168 160
1.87260 -3.36474 -0.11239 147 154 153
1.87128 -3.40301 -0.07890 153 165 164
1.86597 -3.55583 0.05487 186 192 174
1.86553 -3.56855 0.06600 183 193 174
1.86509 -3.58127 0.07713 179 184 173
1.86465 -3.59398 0.08826 180 186 182
1.86421 -3.60669 0.09939 180 187 173
1.86338 -2.86701 -0.54703 146 145 145
1.86294 -2.87981 -0.53583 148 159 158
1.86250 -2.89260 -0.52463 141 148 146
1.86206 -2.90540 -0.51343 141 141 143
1.86161 -2.91819 -0.50223 144 147 148
1.86117 -2.93098 -0.49104 148 154 146
1.85897 -2.99488 -0.43510 162 178 162
1.85853 -3.00765 -0.42392 146 152 158
1.85809 -3.02042 -0.41275 148 163 166
1.85765 -3.03319 -0.40157 154 167 163
1.85721 -3.04596 -0.39040 154 156 158
1.85677 -3.05872 -0.37923 167 177 174
1.85633 -3.07148 -0.36806 166 173 177
1.85589 -3.08423 -0.35689 161 167 173
1.85545 -3.09699 -0.34573 161 171 173
1.85501 -3.10974 -0.33456 159 169 169
1.85457 -3.12249 -0.32341 150 160 156
1.85413 -3.13524 -0.31225 151 163 160
1.85369 -3.14798 -0.30109 162 178 176
1.85325 -3.16072 -0.28994 167 182 181
1.85281 -3.17346 -0.27879 169 182 178
1.85237 -3.18620 -0.26764 171 182 175
1.85193 -3.19893 -0.25649 172 180 169
1.85149 -3.21167 -0.24535 177 183 167
1.85105 -3.22439 -0.23421 178 183 173
1.85061 -3.23712 -0.22307 179 186 171
1.85018 -3.24984 -0.21193 174 183 180
1.84974 -3.26257 -0.20080 167 173 172
1.84930 -3.27528 -0.18967 165 175 169
1.84754 -3.32613 -0.14516 161 174 169
1.84711 -3.33884 -0.13404 162 172 172
1.84667 -3.35154 -0.12292 148 148 150
1.84623 -3.36424 -0.11180 146 152 152
1.83923 -3.56710 0.06576 174 179 181
1.83880 -3.57976 0.07684 173 181 176
1.83836 -3.59241 0.08791 164 174 178
1.83792 -3.60506 0.09899 165 167 166
1.83749 -3.61771 0.11006 166 169 166
1.83705 -3.63036 0.12113 161 165 161
1.83661 -3.64300 0.13220 160 163 150
1.83618 -3.65564 0.14326 163 169 165
1.83707 -2.86884 -0.54440 145 149 148
1.83663 -2.88157 -0.53325 151 158 157
1.83620 -2.89431 -0.52211 144 148 151
1.83576 -2.90704 -0.51096 140 145 145
1.83532 -2.91978 -0.49982 144 151 147
1.83489 -2.93250 -0.48868 150 152 158
1.83401 -2.95795 -0.46640 160 166 156
1.83358 -2.97067 -0.45527 160 170 163
1.83314 -2.98339 -0.44413 153 166 170
1.83271 -2.99611 -0.43300 156 170 160
1.83227 -3.00882 -0.42188 165 173 156
1.83183 -3.02153 -0.41075 150 159 161
1.83140 -3.03424 -0.39963 152 162 156
1.83096 -3.04694 -0.38851 155 160 160
1.83053 -3.05965 -0.37739 161 169 171
1.83009 -3.07235 -0.36627 159 173 173
1.82966 -3.08505 -0.35516 162 170 170
1.82922 -3.09774 -0.34405 165 170 170
1.82879 -3.11043 -0.33294 162 168 173
1.82835 -3.12312 -0.32183 157 165 165
1.82792 -3.13581 -0.31072 162 173 169
1.82748 -3.14850 -0.29962 167 179 175
1.82705 -3.16118 -0.28852 169 178 175
1.82661 -3.17386 -0.27742 170 178 173
1.82618 -3.18653 -0.26633 170 178 170
1.82574 -3.19921 -0.25523 169 176 163
1.82531 -3.21188 -0.24414 173 177 165
1.82487 -3.22455 -0.23305 177 182 172
1.82444 -3.23722 -0.22196 178 186 171
1.82401 -3.24988 -0.21088 171 184 178
1.82357 -3.26254 -0.19980 167 176 172
1.82314 -3.27520 -0.18871 166 176 172
1.82140 -3.32581 -0.14442 161 177 172
1.82097 -3.33846 -0.13335 157 160 159
1.81275 -3.57826 0.07655 173 178 172
1.81231 -3.59085 0.08757 162 168 177
1.81188 -3.60345 0.09859 165 172 171
1.81145 -3.61604 0.10961 169 177 171
1.81102 -3.62862 0.12063 166 171 163
1.81059 -3.64121 0.13165 166 168 160
1.81016 -3.65379 0.14266 166 172 172
1.80973 -3.66637 0.15367 179 184 174
1.80929 -3.67895 0.16468 175 178 175
1.80886 -3.69153 0.17569 176 177 161
1.80843 -3.70410 0.18669 174 177 167
1.81100 -2.87065 -0.54180 138 142 144
1.81057 -2.88333 -0.53070 142 144 147
1.81014 -2.89600 -0.51961 153 153 147
1.80971 -2.90868 -0.50852 141 143 140
1.80927 -2.92135 -0.49742 140 145 142
1.80884 -2.93402 -0.48633 147 154 161
1.80841 -2.94668 -0.47525 156 163 154
1.80798 -2.95935 -0.46416 169 173 159
1.80755 -2.97201 -0.45308 160 168 168
1.80712 -2.98467 -0.44200 150 159 156
1.80669 -2.99732 -0.43092 156 164 161
1.80625 -3.00998 -0.41985 171 181 156
1.80582 -3.02263 -0.40877 149 152 152
1.80539 -3.03528 -0.39770 149 152 155
1.80496 -3.04792 -0.38663 157 165 166
1.80453 -3.06057 -0.37557 160 172 174
1.80410 -3.07321 -0.36450 155 165 164
1.80367 -3.08585 -0.35344 164 169 168
1.80324 -3.09848 -0.34238 172 180 178
1.80281 -3.11112 -0.33132 167 176 172
1.80238 -3.12375 -0.32027 164 170 161
1.80195 -3.13638 -0.30921 164 173 170
1.80152 -3.14900 -0.29816 163 173 172
1.80109 -3.16163 -0.28711 166 175 171
1.80066 -3.17425 -0.27607 170 179 174
1.80023 -3.18686 -0.26502 168 177 169
1.79980 -3.19948 -0.25398 165 172 165
1.79937 -3.21209 -0.24294 170 175 173
1.79894 -3.22470 -0.23190 176 186 182
1.79851 -3.23731 -0.22087 169 179 176
1.79808 -3.24992 -0.20983 165 177 169
1.79765 -3.26252 -0.19880 166 177 162
1.79722 -3.27512 -0.18777 165 176 178
1.79550 -3.32550 -0.14368 162 178 176
1.78694 -3.57677 0.07626 175 185 172
1.78651 -3.58931 0.08723 173 178 170
1.78608 -3.60184 0.09820 172 173 169
1.78566 -3.61438 0.10917 172 179 178
1.78523 -3.62691 0.12014 178 182 170
1.78480 -3.63943 0.13110 173 177 175
1.78438 -3.65196 0.14207 171 179 178
1.78395 -3.66448 0.15303 175 174 156
1.78352 -3.67700 0.16399 160 169 165
1.78310 -3.68952 0.17494 170 178 173
1.78267 -3.70203 0.18590 177 183 180
1.78475 -2.88506 -0.52818 141 145 146
1.78432 -2.89768 -0.51713 151 154 151
1.78390 -2.91029 -0.50609 143 149 149
1.78347 -2.92291 -0.49505 137 143 146
1.78304 -2.93552 -0.48402 144 152 158
1.78261 -2.94813 -0.47298 159 169 160
1.78219 -2.96073 -0.46195 167 171 167
1.78176 -2.97333 -0.45092 158 161 165
1.78133 -2.98593 -0.43989 149 155 149
1.78091 -2.99853 -0.42886 157 168 167
1.78048 -3.01113 -0.41784 165 175 160
1.78005 -3.02372 -0.40682 159 168 154
1.77963 -3.03631 -0.39580 159 162 162
1.77920 -3.04890 -0.38478 165 173 170
1.77877 -3.06148 -0.37376 163 174 179
1.77835 -3.07406 -0.36275 163 171 175
1.77792 -3.08664 -0.35174 172 175 173
1.77750 -3.09922 -0.34073 174 183 181
1.77707 -3.11180 -0.32972 167 177 174
1.77664 -3.12437 -0.31872 165 177 166
1.77622 -3.13694 -0.30772 162 175 173
1.77579 -3.14951 -0.29672 161 175 174
1.77537 -3.16207 -0.28572 160 174 174
1.77494 -3.17463 -0.27472 162 176 176
1.77452 -3.18719 -0.26373 165 177 170
1.77409 -3.19975 -0.25274 164 173 168
1.77367 -3.21230 -0.24175 169 179 172
1.77324 -3.22486 -0.23076 174 186 180
1.77281 -3.23741 -0.21978 175 187 185
1.76137 -3.57530 0.07597 176 186 178
1.76095 -3.58778 0.08689 179 186 174
1.76052 -3.60026 0.09782 182 183 176
1.76010 -3.61273 0.10873 178 183 179
1.75968 -3.62521 0.11965 179 183 173
1.75926 -3.63767 0.13056 168 170 178
1.75883 -3.65014 0.14148 166 174 175
1.75841 -3.66261 0.15239 171 170 155
1.75799 -3.67507 0.16330 163 171 161
1.75757 -3.68753 0.17420 168 175 170
1.75715 -3.69999 0.18510 171 175 169
1.76171 -2.81137 -0.59168 135 140 143
1.76128 -2.82395 -0.58067 142 152 147
1.76086 -2.83652 -0.56967 147 157 144
1.75917 -2.88678 -0.52568 138 143 140
1.75875 -2.89934 -0.51468 147 151 146
1.75832 -2.91190 -0.50369 138 146 141
1.75790 -2.92445 -0.49270 138 150 149
1.75748 -2.93700 -0.48172 152 156 154
1.75705 -2.94955 -0.47073 157 164 165
1.75663 -2.96210 -0.45975 159 164 170
1.75621 -2.97464 -0.44877 165 168 163
1.75579 -2.98719 -0.43779 163 168 155
1.75537 -2.99973 -0.42682 161 171 165
1.75494 -3.01226 -0.41585 158 159 153
1.75452 -3.02480 -0.40487 158 166 162
1.75410 -3.03733 -0.39391 165 177 176
1.75368 -3.04986 -0.38294 171 183 178
1.75326 -3.06239 -0.37198 165 174 178
1.75283 -3.07491 -0.36101 171 177 184
1.75241 -3.08743 -0.35005 178 180 178
1.73562 -3.58627 0.08656 171 182 178
1.73520 -3.59869 0.09743 181 190 177
1.73478 -3.61110 0.10830 179 183 170
1.73436 -3.62352 0.11917 177 181 176
1.73394 -3.63593 0.13003 174 176 176
1.73353 -3.64834 0.14089 161 163 163
1.73311 -3.66075 0.15175 170 172 164
1.73269 -3.67315 0.16261 169 173 165
1.73227 -3.68556 0.17347 172 175 169
1.73186 -3.69796 0.18432 169 178 170
1.73927 -2.72574 -0.66564 136 141 132
1.73885 -2.73827 -0.65467 133 134 136
1.73843 -2.75080 -0.64370 131 131 138
1.73801 -2.76333 -0.63274 133 139 138
1.73759 -2.77586 -0.62177 133 139 136
1.73717 -2.78838 -0.61081 132 138 137
1.73675 -2.80090 -0.59985 133 140 138
1.73633 -2.81342 -0.58889 132 140 133
1.73591 -2.82594 -0.57794 138 151 138
1.73550 -2.83845 -0.56699 151 158 148
1.73508 -2.85097 -0.55604 148 150 144
1.73466 -2.86347 -0.54509 147 156 147
1.73424 -2.87598 -0.53414 135 143 141
1.73382 -2.88848 -0.52320 136 146 146
1.73340 -2.90099 -0.51225 149 156 150
1.73298 -2.91349 -0.50131 147 150 143
1.73257 -2.92598 -0.49038 145 158 151
1.73215 -2.93848 -0.47944 157 168 160
1.73173 -2.95097 -0.46851 154 162 169
1.73131 -2.96346 -0.45758 148 152 167
1.73089 -2.97594 -0.44665 159 166 164
1.73048 -2.98843 -0.43572 169 179 162
1.73006 -3.00091 -0.42479 162 170 160
1.72964 -3.01339 -0.41387 155 156 151
1.72922 -3.02587 -0.40295 154 161 163
1.71052 -3.58477 0.08623 166 174 169
1.71010 -3.59713 0.09705 170 183 170
1.70969 -3.60949 0.10787 170 178 164
1.70928 -3.62185 0.11869 171 177 176
1.70886 -3.63420 0.12950 174 173 174
1.70845 -3.64656 0.14031 167 174 160
1.70804 -3.65891 0.15113 167 174 172
1.70762 -3.67126 0.16193 167 171 172
1.70721 -3.68360 0.17274 174 183 172
1.70680 -3.69595 0.18354 171 182 173
1.71451 -2.71569 -0.67345 133 138 133
1.71410 -2.72817 -0.66253 140 147 134
1.71368 -2.74065 -0.65161 138 144 139
1.71327 -2.75312 -0.64069 135 138 142
1.71285 -2.76559 -0.62978 137 143 143
1.71244 -2.77806 -0.61886 136 148 143
1.71202 -2.79053 -0.60795 135 147 143
1.71161 -2.80299 -0.59704 138 144 139
1.71119 -2.81546 -0.58614 140 143 134
1.71078 -2.82791 -0.57523 143 152 138
1.71036 -2.84037 -0.56433 151 162 151
1.70995 -2.85283 -0.55343 152 162 152
1.70953 -2.86528 -0.54253 150 160 154
1.70912 -2.87773 -0.53163 145 150 143
1.70871 -2.89017 -0.52074 138 149 150
1.70829 -2.90262 -0.50985 147 158 161
1.70788 -2.91506 -0.49896 157 162 165
1.70746 -2.92750 -0.48807 153 160 156
1.70705 -2.93994 -0.47718 156 168 169
1.70664 -2.95237 -0.46630 162 174 176
1.70622 -2.96480 -0.45542 155 162 161
1.70581 -2.97723 -0.44454 152 160 161
1.70540 -2.98966 -0.43366 167 179 164
1.70498 -3.00208 -0.42279 161 167 157
1.70457 -3.01450 -0.41192 152 157 152
1.70416 -3.02692 -0.40105 151 159 156
1.70374 -3.03934 -0.39018 160 162 157
1.70333 -3.05176 -0.37931 163 174 171
1.70292 -3.06417 -0.36845 165 171 172
1.70251 -3.07658 -0.35759 172 185 180
1.68565 -3.58328 0.08590 170 177 162
1.68524 -3.59559 0.09667 170 179 168
1.68483 -3.60789 0.10744 173 183 168
1.68442 -3.62019 0.11821 169 176 176
1.68401 -3.63249 0.12898 171 170 173
1.68360 -3.64479 0.13974 182 187 171
1.68319 -3.65709 0.15050 170 173 180
1.68278 -3.66938 0.16126 170 177 175
1.68237 -3.68167 0.17202 165 176 165
1.68997 -2.70574 -0.68119 132 131 129
1.68956 -2.71816 -0.67032 137 138 127
1.68915 -2.73059 -0.65944 142 143 129
1.68874 -2.74301 -0.64858 139 142 140
1.68833 -2.75542 -0.63771 138 145 145
1.68792 -2.76784 -0.62684 146 152 143
1.68751 -2.78025 -0.61598 143 148 143
1.68710 -2.79266 -0.60512 138 144 146
1.68669 -2.80507 -0.59426 144 149 149
1.68628 -2.81747 -0.58340 146 153 149
1.68587 -2.82987 -0.57255 150 157 144
1.68546 -2.84227 -0.56169 155 161 149
1.68505 -2.85467 -0.55084 151 153 150
1.68464 -2.86706 -0.53999 146 154 152
1.68423 -2.87946 -0.52915 151 159 144
1.68382 -2.89185 -0.51830 148 155 145
1.68341 -2.90423 -0.50746 140 147 147
1.68300 -2.91662 -0.49662 159 161 162
1.68259 -2.92900 -0.48578 156 161 157
1.68218 -2.94138 -0.47495 155 163 170
1.68177 -2.95376 -0.46412 167 178 177
1.68095 -2.97851 -0.44245 156 169 165
1.66060 -3.59406 0.09630 184 190 178
1.65857 -3.65528 0.14989 176 182 186
1.65817 -3.66752 0.16060 178 186 179
1.66566 -2.69588 -0.68886 131 135 128
1.66525 -2.70825 -0.67804 135 140 132
1.66484 -2.72061 -0.66721 138 143 129
1.66444 -2.73298 -0.65639 139 139 132
1.66403 -2.74534 -0.64557 132 132 139
1.66362 -2.75770 -0.63475 129 139 142
1.66322 -2.77006 -0.62393 143 154 147
1.66281 -2.78241 -0.61312 145 150 147
1.66241 -2.79477 -0.60231 142 145 145
1.66200 -2.80712 -0.59150 144 154 151
1.66159 -2.81947 -0.58069 140 154 155
1.66119 -2.83181 -0.56989 147 160 148
1.66078 -2.84415 -0.55908 158 161 150
1.66038 -2.85650 -0.54828 153 154 146
1.65997 -2.86883 -0.53748 149 157 151
1.65956 -2.88117 -0.52669 152 157 152
1.65916 -2.89350 -0.51589 156 162 148
1.65875 -2.90583 -0.50510 147 153 142
1.65835 -2.91816 -0.49431 155 159 153
1.65794 -2.93049 -0.48352 150 159 160
1.65754 -2.94281 -0.47273 153 162 168
1.63618 -3.59254 0.09593 184 195 187
1.64115 -2.69841 -0.68569 134 141 131
1.64075 -2.71073 -0.67491 135 142 138
1.64035 -2.72304 -0.66413 141 145 135
1.63994 -2.73535 -0.65336 139 140 134
1.63954 -2.74765 -0.64259 126 130 136
1.63914 -2.75996 -0.63182 122 133 137
1.63874 -2.77226 -0.62105 133 144 142
1.63833 -2.78456 -0.61029 139 147 143
1.63793 -2.79686 -0.59953 140 147 140
1.63753 -2.80915 -0.58877 143 152 146
1.63713 -2.82144 -0.57801 136 149 149
1.63673 -2.83373 -0.56725 139 152 145
1.63633 -2.84602 -0.55650 148 159 148
1.63592 -2.85831 -0.54574 145 154 142
1.63552 -2.87059 -0.53499 148 153 147
1.63512 -2.88287 -0.52425 151 150 158
1.63472 -2.89515 -0.51350 157 166 157
1.63432 -2.90742 -0.50276 159 166 151
1.61198 -3.59104 0.09556 172 184 182
1.61686 -2.70093 -0.68254 127 133 125
1.61647 -2.71319 -0.67181 122 128 137
1.61607 -2.72544 -0.66108 135 140 138
1.61567 -2.73770 -0.65036 144 147 135
1.61527 -2.74995 -0.63964 137 138 136
1.61487 -2.76220 -0.62892 130 132 135
1.61448 -2.77444 -0.61820 130 134 135
1.61408 -2.78669 -0.60748 136 143 137
1.61368 -2.79893 -0.59677 139 148 140
1.61328 -2.81117 -0.58606 140 148 150
1.61289 -2.82340 -0.57535 136 148 152
1.61249 -2.83564 -0.56464 133 143 143
1.61209 -2.84787 -0.55393 144 157 146
1.61169 -2.86010 -0.54323 142 154 147
1.61130 -2.87233 -0.53253 147 152 147
1.61090 -2.88455 -0.52183 151 152 156
1.61050 -2.89677 -0.51113 157 161 163
1.61010 -2.90899 -0.50044 164 172 162
1.58799 -3.58955 0.09520 172 178 176
1.59319 -2.69122 -0.69010 136 140 133
1.59280 -2.70342 -0.67942 132 130 122
1.59240 -2.71562 -0.66874 128 132 134
1.59201 -2.72783 -0.65806 139 148 141
1.59161 -2.74002 -0.64738 145 152 139
1.59122 -2.75222 -0.63671 141 142 133
1.59083 -2.76441 -0.62604 138 138 134
1.59043 -2.77660 -0.61537 133 134 134
1.59004 -2.78879 -0.60470 137 143 131
1.58965 -2.80098 -0.59403 142 154 140
1.58925 -2.81316 -0.58337 144 149 150
1.58886 -2.82535 -0.57271 143 147 149
1.58847 -2.83753 -0.56205 139 145 146
1.58807 -2.84970 -0.55139 150 163 156
1.58768 -2.86188 -0.54074 152 160 155
1.58729 -2.87405 -0.53008 160 165 157
1.58689 -2.88622 -0.51943 161 164 162
1.56422 -3.58807 0.09484 176 183 176
1.56972 -2.68159 -0.69760 133 136 135
1.56933 -2.69374 -0.68696 135 140 137
1.56894 -2.70589 -0.67633 136 136 133
1.56855 -2.71804 -0.66570 137 140 137
1.56816 -2.73019 -0.65507 142 152 144
1.56777 -2.74233 -0.64444 140 152 143
1.56738 -2.75447 -0.63381 138 147 132
1.56699 -2.76661 -0.62319 143 149 130
1.56660 -2.77875 -0.61256 137 141 130
1.56621 -2.79088 -0.60194 134 142 128
1.56582 -2.80301 -0.59133 139 153 140
1.56544 -2.81514 -0.58071 142 148 149
1.56505 -2.82727 -0.57010 145 149 147
1.56466 -2.83940 -0.55948 144 147 146
1.56427 -2.85152 -0.54887 149 160 160
1.56388 -2.86364 -0.53827 157 161 157
1.56349 -2.87576 -0.52766 168 169 164
1.56310 -2.88787 -0.51706 168 174 169
1.54066 -3.58661 0.09448 175 187 177
1.54646 -2.67204 -0.70503 143 145 135
1.54607 -2.68414 -0.69444 140 144 136
1.54569 -2.69624 -0.68385 138 142 132
1.54530 -2.70834 -0.67326 138 142 137
1.54492 -2.72044 -0.66268 132 139 142
1.54453 -2.73253 -0.65210 132 142 145
1.54414 -2.74462 -0.64152 135 148 143
1.54376 -2.75670 -0.63094 141 150 134
1.54337 -2.76879 -0.62036 148 152 130
1.54299 -2.78087 -0.60978 139 144 126
1.54260 -2.79295 -0.59921 132 141 130
1.54221 -2.80503 -0.58864 136 146 144
1.54183 -2.81711 -0.57807 138 146 153
1.54144 -2.82918 -0.56751 141 151 154
1.54106 -2.84125 -0.55694 142 147 151
1.54067 -2.85332 -0.54638 147 152 155
1.54029 -2.86539 -0.53582 161 162 156
1.53990 -2.87745 -0.52526 166 167 162
1.53952 -2.88951 -0.51470 162 170 166
1.53913 -2.90157 -0.50415 165 170 165
1.53875 -2.91363 -0.49360 160 166 166
1.53836 -2.92568 -0.48305 159 166 172
1.51731 -3.58516 0.09413 169 176 176
1.52302 -2.67463 -0.70185 145 147 139
1.52263 -2.68668 -0.69131 145 152 137
1.52225 -2.69872 -0.68077 142 149 135
1.52187 -2.71077 -0.67023 145 150 140
1.52149 -2.72281 -0.65969 142 146 142
1.52110 -2.73485 -0.64915 138 144 140
1.52072 -2.74688 -0.63862 138 145 139
1.52034 -2.75892 -0.62809 142 148 140
1.51996 -2.77095 -0.61756 147 153 143
1.51958 -2.78298 -0.60703 142 148 137
1.51920 -2.79500 -0.59650 139 147 142
1.51881 -2.80703 -0.58598 143 151 152
1.51843 -2.81905 -0.57546 146 154 152
1.51805 -2.83107 -0.56494 150 158 155
1.51767 -2.84309 -0.55442 151 155 158
1.51729 -2.85510 -0.54390 154 153 156
1.51691 -2.86712 -0.53339 165 167 157
1.51653 -2.87913 -0.52288 167 170 165
1.51614 -2.89114 -0.51237 155 165 169
1.51576 -2.90314 -0.50186 157 168 167
1.51538 -2.91515 -0.49136 155 169 163
1.49416 -3.58372 0.09378 163 166 170
1.49978 -2.67720 -0.69870 143 144 143
1.49940 -2.68919 -0.68821 145 158 145
1.49902 -2.70118 -0.67771 138 153 150
1.49864 -2.71317 -0.66722 141 149 150
1.49826 -2.72516 -0.65673 150 153 140
1.49789 -2.73715 -0.64624 150 154 134
1.49751 -2.74913 -0.63575 147 154 140
1.49713 -2.76111 -0.62526 146 155 150
1.49675 -2.77309 -0.61478 146 156 156
1.49637 -2.78506 -0.60430 144 150 152
1.49600 -2.79704 -0.59382 148 154 156
1.49562 -2.80901 -0.58334 150 157 158
1.49524 -2.82098 -0.57287 153 163 155
1.49486 -2.83295 -0.56239 154 165 157
1.49449 -2.84491 -0.55192 155 162 163
1.49411 -2.85687 -0.54145 159 164 161
1.49373 -2.86883 -0.53099 165 171 159
1.49335 -2.88079 -0.52052 167 170 166
1.49298 -2.89275 -0.51006 162 166 173
1.49260 -2.90470 -0.49960 162 171 164
1.47122 -3.58230 0.09343 166 170 167
1.47674 -2.67974 -0.69558 143 142 138
1.47637 -2.69168 -0.68513 142 150 143
1.47599 -2.70362 -0.67468 136 146 150
1.47562 -2.71556 -0.66423 137 143 149
1.47524 -2.72749 -0.65379 145 151 139
1.47487 -2.73943 -0.64334 148 155 140
1.47450 -2.75136 -0.63290 149 162 149
1.47412 -2.76328 -0.62246 149 163 152
1.47375 -2.77521 -0.61203 147 152 151
1.47337 -2.78713 -0.60159 145 149 151
1.47300 -2.79905 -0.59116 147 153 151
1.47263 -2.81097 -0.58073 146 152 150
1.47225 -2.82289 -0.57030 147 154 154
1.47188 -2.83480 -0.55987 152 158 158
1.47150 -2.84672 -0.54945 157 164 166
1.47113 -2.85863 -0.53902 166 174 166
1.47076 -2.87053 -0.52860 164 172 160
1.47038 -2.88244 -0.51818 169 175 169
1.47001 -2.89434 -0.50776 176 176 175
1.46964 -2.90624 -0.49735 174 171 167
1.44995 -3.53378 0.05186 180 188 180
1.44958 -3.54556 0.06217 165 174 177
1.44921 -3.55734 0.07248 168 181 183
1.44884 -3.56912 0.08278 178 185 176
1.44847 -3.58089 0.09309 183 188 176
1.45428 -2.67037 -0.70289 144 144 137
1.45391 -2.68226 -0.69248 148 147 141
1.45354 -2.69415 -0.68208 144 147 143
1.45317 -2.70604 -0.67168 140 146 144
1.45280 -2.71792 -0.66127 146 151 148
1.45243 -2.72980 -0.65088 149 154 148
1.45205 -2.74168 -0.64048 148 155 151
1.45168 -2.75356 -0.63008 149 160 156
1.45131 -2.76544 -0.61969 150 161 154
1.45094 -2.77731 -0.60930 152 156 149
1.45057 -2.78918 -0.59891 150 158 151
1.45020 -2.80105 -0.58852 148 161 154
1.44983 -2.81292 -0.57814 148 157 149
1.44946 -2.82478 -0.56775 144 151 151
1.44909 -2.83665 -0.55737 150 156 153
1.44872 -2.84851 -0.54699 156 162 160
1.44835 -2.86036 -0.53661 166 171 163
1.44798 -2.87222 -0.52624 159 166 164
1.44761 -2.88407 -0.51586 162 174 175
1.44724 -2.89592 -0.50549 166 174 173
1.44687 -2.90777 -0.49512 158 161 164
1.42702 -3.54431 0.06196 167 174 171
1.42665 -3.55604 0.07222 172 184 172
1.42629 -3.56777 0.08248 176 181 167
1.42592 -3.57949 0.09274 183 186 173
1.43201 -2.66108 -0.71014 146 149 137
1.43164 -2.67292 -0.69978 147 152 143
1.43127 -2.68476 -0.68942 155 159 157
1.43091 -2.69660 -0.67906 148 150 152
1.43054 -2.70843 -0.66870 141 148 144
1.43017 -2.72026 -0.65834 151 159 152
1.42980 -2.73210 -0.64799 154 159 154
1.42944 -2.74392 -0.63764 151 155 154
1.42907 -2.75575 -0.62729 151 156 159
1.42870 -2.76757 -0.61694 153 158 159
1.42834 -2.77940 -0.60659 157 167 159
1.42797 -2.79122 -0.59625 153 167 162
1.42760 -2.80303 -0.58591 152 164 159
1.42724 -2.81485 -0.57557 160 172 153
1.42687 -2.82666 -0.56523 151 157 152
1.42651 -2.83847 -0.55489 155 159 150
1.42614 -2.85028 -0.54456 161 167 154
1.42577 -2.86209 -0.53423 163 170 162
1.42541 -2.87389 -0.52389 160 167 166
1.42504 -2.88569 -0.51357 162 168 170
1.42468 -2.89749 -0.50324 160 170 176
1.40429 -3.55476 0.07197 177 190 177
1.40393 -3.56643 0.08219 174 184 172
1.40357 -3.57810 0.09240 174 182 176
1.40031 -3.68305 0.18425 163 166 152
1.40992 -2.65187 -0.71733 143 150 136
1.40956 -2.66366 -0.70701 141 153 142
1.40920 -2.67545 -0.69669 152 161 151
1.40883 -2.68724 -0.68637 157 157 154
1.40847 -2.69902 -0.67606 146 142 143
1.40811 -2.71081 -0.66575 141 144 143
1.40774 -2.72259 -0.65544 151 159 152
1.40738 -2.73437 -0.64513 157 160 153
1.40702 -2.74614 -0.63482 157 158 153
1.40665 -2.75792 -0.62452 150 153 153
1.40629 -2.76969 -0.61421 144 149 156
1.40593 -2.78146 -0.60391 154 165 164
1.40556 -2.79323 -0.59361 156 169 166
1.40520 -2.80500 -0.58331 150 167 166
1.40484 -2.81676 -0.57302 157 174 162
1.40448 -2.82852 -0.56273 151 162 162
1.40411 -2.84028 -0.55243 159 164 162
1.40375 -2.85204 -0.54214 168 178 163
1.40339 -2.86380 -0.53186 167 171 158
1.40303 -2.87555 -0.52157 161 161 159
1.40266 -2.88730 -0.51129 165 166 155
1.40230 -2.89905 -0.50101 161 164 170
1.38177 -3.56510 0.08190 164 170 165
1.38141 -3.57673 0.09207 175 181 179
1.38105 -3.58835 0.10224 167 179 173
1.37854 -3.66963 0.17337 163 166 162
1.38803 -2.64273 -0.72446 148 156 137
1.38767 -2.65447 -0.71418 135 151 131
1.38731 -2.66622 -0.70390 142 155 143
1.38695 -2.67796 -0.69363 160 163 155
1.38659 -2.68969 -0.68336 154 156 152
1.38623 -2.70143 -0.67309 142 144 144
1.38587 -2.71316 -0.66282 152 155 150
1.38551 -2.72489 -0.65255 163 168 158
1.38515 -2.73662 -0.64229 168 167 160
1.38479 -2.74835 -0.63203 170 170 164
1.38443 -2.76007 -0.62177 161 167 161
1.38407 -2.77179 -0.61151 148 152 156
1.38371 -2.78351 -0.60125 151 158 161
1.38335 -2.79523 -0.59100 161 170 167
1.38299 -2.80694 -0.58074 158 168 163
1.38263 -2.81866 -0.57049 161 172 167
1.38227 -2.83037 -0.56024 162 174 175
1.38191 -2.84208 -0.55000 158 164 170
1.38156 -2.85378 -0.53975 161 174 167
1.38120 -2.86549 -0.52951 167 179 162
1.38084 -2.87719 -0.51927 164 164 161
1.38048 -2.88889 -0.50903 173 174 157
1.38012 -2.90059 -0.49879 166 163 167
1.35979 -3.56379 0.08161 170 179 176
1.35943 -3.57536 0.09174 172 178 170
1.35908 -3.58693 0.10186 167 174 163
1.36596 -2.64537 -0.72129 143 153 124
1.36560 -2.65706 -0.71106 136 153 126
1.36489 -2.68044 -0.69060 162 165 154
1.36453 -2.69213 -0.68037 150 153 149
1.36417 -2.70381 -0.67014 137 144 141
1.36382 -2.71549 -0.65992 149 157 153
1.36346 -2.72717 -0.64970 157 163 163
1.36311 -2.73885 -0.63948 161 165 168
1.36275 -2.75053 -0.62926 165 169 168
1.36239 -2.76220 -0.61904 159 163 160
1.36204 -2.77387 -0.60883 155 156 151
1.36168 -2.78554 -0.59862 154 154 148
1.36133 -2.79721 -0.58841 160 161 156
1.36097 -2.80887 -0.57820 166 164 155
1.36062 -2.82054 -0.56799 167 173 159
1.36026 -2.83220 -0.55779 164 170 160
1.35884 -2.87882 -0.51699 171 180 162
1.35848 -2.89047 -0.50679 178 184 162
1.35813 -2.90212 -0.49660 168 167 169
1.35317 -3.06496 -0.35409 174 185 183
1.35281 -3.07657 -0.34392 186 199 186
1.33835 -3.55096 0.07123 173 177 181
1.33800 -3.56249 0.08132 171 182 178
1.33765 -3.57401 0.09141 171 178 165
1.33730 -3.58553 0.10149 167 170 163
1.33484 -3.66612 0.17202 160 165 159
1.34549 -2.60139 -0.75892 146 153 152
1.34513 -2.61304 -0.74873 146 155 151
1.34478 -2.62469 -0.73853 142 143 152
1.34443 -2.63634 -0.72834 143 147 156
1.34337 -2.67127 -0.69777 161 166 152
1.34302 -2.68290 -0.68759 164 167 155
1.34266 -2.69454 -0.67740 163 164 150
1.34231 -2.70618 -0.66722 152 151 144
1.34196 -2.71781 -0.65704 150 152 152
1.34160 -2.72944 -0.64686 159 163 158
1.34125 -2.74107 -0.63669 165 173 166
1.34090 -2.75269 -0.62651 165 176 168
1.34055 -2.76432 -0.61634 161 171 164
1.34020 -2.77594 -0.60617 168 176 165
1.33984 -2.78756 -0.59600 171 171 153
1.33949 -2.79917 -0.58584 166 162 152
1.33914 -2.81079 -0.57567 164 166 158
1.33773 -2.85723 -0.53503 172 176 180
1.33738 -2.86883 -0.52488 168 168 167
1.33703 -2.88043 -0.51472 178 186 176
1.33668 -2.89203 -0.50457 183 187 175
1.33633 -2.90363 -0.49442 169 173 171
1.33141 -3.06578 -0.35252 164 176 178
1.33106 -3.07734 -0.34240 171 181 188
1.31639 -3.56119 0.08104 177 184 178
1.31605 -3.57267 0.09108 175 184 177
1.31570 -3.58414 0.10112 179 187 186
1.31327 -3.66439 0.17135 161 161 165
1.31292 -3.67585 0.18137 163 171 164
1.32413 -2.59258 -0.76579 142 150 153
1.32378 -2.60418 -0.75564 144 150 161
1.32343 -2.61578 -0.74548 148 159 154
1.32308 -2.62738 -0.73533 142 156 156
1.32273 -2.63898 -0.72518 140 151 159
1.32238 -2.65057 -0.71504 136 150 160
1.32203 -2.66217 -0.70489 142 155 160
1.32133 -2.68535 -0.68460 159 165 158
1.32098 -2.69693 -0.67446 163 171 155
1.32063 -2.70852 -0.66433 166 168 155
1.32028 -2.72010 -0.65419 165 168 160
1.31993 -2.73168 -0.64406 164 174 162
1.31958 -2.74326 -0.63392 172 181 164
1.31924 -2.75484 -0.62379 167 171 154
1.31784 -2.80112 -0.58329 170 166 169
1.31749 -2.81269 -0.57317 172 179 171
1.31610 -2.85893 -0.53270 178 181 193
1.31575 -2.87048 -0.52259 175 180 182
1.31540 -2.88204 -0.51248 182 188 185
1.31505 -2.89359 -0.50237 169 172 172
1.31471 -2.90513 -0.49226 166 165 173
1.31019 -3.05507 -0.36105 169 181 179
1.30015 -3.38827 -0.06946 184 187 199
1.29463 -3.57134 0.09075 168 178 180
1.29188 -3.66268 0.17068 176 179 172
1.29153 -3.67408 0.18067 172 178 173
1.30294 -2.58384 -0.77260 141 150 150
1.30260 -2.59539 -0.76249 139 144 150
1.30225 -2.60695 -0.75238 145 150 156
1.30190 -2.61850 -0.74227 147 152 155
1.30156 -2.63005 -0.73216 145 155 159
1.30121 -2.64160 -0.72205 146 153 154
1.30087 -2.65314 -0.71195 147 148 152
1.30052 -2.66469 -0.70185 151 154 156
1.29983 -2.68777 -0.68165 167 168 160
1.29948 -2.69931 -0.67155 167 168 159
1.29914 -2.71084 -0.66145 161 164 160
1.29879 -2.72238 -0.65136 158 165 166
1.29845 -2.73391 -0.64127 164 173 171
1.29810 -2.74544 -0.63118 174 182 167
1.29499 -2.84910 -0.54046 164 164 167
1.29465 -2.86061 -0.53039 171 169 168
1.29361 -2.89512 -0.50019 163 167 180
1.29327 -2.90662 -0.49012 168 163 183
1.28914 -3.04446 -0.36950 160 177 173
1.27919 -3.37630 -0.07910 156 166 173
1.27885 -3.38772 -0.06911 156 159 176
1.27851 -3.39913 -0.05912 170 176 180
1.27066 -3.66098 0.17003 170 174 177
1.27032 -3.67234 0.17997 171 179 175
1.26998 -3.68369 0.18991 169 178 169
1.28228 -2.56366 -0.78943 153 159 153
1.28193 -2.57517 -0.77935 158 166 163
1.28159 -2.58668 -0.76928 152 153 149
1.28125 -2.59819 -0.75921 143 139 143
1.28091 -2.60969 -0.74914 147 147 148
1.28056 -2.62120 -0.73908 150 152 153
1.28022 -2.63270 -0.72901 153 160 156
1.27988 -2.64420 -0.71895 155 156 152
1.27954 -2.65569 -0.70889 154 152 151
1.27919 -2.66719 -0.69883 156 156 154
1.27851 -2.69017 -0.67871 167 166 169
1.27817 -2.70166 -0.66866 161 163 161
1.27782 -2.71315 -0.65861 155 159 157
1.27748 -2.72463 -0.64856 162 167 164
1.26826 -3.03393 -0.37789 169 171 176
1.26792 -3.04535 -0.36789 153 159 159
1.25808 -3.37581 -0.07870 160 164 163
1.25774 -3.38717 -0.06876 164 175 170
1.25740 -3.39853 -0.05882 172 184 186
1.25706 -3.40989 -0.04888 185 187 185
1.25672 -3.42125 -0.03894 180 185 188
1.24963 -3.65929 0.16937 168 177 178
1.24929 -3.67060 0.17927 170 184 172
1.24895 -3.68191 0.18917 178 181 165
1.24862 -3.69322 0.19907 169 178 168
1.26144 -2.55511 -0.79609 145 154 151
1.26110 -2.56657 -0.78605 149 159 159
1.26076 -2.57804 -0.77602 152 156 162
1.26042 -2.58950 -0.76599 152 151 156
1.26008 -2.60096 -0.75596 145 146 147
1.25974 -2.61241 -0.74594 144 142 144
1.25940 -2.62387 -0.73591 145 151 156
1.25906 -2.63532 -0.72589 151 162 158
1.25872 -2.64677 -0.71587 151 159 149
1.25838 -2.65822 -0.70585 148 153 150
1.25804 -2.66967 -0.69583 152 153 152
1.25737 -2.69255 -0.67581 163 168 174
1.25703 -2.70399 -0.66579 154 160 157
1.25669 -2.71543 -0.65578 154 158 148
1.24722 -3.03486 -0.37625 168 169 170
1.24689 -3.04624 -0.36629 170 163 160
1.23680 -3.38663 -0.06841 170 169 172
1.23646 -3.39794 -0.05851 151 162 170
1.23613 -3.40926 -0.04861 167 178 177
1.23579 -3.42057 -0.03871 173 180 178
1.23546 -3.43188 -0.02882 168 174 178
1.22877 -3.65762 0.16873 161 158 143
1.22844 -3.66888 0.17859 159 168 171
1.22810 -3.68015 0.18844 166 180 179
1.22777 -3.69141 0.19830 174 188 181
1.22710 -3.71392 0.21800 143 148 136
1.24077 -2.54663 -0.80269 149 157 153
1.24043 -2.55805 -0.79270 141 153 152
1.24010 -2.56946 -0.78270 143 145 148
1.23976 -2.58088 -0.77272 148 150 158
1.23943 -2.59229 -0.76273 152 153 163
1.23909 -2.60370 -0.75274 143 142 141
1.23875 -2.61511 -0.74276 136 129 123
1.23842 -2.62652 -0.73278 140 134 134
1.23808 -2.63792 -0.72280 143 141 143
1.23774 -2.64933 -0.71282 135 141 144
1.23741 -2.66073 -0.70284 136 145 149
1.23707 -2.67213 -0.69287 147 152 154
1.23640 -2.69492 -0.67292 161 161 167
1.23607 -2.70631 -0.66295 161 164 165
1.23573 -2.71770 -0.65298 166 175 163
1.22636 -3.03579 -0.37462 162 170 174
1.21471 -3.43115 -0.02864 160 164 163
1.20808 -3.65596 0.16809 181 183 166
1.20775 -3.66718 0.17791 173 174 173
1.20742 -3.67839 0.18772 158 164 174
1.20709 -3.68961 0.19754 172 175 161
1.20676 -3.70082 0.20735 146 152 160
1.20643 -3.71203 0.21716 152 168 155
1.22027 -2.53822 -0.80924 142 152 158
1.21994 -2.54959 -0.79929 141 152 154
1.21961 -2.56096 -0.78933 139 148 149
1.21927 -2.57233 -0.77938 148 147 144
1.21894 -2.58370 -0.76944 151 151 155
1.21861 -2.59506 -0.75949 155 151 162
1.21827 -2.60643 -0.74955 153 153 149
1.21794 -2.61779 -0.73961 155 158 141
1.21761 -2.62915 -0.72967 156 157 142
1.21727 -2.64050 -0.71973 158 167 155
1.21694 -2.65186 -0.70979 149 158 161
1.21661 -2.66321 -0.69986 152 156 158
1.21628 -2.67456 -0.68992 156 157 155
1.21561 -2.69726 -0.67006 160 167 164
1.21528 -2.70860 -0.66013 162 173 164
1.20633 -3.01414 -0.39276 175 186 184
1.20600 -3.02543 -0.38288 176 187 184
1.20566 -3.03671 -0.37301 170 184 160
1.19413 -3.43043 -0.02846 166 172 170
1.18691 -3.67666 0.18700 157 169 183
1.18659 -3.68782 0.19678 173 183 180
1.18626 -3.69899 0.20655 156 165 166
1.18593 -3.71016 0.21632 150 159 160
1.19961 -2.54120 -0.80582 142 146 149
1.19928 -2.55253 -0.79591 143 148 154
1.19895 -2.56385 -0.78600 141 147 152
1.19862 -2.57518 -0.77609 151 157 155
1.19829 -2.58650 -0.76619 145 153 156
1.19796 -2.59781 -0.75628 138 145 145
1.19763 -2.60913 -0.74638 137 142 143
1.19730 -2.62044 -0.73648 145 153 153
1.19697 -2.63175 -0.72658 154 164 159
1.19664 -2.64306 -0.71668 159 171 161
1.19631 -2.65437 -0.70679 153 166 160
1.19598 -2.66568 -0.69690 148 159 158
1.19565 -2.67698 -0.68700 148 151 148
1.19499 -2.69958 -0.66723 176 174 162
1.18613 -3.00390 -0.40092 171 167 183
1.18580 -3.01515 -0.39108 174 175 189
1.18547 -3.02639 -0.38124 177 187 185
1.18514 -3.03763 -0.37141 193 196 184
1.18482 -3.04886 -0.36157 188 193 179
1.17437 -3.40738 -0.04784 178 189 198
1.17404 -3.41855 -0.03806 169 178 178
1.16625 -3.68606 0.19603 163 178 171
1.16593 -3.69718 0.20576 170 172 169
1.16560 -3.70830 0.21549 159 167 168
1.17879 -2.55544 -0.79256 146 155 155
1.17846 -2.56672 -0.78269 151 153 152
1.17814 -2.57800 -0.77283 155 161 158
1.17781 -2.58927 -0.76296 150 162 164
1.17748 -2.60054 -0.75310 149 161 154
1.17716 -2.61181 -0.74324 147 153 142
1.17683 -2.62307 -0.73338 144 152 149
1.17650 -2.63434 -0.72352 149 157 156
1.17618 -2.64560 -0.71367 155 164 157
1.17585 -2.65686 -0.70381 153 159 155
1.17552 -2.66812 -0.69396 155 161 160
1.17520 -2.67938 -0.68411 153 160 158
1.17487 -2.69063 -0.67426 159 163 163
1.17455 -2.70189 -0.66441 176 176 170
1.16479 -3.03853 -0.36982 179 172 171
1.16447 -3.04972 -0.36003 178 170 175
1.15412 -3.40677 -0.04758 180 188 194
1.15847 -2.55833 -0.78924 146 153 156
1.15815 -2.56956 -0.77941 160 159 159
1.15782 -2.58079 -0.76959 160 157 158
1.15750 -2.59202 -0.75977 154 158 159
1.15717 -2.60324 -0.74994 160 163 162
1.15685 -2.61446 -0.74012 169 173 167
1.15653 -2.62568 -0.73030 163 169 153
1.15620 -2.63690 -0.72049 155 159 143
1.15588 -2.64812 -0.71067 155 159 153
1.15556 -2.65933 -0.70086 156 165 166
1.15524 -2.67055 -0.69105 164 175 172
1.15491 -2.68176 -0.68124 165 174 171
1.15459 -2.69296 -0.67143 161 162 173
1.12544 -3.70462 0.21385 139 147 129
1.12512 -3.71565 0.22350 142 151 149
1.12480 -3.72667 0.23314 145 143 136
1.12449 -3.73770 0.24279 150 156 162
1.13831 -2.56120 -0.78595 140 147 156
1.13799 -2.57238 -0.77616 159 162 174
1.13767 -2.58357 -0.76638 164 160 162
1.13735 -2.59475 -0.75659 153 155 151
1.13703 -2.60592 -0.74681 159 160 160
1.13671 -2.61710 -0.73703 171 171 165
1.13639 -2.62827 -0.72725 168 173 160
1.13607 -2.63945 -0.71748 156 164 158
1.13575 -2.65062 -0.70770 156 163 157
1.13543 -2.66178 -0.69793 152 159 159
1.13511 -2.67295 -0.68816 150 151 160
1.13479 -2.68411 -0.67839 162 163 166
1.13447 -2.69528 -0.66862 171 173 171
1.10560 -3.70281 0.21304 140 145 150
1.10529 -3.71379 0.22265 157 162 155
1.10497 -3.72477 0.23225 149 155 136
1.10466 -3.73575 0.24186 133 140 128
1.10434 -3.74672 0.25147 148 160 157
1.11833 -2.56404 -0.78268 140 144 156
1.11801 -2.57518 -0.77294 145 154 170
1.11769 -2.58632 -0.76319 156 162 166
1.11737 -2.59745 -0.75345 161 165 162
1.11706 -2.60858 -0.74371 166 161 168
1.11674 -2.61971 -0.73397 169 167 166
1.11642 -2.63084 -0.72423 171 175 167
1.11610 -2.64197 -0.71449 164 167 172
1.11579 -2.65309 -0.70476 165 171 172
1.11547 -2.66421 -0.69503 172 178 170
1.11515 -2.67533 -0.68530 165 164 159
1.11484 -2.68645 -0.67557 163 165 159
1.08624 -3.69006 0.20266 155 155 146
1.08592 -3.70100 0.21223 142 151 155
1.08561 -3.71194 0.22180 158 164 153
1.08530 -3.72288 0.23137 162 155 148
1.08499 -3.73381 0.24094 160 162 137
1.08468 -3.74474 0.25051 146 150 144
1.08437 -3.75567 0.26007 159 162 153
1.09850 -2.56686 -0.77944 148 156 166
1.09818 -2.57796 -0.76974 145 149 160
1.09787 -2.58905 -0.76003 154 156 161
1.09756 -2.60014 -0.75033 159 160 168
1.09724 -2.61122 -0.74063 167 170 173
1.09693 -2.62231 -0.73093 167 172 171
1.09661 -2.63339 -0.72123 170 177 174
1.09630 -2.64447 -0.71153 174 179 177
1.09598 -2.65555 -0.70184 173 178 175
1.09567 -2.66663 -0.69215 169 175 174
1.09536 -2.67770 -0.68245 169 172 171
1.06702 -3.67742 0.19236 156 152 143
1.06671 -3.68832 0.20190 153 149 149
1.06641 -3.69922 0.21143 146 149 152
1.06610 -3.71011 0.22097 147 151 161
1.06579 -3.72100 0.23050 155 163 177
1.06548 -3.73189 0.24003 164 177 170
1.06517 -3.74278 0.24956 149 151 154
1.06486 -3.75367 0.25908 158 162 153
1.06455 -3.76455 0.26861 168 170 154
1.07883 -2.56966 -0.77623 149 155 161
1.07852 -2.58071 -0.76656 150 153 159
1.07821 -2.59175 -0.75690 161 163 160
1.07790 -2.60280 -0.74723 161 161 166
1.07759 -2.61384 -0.73757 167 169 167
1.07728 -2.62488 -0.72791 163 165 160
1.07696 -2.63592 -0.71825 157 161 162
1.07665 -2.64695 -0.70860 163 172 174
1.07634 -2.65798 -0.69894 168 177 175
1.07603 -2.66902 -0.68929 166 170 159
1.04766 -3.67574 0.19165 142 119 146
1.04735 -3.68659 0.20115 149 150 149
1.04704 -3.69745 0.21064 143 148 137
1.04674 -3.70830 0.22014 133 140 143
1.04643 -3.71915 0.22963 156 160 158
1.04613 -3.72999 0.23912 155 149 151
1.04582 -3.74084 0.24861 140 138 151
1.04552 -3.75168 0.25810 152 159 157
1.04521 -3.76252 0.26759 147 152 159
1.04490 -3.77336 0.27707 144 148 160
1.05902 -2.58344 -0.76342 154 145 156
1.05871 -2.59444 -0.75379 162 162 173
1.05840 -2.60544 -0.74416 160 170 173
1.05809 -2.61643 -0.73454 159 168 167
1.05778 -2.62743 -0.72492 166 165 161
1.05747 -2.63842 -0.71530 162 162 162
1.05717 -2.64941 -0.70568 163 173 175
1.05686 -2.66040 -0.69607 170 180 181
1.05655 -2.67139 -0.68645 171 178 177
1.03482 -3.44661 -0.00810 170 179 172
1.02844 -3.67407 0.19094 156 158 155
1.02814 -3.68488 0.20040 162 178 155
1.02784 -3.69569 0.20986 159 170 158
1.02753 -3.70650 0.21931 152 151 150
1.02723 -3.71730 0.22877 165 165 154
1.02693 -3.72811 0.23822 163 167 157
1.02663 -3.73891 0.24767 160 168 161
1.02632 -3.74971 0.25712 166 169 158
1.02602 -3.76050 0.26657 156 150 147
1.02572 -3.77130 0.27602 154 148 149
1.02542 -3.78209 0.28547 157 161 156
1.02511 -3.79289 0.29491 153 158 163
1.02481 -3.80368 0.30435 146 152 160
1.02451 -3.81447 0.31379 150 158 156
1.02421 -3.82525 0.32323 153 159 161
1.02390 -3.83604 0.33267 156 167 166
1.02360 -3.84682 0.34210 160 174 167
1.03997 -2.57519 -0.76988 166 163 164
1.03967 -2.58615 -0.76029 158 154 166
1.03936 -2.59710 -0.75071 164 161 175
1.03906 -2.60806 -0.74112 169 170 175
1.03875 -2.61901 -0.73154 167 169 171
1.03845 -2.62996 -0.72195 168 171 173
1.03814 -2.64091 -0.71237 173 182 179
1.03784 -2.65185 -0.70279 177 190 186
1.03753 -2.66280 -0.69322 175 181 188
1.03723 -2.67374 -0.68364 173 179 186
1.01028 -3.64010 0.16196 175 185 172
1.00968 -3.66164 0.18081 162 168 149
1.00938 -3.67241 0.19023 164 166 153
1.00908 -3.68318 0.19966 157 165 143
1.00878 -3.69395 0.20908 153 163 158
1.00848 -3.70471 0.21850 154 163 164
1.00818 -3.71547 0.22791 160 177 175
1.00788 -3.72623 0.23733 159 171 166
1.00758 -3.73699 0.24675 158 165 164
1.00728 -3.74775 0.25616 158 155 158
1.00698 -3.75850 0.26557 156 160 163
1.00668 -3.76926 0.27498 157 167 164
1.00638 -3.78001 0.28439 156 158 151
1.00608 -3.79076 0.29379 154 156 151
1.00578 -3.80151 0.30320 147 148 142
1.00549 -3.81225 0.31260 145 147 144
1.00519 -3.82300 0.32200 140 142 153
1.00489 -3.83374 0.33140 142 143 148
1.00459 -3.84448 0.34080 143 147 147
1.00429 -3.85522 0.35020 148 152 164
1.02078 -2.57792 -0.76674 160 171 172
1.02047 -2.58883 -0.75719 155 155 156
1.02017 -2.59974 -0.74765 150 151 160
1.01987 -2.61065 -0.73810 161 164 167
1.01957 -2.62156 -0.72855 175 173 167
1.01927 -2.63247 -0.71901 176 170 176
1.01896 -2.64337 -0.70947 175 177 181
1.01866 -2.65428 -0.69993 169 172 171
1.01836 -2.66518 -0.69039 170 175 179
1.01806 -2.67608 -0.68085 176 186 186
0.99137 -3.63858 0.16137 175 176 167
0.99107 -3.64931 0.17076 159 166 155
0.99077 -3.66004 0.18015 154 151 134
0.99048 -3.67077 0.18954 162 167 161
0.99018 -3.68149 0.19892 160 167 153
0.98988 -3.69222 0.20830 154 173 162
0.98958 -3.70294 0.21769 155 165 156
0.98929 -3.71366 0.22707 159 164 155
0.98899 -3.72438 0.23645 150 155 155
0.98869 -3.73509 0.24582 150 160 159
0.98840 -3.74581 0.25520 153 160 157
0.98810 -3.75652 0.26457 154 159 161
0.98780 -3.76723 0.27394 139 149 149
0.98750 -3.77794 0.28332 139 153 147
0.98721 -3.78865 0.29268 158 170 159
0.98691 -3.79935 0.30205 156 164 140
0.98632 -3.82076 0.32078 147 146 139
0.98602 -3.83146 0.33015 146 145 139
0.98572 -3.84215 0.33951 145 150 144
0.98543 -3.85285 0.34887 150 156 155
1.00173 -2.58063 -0.76363 145 158 167
1.00143 -2.59150 -0.75412 147 148 155
1.00113 -2.60236 -0.74461 155 154 150
1.00054 -2.62410 -0.72560 174 177 168
1.00024 -2.63496 -0.71609 175 175 173
0.99994 -2.64582 -0.70659 174 179 175
0.99964 -2.65668 -0.69708 171 176 163
0.99934 -2.66754 -0.68758 173 177 175
0.97260 -3.63707 0.16079 169 174 167
0.97231 -3.64776 0.17014 158 163 151
0.97201 -3.65845 0.17949 163 173 155
0.97172 -3.66913 0.18884 171 181 167
0.97142 -3.67982 0.19819 166 176 162
0.97113 -3.69050 0.20754 164 178 163
0.97083 -3.70118 0.21688 159 169 150
0.97054 -3.71186 0.22623 157 165 149
0.97024 -3.72253 0.23557 146 158 151
0.96995 -3.73321 0.24491 146 158 157
0.96966 -3.74388 0.25425 148 159 162
0.96936 -3.75455 0.26358 156 167 161
0.96907 -3.76522 0.27292 151 164 147
0.96877 -3.77589 0.28225 157 166 152
0.96848 -3.78655 0.29159 167 175 161
0.96818 -3.79721 0.30092 170 179 152
0.96760 -3.81853 0.31957 148 146 147
0.96730 -3.82919 0.32890 139 143 147
0.96701 -3.83985 0.33822 149 164 142
0.96672 -3.85050 0.34755 159 164 145
0.96642 -3.86116 0.35687 159 157 157
0.98284 -2.58331 -0.76055 167 169 163
0.98255 -2.59414 -0.75107 165 168 164
0.98106 -2.64825 -0.70373 184 191 181
0.98076 -2.65906 -0.69426 180 187 175
0.98047 -2.66988 -0.68480 179 183 178
0.95398 -3.63558 0.16021 168 165 164
0.95369 -3.64623 0.16953 155 157 137
0.95340 -3.65687 0.17884 167 184 165
0.95311 -3.66752 0.18816 177 187 161
0.95281 -3.67816 0.19747 156 158 153
0.95252 -3.68880 0.20678 150 149 156
0.95223 -3.69943 0.21609 145 154 150
0.95194 -3.71007 0.22539 141 155 150
0.95165 -3.72071 0.23470 147 163 155
0.95135 -3.73134 0.24400 148 155 141
0.95106 -3.74197 0.25330 144 146 134
0.95077 -3.75260 0.26260 163 170 149
0.95048 -3.76322 0.27190 168 170 153
0.95019 -3.77385 0.28120 166 167 160
0.94990 -3.78447 0.29049 146 156 145
0.94932 -3.80571 0.30908 138 135 152
0.94902 -3.81633 0.31837 137 135 155
0.94873 -3.82695 0.32766 142 148 150
0.94844 -3.83756 0.33695 148 155 145
0.94815 -3.84817 0.34624 147 155 144
0.94786 -3.85878 0.35552 144 150 147
0.94757 -3.86939 0.36480 146 151 156
0.96410 -2.58598 -0.75748 153 150 157
0.96234 -2.65065 -0.70089 178 186 186
0.96204 -2.66143 -0.69147 176 182 179
0.93551 -3.63410 0.15964 163 169 159
0.93522 -3.64470 0.16892 153 160 143
0.93493 -3.65531 0.17820 174 197 168
0.93464 -3.66591 0.18747 178 184 162
0.93435 -3.67651 0.19675 157 158 159
0.93406 -3.68711 0.20602 150 155 162
0.93377 -3.69770 0.21529 156 164 160
0.93348 -3.70830 0.22456 147 152 139
0.93319 -3.71889 0.23383 137 147 148
0.93291 -3.72948 0.24310 138 143 140
0.93262 -3.74007 0.25237 140 148 141
0.93233 -3.75066 0.26163 151 154 146
0.93204 -3.76124 0.27089 147 151 157
0.93175 -3.77183 0.28015 147 156 161
0.93117 -3.79299 0.29867 142 147 144
0.93088 -3.80357 0.30793 141 143 147
0.93060 -3.81414 0.31718 136 140 149
0.93031 -3.82472 0.32643 136 140 142
0.93002 -3.83529 0.33569 140 148 138
0.92973 -3.84586 0.34494 137 143 141
0.92944 -3.85643 0.35418 144 146 155
0.92915 -3.86700 0.36343 149 155 165
0.92887 -3.87757 0.37268 145 152 160
0.91718 -3.63263 0.15907 164 167 158
0.91689 -3.64319 0.16832 145 153 146
0.91661 -3.65376 0.17756 165 174 166
0.91632 -3.66432 0.18680 163 168 165
0.91603 -3.67488 0.19604 157 164 156
0.91575 -3.68543 0.20527 143 148 157
0.91546 -3.69599 0.21451 155 172 172
0.91517 -3.70654 0.22374 158 161 139
0.91489 -3.71709 0.23298 139 134 134
0.91460 -3.72764 0.24221 138 147 149
0.91431 -3.73819 0.25144 140 155 152
0.91403 -3.74874 0.26067 153 163 162
0.91374 -3.75928 0.26989 152 167 161
0.91346 -3.76982 0.27912 148 158 156
0.91288 -3.79090 0.29756 151 153 143
0.91260 -3.80144 0.30678 149 151 143
0.91145 -3.84357 0.34365 144 141 139
0.91117 -3.85410 0.35286 150 150 145
0.91088 -3.86462 0.36207 148 146 137
0.91060 -3.87515 0.37128 149 150 138
0.89899 -3.63117 0.15851 164 167 157
0.89871 -3.64169 0.16772 159 166 152
0.89842 -3.65222 0.17692 164 167 165
0.89814 -3.66273 0.18613 157 162 166
0.89786 -3.67325 0.19533 148 153 152
0.89757 -3.68377 0.20453 144 154 157
0.89729 -3.69428 0.21373 147 165 171
0.89700 -3.70480 0.22293 146 159 151
0.89672 -3.71531 0.23213 149 153 146
0.89644 -3.72581 0.24132 149 157 154
0.89615 -3.73632 0.25051 141 150 149
0.89587 -3.74683 0.25971 148 151 151
0.89559 -3.75733 0.26890 153 158 154
0.89530 -3.76783 0.27809 159 162 154
0.89445 -3.79933 0.30564 135 146 137
0.89304 -3.85178 0.35154 151 146 140
0.89275 -3.86227 0.36072 144 147 136
0.89247 -3.87275 0.36989 140 151 137
0.89219 -3.88324 0.37906 141 150 141
0.88095 -3.62972 0.15795 170 177 163
0.88066 -3.64021 0.16712 167 176 163
0.88038 -3.65069 0.17629 146 146 153
0.88010 -3.66117 0.18546 154 169 164
0.87982 -3.67164 0.19463 135 137 147
0.87954 -3.68212 0.20379 142 157 161
0.87926 -3.69259 0.21296 148 165 177
0.87898 -3.70306 0.22212 144 161 161
0.87870 -3.71353 0.23128 153 163 157
0.87841 -3.72400 0.24044 150 156 156
0.87813 -3.73447 0.24960 155 164 167
0.87785 -3.74493 0.25876 147 155 158
0.87757 -3.75540 0.26791 155 157 154
0.87729 -3.76586 0.27707 166 167 155
0.87701 -3.77632 0.28622 166 170 152
0.87505 -3.84948 0.35024 147 148 145
0.87477 -3.85993 0.35938 138 139 143
0.87449 -3.87037 0.36852 135 139 138
0.87421 -3.88082 0.37765 145 158 143
0.86304 -3.62829 0.15739 174 184 167
0.86276 -3.63873 0.16653 167 167 167
0.86248 -3.64917 0.17567 139 132 151
0.86220 -3.65961 0.18480 151 161 159
0.86192 -3.67005 0.19393 155 158 146
0.86165 -3.68048 0.20306 147 149 160
0.86137 -3.69091 0.21219 150 160 168
0.86109 -3.70135 0.22132 141 148 156
0.86081 -3.71178 0.23044 149 157 152
0.86053 -3.72220 0.23957 152 153 147
0.86025 -3.73263 0.24869 160 170 163
0.85998 -3.74305 0.25781 150 159 161
0.85970 -3.75348 0.26693 152 156 157
0.85942 -3.76390 0.27605 158 161 154
0.85914 -3.77432 0.28517 159 160 150
0.85886 -3.78474 0.29428 164 166 152
0.85719 -3.84720 0.34894 146 144 136
0.85692 -3.85761 0.35805 133 137 133
0.85664 -3.86801 0.36715 133 147 135
0.85636 -3.87842 0.37625 141 157 149
0.84527 -3.62686 0.15684 173 184 172
0.84499 -3.63727 0.16594 168 166 161
0.84472 -3.64767 0.17504 151 149 154
0.84444 -3.65806 0.18414 153 160 158
0.84417 -3.66846 0.19324 163 176 157
0.84389 -3.67886 0.20234 164 169 165
0.84361 -3.68925 0.21143 168 176 169
0.84334 -3.69964 0.22052 155 161 160
0.84306 -3.71003 0.22961 157 166 159
0.84279 -3.72042 0.23870 167 169 152
0.84251 -3.73081 0.24779 159 159 153
0.84168 -3.76195 0.27505 155 165 156
0.83975 -3.83457 0.33859 148 154 140
0.83948 -3.84494 0.34766 143 145 135
0.83920 -3.85531 0.35673 145 154 140
0.83865 -3.87603 0.37486 156 167 151
0.82764 -3.62545 0.15630 159 163 155
0.82736 -3.63581 0.16536 163 169 163
0.82709 -3.64617 0.17443 160 175 162
0.82682 -3.65653 0.18349 159 173 166
0.82654 -3.66689 0.19255 152 166 161
0.82627 -3.67724 0.20162 165 169 161
0.82600 -3.68760 0.21067 157 155 152
0.82572 -3.69795 0.21973 143 140 140
0.82545 -3.70830 0.22879 134 139 139
0.82518 -3.71865 0.23784 148 153 146
0.82490 -3.72900 0.24690 154 158 147
0.82463 -3.73934 0.25595 136 140 140
0.82436 -3.74968 0.26500 134 142 144
0.82217 -3.83237 0.33735 142 132 131
0.82190 -3.84270 0.34638 136 128 136
0.82163 -3.85302 0.35542 136 142 149
0.82108 -3.87367 0.37349 146 158 153
0.81014 -3.62405 0.15575 145 156 142
0.80987 -3.63437 0.16479 161 174 165
0.80960 -3.64469 0.17382 159 164 152
0.80933 -3.65501 0.18285 142 151 154
0.80905 -3.66533 0.19187 147 156 160
0.80878 -3.67564 0.20090 159 171 163
0.80851 -3.68596 0.20993 151 156 151
0.80824 -3.69627 0.21895 147 155 147
0.80797 -3.70658 0.22797 140 146 135
0.80770 -3.71689 0.23699 141 143 129
0.80743 -3.72720 0.24601 150 155 148
0.80716 -3.73750 0.25503 130 134 137
0.80689 -3.74781 0.26404 132 141 141
0.80472 -3.83018 0.33612 137 131 142
0.80445 -3.84047 0.34512 143 137 142
0.80418 -3.85076 0.35412 146 141 140
0.80391 -3.86104 0.36312 142 139 136
0.80337 -3.88161 0.38111 155 165 157
0.81933 -2.60657 -0.73383 172 175 179
0.81906 -2.61702 -0.72469 179 183 184
0.79304 -3.61237 0.14622 155 164 162
0.79251 -3.63294 0.16421 172 180 172
0.79224 -3.64322 0.17321 154 150 145
0.79197 -3.65350 0.18221 139 142 142
0.79170 -3.66378 0.19120 148 149 153
0.79143 -3.67406 0.20019 150 152 153
0.79116 -3.68433 0.20918 143 148 156
0.79089 -3.69460 0.21817 148 161 163
0.79063 -3.70488 0.22716 162 169 152
0.79036 -3.71515 0.23614 151 150 137
0.79009 -3.72542 0.24513 149 154 148
0.78982 -3.73568 0.25411 133 137 134
0.78955 -3.74595 0.26309 139 153 151
0.78741 -3.82801 0.33489 133 133 118
0.78714 -3.83826 0.34386 142 142 125
0.78687 -3.84851 0.35283 147 150 140
0.78660 -3.85875 0.36180 139 142 132
0.78634 -3.86900 0.37076 137 141 135
0.80212 -2.59864 -0.74009 183 183 177
0.77581 -3.61103 0.14572 160 166 166
0.77554 -3.62127 0.15468 160 170 174
0.77501 -3.64176 0.17261 161 167 154
0.77474 -3.65200 0.18157 159 160 151
0.77448 -3.66224 0.19053 157 163 152
0.77421 -3.67248 0.19949 159 163 149
0.77394 -3.68272 0.20844 144 149 151
0.77368 -3.69295 0.21740 133 139 145
0.77341 -3.70318 0.22635 155 163 158
0.77315 -3.71342 0.23530 159 160 148
0.77288 -3.72365 0.24426 148 150 149
0.77261 -3.73387 0.25320 134 140 138
