ply
format ascii 1.0
element face 0
property list uchar int vertex_indices
element vertex 1278
property float x
property float y
property float z
property uchar diffuse_red
property uchar diffuse_green
property uchar diffuse_blue
end_header
0.32961 -3.27148 -0.13713 146 146 164
0.32712 -3.28013 -0.12947 159 168 173
0.32463 -3.28878 -0.12181 160 169 167
0.32214 -3.29743 -0.11416 165 165 160
0.31966 -3.30607 -0.10651 168 174 171
0.31717 -3.31471 -0.09887 174 183 181
0.31469 -3.32334 -0.09122 175 179 182
0.31221 -3.33197 -0.08359 160 167 158
0.30973 -3.34059 -0.07595 165 169 165
0.30725 -3.34921 -0.06833 149 153 164
0.30477 -3.35783 -0.06070 161 171 160
0.28499 -3.42659 0.00016 162 162 162
0.28252 -3.43516 0.00775 162 162 158
0.28005 -3.44373 0.01534 158 163 154
0.27759 -3.45230 0.02292 152 156 145
0.27513 -3.46086 0.03049 145 145 138
0.27266 -3.46942 0.03807 139 144 143
0.27020 -3.47797 0.04564 144 144 146
0.26774 -3.48652 0.05321 153 153 154
0.26529 -3.49506 0.06077 147 150 155
0.26283 -3.50360 0.06833 139 141 144
0.26037 -3.51214 0.07588 143 151 144
0.25792 -3.52067 0.08343 157 166 151
0.25547 -3.52919 0.09098 160 167 149
0.25302 -3.53771 0.09852 147 149 142
0.25056 -3.54623 0.10606 135 131 138
0.24812 -3.55475 0.11360 140 138 144
0.24567 -3.56325 0.12113 146 152 147
0.24322 -3.57176 0.12865 148 155 146
0.24078 -3.58026 0.13618 146 151 149
0.23833 -3.58875 0.14370 145 150 152
0.23589 -3.59725 0.15121 161 168 162
0.23345 -3.60573 0.15872 156 158 154
0.23101 -3.61422 0.16623 131 127 138
0.22857 -3.62269 0.17374 138 141 141
0.22613 -3.63117 0.18124 141 145 142
0.22369 -3.63964 0.18873 139 143 137
0.21639 -3.66502 0.21120 147 151 139
0.21396 -3.67347 0.21868 140 146 137
0.21153 -3.68192 0.22616 140 148 142
0.20910 -3.69036 0.23363 147 152 138
0.20667 -3.69880 0.24110 143 141 138
0.20425 -3.70724 0.24857 136 137 144
0.20182 -3.71567 0.25603 148 154 138
0.19940 -3.72409 0.26349 130 132 126
0.19697 -3.73252 0.27094 150 156 144
0.19455 -3.74093 0.27839 148 146 131
0.19213 -3.74935 0.28584 128 128 123
0.18971 -3.75776 0.29328 134 134 126
0.18729 -3.76616 0.30072 133 134 125
0.18488 -3.77456 0.30816 139 139 126
0.18246 -3.78296 0.31559 135 133 123
0.18005 -3.79135 0.32302 127 127 123
0.17763 -3.79974 0.33044 146 145 130
0.17522 -3.80812 0.33786 131 132 112
0.17281 -3.81650 0.34528 126 127 122
0.17040 -3.82487 0.35269 130 132 124
0.16799 -3.83324 0.36010 124 127 131
0.16559 -3.84161 0.36750 131 138 130
0.16318 -3.84997 0.37490 131 139 130
0.16078 -3.85833 0.38230 135 141 129
0.15837 -3.86668 0.38969 137 141 132
0.15597 -3.87503 0.39708 136 137 130
0.15357 -3.88337 0.40447 139 143 128
0.15117 -3.89172 0.41185 131 125 116
0.14877 -3.90005 0.41923 123 123 122
0.14638 -3.90838 0.42661 127 135 126
0.14398 -3.91671 0.43398 131 141 129
0.14159 -3.92503 0.44134 125 132 125
0.13919 -3.93335 0.44871 123 125 125
0.13680 -3.94167 0.45607 128 132 124
0.13441 -3.94998 0.46342 131 135 123
0.13202 -3.95829 0.47078 127 126 121
0.12963 -3.96659 0.47812 124 123 122
0.12724 -3.97489 0.48547 126 128 129
0.12486 -3.98318 0.49281 126 129 131
0.12247 -3.99147 0.50015 128 129 131
0.12009 -3.99976 0.50748 123 123 126
0.11771 -4.00804 0.51481 119 124 124
0.11533 -4.01631 0.52214 131 136 130
0.11295 -4.02459 0.52946 132 129 116
0.11057 -4.03286 0.53678 124 122 106
0.10819 -4.04112 0.54409 119 124 112
0.10581 -4.04938 0.55140 115 117 108
0.10344 -4.05764 0.55871 108 108 113
0.10106 -4.06589 0.56602 112 114 116
0.09869 -4.07414 0.57332 120 120 123
0.09632 -4.08238 0.58061 124 128 130
0.09395 -4.09062 0.58791 131 133 129
0.09158 -4.09886 0.59519 119 113 111
0.08921 -4.10709 0.60248 99 102 108
0.08684 -4.11531 0.60976 106 116 121
0.08448 -4.12354 0.61704 118 125 123
0.08211 -4.13175 0.62431 124 126 123
0.07975 -4.13997 0.63158 120 122 117
0.07739 -4.14818 0.63885 106 107 108
0.07503 -4.15639 0.64612 95 100 99
0.07267 -4.16459 0.65337 106 115 114
0.07031 -4.17279 0.66063 122 127 114
0.06795 -4.18098 0.66788 122 121 108
0.06560 -4.18917 0.67513 110 111 103
0.06324 -4.19735 0.68238 111 115 106
0.06089 -4.20554 0.68962 112 116 119
0.05854 -4.21371 0.69686 113 117 125
0.05619 -4.22189 0.70409 109 116 127
0.05384 -4.23005 0.71132 114 119 117
0.05149 -4.23822 0.71855 116 119 115
0.04914 -4.24638 0.72577 116 126 122
0.04679 -4.25454 0.73299 123 132 118
0.04445 -4.26269 0.74021 120 123 122
0.04210 -4.27084 0.74742 111 111 121
0.03976 -4.27898 0.75463 107 114 120
0.03742 -4.28712 0.76183 116 121 117
0.03508 -4.29526 0.76903 120 121 118
0.03274 -4.30339 0.77623 123 125 129
0.03040 -4.31152 0.78342 125 128 128
0.02806 -4.31964 0.79062 119 119 115
0.02573 -4.32776 0.79780 115 115 111
0.02339 -4.33588 0.80499 113 112 117
0.02106 -4.34399 0.81216 108 107 119
0.01872 -4.35210 0.81934 116 116 116
0.42469 -2.89352 -0.47118 179 182 178
0.42216 -2.90234 -0.46337 173 177 178
0.41962 -2.91116 -0.45556 173 180 177
0.41709 -2.91997 -0.44776 190 201 196
0.40950 -2.94639 -0.42438 187 192 192
0.40698 -2.95518 -0.41660 184 194 199
0.40445 -2.96397 -0.40882 179 189 188
0.40193 -2.97276 -0.40104 180 185 180
0.39688 -2.99032 -0.38550 169 179 177
0.39436 -2.99909 -0.37773 167 178 176
0.39184 -3.00786 -0.36997 170 184 183
0.38933 -3.01662 -0.36222 181 191 189
0.38681 -3.02538 -0.35447 171 176 183
0.38429 -3.03413 -0.34672 158 162 169
0.38178 -3.04288 -0.33897 158 167 167
0.37927 -3.05163 -0.33123 163 168 166
0.37676 -3.06037 -0.32350 166 174 167
0.37425 -3.06910 -0.31576 167 175 170
0.37174 -3.07784 -0.30804 154 161 159
0.36923 -3.08656 -0.30031 150 154 153
0.36673 -3.09529 -0.29259 171 180 175
0.36422 -3.10400 -0.28488 179 187 186
0.34174 -3.18226 -0.21561 166 179 180
0.33925 -3.19093 -0.20793 176 187 184
0.33676 -3.19960 -0.20026 182 187 178
0.33427 -3.20826 -0.19259 164 163 162
0.32929 -3.22558 -0.17727 163 180 183
0.32681 -3.23423 -0.16961 177 195 190
0.32433 -3.24287 -0.16196 168 172 172
0.32184 -3.25151 -0.15431 158 161 161
0.31936 -3.26015 -0.14667 164 173 177
0.31688 -3.26878 -0.13903 154 156 165
0.31440 -3.27741 -0.13139 158 162 164
0.31193 -3.28604 -0.12376 166 173 168
0.30945 -3.29465 -0.11613 162 170 163
0.30697 -3.30327 -0.10851 173 185 177
0.30450 -3.31188 -0.10089 170 178 175
0.30203 -3.32048 -0.09327 150 154 159
0.29956 -3.32908 -0.08566 158 164 170
0.29709 -3.33768 -0.07805 177 184 186
0.29462 -3.34627 -0.07044 158 157 164
0.29215 -3.35486 -0.06284 159 167 160
0.28230 -3.38917 -0.03248 163 157 153
0.27984 -3.39773 -0.02489 158 149 156
0.27246 -3.42340 -0.00217 157 153 152
0.27001 -3.43195 0.00539 156 158 157
0.26755 -3.44050 0.01295 159 164 162
0.26510 -3.44904 0.02051 159 162 156
0.26265 -3.45757 0.02807 144 141 136
0.26020 -3.46610 0.03562 141 149 150
0.25775 -3.47463 0.04316 148 152 157
0.25530 -3.48315 0.05071 155 159 160
0.25285 -3.49167 0.05824 150 154 156
0.25041 -3.50018 0.06578 138 144 143
0.24796 -3.50869 0.07331 143 152 147
0.24552 -3.51719 0.08084 155 163 153
0.24308 -3.52569 0.08836 150 155 149
0.24064 -3.53419 0.09588 148 151 146
0.23820 -3.54268 0.10339 143 145 140
0.23576 -3.55116 0.11091 132 137 130
0.23332 -3.55965 0.11841 133 142 131
0.23089 -3.56812 0.12592 144 151 141
0.22845 -3.57660 0.13342 151 154 142
0.22602 -3.58507 0.14091 146 148 144
0.22359 -3.59353 0.14841 154 159 153
0.22116 -3.60199 0.15589 151 155 154
0.21873 -3.61045 0.16338 139 137 145
0.21630 -3.61890 0.17086 142 141 144
0.21387 -3.62735 0.17834 145 152 141
0.21145 -3.63579 0.18581 153 161 143
0.20902 -3.64423 0.19328 144 139 136
0.20176 -3.66952 0.21566 143 153 146
0.19934 -3.67794 0.22312 144 151 143
0.19692 -3.68636 0.23057 139 140 127
0.19450 -3.69477 0.23801 129 130 129
0.19209 -3.70318 0.24546 130 131 138
0.18967 -3.71159 0.25290 140 145 131
0.18726 -3.71999 0.26033 126 131 125
0.18485 -3.72838 0.26776 140 139 138
0.18243 -3.73677 0.27519 149 144 130
0.18002 -3.74516 0.28261 131 127 128
0.17762 -3.75354 0.29003 134 138 130
0.17521 -3.76192 0.29745 133 134 130
0.17280 -3.77030 0.30486 135 137 123
0.17040 -3.77867 0.31227 132 131 122
0.16800 -3.78703 0.31967 114 109 104
0.16559 -3.79540 0.32708 142 145 138
0.16319 -3.80375 0.33447 144 143 144
0.16079 -3.81211 0.34187 139 134 135
0.15839 -3.82046 0.34926 139 138 137
0.15600 -3.82880 0.35664 130 130 136
0.15360 -3.83714 0.36402 130 133 130
0.15121 -3.84548 0.37140 130 133 130
0.14881 -3.85381 0.37878 135 143 127
0.14642 -3.86214 0.38615 141 146 132
0.14403 -3.87046 0.39352 139 145 130
0.14164 -3.87878 0.40088 143 146 133
0.13925 -3.88709 0.40824 134 130 120
0.13686 -3.89541 0.41559 136 139 125
0.13448 -3.90371 0.42295 136 144 124
0.13209 -3.91201 0.43029 129 132 122
0.12971 -3.92031 0.43764 126 126 124
0.12732 -3.92861 0.44498 127 124 123
0.12494 -3.93690 0.45232 127 128 121
0.12256 -3.94518 0.45965 128 135 126
0.12018 -3.95346 0.46698 127 128 123
0.11780 -3.96174 0.47431 126 125 123
0.11543 -3.97001 0.48163 123 127 125
0.11305 -3.97828 0.48895 121 126 123
0.11068 -3.98655 0.49626 125 128 127
0.10830 -3.99481 0.50357 126 125 127
0.10593 -4.00306 0.51088 127 128 130
0.10356 -4.01132 0.51819 132 136 134
0.10119 -4.01956 0.52549 130 133 120
0.09882 -4.02781 0.53278 127 127 107
0.09646 -4.03605 0.54008 124 124 104
0.09409 -4.04428 0.54736 121 117 98
0.09173 -4.05251 0.55465 120 122 122
0.08936 -4.06074 0.56193 119 123 126
0.08700 -4.06896 0.56921 124 125 126
0.08464 -4.07718 0.57648 129 130 123
0.08228 -4.08540 0.58376 138 137 126
0.07992 -4.09361 0.59102 127 125 117
0.07756 -4.10181 0.59829 101 106 105
0.07521 -4.11002 0.60555 104 111 111
0.07285 -4.11821 0.61280 116 128 128
0.07050 -4.12641 0.62005 121 126 124
0.06815 -4.13460 0.62730 124 128 119
0.06579 -4.14278 0.63455 121 121 113
0.06344 -4.15096 0.64179 108 110 107
0.06109 -4.15914 0.64903 117 126 113
0.05875 -4.16732 0.65626 128 135 113
0.05640 -4.17548 0.66349 128 131 112
0.05405 -4.18365 0.67072 117 120 111
0.05171 -4.19181 0.67794 114 112 108
0.04937 -4.19997 0.68516 113 112 115
0.04702 -4.20812 0.69238 116 117 112
0.04468 -4.21627 0.69959 120 128 123
0.04234 -4.22441 0.70680 126 132 125
0.04000 -4.23255 0.71400 124 127 117
0.03767 -4.24069 0.72120 125 132 128
0.03533 -4.24882 0.72840 130 136 127
0.03299 -4.25695 0.73560 127 130 124
0.03066 -4.26507 0.74279 120 124 123
0.02833 -4.27319 0.74997 123 130 129
0.02600 -4.28131 0.75716 131 132 124
0.02367 -4.28942 0.76434 124 121 120
0.02134 -4.29753 0.77151 122 117 127
0.01901 -4.30563 0.77869 126 124 124
0.01668 -4.31373 0.78586 124 123 117
0.01436 -4.32183 0.79302 120 119 115
0.01203 -4.32992 0.80018 118 120 110
0.00971 -4.33801 0.80734 109 116 101
0.00739 -4.34609 0.81450 110 109 98
0.41660 -2.87444 -0.48758 189 204 198
0.41407 -2.88324 -0.47978 184 193 187
0.41155 -2.89204 -0.47200 172 174 176
0.40903 -2.90084 -0.46421 167 173 179
0.40651 -2.90963 -0.45643 166 169 168
0.40399 -2.91841 -0.44866 187 197 192
0.39643 -2.94474 -0.42535 177 183 192
0.39392 -2.95351 -0.41759 179 192 196
0.39140 -2.96227 -0.40984 173 178 179
0.38889 -2.97103 -0.40209 170 172 177
0.38638 -2.97978 -0.39434 181 187 191
0.38387 -2.98853 -0.38660 172 182 187
0.38136 -2.99727 -0.37886 170 178 178
0.37885 -3.00601 -0.37112 172 178 178
0.37635 -3.01475 -0.36339 182 192 183
0.37384 -3.02348 -0.35566 170 179 172
0.37134 -3.03221 -0.34794 165 176 164
0.36884 -3.04093 -0.34022 165 180 178
0.36634 -3.04964 -0.33250 173 178 172
0.36384 -3.05836 -0.32479 178 186 182
0.36134 -3.06707 -0.31709 173 179 178
0.35884 -3.07577 -0.30938 170 177 168
0.35635 -3.08447 -0.30168 164 162 159
0.35385 -3.09316 -0.29399 173 178 172
0.35136 -3.10185 -0.28630 171 179 180
0.32898 -3.17986 -0.21725 167 178 174
0.32650 -3.18850 -0.20960 178 191 180
0.32402 -3.19715 -0.20195 179 181 163
0.32154 -3.20578 -0.19431 162 156 145
0.31659 -3.22304 -0.17903 159 168 174
0.31412 -3.23166 -0.17140 169 181 183
0.31165 -3.24028 -0.16377 166 172 172
0.29930 -3.28331 -0.12569 142 152 150
0.29684 -3.29190 -0.11809 144 153 154
0.29437 -3.30049 -0.11049 164 176 178
0.29191 -3.30907 -0.10289 169 175 167
0.28945 -3.31765 -0.09530 146 145 142
0.28699 -3.32622 -0.08771 146 158 161
0.28453 -3.33479 -0.08013 166 177 185
0.28208 -3.34336 -0.07255 163 168 171
0.27962 -3.35192 -0.06497 145 154 154
0.27716 -3.36047 -0.05740 163 176 159
0.27471 -3.36902 -0.04983 162 168 160
0.27226 -3.37757 -0.04226 166 174 167
0.26981 -3.38612 -0.03470 165 169 161
0.26736 -3.39465 -0.02714 160 148 153
0.26491 -3.40319 -0.01959 161 154 163
0.26246 -3.41172 -0.01204 163 167 156
0.26002 -3.42024 -0.00449 157 160 151
0.25757 -3.42877 0.00305 151 153 151
0.25513 -3.43728 0.01059 149 153 148
0.25269 -3.44579 0.01812 154 158 154
0.25025 -3.45430 0.02565 143 147 146
0.24781 -3.46281 0.03318 143 147 148
0.24537 -3.47131 0.04070 148 153 156
0.24293 -3.47980 0.04822 155 160 161
0.24050 -3.48829 0.05574 157 159 151
0.23806 -3.49678 0.06325 142 144 138
0.23563 -3.50526 0.07075 137 140 141
0.23320 -3.51374 0.07826 148 151 150
0.23076 -3.52221 0.08576 143 145 149
0.22834 -3.53068 0.09325 143 143 147
0.22591 -3.53914 0.10074 145 148 147
0.22348 -3.54760 0.10823 135 139 132
0.22105 -3.55606 0.11572 133 139 130
0.21863 -3.56451 0.12320 142 147 145
0.21621 -3.57296 0.13067 148 153 144
0.21378 -3.58140 0.13815 147 152 142
0.21136 -3.58984 0.14562 142 142 144
0.20894 -3.59828 0.15308 141 145 149
0.20652 -3.60671 0.16054 147 146 152
0.20411 -3.61513 0.16800 150 150 151
0.20169 -3.62355 0.17545 150 154 144
0.19928 -3.63197 0.18290 156 160 143
0.19686 -3.64038 0.19035 148 141 137
0.18722 -3.67399 0.22010 146 155 144
0.18481 -3.68238 0.22752 148 148 138
0.18241 -3.69077 0.23495 134 137 133
0.18000 -3.69915 0.24237 134 133 135
0.17760 -3.70753 0.24978 131 135 128
0.17520 -3.71591 0.25719 128 136 126
0.17280 -3.72428 0.26460 139 135 138
0.17040 -3.73264 0.27201 140 137 130
0.16800 -3.74100 0.27941 131 127 130
0.16560 -3.74936 0.28680 127 131 136
0.16320 -3.75771 0.29420 136 138 137
0.16081 -3.76606 0.30159 137 144 129
0.15841 -3.77441 0.30897 135 139 130
0.15602 -3.78275 0.31636 125 122 103
0.15363 -3.79108 0.32373 140 144 135
0.15124 -3.79942 0.33111 151 148 150
0.14885 -3.80774 0.33848 144 135 141
0.14646 -3.81607 0.34585 136 136 135
0.14408 -3.82439 0.35321 137 136 130
0.14169 -3.83270 0.36057 133 133 124
0.13931 -3.84101 0.36792 134 134 124
0.13692 -3.84932 0.37528 128 128 114
0.13454 -3.85762 0.38262 131 131 116
0.13216 -3.86592 0.38997 135 133 126
0.12978 -3.87421 0.39731 142 138 136
0.12740 -3.88250 0.40465 138 138 134
0.12503 -3.89079 0.41198 136 143 130
0.12265 -3.89907 0.41931 129 134 126
0.12027 -3.90735 0.42664 119 118 117
0.11790 -3.91562 0.43396 118 118 113
0.11553 -3.92389 0.44128 124 125 119
0.11316 -3.93215 0.44859 125 126 119
0.11079 -3.94042 0.45590 122 126 113
0.10842 -3.94867 0.46321 128 132 114
0.10605 -3.95692 0.47051 134 136 124
0.10369 -3.96517 0.47781 125 131 126
0.10132 -3.97342 0.48511 119 127 125
0.09896 -3.98165 0.49240 125 129 127
0.09659 -3.98989 0.49969 133 134 128
0.09423 -3.99812 0.50698 137 138 130
0.09187 -4.00635 0.51426 128 134 119
0.08951 -4.01457 0.52154 119 130 112
0.08716 -4.02279 0.52881 129 137 123
0.08480 -4.03101 0.53608 138 135 114
0.08244 -4.03922 0.54335 131 125 105
0.08009 -4.04742 0.55061 123 124 122
0.07774 -4.05562 0.55787 123 126 128
0.07538 -4.06382 0.56513 125 125 125
0.07303 -4.07202 0.57238 122 121 114
0.07068 -4.08021 0.57963 119 117 110
0.06834 -4.08839 0.58688 118 118 110
0.06599 -4.09657 0.59412 116 122 109
0.06364 -4.10475 0.60136 120 122 114
0.06130 -4.11293 0.60859 132 135 138
0.05895 -4.12110 0.61582 127 130 130
0.05661 -4.12926 0.62305 129 134 126
0.05427 -4.13742 0.63027 134 133 121
0.05193 -4.14558 0.63749 120 118 113
0.04959 -4.15373 0.64471 119 125 117
0.04725 -4.16188 0.65192 128 133 124
0.04492 -4.17002 0.65913 127 126 123
0.04258 -4.17817 0.66633 124 128 120
0.04025 -4.18630 0.67353 123 123 116
0.03791 -4.19443 0.68073 123 122 113
0.03558 -4.20256 0.68793 119 121 105
0.03325 -4.21069 0.69512 119 127 116
0.03092 -4.21881 0.70230 127 128 120
0.02859 -4.22692 0.70949 123 131 118
0.02627 -4.23504 0.71667 121 127 124
0.02394 -4.24314 0.72384 117 122 126
0.02162 -4.25125 0.73102 121 129 118
0.01929 -4.25935 0.73819 123 120 120
0.01697 -4.26744 0.74535 128 126 124
0.01465 -4.27554 0.75251 129 126 122
0.01233 -4.28362 0.75967 120 118 112
0.01001 -4.29171 0.76683 111 109 109
0.00769 -4.29979 0.77398 113 119 116
0.00537 -4.30786 0.78113 120 129 121
0.00306 -4.31593 0.78827 124 119 119
0.00074 -4.32400 0.79541 126 125 114
-0.00157 -4.33207 0.80255 129 125 105
-0.00388 -4.34013 0.80968 124 115 104
0.43126 -2.77620 -0.57404 183 189 190
0.40352 -2.87303 -0.48834 190 198 201
0.40101 -2.88181 -0.48057 190 196 196
0.39850 -2.89058 -0.47281 169 172 179
0.38345 -2.94311 -0.42632 182 191 191
0.38094 -2.95184 -0.41858 176 182 193
0.37844 -2.96058 -0.41085 165 167 178
0.37594 -2.96931 -0.40313 172 179 180
0.37344 -2.97803 -0.39540 178 181 184
0.37094 -2.98675 -0.38768 181 191 183
0.36844 -2.99547 -0.37997 177 179 176
0.36595 -3.00418 -0.37226 187 199 194
0.36345 -3.01289 -0.36455 181 190 183
0.36096 -3.02159 -0.35685 150 156 145
0.35847 -3.03029 -0.34915 152 162 148
0.35598 -3.03898 -0.34146 162 172 173
0.35349 -3.04767 -0.33377 178 189 181
0.35100 -3.05636 -0.32608 177 184 178
0.34851 -3.06504 -0.31840 174 178 175
0.34603 -3.07371 -0.31072 170 177 173
0.34354 -3.08239 -0.30304 169 180 174
0.34106 -3.09105 -0.29537 179 185 179
0.31630 -3.17747 -0.21888 162 174 172
0.31383 -3.18609 -0.21126 166 176 172
0.31137 -3.19471 -0.20363 169 176 169
0.30890 -3.20331 -0.19601 163 167 160
0.30151 -3.22911 -0.17318 158 162 170
0.28676 -3.28060 -0.12762 136 140 132
0.28431 -3.28916 -0.12003 139 141 150
0.28186 -3.29772 -0.11246 141 153 159
0.27940 -3.30628 -0.10489 154 168 156
0.27695 -3.31483 -0.09732 153 154 150
0.27451 -3.32337 -0.08975 158 173 160
0.27206 -3.33192 -0.08219 162 167 168
0.26961 -3.34046 -0.07463 153 163 163
0.26717 -3.34899 -0.06708 149 155 151
0.26472 -3.35752 -0.05953 160 168 164
0.26228 -3.36604 -0.05199 143 148 145
0.25984 -3.37456 -0.04445 154 163 163
0.25740 -3.38308 -0.03691 164 167 170
0.25496 -3.39159 -0.02937 165 166 167
0.25252 -3.40010 -0.02184 165 169 173
0.25009 -3.40860 -0.01432 165 172 164
0.24765 -3.41710 -0.00680 164 171 159
0.24522 -3.42560 0.00072 160 164 152
0.24279 -3.43409 0.00824 146 152 136
0.24036 -3.44257 0.01575 146 156 151
0.23793 -3.45106 0.02325 148 154 150
0.23550 -3.45953 0.03076 150 153 146
0.23307 -3.46801 0.03826 147 149 150
0.23064 -3.47648 0.04575 151 154 155
0.22822 -3.48494 0.05324 156 156 145
0.22580 -3.49340 0.06073 139 138 136
0.22337 -3.50185 0.06822 130 134 138
0.22095 -3.51031 0.07570 144 149 147
0.21853 -3.51875 0.08317 142 143 145
0.21611 -3.52720 0.09064 136 138 142
0.21370 -3.53563 0.09811 146 150 153
0.21128 -3.54407 0.10558 148 150 145
0.20886 -3.55250 0.11304 144 149 136
0.20645 -3.56092 0.12050 144 151 145
0.20404 -3.56934 0.12795 147 153 144
0.20163 -3.57776 0.13540 149 153 137
0.19922 -3.58617 0.14284 138 134 134
0.19681 -3.59458 0.15029 138 141 137
0.19440 -3.60299 0.15772 148 155 147
0.19199 -3.61139 0.16516 147 151 151
0.18959 -3.61978 0.17259 145 144 149
0.18719 -3.62817 0.18002 152 148 153
0.17518 -3.67007 0.21709 145 155 150
0.17279 -3.67843 0.22450 151 157 149
0.17039 -3.68679 0.23190 137 139 138
0.16800 -3.69515 0.23930 142 147 128
0.16560 -3.70350 0.24669 133 133 127
0.16321 -3.71185 0.25408 137 147 130
0.16082 -3.72020 0.26146 141 143 139
0.15843 -3.72854 0.26884 138 141 128
0.15604 -3.73687 0.27622 127 128 127
0.15366 -3.74520 0.28360 123 123 125
0.15127 -3.75353 0.29097 130 132 127
0.14889 -3.76186 0.29833 126 124 125
0.14650 -3.77018 0.30570 130 136 130
0.14412 -3.77849 0.31306 138 138 124
0.14174 -3.78680 0.32041 137 137 131
0.13936 -3.79511 0.32776 141 141 138
0.13698 -3.80341 0.33511 131 126 131
0.13461 -3.81171 0.34246 125 126 117
0.13223 -3.82000 0.34980 132 136 117
0.12985 -3.82829 0.35713 128 132 117
0.12748 -3.83658 0.36447 135 138 120
0.12511 -3.84486 0.37180 122 114 110
0.12274 -3.85314 0.37912 123 120 112
0.12037 -3.86141 0.38645 134 135 124
0.11800 -3.86968 0.39376 139 142 132
0.11563 -3.87794 0.40108 134 134 135
0.11326 -3.88620 0.40839 130 130 130
0.11090 -3.89446 0.41570 126 129 126
0.10853 -3.90271 0.42300 122 123 118
0.10617 -3.91096 0.43030 112 113 107
0.10381 -3.91920 0.43760 117 123 117
0.10145 -3.92744 0.44489 128 129 123
0.09909 -3.93568 0.45218 121 120 111
0.09673 -3.94391 0.45946 123 126 110
0.09437 -3.95214 0.46675 132 134 117
0.09202 -3.96036 0.47402 127 131 121
0.08966 -3.96858 0.48130 121 128 124
0.08731 -3.97679 0.48857 122 128 125
0.08496 -3.98500 0.49584 131 137 127
0.08261 -3.99321 0.50310 140 143 127
0.08026 -4.00141 0.51036 131 139 110
0.07791 -4.00961 0.51762 121 134 105
0.07556 -4.01781 0.52487 132 140 130
0.07322 -4.02600 0.53212 142 143 132
0.07087 -4.03418 0.53936 133 132 121
0.06853 -4.04236 0.54660 124 124 116
0.06618 -4.05054 0.55384 128 132 125
0.06384 -4.05871 0.56108 129 127 124
0.06150 -4.06688 0.56831 120 120 118
0.05916 -4.07505 0.57553 113 118 116
0.05682 -4.08321 0.58276 116 119 117
0.05449 -4.09137 0.58998 124 127 126
0.05215 -4.09952 0.59719 133 135 131
0.04982 -4.10767 0.60440 141 138 137
0.04748 -4.11582 0.61161 129 129 123
0.04515 -4.12396 0.61882 125 129 128
0.04282 -4.13209 0.62602 130 132 124
0.04049 -4.14023 0.63322 123 124 114
0.03816 -4.14835 0.64041 113 117 117
0.03583 -4.15648 0.64760 129 135 129
0.03351 -4.16460 0.65479 124 117 122
0.03118 -4.17272 0.66197 121 116 114
0.02886 -4.18083 0.66915 120 125 123
0.02653 -4.18894 0.67633 124 129 123
0.02421 -4.19704 0.68350 122 121 107
0.02189 -4.20514 0.69067 122 126 117
0.01957 -4.21324 0.69784 126 124 119
0.01725 -4.22133 0.70500 116 117 114
0.01494 -4.22942 0.71216 116 118 112
0.01262 -4.23750 0.71931 116 118 116
0.01031 -4.24558 0.72647 115 113 112
0.00799 -4.25366 0.73361 116 118 117
0.00568 -4.26173 0.74076 127 131 125
0.00337 -4.26980 0.74790 129 127 123
0.00106 -4.27786 0.75504 124 122 115
-0.00125 -4.28592 0.76217 119 120 112
-0.00356 -4.29398 0.76930 117 119 114
-0.00586 -4.30203 0.77643 116 114 116
-0.00817 -4.31008 0.78355 120 117 114
-0.01047 -4.31812 0.79067 116 121 111
-0.01278 -4.32616 0.79778 121 116 111
-0.01508 -4.33420 0.80490 123 122 116
0.42066 -2.76631 -0.58231 177 183 189
0.41814 -2.77511 -0.57452 178 183 188
0.41563 -2.78391 -0.56674 183 189 189
0.41311 -2.79270 -0.55895 181 187 187
0.41060 -2.80149 -0.55118 177 183 188
0.39053 -2.87163 -0.48910 187 193 198
0.38803 -2.88038 -0.48136 186 192 200
0.38553 -2.88912 -0.47362 169 171 179
0.37055 -2.94148 -0.42728 174 177 188
0.36805 -2.95019 -0.41957 174 181 188
0.36556 -2.95890 -0.41186 164 175 181
0.36307 -2.96760 -0.40416 176 183 190
0.36059 -2.97630 -0.39646 182 188 187
0.35810 -2.98499 -0.38877 174 185 178
0.35561 -2.99368 -0.38108 168 172 171
0.35313 -3.00236 -0.37339 185 195 191
0.35065 -3.01104 -0.36571 180 188 179
0.34816 -3.01972 -0.35803 159 161 147
0.34568 -3.02839 -0.35036 160 168 167
0.34320 -3.03705 -0.34269 164 173 175
0.34073 -3.04572 -0.33502 166 173 176
0.33825 -3.05437 -0.32736 159 171 169
0.33577 -3.06303 -0.31970 174 185 170
0.33330 -3.07167 -0.31205 168 175 173
0.33083 -3.08032 -0.30440 168 178 178
0.32835 -3.08896 -0.29675 185 191 190
0.30125 -3.18370 -0.21290 158 162 160
0.29879 -3.19228 -0.20530 161 167 159
0.29634 -3.20086 -0.19771 170 180 172
0.27430 -3.27790 -0.12952 142 144 142
0.27186 -3.28644 -0.12197 140 147 147
0.26942 -3.29497 -0.11442 143 150 151
0.26698 -3.30350 -0.10687 151 155 160
0.26454 -3.31203 -0.09932 159 167 160
0.26210 -3.32055 -0.09178 166 173 169
0.25966 -3.32906 -0.08424 159 167 162
0.25723 -3.33757 -0.07671 149 161 160
0.25479 -3.34608 -0.06918 150 153 146
0.25236 -3.35458 -0.06166 170 179 176
0.24993 -3.36308 -0.05413 151 153 145
0.24750 -3.37158 -0.04662 151 157 153
0.24507 -3.38007 -0.03910 167 174 169
0.24264 -3.38855 -0.03159 167 173 170
0.24022 -3.39703 -0.02409 159 167 172
0.23779 -3.40551 -0.01658 160 170 171
0.23537 -3.41398 -0.00908 168 176 174
0.23295 -3.42245 -0.00159 174 178 172
0.23052 -3.43092 0.00590 161 166 148
0.22810 -3.43938 0.01339 158 164 153
0.22569 -3.44783 0.02087 160 163 152
0.22327 -3.45628 0.02835 161 165 151
0.22085 -3.46473 0.03583 155 154 151
0.21844 -3.47317 0.04330 154 152 154
0.21602 -3.48161 0.05077 157 160 156
0.21361 -3.49004 0.05823 142 142 144
0.21120 -3.49847 0.06569 141 145 149
0.20879 -3.50690 0.07315 152 158 156
0.20638 -3.51532 0.08060 145 145 143
0.20397 -3.52373 0.08805 135 136 138
0.20156 -3.53215 0.09550 144 150 152
0.19916 -3.54056 0.10294 149 154 151
0.19675 -3.54896 0.11038 146 150 145
0.19435 -3.55736 0.11781 147 154 152
0.19195 -3.56575 0.12524 155 161 144
0.18955 -3.57414 0.13267 156 156 136
0.18715 -3.58253 0.14009 137 137 131
0.18475 -3.59091 0.14751 133 136 126
0.18235 -3.59929 0.15492 141 149 138
0.17996 -3.60767 0.16234 140 142 141
0.17756 -3.61604 0.16974 141 142 145
0.17517 -3.62440 0.17715 147 146 153
0.15845 -3.68284 0.22887 138 140 137
0.15607 -3.69117 0.23624 147 152 123
0.15369 -3.69950 0.24361 137 137 129
0.15130 -3.70782 0.25098 134 143 126
0.14892 -3.71614 0.25834 138 144 129
0.14655 -3.72446 0.26570 134 137 125
0.14417 -3.73277 0.27306 121 121 123
0.14179 -3.74107 0.28041 122 125 113
0.13942 -3.74938 0.28776 120 121 120
0.13704 -3.75767 0.29510 114 112 118
0.13467 -3.76597 0.30244 124 128 124
0.13230 -3.77426 0.30978 136 141 134
0.12993 -3.78254 0.31711 133 128 127
0.12756 -3.79083 0.32444 137 139 136
0.12519 -3.79910 0.33177 127 124 126
0.12282 -3.80737 0.33909 125 130 120
0.12046 -3.81564 0.34641 126 133 121
0.11809 -3.82391 0.35372 132 142 124
0.11573 -3.83217 0.36103 141 147 126
0.11337 -3.84043 0.36834 132 133 121
0.11101 -3.84868 0.37564 132 135 128
0.10865 -3.85693 0.38294 143 149 131
0.10629 -3.86517 0.39024 139 147 128
0.10393 -3.87341 0.39753 130 132 132
0.10158 -3.88164 0.40482 132 135 134
0.09922 -3.88988 0.41211 133 140 128
0.09687 -3.89810 0.41939 130 133 124
0.09452 -3.90633 0.42667 114 115 116
0.09216 -3.91455 0.43394 115 117 120
0.08981 -3.92276 0.44121 129 132 130
0.08746 -3.93097 0.44848 127 132 125
0.08512 -3.93918 0.45574 123 128 118
0.08277 -3.94738 0.46300 126 128 116
0.08042 -3.95558 0.47026 127 130 117
0.07808 -3.96377 0.47751 126 129 121
0.07574 -3.97196 0.48476 123 128 125
0.07340 -3.98015 0.49200 126 133 127
0.07105 -3.98833 0.49925 135 136 127
0.06872 -3.99651 0.50648 138 139 125
0.06638 -4.00468 0.51372 134 140 124
0.06404 -4.01285 0.52095 131 139 132
0.06170 -4.02102 0.52817 130 139 134
0.05937 -4.02918 0.53540 131 137 130
0.05704 -4.03734 0.54262 135 141 124
0.05470 -4.04549 0.54983 130 134 120
0.05237 -4.05364 0.55705 123 124 116
0.05004 -4.06178 0.56426 121 126 119
0.04771 -4.06992 0.57146 118 126 120
0.04538 -4.07806 0.57866 123 133 131
0.04306 -4.08619 0.58586 124 127 129
0.04073 -4.09432 0.59305 127 134 134
0.03841 -4.10245 0.60025 131 135 128
0.03608 -4.11057 0.60743 120 121 114
0.03376 -4.11869 0.61462 117 123 121
0.03144 -4.12680 0.62180 120 122 120
0.02912 -4.13491 0.62897 117 120 114
0.02680 -4.14301 0.63615 114 118 119
0.02449 -4.15111 0.64332 130 134 128
0.02217 -4.15921 0.65048 129 124 120
0.01985 -4.16730 0.65764 124 115 113
0.01754 -4.17539 0.66480 113 116 119
0.01523 -4.18347 0.67196 121 128 119
0.01292 -4.19155 0.67911 127 129 115
0.01060 -4.19963 0.68626 125 125 124
0.00830 -4.20770 0.69340 125 121 123
0.00599 -4.21577 0.70054 120 116 117
0.00368 -4.22383 0.70768 125 124 114
0.00137 -4.23189 0.71481 127 124 118
-0.00093 -4.23995 0.72194 114 114 115
-0.00323 -4.24800 0.72907 102 108 113
-0.00554 -4.25605 0.73619 112 115 113
-0.00784 -4.26410 0.74331 120 122 122
-0.01014 -4.27214 0.75043 122 125 124
-0.01244 -4.28017 0.75754 122 122 115
-0.01474 -4.28820 0.76465 119 113 105
-0.01703 -4.29623 0.77176 111 102 99
-0.01933 -4.30426 0.77886 102 99 108
-0.02162 -4.31228 0.78596 103 104 109
-0.02392 -4.32029 0.79305 125 127 103
-0.02621 -4.32831 0.80014 125 122 105
0.40761 -2.76526 -0.58276 178 188 190
0.40511 -2.77403 -0.57500 177 185 192
0.40260 -2.78280 -0.56724 182 189 194
0.40010 -2.79156 -0.55948 182 187 190
0.39759 -2.80032 -0.55173 178 186 187
0.35525 -2.94855 -0.42054 178 189 187
0.35277 -2.95723 -0.41286 178 187 184
0.35029 -2.96590 -0.40518 183 190 194
0.34781 -2.97457 -0.39751 186 192 192
0.34534 -2.98324 -0.38984 170 180 171
0.34286 -2.99190 -0.38218 161 171 159
0.34039 -3.00056 -0.37452 166 174 171
0.33792 -3.00921 -0.36686 174 179 174
0.33545 -3.01785 -0.35920 173 182 175
0.33298 -3.02650 -0.35156 171 176 178
0.33051 -3.03514 -0.34391 171 174 176
0.32804 -3.04377 -0.33627 173 177 180
0.32558 -3.05240 -0.32863 163 172 181
0.32311 -3.06103 -0.32100 179 188 183
0.32065 -3.06965 -0.31337 172 179 183
0.31819 -3.07826 -0.30574 171 182 184
0.31573 -3.08687 -0.29812 180 190 190
0.28875 -3.18132 -0.21454 163 167 163
0.28630 -3.18987 -0.20696 155 162 155
0.28386 -3.19843 -0.19939 150 153 161
0.26192 -3.27522 -0.13142 160 166 160
0.25949 -3.28374 -0.12389 154 155 147
0.25706 -3.29224 -0.11636 158 175 167
0.25463 -3.30075 -0.10884 148 145 158
0.25220 -3.30924 -0.10131 157 167 164
0.24977 -3.31774 -0.09380 166 175 171
0.24735 -3.32623 -0.08628 149 155 158
0.24492 -3.33471 -0.07877 158 165 167
0.24250 -3.34319 -0.07127 158 161 162
0.24008 -3.35167 -0.06377 166 167 171
0.23766 -3.36014 -0.05627 166 175 166
0.23524 -3.36861 -0.04877 159 159 147
0.23282 -3.37707 -0.04128 169 173 158
0.23041 -3.38553 -0.03380 160 167 163
0.22799 -3.39399 -0.02631 146 160 161
0.22558 -3.40244 -0.01883 149 157 160
0.22316 -3.41088 -0.01136 156 162 168
0.22075 -3.41933 -0.00389 169 172 175
0.21834 -3.42776 0.00358 174 179 161
0.21593 -3.43620 0.01104 170 172 158
0.21352 -3.44463 0.01851 165 164 154
0.21112 -3.45305 0.02596 164 163 162
0.20871 -3.46147 0.03341 165 165 164
0.20631 -3.46989 0.04086 158 157 153
0.20390 -3.47830 0.04831 155 157 151
0.20150 -3.48671 0.05575 143 144 135
0.19910 -3.49511 0.06319 144 148 145
0.19670 -3.50351 0.07062 156 161 156
0.19430 -3.51190 0.07805 154 154 143
0.19190 -3.52030 0.08548 148 149 140
0.18951 -3.52868 0.09290 147 155 149
0.18711 -3.53706 0.10032 145 150 143
0.18472 -3.54544 0.10773 144 145 141
0.18233 -3.55382 0.11514 148 152 146
0.17994 -3.56219 0.12255 154 155 142
0.17755 -3.57055 0.12995 150 147 134
0.17516 -3.57891 0.13735 135 131 120
0.17277 -3.58727 0.14475 130 126 118
0.17038 -3.59562 0.15214 137 143 133
0.16800 -3.60397 0.15953 141 145 135
0.16562 -3.61231 0.16692 140 144 132
0.16323 -3.62065 0.17430 141 145 135
0.16085 -3.62899 0.18167 145 149 137
0.15609 -3.64565 0.19642 129 129 131
0.15371 -3.65397 0.20378 131 137 128
0.15134 -3.66229 0.21115 127 131 136
0.14896 -3.67060 0.21851 132 135 135
0.14659 -3.67891 0.22586 134 141 140
0.14421 -3.68722 0.23321 142 146 133
0.14184 -3.69552 0.24056 143 146 134
0.13947 -3.70382 0.24790 131 131 122
0.13710 -3.71211 0.25524 128 135 119
0.13473 -3.72040 0.26258 135 139 130
0.13237 -3.72869 0.26991 129 129 128
0.13000 -3.73697 0.27724 134 140 125
0.12764 -3.74525 0.28457 133 130 127
0.12527 -3.75352 0.29189 133 134 121
0.12291 -3.76179 0.29921 127 132 119
0.12055 -3.77005 0.30652 129 138 134
0.11819 -3.77831 0.31383 127 124 124
0.11583 -3.78657 0.32114 135 137 126
0.11347 -3.79482 0.32844 122 124 122
0.11112 -3.80307 0.33574 131 139 127
0.10876 -3.81131 0.34304 125 130 122
0.10641 -3.81955 0.35033 141 154 130
0.10406 -3.82779 0.35762 143 147 128
0.10170 -3.83602 0.36491 134 135 117
0.09935 -3.84425 0.37219 136 136 125
0.09700 -3.85247 0.37947 145 145 133
0.09466 -3.86069 0.38674 140 139 127
0.09231 -3.86890 0.39401 131 130 129
0.08996 -3.87712 0.40128 130 133 130
0.08762 -3.88532 0.40854 128 127 121
0.08528 -3.89352 0.41580 127 121 113
0.08293 -3.90172 0.42306 121 117 112
0.08059 -3.90992 0.43031 125 124 123
0.07825 -3.91811 0.43756 125 127 128
0.07591 -3.92629 0.44480 120 124 118
0.07358 -3.93447 0.45204 118 122 115
0.07124 -3.94265 0.45928 120 120 117
0.06890 -3.95083 0.46651 130 132 124
0.06657 -3.95900 0.47374 136 137 129
0.06424 -3.96716 0.48097 131 132 127
0.06191 -3.97532 0.48820 131 137 126
0.05957 -3.98348 0.49541 133 137 125
0.05725 -3.99163 0.50263 133 134 129
0.05492 -3.99978 0.50984 130 133 129
0.05259 -4.00793 0.51705 126 129 123
0.05026 -4.01607 0.52426 123 127 124
0.04794 -4.02421 0.53146 128 130 127
0.04562 -4.03234 0.53866 133 136 127
0.04329 -4.04047 0.54585 123 128 123
0.04097 -4.04859 0.55304 116 122 115
0.03865 -4.05672 0.56023 124 130 118
0.03633 -4.06483 0.56741 118 123 115
0.03402 -4.07294 0.57459 126 138 136
0.03170 -4.08105 0.58177 134 139 134
0.02938 -4.08916 0.58894 132 139 135
0.02707 -4.09726 0.59611 131 136 124
0.02476 -4.10536 0.60328 115 117 110
0.02244 -4.11345 0.61044 111 116 106
0.02013 -4.12154 0.61760 114 118 110
0.01782 -4.12962 0.62475 112 115 114
0.01552 -4.13770 0.63191 118 124 125
0.01321 -4.14578 0.63905 127 134 126
0.01090 -4.15385 0.64620 132 139 122
0.00860 -4.16192 0.65334 132 132 124
0.00629 -4.16998 0.66048 123 123 123
0.00399 -4.17804 0.66761 123 128 113
0.00169 -4.18610 0.67474 123 127 119
-0.00061 -4.19415 0.68187 122 121 121
-0.00291 -4.20220 0.68899 121 122 118
-0.00521 -4.21025 0.69611 123 128 122
-0.00751 -4.21829 0.70323 124 130 126
-0.00980 -4.22632 0.71034 122 126 126
-0.01210 -4.23436 0.71745 114 119 115
-0.01439 -4.24238 0.72455 108 114 106
-0.01668 -4.25041 0.73166 107 107 99
-0.01898 -4.25843 0.73876 110 109 106
-0.02127 -4.26645 0.74585 114 111 118
-0.02356 -4.27446 0.75294 123 122 121
-0.02584 -4.28247 0.76003 126 125 125
-0.02813 -4.29047 0.76711 116 119 115
-0.03042 -4.29847 0.77419 119 124 115
-0.03270 -4.30647 0.78127 117 118 111
-0.03498 -4.31446 0.78835 112 113 103
-0.03727 -4.32245 0.79542 111 109 103
0.39465 -2.76421 -0.58321 187 197 199
0.39216 -2.77296 -0.57547 185 193 196
0.38966 -2.78170 -0.56774 188 191 199
0.38717 -2.79044 -0.56000 186 187 198
0.38468 -2.79917 -0.55228 176 186 190
0.38219 -2.80789 -0.54455 179 191 189
0.34499 -2.93826 -0.42917 172 174 179
0.34252 -2.94692 -0.42151 184 189 185
0.34006 -2.95557 -0.41386 179 184 185
0.33759 -2.96422 -0.40620 181 191 189
0.33512 -2.97286 -0.39855 182 188 181
0.33266 -2.98150 -0.39091 177 190 182
0.33020 -2.99013 -0.38327 176 185 164
0.32773 -2.99876 -0.37563 164 172 170
0.32527 -3.00738 -0.36800 166 173 183
0.32281 -3.01600 -0.36037 184 194 192
0.32036 -3.02462 -0.35275 179 189 181
0.31790 -3.03323 -0.34512 173 180 177
0.31544 -3.04184 -0.33751 176 180 181
0.31299 -3.05044 -0.32989 159 161 183
0.31054 -3.05904 -0.32228 167 173 184
0.30809 -3.06763 -0.31468 170 178 183
0.30563 -3.07622 -0.30708 179 186 189
0.30319 -3.08481 -0.29948 184 194 196
0.30074 -3.09339 -0.29189 178 191 191
0.24962 -3.27257 -0.13331 168 174 172
0.24720 -3.28105 -0.12580 168 175 158
0.24478 -3.28953 -0.11829 161 166 164
0.24236 -3.29801 -0.11079 140 148 154
0.23994 -3.30648 -0.10329 149 159 164
0.23753 -3.31495 -0.09580 152 159 164
0.23511 -3.32341 -0.08831 151 159 166
0.23270 -3.33187 -0.08082 165 171 172
0.23029 -3.34032 -0.07334 162 166 172
0.22788 -3.34877 -0.06586 161 166 174
0.22547 -3.35722 -0.05839 172 172 174
0.22306 -3.36566 -0.05092 172 176 170
0.22065 -3.37410 -0.04345 159 159 158
0.21824 -3.38253 -0.03599 144 149 157
0.21584 -3.39096 -0.02853 145 153 154
0.21344 -3.39938 -0.02107 151 157 152
0.21103 -3.40780 -0.01362 157 161 161
0.20863 -3.41622 -0.00617 171 178 178
0.20623 -3.42463 0.00128 171 171 167
0.20383 -3.43304 0.00872 165 162 161
0.20144 -3.44144 0.01615 157 156 155
0.19904 -3.44984 0.02359 150 152 152
0.19665 -3.45823 0.03102 161 157 161
0.19425 -3.46662 0.03844 160 160 160
0.19186 -3.47501 0.04586 153 160 155
0.18947 -3.48339 0.05328 150 157 149
0.18708 -3.49177 0.06070 150 156 147
0.18469 -3.50014 0.06811 154 159 144
0.18230 -3.50851 0.07551 156 158 134
0.17991 -3.51688 0.08292 151 153 137
0.17753 -3.52524 0.09032 142 146 141
0.17515 -3.53360 0.09771 140 142 136
0.17276 -3.54195 0.10510 146 150 139
0.17038 -3.55030 0.11249 147 153 147
0.16800 -3.55864 0.11988 148 155 148
0.16562 -3.56698 0.12726 150 155 138
0.16324 -3.57531 0.13463 141 140 124
0.16087 -3.58365 0.14201 137 138 132
0.15849 -3.59197 0.14938 142 149 136
0.15612 -3.60030 0.15674 138 141 131
0.15374 -3.60861 0.16411 134 135 128
0.15137 -3.61693 0.17146 135 138 133
0.14900 -3.62524 0.17882 149 153 147
0.14663 -3.63354 0.18617 147 150 140
0.14426 -3.64185 0.19352 141 142 137
0.14189 -3.65014 0.20086 137 141 135
0.13953 -3.65844 0.20820 131 136 137
0.13716 -3.66673 0.21554 135 136 127
0.13480 -3.67501 0.22287 135 141 140
0.13244 -3.68329 0.23020 134 136 131
0.13007 -3.69157 0.23752 131 130 127
0.12771 -3.69984 0.24485 127 134 123
0.12536 -3.70811 0.25216 128 136 119
0.12300 -3.71638 0.25948 143 151 140
0.12064 -3.72464 0.26679 142 148 143
0.11829 -3.73289 0.27410 151 157 145
0.11593 -3.74114 0.28140 150 148 138
0.11358 -3.74939 0.28870 140 134 130
0.11123 -3.75764 0.29599 124 129 124
0.10888 -3.76587 0.30329 113 118 129
0.10653 -3.77411 0.31057 118 126 122
0.10418 -3.78234 0.31786 124 131 117
0.10183 -3.79057 0.32514 117 127 120
0.09948 -3.79879 0.33242 132 144 134
0.09714 -3.80701 0.33969 120 122 117
0.09480 -3.81523 0.34696 129 136 120
0.09245 -3.82344 0.35423 133 139 122
0.09011 -3.83164 0.36149 124 117 107
0.08777 -3.83985 0.36875 133 135 124
0.08543 -3.84804 0.37601 143 142 134
0.08309 -3.85624 0.38326 143 138 134
0.08076 -3.86443 0.39051 138 135 137
0.07842 -3.87261 0.39775 122 124 124
0.07609 -3.88080 0.40499 117 115 116
0.07375 -3.88897 0.41223 124 123 107
0.07142 -3.89715 0.41947 125 123 108
0.06909 -3.90532 0.42670 133 134 127
0.06676 -3.91348 0.43392 131 132 127
0.06443 -3.92164 0.44115 117 114 109
0.06211 -3.92980 0.44837 112 111 108
0.05978 -3.93796 0.45558 120 122 119
0.05746 -3.94611 0.46279 131 135 135
0.05513 -3.95425 0.47000 135 139 135
0.05281 -3.96239 0.47721 130 133 122
0.05049 -3.97053 0.48441 128 134 120
0.04817 -3.97866 0.49161 125 130 122
0.04585 -3.98679 0.49880 123 127 123
0.04353 -3.99492 0.50599 127 131 122
0.04121 -4.00304 0.51318 126 125 115
0.03890 -4.01115 0.52036 127 125 115
0.03658 -4.01927 0.52755 132 130 122
0.03427 -4.02738 0.53472 127 128 127
0.03196 -4.03548 0.54189 125 131 130
0.02964 -4.04358 0.54906 125 132 123
0.02734 -4.05168 0.55623 132 134 119
0.02503 -4.05977 0.56339 122 127 114
0.02272 -4.06786 0.57055 127 132 125
0.02041 -4.07594 0.57771 136 140 137
0.01811 -4.08402 0.58486 138 141 133
0.01580 -4.09210 0.59201 132 135 124
0.01350 -4.10017 0.59915 120 121 115
0.01120 -4.10824 0.60629 115 115 100
0.00890 -4.11631 0.61343 117 122 106
0.00660 -4.12437 0.62056 118 121 114
0.00430 -4.13242 0.62769 123 126 122
0.00200 -4.14048 0.63482 120 125 118
-0.00030 -4.14853 0.64194 125 135 123
-0.00259 -4.15657 0.64906 131 135 125
-0.00489 -4.16461 0.65618 130 134 124
-0.00718 -4.17265 0.66329 124 128 114
-0.00947 -4.18068 0.67040 117 121 117
-0.01176 -4.18871 0.67751 120 127 122
-0.01405 -4.19673 0.68461 117 124 119
-0.01634 -4.20476 0.69171 122 126 122
-0.01863 -4.21277 0.69880 122 123 120
-0.02091 -4.22079 0.70589 117 118 116
-0.02320 -4.22879 0.71298 115 120 115
-0.02548 -4.23680 0.72007 115 121 108
-0.02776 -4.24480 0.72715 111 115 102
-0.03004 -4.25280 0.73423 108 110 105
-0.03232 -4.26079 0.74130 105 109 110
-0.03460 -4.26878 0.74837 111 117 114
-0.03688 -4.27676 0.75544 117 120 115
-0.03916 -4.28475 0.76250 109 109 103
-0.04144 -4.29272 0.76956 112 117 108
-0.04371 -4.30070 0.77662 114 118 107
-0.04598 -4.30867 0.78367 98 106 102
-0.04826 -4.31663 0.79072 102 100 108
0.38426 -2.75445 -0.59138 190 195 202
0.38177 -2.76318 -0.58366 188 194 201
0.37929 -2.77189 -0.57594 184 192 196
0.37681 -2.78061 -0.56823 185 187 192
0.37433 -2.78931 -0.56053 183 185 190
0.37185 -2.79802 -0.55282 176 185 190
0.36937 -2.80672 -0.54512 174 184 187
0.36689 -2.81541 -0.53743 175 181 188
0.33234 -2.93667 -0.43011 184 189 187
0.32988 -2.94530 -0.42248 183 182 185
0.32743 -2.95392 -0.41484 165 176 182
0.32497 -2.96254 -0.40722 160 178 182
0.32252 -2.97116 -0.39959 173 185 174
0.32006 -2.97977 -0.39197 166 169 167
0.31761 -2.98837 -0.38435 185 196 191
0.31516 -2.99698 -0.37674 177 191 188
0.31271 -3.00557 -0.36913 156 154 183
0.31026 -3.01417 -0.36153 179 188 187
0.30782 -3.02275 -0.35393 176 183 183
0.30537 -3.03134 -0.34633 171 177 178
0.30293 -3.03992 -0.33874 166 166 170
0.30048 -3.04849 -0.33115 153 154 166
0.29804 -3.05706 -0.32356 157 164 167
0.29560 -3.06563 -0.31598 159 172 171
0.29316 -3.07419 -0.30840 161 169 172
0.29072 -3.08275 -0.30083 166 174 178
0.28828 -3.09130 -0.29326 170 173 177
0.28585 -3.09985 -0.28569 157 159 168
0.23980 -3.26146 -0.14267 148 152 151
0.23739 -3.26992 -0.13518 155 158 165
0.23498 -3.27838 -0.12769 173 176 176
0.23258 -3.28684 -0.12021 164 165 166
0.23017 -3.29528 -0.11273 143 147 154
0.22776 -3.30373 -0.10526 153 169 169
0.22536 -3.31217 -0.09779 151 156 157
0.22295 -3.32061 -0.09032 159 170 164
0.22055 -3.32904 -0.08286 163 167 168
0.21815 -3.33747 -0.07540 160 169 177
0.21575 -3.34589 -0.06795 160 169 171
0.21335 -3.35431 -0.06049 153 158 155
0.21095 -3.36273 -0.05305 152 156 164
0.20856 -3.37114 -0.04560 143 147 155
0.20616 -3.37955 -0.03816 135 145 152
0.20377 -3.38795 -0.03072 141 147 147
0.20137 -3.39635 -0.02329 150 154 149
0.19898 -3.40474 -0.01586 157 157 158
0.19659 -3.41313 -0.00844 171 175 180
0.19420 -3.42152 -0.00102 167 166 168
0.19181 -3.42990 0.00640 165 165 165
0.18943 -3.43828 0.01382 157 159 160
0.18704 -3.44665 0.02123 149 157 161
0.18466 -3.45502 0.02863 160 162 160
0.18227 -3.46338 0.03604 161 166 160
0.17989 -3.47174 0.04343 154 161 159
0.17751 -3.48010 0.05083 151 157 155
0.17513 -3.48845 0.05822 159 163 152
0.17275 -3.49680 0.06561 158 158 143
0.17038 -3.50514 0.07299 149 145 131
0.16800 -3.51348 0.08037 145 144 133
0.16563 -3.52182 0.08775 141 144 142
0.16325 -3.53015 0.09512 142 148 144
0.16088 -3.53847 0.10249 148 156 146
0.15851 -3.54680 0.10986 148 156 150
0.15614 -3.55512 0.11722 151 156 152
0.15377 -3.56343 0.12458 156 158 146
0.15140 -3.57174 0.13193 149 152 138
0.14904 -3.58005 0.13928 146 156 148
0.14667 -3.58835 0.14663 146 154 140
0.14431 -3.59664 0.15397 135 138 130
0.14194 -3.60494 0.16131 131 133 129
0.13958 -3.61323 0.16865 134 138 133
0.13722 -3.62151 0.17598 141 138 137
0.13486 -3.62979 0.18331 143 144 144
0.13250 -3.63807 0.19064 151 152 144
0.13015 -3.64634 0.19796 152 155 148
0.12779 -3.65461 0.20527 150 154 143
0.12544 -3.66287 0.21259 145 146 125
0.12308 -3.67113 0.21990 137 137 136
0.12073 -3.67939 0.22720 129 129 124
0.11838 -3.68764 0.23451 123 126 117
0.11603 -3.69589 0.24181 128 139 129
0.11368 -3.70413 0.24910 132 144 133
0.11133 -3.71237 0.25639 140 148 140
0.10899 -3.72061 0.26368 137 141 148
0.10664 -3.72884 0.27097 153 161 149
0.10430 -3.73707 0.27825 151 151 140
0.10196 -3.74529 0.28553 134 134 135
0.09961 -3.75351 0.29280 126 129 131
0.09727 -3.76172 0.30007 117 121 124
0.09493 -3.76993 0.30734 119 122 115
0.09260 -3.77814 0.31460 130 139 115
0.09026 -3.78634 0.32186 131 138 125
0.08792 -3.79454 0.32911 142 145 140
0.08559 -3.80274 0.33637 126 132 127
0.08326 -3.81093 0.34361 124 130 113
0.08092 -3.81911 0.35086 129 137 125
0.07859 -3.82729 0.35810 117 117 111
0.07626 -3.83547 0.36534 128 132 126
0.07393 -3.84364 0.37257 141 147 132
0.07161 -3.85181 0.37980 142 147 135
0.06928 -3.85998 0.38703 140 142 140
0.06695 -3.86814 0.39425 126 128 124
0.06463 -3.87630 0.40147 119 118 113
0.06231 -3.88445 0.40869 121 123 105
0.05998 -3.89260 0.41590 123 131 112
0.05766 -3.90075 0.42311 129 136 124
0.05534 -3.90889 0.43031 131 132 123
0.05303 -3.91703 0.43752 128 127 114
0.05071 -3.92516 0.44471 124 120 110
0.04839 -3.93329 0.45191 122 123 120
0.04608 -3.94141 0.45910 133 138 133
0.04376 -3.94953 0.46629 140 141 133
0.04145 -3.95765 0.47347 133 138 125
0.03914 -3.96576 0.48065 133 140 124
0.03683 -3.97387 0.48783 129 133 121
0.03452 -3.98198 0.49500 124 128 120
0.03221 -3.99008 0.50217 128 134 122
0.02991 -3.99818 0.50933 127 128 120
0.02760 -4.00627 0.51650 126 127 122
0.02530 -4.01436 0.52366 122 125 122
0.02299 -4.02244 0.53081 118 127 124
0.02069 -4.03052 0.53796 128 140 136
0.01839 -4.03860 0.54511 134 138 132
0.01609 -4.04667 0.55225 132 131 121
0.01379 -4.05474 0.55940 123 127 113
0.01149 -4.06281 0.56653 125 130 116
0.00919 -4.07087 0.57367 129 134 132
0.00690 -4.07892 0.58080 131 136 127
0.00460 -4.08698 0.58792 125 131 127
0.00231 -4.09503 0.59505 125 130 125
0.00002 -4.10307 0.60217 123 123 112
-0.00227 -4.11111 0.60928 123 121 117
-0.00456 -4.11915 0.61640 127 128 124
-0.00685 -4.12718 0.62351 128 129 119
-0.00914 -4.13521 0.63061 115 121 113
-0.01142 -4.14324 0.63771 119 128 122
-0.01371 -4.15126 0.64481 125 132 123
-0.01599 -4.15927 0.65191 127 134 123
-0.01828 -4.16729 0.65900 123 127 118
-0.02056 -4.17530 0.66609 121 120 119
-0.02284 -4.18330 0.67317 126 135 126
-0.02512 -4.19130 0.68025 121 128 125
-0.02740 -4.19930 0.68733 125 125 124
-0.02967 -4.20729 0.69441 124 120 119
-0.03195 -4.21528 0.70148 113 113 111
-0.03423 -4.22327 0.70854 112 120 118
-0.03650 -4.23125 0.71561 119 129 116
-0.03877 -4.23923 0.72267 126 134 109
-0.04104 -4.24720 0.72972 127 130 103
-0.04332 -4.25517 0.73678 114 116 104
-0.04559 -4.26314 0.74383 105 106 104
-0.04785 -4.27110 0.75087 111 123 120
-0.05012 -4.27906 0.75792 121 132 109
-0.05239 -4.28701 0.76496 119 127 110
-0.05465 -4.29496 0.77199 117 124 118
-0.05692 -4.30291 0.77903 123 125 119
-0.05918 -4.31085 0.78605 114 114 103
0.37145 -2.75345 -0.59180 190 198 201
0.36898 -2.76214 -0.58410 185 187 199
0.36650 -2.77083 -0.57641 178 181 195
0.36156 -2.78820 -0.56104 182 185 190
0.35910 -2.79687 -0.55336 180 183 191
0.35663 -2.80555 -0.54569 176 181 189
0.35416 -2.81421 -0.53802 172 181 185
0.31977 -2.93509 -0.43105 186 192 191
0.31732 -2.94369 -0.42343 185 190 190
0.31488 -2.95229 -0.41583 171 178 177
0.31243 -2.96088 -0.40822 154 171 181
0.30999 -2.96947 -0.40062 169 175 175
0.30755 -2.97805 -0.39303 164 163 178
0.30511 -2.98663 -0.38543 186 201 199
0.30267 -2.99520 -0.37784 187 194 190
0.30023 -3.00377 -0.37026 165 172 184
0.29779 -3.01234 -0.36268 181 189 188
0.29535 -3.02090 -0.35510 190 199 195
0.29292 -3.02946 -0.34753 186 191 191
0.29049 -3.03801 -0.33996 171 181 177
0.28805 -3.04656 -0.33239 164 165 160
0.28562 -3.05510 -0.32483 167 176 173
0.28319 -3.06364 -0.31728 163 169 168
0.28076 -3.07218 -0.30972 147 155 159
0.27834 -3.08071 -0.30217 143 153 163
0.27591 -3.08923 -0.29463 159 171 185
0.27349 -3.09776 -0.28708 174 185 192
0.23245 -3.24198 -0.15945 172 183 185
0.23005 -3.25042 -0.15198 170 178 175
0.22765 -3.25886 -0.14451 149 155 166
0.22525 -3.26730 -0.13704 153 155 154
0.22285 -3.27573 -0.12958 167 166 168
0.22045 -3.28416 -0.12212 166 163 165
0.21805 -3.29258 -0.11466 154 161 164
0.21566 -3.30100 -0.10721 156 163 158
0.21326 -3.30942 -0.09977 151 148 154
0.21087 -3.31783 -0.09232 148 158 175
0.20848 -3.32623 -0.08488 148 147 168
0.20609 -3.33463 -0.07745 152 163 177
0.20370 -3.34303 -0.07002 152 158 159
0.20131 -3.35143 -0.06259 149 157 156
0.19892 -3.35982 -0.05516 138 143 156
0.19654 -3.36820 -0.04774 136 145 146
0.19415 -3.37658 -0.04032 135 143 145
0.19177 -3.38496 -0.03291 146 151 149
0.18939 -3.39333 -0.02550 160 163 164
0.18701 -3.40170 -0.01809 163 169 168
0.18463 -3.41006 -0.01069 170 183 185
0.18225 -3.41842 -0.00329 160 157 166
0.17987 -3.42678 0.00410 166 167 169
0.17749 -3.43513 0.01149 154 158 156
0.17512 -3.44348 0.01888 151 152 152
0.17275 -3.45182 0.02626 154 156 153
0.17037 -3.46016 0.03364 154 161 150
0.16800 -3.46850 0.04102 149 156 150
0.16563 -3.47683 0.04839 139 142 151
0.16326 -3.48515 0.05576 147 146 155
0.16089 -3.49348 0.06313 155 154 153
0.15853 -3.50179 0.07049 153 151 145
0.15616 -3.51011 0.07785 150 147 142
0.15380 -3.51842 0.08520 147 151 147
0.15143 -3.52672 0.09255 149 160 149
0.14907 -3.53502 0.09990 150 155 142
0.14671 -3.54332 0.10724 147 147 141
0.14435 -3.55161 0.11458 152 154 153
0.14199 -3.55990 0.12192 156 159 159
0.13964 -3.56819 0.12925 151 155 149
0.13728 -3.57647 0.13658 144 147 143
0.13493 -3.58474 0.14390 142 144 132
0.13257 -3.59302 0.15122 139 140 131
0.13022 -3.60128 0.15854 138 141 131
0.12787 -3.60955 0.16585 146 154 136
0.12552 -3.61781 0.17316 137 134 124
0.12317 -3.62606 0.18047 130 125 122
0.12082 -3.63432 0.18777 148 153 148
0.11847 -3.64256 0.19507 149 148 146
0.11613 -3.65081 0.20237 144 146 139
0.11379 -3.65905 0.20966 145 154 136
0.11144 -3.66728 0.21695 142 147 138
0.10910 -3.67551 0.22423 139 136 123
0.10676 -3.68374 0.23151 136 141 120
0.10442 -3.69196 0.23879 135 142 131
