ply
format ascii 1.0
element face 0
property list uchar int vertex_indices
element vertex 1282
property float x
property float y
property float z
property uchar diffuse_red
property uchar diffuse_green
property uchar diffuse_blue
end_header
0.00000 0.00000 0.00000 255 255 255
-0.00912 0.00022 0.02990 255 255 255
-0.01580 0.00270 0.03466 255 255 255
-0.01880 0.00568 0.03750 255 255 255
-0.02183 0.00937 0.03941 255 255 255
-0.02462 0.01543 0.04625 0 0 0
-0.02690 0.02437 0.05581 0 0 0
-0.02802 0.02844 0.06104 0 0 0
-0.03291 0.03778 0.07412 0 0 0
-0.03673 0.04664 0.08515 0 0 0
-0.03958 0.05415 0.09070 0 0 0
-0.04626 0.06577 0.10217 0 0 0
-0.05264 0.07676 0.11324 0 0 0
-0.05722 0.07203 0.12660 0 0 0
-0.06392 0.09458 0.13228 0 0 0
-0.07254 0.10492 0.14569 0 0 0
-0.07774 0.08225 0.16314 0 0 0
-0.08699 0.08704 0.17353 255 255 255
-0.09228 0.08856 0.17941 255 255 255
-0.10245 0.09315 0.18974 255 255 255
-0.10874 0.09596 0.19523 255 255 255
-0.12171 0.10279 0.20961 255 255 255
-0.12890 0.10499 0.21771 0 0 0
-0.14348 0.11058 0.23193 0 0 0
-0.15116 0.11239 0.23977 0 0 0
-0.15995 0.11489 0.24580 0 0 0
-0.16789 0.11640 0.25195 0 0 0
-0.18251 0.11947 0.26470 0 0 0
-0.18973 0.12062 0.27087 0 0 0
-0.19698 0.12175 0.27762 0 0 0
-0.21285 0.12660 0.28885 0 0 0
-0.22085 0.12807 0.29563 0 0 0
-0.23790 0.13268 0.30556 0 0 0
-0.25493 0.13918 0.31412 0 0 0
-0.26439 0.14271 0.31757 255 255 255
-0.29010 0.14351 0.32349 255 255 255
-0.30348 0.14469 0.32572 255 255 255
-0.31604 0.14555 0.33053 255 255 255
-0.34192 0.15033 0.33569 255 255 255
-0.35426 0.15259 0.34049 0 0 0
-0.36673 0.15546 0.34410 0 0 0
-0.37815 0.15736 0.34757 0 0 0
-0.38992 0.15953 0.35169 0 0 0
-0.40271 0.16061 0.35632 0 0 0
-0.41578 0.16022 0.36029 0 0 0
-0.42898 0.16089 0.36316 0 0 0
-0.45024 0.16454 0.37036 0 0 0
-0.46275 0.16272 0.37466 0 0 0
-0.47455 0.16147 0.37739 0 0 0
-0.48658 0.15964 0.38068 0 0 0
-0.49749 0.15968 0.38152 0 0 0
-0.52120 0.15435 0.38583 0 0 0
-0.53112 0.15445 0.38818 0 0 0
-0.54202 0.15160 0.39113 255 255 255
-0.56286 0.14825 0.39612 255 255 255
-0.57311 0.14573 0.40018 255 255 255
-0.60509 0.13674 0.41449 255 255 255
-0.61456 0.13293 0.42125 255 255 255
-0.66562 0.10637 0.45757 0 0 0
-0.67155 0.10079 0.46556 0 0 0
-0.67753 0.09493 0.47176 0 0 0
-0.68182 0.08901 0.47834 0 0 0
-0.68587 0.08374 0.48484 0 0 0
-0.68997 0.07692 0.49080 0 0 0
-0.69309 0.06996 0.49724 0 0 0
-0.69548 0.06205 0.50433 0 0 0
-0.69661 0.05548 0.51128 0 0 0
-0.69697 0.04863 0.51965 0 0 0
-0.69835 0.04264 0.52721 255 255 255
-0.70085 0.03079 0.54492 255 255 255
-0.70456 0.01670 0.56652 255 255 255
-0.70509 0.00985 0.57931 255 255 255
-0.70753 0.00007 0.59283 255 255 255
-0.71045 -0.00988 0.60605 0 0 0
-0.71136 -0.02114 0.62121 0 0 0
-0.71342 -0.03427 0.63554 0 0 0
-0.71553 -0.04541 0.64840 0 0 0
-0.71803 -0.05728 0.66190 0 0 0
-0.72277 -0.06802 0.67393 0 0 0
-0.72884 -0.07965 0.68567 0 0 0
-0.73970 -0.10530 0.71188 0 0 0
-0.74629 -0.11884 0.72438 0 0 0
-0.75106 -0.13084 0.73713 0 0 0
-0.75629 -0.14213 0.75045 0 0 0
-0.76200 -0.15472 0.76375 0 0 0
-0.76991 -0.16564 0.77494 0 0 0
-0.77597 -0.17544 0.78520 0 0 0
-0.79002 -0.19553 0.80793 255 255 255
-0.80220 -0.21308 0.82551 255 255 255
-0.80775 -0.22180 0.83497 255 255 255
-0.81501 -0.22942 0.84258 255 255 255
-0.82045 -0.23727 0.85090 255 255 255
-0.82812 -0.24508 0.85882 0 0 0
-0.83385 -0.25176 0.86604 0 0 0
-0.83986 -0.25788 0.87348 0 0 0
-0.84629 -0.26316 0.88017 0 0 0
-0.85322 -0.26943 0.88659 0 0 0
-0.85966 -0.27567 0.89300 0 0 0
-0.86643 -0.28144 0.89928 0 0 0
-0.87337 -0.28573 0.90416 0 0 0
-0.88009 -0.29061 0.91030 0 0 0
-0.88847 -0.29593 0.91568 0 0 0
-0.89619 -0.30015 0.92093 0 0 0
-0.91364 -0.31132 0.93278 0 0 0
-0.92359 -0.31604 0.93704 0 0 0
-0.93124 -0.32065 0.94223 0 0 0
-0.94250 -0.32723 0.94858 255 255 255
-0.95319 -0.33303 0.95304 255 255 255
-0.96237 -0.33814 0.95744 255 255 255
-0.97141 -0.34306 0.96163 255 255 255
-1.00800 -0.36218 0.97553 255 255 255
-1.02048 -0.36984 0.98061 0 0 0
-1.03226 -0.37324 0.98201 0 0 0
-1.04407 -0.37509 0.98365 0 0 0
-1.05627 -0.37618 0.98492 0 0 0
-1.06972 -0.37999 0.98859 0 0 0
-1.07885 -0.38471 0.99275 0 0 0
-1.08726 -0.39090 0.99896 0 0 0
-1.11917 -0.40261 1.00526 0 0 0
-1.13056 -0.40644 1.00664 0 0 0
-1.14233 -0.41044 1.00858 0 0 0
-1.15396 -0.41581 1.01107 0 0 0
-1.17275 -0.42765 1.01694 255 255 255
-1.19127 -0.43972 1.02375 255 255 255
-1.20017 -0.44512 1.02714 255 255 255
-1.20794 -0.45112 1.02968 255 255 255
-1.21500 -0.45620 1.03231 255 255 255
-1.22224 -0.46103 1.03491 255 255 255
-1.22810 -0.46622 1.03808 255 255 255
-1.23240 -0.46979 1.04208 0 0 0
-1.23719 -0.47507 1.04858 0 0 0
-1.24257 -0.47975 1.05510 0 0 0
-1.24791 -0.48398 1.06183 0 0 0
-1.25301 -0.49090 1.07036 0 0 0
-1.25668 -0.49750 1.07891 0 0 0
-1.25945 -0.50341 1.08768 0 0 0
-1.26296 -0.51225 1.09910 0 0 0
-1.26630 -0.52052 1.10889 255 255 255
-1.26789 -0.55151 1.14687 255 255 255
-1.26797 -0.55848 1.15504 255 255 255
-1.26673 -0.56345 1.16287 255 255 255
-1.26621 -0.57124 1.17242 255 255 255
-1.26567 -0.57645 1.18012 255 255 255
-1.26510 -0.58090 1.18738 255 255 255
-1.26531 -0.58687 1.19660 255 255 255
-1.26468 -0.58899 1.20205 0 0 0
-1.26472 -0.59212 1.20901 0 0 0
-1.26337 -0.59422 1.21407 0 0 0
-1.25908 -0.59783 1.22293 0 0 0
-1.25460 -0.59795 1.22848 0 0 0
-1.25303 -0.59532 1.22962 0 0 0
-1.25093 -0.59362 1.23163 0 0 0
-1.24834 -0.59088 1.23352 0 0 0
-1.24461 -0.58744 1.23358 0 0 0
-1.23996 -0.58128 1.23133 0 0 0
-1.23672 -0.57348 1.22827 0 0 0
-1.23197 -0.56578 1.22395 0 0 0
-1.22567 -0.55638 1.21793 0 0 0
-1.22026 -0.54647 1.21239 0 0 0
-1.21289 -0.53547 1.20432 0 0 0
-1.19771 -0.51005 1.19049 0 0 0
-1.19156 -0.49987 1.18564 0 0 0
-1.18318 -0.48541 1.17711 255 255 255
-1.17876 -0.47410 1.17316 255 255 255
-1.17346 -0.46038 1.16569 255 255 255
-1.16648 -0.44547 1.15965 255 255 255
-1.16281 -0.43452 1.15566 255 255 255
-1.15795 -0.42102 1.14814 0 0 0
-1.15215 -0.40719 1.14212 0 0 0
-1.14842 -0.39441 1.13688 0 0 0
-1.14561 -0.38198 1.12976 0 0 0
-1.14219 -0.36672 1.12117 0 0 0
-1.13890 -0.35543 1.11319 0 0 0
-1.13415 -0.34368 1.10382 0 0 0
-1.12879 -0.33043 1.09458 0 0 0
-1.12409 -0.32011 1.08584 0 0 0
-1.11811 -0.30754 1.07586 0 0 0
-1.11220 -0.29512 1.06561 0 0 0
-1.10886 -0.28632 1.05400 0 0 0
-1.10714 -0.27625 1.03970 0 0 0
-1.10163 -0.26488 1.02736 0 0 0
-1.09547 -0.25581 1.01820 255 255 255
-1.08367 -0.23852 1.00000 255 255 255
-1.07757 -0.23020 0.99051 255 255 255
-1.07176 -0.22199 0.98186 255 255 255
-1.06111 -0.20754 0.96582 255 255 255
-1.05676 -0.19947 0.95795 0 0 0
-1.05259 -0.19326 0.94989 0 0 0
-1.04753 -0.18540 0.94120 0 0 0
-1.04357 -0.17757 0.93297 0 0 0
-1.03991 -0.17026 0.92479 0 0 0
-1.03591 -0.16169 0.91640 0 0 0
-1.03260 -0.15532 0.91049 0 0 0
-1.02561 -0.13984 0.89380 0 0 0
-1.02152 -0.13308 0.88789 0 0 0
-1.02020 -0.12819 0.88166 0 0 0
-1.01863 -0.12088 0.87155 0 0 0
-1.01905 -0.11568 0.86308 0 0 0
-1.01528 -0.10419 0.84891 0 0 0
-1.01256 -0.09772 0.84228 0 0 0
-1.01151 -0.09200 0.83710 0 0 0
-1.00742 -0.08099 0.82820 255 255 255
-1.00552 -0.07532 0.82375 255 255 255
-1.00398 -0.06984 0.81969 255 255 255
-1.00267 -0.06579 0.81661 255 255 255
-1.00128 -0.06106 0.81346 255 255 255
-1.00088 -0.05808 0.81137 255 255 255
-1.00060 -0.05405 0.80923 255 255 255
-1.00149 -0.05279 0.80813 255 255 255
-1.00329 -0.05168 0.80680 255 255 255
-1.00508 -0.05132 0.80583 255 255 255
-1.00825 -0.05405 0.80799 255 255 255
-1.01119 -0.05628 0.80876 255 255 255
-1.01497 -0.06014 0.81093 255 255 255
-1.01966 -0.06524 0.81408 0 0 0
-1.02392 -0.07249 0.81907 0 0 0
-1.02764 -0.07880 0.82302 0 0 0
-1.03071 -0.08629 0.82883 0 0 0
-1.03410 -0.09431 0.83634 0 0 0
-1.03832 -0.10256 0.84440 0 0 0
-1.04167 -0.11109 0.85282 0 0 0
-1.04475 -0.12022 0.86261 0 0 0
-1.04859 -0.13041 0.87334 0 0 0
-1.05215 -0.14045 0.88292 0 0 0
-1.05557 -0.15081 0.89424 0 0 0
-1.05899 -0.16283 0.90757 0 0 0
-1.06206 -0.17469 0.92016 0 0 0
-1.06512 -0.18626 0.93312 0 0 0
-1.07018 -0.21156 0.96285 0 0 0
-1.07193 -0.22618 0.97973 0 0 0
-1.07413 -0.23877 0.99453 0 0 0
-1.07516 -0.25203 1.01025 0 0 0
-1.07606 -0.26462 1.02758 255 255 255
-1.07704 -0.27809 1.04300 255 255 255
-1.07787 -0.28978 1.05635 255 255 255
-1.07896 -0.30415 1.07446 255 255 255
-1.08091 -0.31838 1.08884 255 255 255
-1.08241 -0.34317 1.11394 0 0 0
-1.08225 -0.35428 1.12488 0 0 0
-1.08239 -0.36614 1.13568 0 0 0
-1.08198 -0.37737 1.14544 0 0 0
-1.08222 -0.38852 1.15403 0 0 0
-1.08249 -0.39816 1.16189 0 0 0
-1.08265 -0.40841 1.16921 0 0 0
-1.08230 -0.41753 1.17632 0 0 0
-1.08173 -0.42695 1.18357 0 0 0
-1.08036 -0.43706 1.19161 0 0 0
-1.07901 -0.44774 1.19971 0 0 0
-1.07854 -0.45640 1.20687 0 0 0
-1.07679 -0.46465 1.21331 0 0 0
-1.07454 -0.47204 1.21985 255 255 255
-1.07344 -0.49015 1.23233 255 255 255
-1.06945 -0.49901 1.24039 255 255 255
-1.06470 -0.50746 1.24839 255 255 255
-1.05960 -0.51485 1.25617 255 255 255
-1.05228 -0.52411 1.26671 0 0 0
-1.04613 -0.53082 1.27492 0 0 0
-1.03891 -0.53642 1.28351 0 0 0
-1.03625 -0.54506 1.29088 0 0 0
-1.03316 -0.55230 1.29820 0 0 0
-1.02857 -0.55734 1.30515 0 0 0
-1.02537 -0.56436 1.31284 0 0 0
-1.02192 -0.57073 1.32028 0 0 0
-1.01722 -0.57663 1.32835 0 0 0
-1.00937 -0.58705 1.34190 0 0 0
-1.00565 -0.59211 1.34872 0 0 0
-1.00186 -0.59770 1.35490 0 0 0
-0.99712 -0.60194 1.36087 0 0 0
-0.99017 -0.60819 1.36953 0 0 0
-0.98348 -0.61346 1.37682 0 0 0
-0.98144 -0.61522 1.38023 0 0 0
-0.97780 -0.61886 1.38396 0 0 0
-0.97331 -0.62142 1.38642 0 0 0
-0.96779 -0.62471 1.39016 0 0 0
-0.96217 -0.62840 1.39364 0 0 0
-0.94853 -0.63409 1.40046 0 0 0
-0.94292 -0.63578 1.40214 0 0 0
-0.93757 -0.63784 1.40388 0 0 0
-0.93191 -0.63755 1.40508 0 0 0
-0.92548 -0.63911 1.40690 255 255 255
-0.90435 -0.63787 1.40742 255 255 255
-0.89693 -0.63658 1.40667 255 255 255
-0.88987 -0.63352 1.40475 255 255 255
-0.88272 -0.63002 1.40160 255 255 255
-0.86718 -0.61865 1.39318 255 255 255
-0.85873 -0.61518 1.38974 255 255 255
-0.84973 -0.60943 1.38520 255 255 255
-0.84155 -0.60292 1.38038 0 0 0
-0.82621 -0.58935 1.37003 0 0 0
-0.81911 -0.58196 1.36381 0 0 0
-0.81118 -0.57378 1.35762 0 0 0
-0.80490 -0.56274 1.35056 0 0 0
-0.79234 -0.54117 1.33530 0 0 0
-0.78628 -0.53037 1.32771 0 0 0
-0.77576 -0.51076 1.31108 0 0 0
-0.76897 -0.50065 1.30296 0 0 0
-0.76383 -0.49098 1.29376 0 0 0
-0.75771 -0.48021 1.28541 0 0 0
-0.75679 -0.47393 1.27438 0 0 0
-0.75129 -0.46331 1.26504 0 0 0
-0.74675 -0.45285 1.25550 0 0 0
-0.74227 -0.44246 1.24668 0 0 0
-0.73788 -0.43461 1.23807 0 0 0
-0.73452 -0.42742 1.22843 255 255 255
-0.72495 -0.41109 1.21155 255 255 255
-0.72155 -0.40435 1.20285 255 255 255
-0.71497 -0.38686 1.18389 255 255 255
-0.71114 -0.38007 1.17598 255 255 255
-0.70792 -0.37151 1.16722 255 255 255
-0.70517 -0.36366 1.15840 0 0 0
-0.70268 -0.35697 1.15046 0 0 0
-0.69936 -0.34833 1.14296 0 0 0
-0.69366 -0.33793 1.13042 0 0 0
-0.69252 -0.33058 1.12296 0 0 0
-0.69082 -0.32589 1.11587 0 0 0
-0.68924 -0.31969 1.10816 0 0 0
-0.68785 -0.31452 1.10037 0 0 0
-0.68550 -0.30986 1.09359 0 0 0
-0.68399 -0.30388 1.08621 0 0 0
-0.68190 -0.29879 1.07954 0 0 0
-0.67938 -0.29196 1.07321 0 0 0
-0.67752 -0.28549 1.06682 0 0 0
-0.67592 -0.27320 1.05316 0 0 0
-0.67420 -0.26975 1.04704 0 0 0
-0.67426 -0.25103 1.02117 0 0 0
-0.67825 -0.24307 1.01077 0 0 0
-0.69728 -0.22242 0.98639 0 0 0
-0.71683 -0.20880 0.96640 0 0 0
-0.72895 -0.20193 0.95343 0 0 0
-0.73705 -0.19905 0.94817 255 255 255
-0.75634 -0.19781 0.94073 255 255 255
-0.76202 -0.20066 0.93982 255 255 255
-0.77212 -0.19533 0.93624 255 255 255
-0.77870 -0.19821 0.93542 255 255 255
-0.78579 -0.20235 0.93445 255 255 255
-0.80017 -0.20442 0.93259 255 255 255
-0.80780 -0.20743 0.93213 0 0 0
-0.82380 -0.20718 0.92995 0 0 0
-0.83188 -0.20955 0.92995 0 0 0
-0.83937 -0.20945 0.93165 0 0 0
-0.84814 -0.21849 0.93577 0 0 0
-0.85689 -0.22060 0.93775 0 0 0
-0.87394 -0.22969 0.94497 0 0 0
-0.88206 -0.23494 0.94940 0 0 0
-0.89842 -0.24270 0.95716 0 0 0
-0.90664 -0.25221 0.96234 0 0 0
-0.92007 -0.25874 0.97195 0 0 0
-0.93493 -0.27344 0.98554 0 0 0
-0.94076 -0.27761 0.99391 0 0 0
-0.94934 -0.28756 1.00201 0 0 0
-0.96426 -0.30266 1.01705 0 0 0
-0.97089 -0.31359 1.02538 0 0 0
-0.97846 -0.31842 1.03138 0 0 0
-0.98538 -0.32375 1.03803 0 0 0
-0.99249 -0.33408 1.04636 0 0 0
-1.00639 -0.34887 1.06145 255 255 255
-1.03036 -0.38069 1.09280 255 255 255
-1.03326 -0.38910 1.10241 255 255 255
-1.03520 -0.39840 1.11353 255 255 255
-1.04127 -0.41825 1.13699 255 255 255
-1.04416 -0.42744 1.14779 0 0 0
-1.05025 -0.44345 1.16681 0 0 0
-1.05121 -0.45259 1.17786 0 0 0
-1.05175 -0.45987 1.18876 0 0 0
-1.05535 -0.47238 1.20785 0 0 0
-1.05877 -0.48303 1.22616 0 0 0
-1.05957 -0.48769 1.23653 0 0 0
-1.06158 -0.49446 1.24679 0 0 0
-1.06414 -0.49672 1.25480 0 0 0
-1.06890 -0.50556 1.27152 0 0 0
-1.06977 -0.51737 1.28924 0 0 0
-1.06925 -0.52214 1.29842 0 0 0
-1.06755 -0.52772 1.30865 0 0 0
-1.06701 -0.54158 1.32665 255 255 255
-1.06087 -0.56356 1.35746 255 255 255
-1.05730 -0.56739 1.36570 255 255 255
-1.05587 -0.57648 1.37872 255 255 255
-1.05357 -0.58089 1.38599 255 255 255
-1.05174 -0.58459 1.39248 255 255 255
-1.05064 -0.58737 1.39844 255 255 255
-1.04850 -0.59205 1.40646 255 255 255
-1.04710 -0.59551 1.41297 0 0 0
-1.04428 -0.60214 1.42634 0 0 0
-1.04268 -0.60400 1.43280 0 0 0
-1.04214 -0.60933 1.43836 0 0 0
-1.03695 -0.61604 1.45202 0 0 0
-1.03516 -0.62330 1.45848 0 0 0
-1.03189 -0.62539 1.46580 0 0 0
-1.02765 -0.63140 1.47956 0 0 0
-1.02597 -0.63441 1.48635 0 0 0
-1.02462 -0.63414 1.49250 0 0 0
-1.02309 -0.64068 1.49862 0 0 0
-1.01675 -0.64764 1.51427 0 0 0
-1.01627 -0.65244 1.52025 0 0 0
-1.01238 -0.65735 1.52763 0 0 0
-1.00957 -0.65873 1.53519 0 0 0
-1.00924 -0.66389 1.54001 0 0 0
-1.00223 -0.66981 1.55299 0 0 0
-0.99933 -0.67302 1.55871 0 0 0
-0.99649 -0.67512 1.56538 0 0 0
-0.99440 -0.67958 1.57032 0 0 0
-0.98991 -0.68601 1.57706 0 0 0
-0.98444 -0.68868 1.58498 0 0 0
-0.97996 -0.69209 1.59107 0 0 0
-0.97726 -0.69926 1.59723 255 255 255
-0.97205 -0.70430 1.60826 255 255 255
-0.96904 -0.70638 1.61320 255 255 255
-0.96476 -0.70836 1.61964 255 255 255
-0.96177 -0.71581 1.62566 255 255 255
-0.95785 -0.71873 1.63117 255 255 255
-0.95320 -0.71926 1.63839 255 255 255
-0.95197 -0.72425 1.64441 255 255 255
-0.94919 -0.72818 1.65067 0 0 0
-0.94658 -0.73304 1.65791 0 0 0
-0.94709 -0.73969 1.66359 0 0 0
-0.94306 -0.74418 1.67070 0 0 0
-0.93836 -0.75110 1.68001 0 0 0
-0.93858 -0.75572 1.68585 0 0 0
-0.93234 -0.75975 1.69530 0 0 0
-0.92825 -0.76623 1.70512 0 0 0
-0.92822 -0.77101 1.71156 0 0 0
-0.92299 -0.77012 1.72033 0 0 0
-0.91874 -0.77504 1.73005 0 0 0
-0.92071 -0.78304 1.73693 0 0 0
-0.91749 -0.79114 1.74616 0 0 0
-0.91516 -0.79287 1.75417 0 0 0
-0.91577 -0.79469 1.75926 0 0 0
-0.91176 -0.79758 1.76705 0 0 0
-0.91055 -0.80528 1.77891 0 0 0
-0.90620 -0.81417 1.78554 0 0 0
-0.90596 -0.81750 1.79275 0 0 0
-0.90413 -0.82116 1.79766 0 0 0
-0.90129 -0.82382 1.80491 0 0 0
-0.89629 -0.82679 1.81143 0 0 0
-0.89523 -0.82981 1.81762 0 0 0
-0.89074 -0.83852 1.82590 0 0 0
-0.88798 -0.84400 1.83475 0 0 0
-0.88551 -0.84540 1.84280 0 0 0
-0.88286 -0.85115 1.85099 0 0 0
-0.88333 -0.85588 1.85793 0 0 0
-0.88148 -0.85843 1.86299 0 0 0
-0.87732 -0.86420 1.87053 0 0 0
-0.87260 -0.87138 1.88161 255 255 255
-0.86318 -0.87941 1.89611 255 255 255
-0.86342 -0.88610 1.90079 255 255 255
-0.85761 -0.88721 1.89840 255 255 255
-0.85558 -0.89014 1.89952 255 255 255
-0.85603 -0.89408 1.90168 255 255 255
-0.85628 -0.89557 1.89984 255 255 255
-0.85539 -0.89599 1.89921 255 255 255
-0.85430 -0.89484 1.90049 255 255 255
-0.85521 -0.89440 1.90246 255 255 255
-0.86155 -0.89907 1.90434 255 255 255
-0.86155 -0.89757 1.90427 255 255 255
-0.86732 -0.89867 1.90869 255 255 255
-0.87106 -0.90082 1.91167 255 255 255
-0.87123 -0.89949 1.91467 255 255 255
-0.87792 -0.90240 1.92138 255 255 255
-0.88266 -0.90498 1.92684 255 255 255
-0.88702 -0.90543 1.93038 0 0 0
-0.89449 -0.90648 1.93420 0 0 0
-0.90223 -0.90861 1.93577 0 0 0
-0.90803 -0.90893 1.93612 0 0 0
-0.91580 -0.90869 1.92855 0 0 0
-0.92334 -0.90685 1.92142 0 0 0
-0.93269 -0.90723 1.91780 0 0 0
-0.94255 -0.90837 1.91606 0 0 0
-0.95326 -0.90862 1.91131 0 0 0
-0.96260 -0.90688 1.90546 0 0 0
-0.97037 -0.90413 1.89970 0 0 0
-0.97928 -0.90215 1.89220 0 0 0
-0.98869 -0.89910 1.88194 0 0 0
-0.99399 -0.89364 1.87063 0 0 0
-1.00118 -0.88817 1.85848 0 0 0
-1.01074 -0.88295 1.84682 0 0 0
-1.02565 -0.86690 1.82341 0 0 0
-1.03368 -0.85914 1.81312 0 0 0
-1.04251 -0.84935 1.80158 0 0 0
-1.05264 -0.83728 1.78846 0 0 0
-1.06296 -0.82733 1.77989 0 0 0
-1.07632 -0.81660 1.76760 0 0 0
-1.09520 -0.78772 1.73926 0 0 0
-1.11003 -0.77489 1.72664 0 0 0
-1.12468 -0.76330 1.71318 0 0 0
-1.13003 -0.74717 1.69919 0 0 0
-1.13846 -0.73188 1.68356 0 0 0
-1.14461 -0.71465 1.66603 0 0 0
-1.14946 -0.69881 1.64980 0 0 0
-1.15954 -0.68698 1.63719 0 0 0
-1.16703 -0.67564 1.62566 0 0 0
-1.17084 -0.66105 1.61119 0 0 0
-1.17653 -0.64771 1.59667 0 0 0
-1.18391 -0.63775 1.58520 255 255 255
-1.19452 -0.59876 1.54548 255 255 255
-1.20279 -0.57736 1.52075 255 255 255
-1.20200 -0.56308 1.50780 255 255 255
-1.21178 -0.55813 1.50122 255 255 255
-1.21247 -0.53627 1.47242 255 255 255
-1.21893 -0.53098 1.46605 0 0 0
-1.21937 -0.52158 1.45363 0 0 0
-1.21872 -0.51068 1.44117 0 0 0
-1.22392 -0.50403 1.43134 0 0 0
-1.22341 -0.49570 1.42108 0 0 0
-1.22086 -0.48336 1.40687 0 0 0
-1.22646 -0.47788 1.39872 0 0 0
-1.22600 -0.46843 1.38614 0 0 0
-1.21962 -0.45297 1.37281 0 0 0
-1.22384 -0.44589 1.36686 0 0 0
-1.22342 -0.44157 1.36292 0 0 0
-1.21981 -0.43274 1.35098 0 0 0
-1.21660 -0.42331 1.33952 0 0 0
-1.21954 -0.41872 1.33454 0 0 0
-1.21722 -0.40943 1.31892 0 0 0
-1.21549 -0.40075 1.30928 0 0 0
-1.21960 -0.39718 1.30538 0 0 0
-1.22139 -0.39160 1.29458 0 0 0
-1.21633 -0.38143 1.28105 255 255 255
-1.21916 -0.37136 1.26002 255 255 255
-1.21327 -0.35360 1.22935 255 255 255
-1.21135 -0.34756 1.21709 255 255 255
-1.21091 -0.34061 1.20715 255 255 255
-1.21001 -0.33475 1.20072 255 255 255
-1.20794 -0.32692 1.19066 255 255 255
-1.20620 -0.31967 1.17973 0 0 0
-1.20342 -0.31204 1.16594 0 0 0
-1.20187 -0.30400 1.15810 0 0 0
-1.20232 -0.29781 1.15117 0 0 0
-1.20082 -0.29083 1.13945 0 0 0
-1.19633 -0.28224 1.12523 0 0 0
-1.19543 -0.27578 1.11618 0 0 0
-1.19536 -0.27206 1.11409 0 0 0
-1.19170 -0.26033 1.10055 0 0 0
-1.18978 -0.25195 1.09033 0 0 0
-1.18678 -0.24764 1.08196 0 0 0
-1.18269 -0.24296 1.06710 0 0 0
-1.18208 -0.24130 1.06217 0 0 0
-1.18225 -0.24060 1.05813 0 0 0
-1.18418 -0.24173 1.05774 0 0 0
-1.18961 -0.24482 1.06225 0 0 0
-1.19348 -0.24841 1.06383 0 0 0
-1.20536 -0.25892 1.07947 0 0 0
-1.21590 -0.27111 1.09297 0 0 0
-1.22426 -0.27948 1.10551 0 0 0
-1.23438 -0.29701 1.12121 0 0 0
-1.24012 -0.30645 1.13244 0 0 0
-1.24441 -0.31598 1.14141 0 0 0
-1.25485 -0.33762 1.16531 0 0 0
-1.25852 -0.34906 1.17580 0 0 0
-1.26889 -0.37381 1.19745 0 0 0
-1.27172 -0.38586 1.20725 0 0 0
-1.27488 -0.39859 1.21758 0 0 0
-1.28346 -0.42461 1.24190 0 0 0
-1.28746 -0.43676 1.25027 0 0 0
-1.29567 -0.46048 1.26787 0 0 0
-1.29815 -0.47110 1.27351 0 0 0
-1.30315 -0.48319 1.28476 0 0 0
-1.30799 -0.49405 1.29656 0 0 0
-1.31546 -0.51606 1.32138 0 0 0
-1.32025 -0.52780 1.33567 0 0 0
-1.32463 -0.53960 1.34429 0 0 0
-1.33405 -0.56360 1.36596 0 0 0
-1.34221 -0.58605 1.38752 0 0 0
-1.34894 -0.59928 1.40464 0 0 0
-1.36234 -0.61665 1.42177 0 0 0
-1.37023 -0.62893 1.43681 0 0 0
-1.38243 -0.65406 1.46169 0 0 0
-1.38634 -0.66748 1.47815 0 0 0
-1.39257 -0.68190 1.49405 0 0 0
-1.39787 -0.69600 1.50658 0 0 0
-1.40733 -0.72483 1.53167 255 255 255
-1.42928 -0.79990 1.60345 255 255 255
-1.43376 -0.81511 1.61805 255 255 255
-1.44134 -0.83996 1.63813 255 255 255
-1.44489 -0.85394 1.65360 255 255 255
-1.44912 -0.86716 1.66649 0 0 0
-1.45340 -0.88019 1.67893 0 0 0
-1.45809 -0.90336 1.69741 0 0 0
-1.45974 -0.91364 1.71161 0 0 0
-1.46061 -0.92390 1.72096 0 0 0
-1.45932 -0.93305 1.72673 0 0 0
-1.45531 -0.95375 1.74158 0 0 0
-1.45263 -0.96481 1.75335 0 0 0
-1.44722 -0.97493 1.76461 0 0 0
-1.43454 -0.99244 1.78026 0 0 0
-1.42694 -1.00185 1.78714 0 0 0
-1.41775 -1.00891 1.77749 0 0 0
-1.40057 -1.02226 1.78707 0 0 0
-1.39261 -1.02961 1.79438 0 0 0
-1.38429 -1.03493 1.80156 0 0 0
-1.37607 -1.04169 1.81427 0 0 0
-1.35620 -1.05309 1.82409 0 0 0
-1.34487 -1.05825 1.82739 255 255 255
-1.30828 -1.06985 1.83714 255 255 255
-1.29704 -1.07427 1.84555 255 255 255
-1.28638 -1.08031 1.85464 255 255 255
-1.27474 -1.08350 1.85786 255 255 255
-1.26595 -1.08860 1.86492 255 255 255
-1.25783 -1.09291 1.87247 255 255 255
-1.25045 -1.09684 1.88442 255 255 255
-1.24639 -1.10394 1.89978 0 0 0
-1.24251 -1.11236 1.91216 0 0 0
-1.23761 -1.11861 1.91608 0 0 0
-1.23389 -1.12574 1.92570 0 0 0
-1.23048 -1.13573 1.93707 0 0 0
-1.22716 -1.14511 1.94345 0 0 0
-1.22391 -1.15372 1.94894 0 0 0
-1.22023 -1.16329 1.95612 0 0 0
-1.21746 -1.17469 1.96550 0 0 0
-1.21535 -1.18515 1.97750 0 0 0
-1.21378 -1.19706 1.99623 0 0 0
-1.21379 -1.20810 2.01272 0 0 0
-1.21524 -1.21979 2.02780 0 0 0
-1.21818 -1.23328 2.04507 0 0 0
-1.22016 -1.24419 2.05598 0 0 0
-1.22129 -1.25527 2.06615 0 0 0
-1.22290 -1.26717 2.08130 0 0 0
-1.23082 -1.30302 2.13118 0 0 0
-1.23449 -1.31671 2.14893 0 0 0
-1.24005 -1.32863 2.16512 0 0 0
-1.24505 -1.34205 2.18608 0 0 0
-1.24989 -1.35611 2.20376 0 0 0
-1.25502 -1.36956 2.21192 0 0 0
-1.25823 -1.38155 2.22409 0 0 0
-1.26076 -1.39356 2.24069 0 0 0
-1.26561 -1.40583 2.25257 255 255 255
-1.28930 -1.46791 2.32710 255 255 255
-1.29072 -1.48130 2.33580 255 255 255
-1.29287 -1.49311 2.34621 255 255 255
-1.29538 -1.50343 2.35642 255 255 255
-1.29845 -1.51413 2.36918 255 255 255
-1.30084 -1.52490 2.38196 255 255 255
-1.30272 -1.53356 2.39269 255 255 255
-1.30783 -1.54287 2.40384 0 0 0
-1.31110 -1.55303 2.41206 0 0 0
-1.31338 -1.56114 2.42080 0 0 0
-1.31797 -1.57235 2.43293 0 0 0
-1.32314 -1.58250 2.44771 0 0 0
-1.32512 -1.58799 2.45397 0 0 0
-1.32741 -1.59379 2.45887 0 0 0
-1.32502 -1.59409 2.46089 0 0 0
-1.33017 -1.60292 2.47087 0 0 0
-1.33434 -1.61088 2.47746 0 0 0
-1.34189 -1.62663 2.50247 0 0 0
-1.34429 -1.63277 2.50820 0 0 0
-1.34460 -1.63704 2.51471 0 0 0
-1.35182 -1.65104 2.52644 0 0 0
-1.35401 -1.65820 2.53483 0 0 0
-1.35509 -1.66383 2.53724 0 0 0
-1.35715 -1.66728 2.54197 0 0 0
-1.36275 -1.68074 2.55534 0 0 0
-1.36030 -1.68203 2.55441 0 0 0
-1.35963 -1.68646 2.56442 0 0 0
-1.36328 -1.70261 2.57807 0 0 0
-1.36222 -1.70669 2.58088 0 0 0
-1.36184 -1.70983 2.58537 0 0 0
-1.35695 -1.71331 2.58723 0 0 0
-1.35878 -1.71776 2.59408 0 0 0
-1.36494 -1.73343 2.60904 0 0 0
-1.36380 -1.73420 2.61197 0 0 0
-1.36555 -1.74051 2.62125 0 0 0
-1.36751 -1.74646 2.62603 0 0 0
-1.36505 -1.74483 2.62619 0 0 0
-1.36936 -1.74833 2.63092 255 255 255
-1.37453 -1.75348 2.63842 255 255 255
-1.38388 -1.75609 2.64197 255 255 255
-1.38097 -1.75855 2.63933 255 255 255
-1.38545 -1.75865 2.63910 255 255 255
-1.39234 -1.75765 2.63176 255 255 255
-1.39650 -1.75479 2.62701 255 255 255
-1.40921 -1.75221 2.62338 255 255 255
-1.41323 -1.74960 2.61411 255 255 255
-1.41047 -1.74280 2.60312 255 255 255
-1.42021 -1.73527 2.59416 255 255 255
-1.42309 -1.72928 2.58192 255 255 255
-1.42316 -1.72012 2.56919 255 255 255
-1.42860 -1.71052 2.55649 0 0 0
-1.43965 -1.70068 2.54432 0 0 0
-1.44535 -1.68761 2.53133 0 0 0
-1.44342 -1.67358 2.51332 0 0 0
-1.45140 -1.65834 2.49656 0 0 0
-1.46140 -1.64174 2.48014 0 0 0
-1.47051 -1.62466 2.46131 0 0 0
-1.47329 -1.60600 2.44037 0 0 0
-1.48506 -1.58708 2.42202 0 0 0
-1.50088 -1.55037 2.38428 0 0 0
-1.51692 -1.53142 2.36720 0 0 0
-1.52159 -1.51344 2.34794 0 0 0
-1.52800 -1.49412 2.32966 0 0 0
-1.53933 -1.47636 2.31155 0 0 0
-1.55422 -1.45979 2.29484 0 0 0
-1.56712 -1.44338 2.27951 0 0 0
-1.57808 -1.42820 2.26366 0 0 0
-1.58344 -1.41435 2.24623 0 0 0
-1.58987 -1.40209 2.23224 255 255 255
-1.61605 -1.35236 2.17598 255 255 255
-1.61768 -1.33874 2.16372 255 255 255
-1.62634 -1.32705 2.15211 255 255 255
-1.63909 -1.31413 2.14045 255 255 255
-1.63168 -1.30642 2.13241 255 255 255
-1.63119 -1.29516 2.12278 255 255 255
-1.63803 -1.28329 2.11187 0 0 0
-1.63280 -1.27423 2.10237 0 0 0
-1.62138 -1.26689 2.09466 0 0 0
-1.62073 -1.25540 2.08315 0 0 0
-1.61958 -1.24491 2.07196 0 0 0
-1.60910 -1.23811 2.06337 0 0 0
-1.59701 -1.21779 2.03969 0 0 0
-1.58125 -1.21002 2.02908 0 0 0
-1.57027 -1.20163 2.01715 0 0 0
-1.56005 -1.19187 2.00270 0 0 0
-1.54695 -1.18145 1.98910 0 0 0
-1.53531 -1.17222 1.97478 0 0 0
-1.51528 -1.14724 1.94273 0 0 0
-1.49673 -1.13470 1.93072 0 0 0
-1.48621 -1.11902 1.91525 0 0 0
-1.47482 -1.10211 1.90112 0 0 0
-1.46191 -1.08816 1.88937 0 0 0
-1.45195 -1.07157 1.87775 0 0 0
-1.44585 -1.05414 1.86375 0 0 0
-1.44226 -1.03661 1.85134 0 0 0
-1.43707 -1.02131 1.83897 0 0 0
-1.41957 -1.00910 1.83236 0 0 0
-1.41325 -0.99572 1.82291 0 0 0
-1.40519 -0.98386 1.81414 0 0 0
-1.39481 -0.97215 1.80638 255 255 255
-1.38931 -0.94698 1.78769 255 255 255
-1.38773 -0.93639 1.77788 255 255 255
-1.38650 -0.92747 1.76989 255 255 255
-1.38731 -0.91774 1.76025 255 255 255
-1.38284 -0.90946 1.75398 255 255 255
-1.37561 -0.90116 1.74749 255 255 255
-1.36581 -0.89317 1.74161 255 255 255
-1.36255 -0.88385 1.73450 0 0 0
-1.35938 -0.87317 1.72675 0 0 0
-1.35285 -0.86432 1.71991 0 0 0
-1.34808 -0.85478 1.71166 0 0 0
-1.34602 -0.84410 1.70282 0 0 0
-1.34383 -0.83301 1.69342 0 0 0
-1.34005 -0.82283 1.68498 0 0 0
-1.33592 -0.81232 1.67792 0 0 0
-1.33743 -0.79780 1.66630 0 0 0
-1.33656 -0.78448 1.65558 0 0 0
-1.33645 -0.77005 1.64284 0 0 0
-1.33836 -0.75489 1.62993 0 0 0
-1.33647 -0.73996 1.61880 0 0 0
-1.34102 -0.66966 1.57367 0 0 0
-1.34142 -0.65305 1.55981 0 0 0
-1.33713 -0.63848 1.55100 0 0 0
-1.34112 -0.61806 1.53774 0 0 0
-1.33891 -0.60246 1.52481 0 0 0
-1.33416 -0.58773 1.51402 0 0 0
-1.33599 -0.56725 1.49472 0 0 0
-1.32652 -0.53835 1.47343 0 0 0
-1.31994 -0.52462 1.46416 0 0 0
-1.32197 -0.50140 1.44345 0 0 0
-1.31519 -0.48778 1.43334 0 0 0
-1.30408 -0.47610 1.42692 0 0 0
-1.30345 -0.46126 1.41543 255 255 255
-1.26756 -0.41931 1.38051 255 255 255
-1.25308 -0.40856 1.36953 255 255 255
-1.22139 -0.39159 1.35539 255 255 255
-1.20487 -0.38405 1.34889 255 255 255
-1.19007 -0.37529 1.34230 255 255 255
-1.17195 -0.36816 1.33762 0 0 0
-1.15003 -0.36268 1.33498 0 0 0
-1.13018 -0.35644 1.33229 0 0 0
-1.11065 -0.34995 1.32630 0 0 0
-1.08932 -0.34336 1.32371 0 0 0
-1.06857 -0.33632 1.32169 0 0 0
-1.04552 -0.33009 1.32080 0 0 0
-0.99970 -0.31662 1.32020 0 0 0
-0.97849 -0.30943 1.31780 0 0 0
-0.95519 -0.30225 1.31674 0 0 0
-0.91552 -0.29378 1.31958 0 0 0
-0.89510 -0.28596 1.31831 0 0 0
-0.84914 -0.27852 1.31766 0 0 0
-0.82697 -0.27504 1.31812 0 0 0
-0.78997 -0.26669 1.31394 0 0 0
-0.76097 -0.25369 1.30803 0 0 0
-0.74945 -0.24605 1.30486 0 0 0
-0.73606 -0.23956 1.30301 0 0 0
-0.72178 -0.23320 1.30425 0 0 0
-0.69146 -0.22072 1.30755 0 0 0
-0.67713 -0.21438 1.30721 255 255 255
-0.62997 -0.18883 1.30542 255 255 255
-0.61543 -0.18214 1.30183 255 255 255
-0.60446 -0.17411 1.29909 255 255 255
-0.59144 -0.16538 1.29525 255 255 255
-0.58062 -0.15572 1.29451 255 255 255
-0.56827 -0.14521 1.29264 255 255 255
-0.55738 -0.13519 1.29034 255 255 255
-0.54497 -0.12429 1.28949 0 0 0
-0.53237 -0.11268 1.28732 0 0 0
-0.51870 -0.10164 1.28533 0 0 0
-0.50663 -0.09111 1.28419 0 0 0
-0.49823 -0.08125 1.28046 0 0 0
-0.48822 -0.07068 1.27705 0 0 0
-0.47656 -0.06078 1.27371 0 0 0
-0.46656 -0.05137 1.26915 0 0 0
-0.45576 -0.04308 1.26457 0 0 0
-0.43806 -0.02497 1.25756 0 0 0
-0.43065 -0.01609 1.25569 0 0 0
-0.41604 0.00037 1.24971 0 0 0
-0.40957 0.00723 1.24614 0 0 0
-0.40468 0.01570 1.24430 0 0 0
-0.40019 0.02282 1.24193 0 0 0
-0.39681 0.02958 1.24064 0 0 0
-0.39447 0.03543 1.23913 0 0 0
-0.39379 0.04009 1.23712 0 0 0
-0.39393 0.04408 1.23707 0 0 0
-0.39606 0.04727 1.23605 0 0 0
-0.39870 0.04927 1.23415 0 0 0
-0.40181 0.05127 1.23299 0 0 0
-0.40705 0.05418 1.23300 0 0 0
-0.41194 0.05690 1.23124 0 0 0
-0.41531 0.05866 1.23128 0 0 0
-0.42144 0.06119 1.23099 0 0 0
-0.43033 0.06158 1.22944 0 0 0
-0.43879 0.06220 1.22833 0 0 0
-0.44672 0.05973 1.22702 0 0 0
-0.45484 0.05695 1.22600 0 0 0
-0.46580 0.05427 1.22609 0 0 0
-0.47703 0.04829 1.22387 0 0 0
-0.48755 0.04118 1.22129 255 255 255
-0.54252 0.00556 1.22965 255 255 255
-0.55501 -0.00462 1.23300 255 255 255
-0.56781 -0.01429 1.23429 255 255 255
-0.58236 -0.02298 1.23886 255 255 255
-0.59963 -0.03075 1.24557 255 255 255
-0.62478 -0.04601 1.25054 255 255 255
-0.63850 -0.05249 1.25570 0 0 0
-0.65005 -0.05840 1.25724 0 0 0
-0.66246 -0.06493 1.25952 0 0 0
-0.67508 -0.07129 1.26180 0 0 0
-0.68539 -0.07721 1.26134 0 0 0
-0.69801 -0.08294 1.26334 0 0 0
-0.71131 -0.08802 1.26570 0 0 0
-0.72270 -0.09270 1.26509 0 0 0
-0.74487 -0.10282 1.26929 0 0 0
-0.75648 -0.10807 1.27060 0 0 0
-0.76772 -0.11376 1.27039 0 0 0
-0.77979 -0.11983 1.27088 0 0 0
-0.79319 -0.12570 1.27278 0 0 0
-0.81662 -0.13628 1.27289 0 0 0
-0.82751 -0.14016 1.27144 0 0 0
-0.83985 -0.14440 1.27345 0 0 0
-0.85242 -0.14778 1.27467 0 0 0
-0.86434 -0.15145 1.27532 0 0 0
-0.87835 -0.15420 1.27770 0 0 0
-0.88943 -0.15676 1.27797 0 0 0
-0.90042 -0.15861 1.27905 0 0 0
-0.91139 -0.15986 1.27972 0 0 0
-0.92336 -0.16142 1.28077 0 0 0
-0.93481 -0.16219 1.28083 0 0 0
-0.94525 -0.16243 1.28126 0 0 0
-0.95730 -0.16377 1.28319 0 0 0
-0.97105 -0.16432 1.28399 255 255 255
-0.99628 -0.16428 1.28385 255 255 255
-1.04228 -0.15926 1.28922 255 255 255
-1.07779 -0.15134 1.29215 255 255 255
-1.09835 -0.14690 1.29653 255 255 255
-1.11859 -0.14196 1.29702 255 255 255
-1.13930 -0.13656 1.29885 255 255 255
-1.15993 -0.13147 1.30255 255 255 255
-1.19969 -0.12064 1.30720 0 0 0
-1.21956 -0.11524 1.31261 0 0 0
-1.23955 -0.11010 1.31366 0 0 0
-1.26131 -0.10475 1.31168 0 0 0
-1.30597 -0.09444 1.30826 0 0 0
-1.35380 -0.08087 1.30508 0 0 0
-1.39220 -0.06868 1.31476 0 0 0
-1.40859 -0.06464 1.32157 0 0 0
-1.45286 -0.04710 1.33491 0 0 0
-1.48473 -0.02898 1.35828 0 0 0
-1.50163 -0.01811 1.37062 0 0 0
-1.51702 -0.01062 1.37740 0 0 0
-1.53376 -0.00260 1.38409 0 0 0
-1.54925 0.00368 1.38437 0 0 0
-1.57731 0.01468 1.40357 0 0 0
-1.59572 0.01873 1.40941 0 0 0
-1.60895 0.02128 1.41189 0 0 0
-1.62431 0.02388 1.41571 255 255 255
-1.67883 0.02305 1.43498 255 255 255
-1.70406 0.02027 1.45102 255 255 255
-1.71496 0.01554 1.45861 255 255 255
-1.72615 0.01006 1.46601 255 255 255
-1.74301 0.01073 1.47242 255 255 255
-1.75484 0.00502 1.48181 255 255 255
-1.76675 -0.00594 1.49046 0 0 0
-1.77951 -0.00997 1.49910 0 0 0
-1.79158 -0.01713 1.50887 0 0 0
-1.80185 -0.03183 1.51460 0 0 0
-1.81747 -0.03363 1.52112 0 0 0
-1.83243 -0.03514 1.52613 0 0 0
-1.84434 -0.04527 1.52843 0 0 0
-1.85955 -0.04986 1.53308 0 0 0
-1.88125 -0.06543 1.55694 0 0 0
-1.89530 -0.07353 1.56562 0 0 0
-1.91349 -0.06880 1.57522 0 0 0
-1.92679 -0.07554 1.57983 0 0 0
-1.95272 -0.08806 1.59531 0 0 0
-1.97856 -0.10339 1.60714 0 0 0
-1.99705 -0.09710 1.61406 0 0 0
-2.00826 -0.09831 1.62093 0 0 0
-2.02112 -0.10688 1.62746 0 0 0
-2.03530 -0.11055 1.63568 0 0 0
-2.05676 -0.12932 1.64736 0 0 0
-2.06979 -0.13737 1.65054 0 0 0
-2.08464 -0.13924 1.65567 0 0 0
-2.09303 -0.15317 1.65924 0 0 0
-2.10616 -0.15814 1.66527 0 0 0
-2.12194 -0.16089 1.67161 0 0 0
-2.13620 -0.16609 1.67640 0 0 0
-2.14741 -0.17565 1.68220 0 0 0
-2.16270 -0.17827 1.69149 0 0 0
-2.17474 -0.18367 1.70022 255 255 255
-2.20007 -0.19170 1.71607 255 255 255
-2.22503 -0.19945 1.73394 255 255 255
-2.24065 -0.20371 1.73939 255 255 255
-2.25301 -0.20783 1.74309 255 255 255
-2.26625 -0.21137 1.74651 255 255 255
-2.28107 -0.21565 1.75370 255 255 255
-2.29333 -0.22007 1.75831 0 0 0
-2.30661 -0.22396 1.76682 0 0 0
-2.31964 -0.22531 1.76815 0 0 0
-2.36941 -0.24262 1.79387 0 0 0
-2.38938 -0.25159 1.80030 0 0 0
-2.39936 -0.25445 1.80352 0 0 0
-2.40948 -0.25815 1.81552 0 0 0
-2.42031 -0.26486 1.82259 0 0 0
-2.42948 -0.26791 1.82665 0 0 0
-2.43883 -0.27169 1.82907 0 0 0
-2.44845 -0.27577 1.83557 0 0 0
-2.45778 -0.27797 1.84328 0 0 0
-2.47492 -0.28714 1.84988 0 0 0
-2.48294 -0.29055 1.85641 0 0 0
-2.49044 -0.29605 1.85791 0 0 0
-2.49799 -0.29958 1.86083 0 0 0
-2.50716 -0.30080 1.86751 0 0 0
-2.51480 -0.30546 1.87685 0 0 0
-2.52908 -0.31217 1.88826 0 0 0
-2.53517 -0.31551 1.88959 0 0 0
-2.54167 -0.31761 1.89539 0 0 0
-2.55334 -0.32175 1.91675 0 0 0
-2.55630 -0.32422 1.91711 0 0 0
-2.55888 -0.32340 1.92619 0 0 0
-2.55863 -0.32576 1.92567 0 0 0
-2.55847 -0.32666 1.92601 0 0 0
-2.55720 -0.32479 1.92781 0 0 0
-2.55423 -0.32201 1.92366 0 0 0
-2.55275 -0.32046 1.92415 0 0 0
-2.54421 -0.32055 1.91606 0 0 0
-2.53977 -0.31565 1.92658 0 0 0
-2.53156 -0.31346 1.92720 0 0 0
-2.51295 -0.30901 1.91856 0 0 0
-2.50140 -0.30324 1.92323 0 0 0
-2.48787 -0.29892 1.91867 0 0 0
-2.47457 -0.29559 1.91082 0 0 0
-2.46027 -0.29050 1.91193 0 0 0
-2.44459 -0.28425 1.90853 0 0 0
-2.41165 -0.27383 1.90308 0 0 0
-2.39196 -0.26852 1.89567 0 0 0
-2.37186 -0.26259 1.89698 0 0 0
-2.34931 -0.25756 1.88836 0 0 0
-2.32908 -0.25327 1.88523 0 0 0
-2.30645 -0.24738 1.88241 0 0 0
-2.25735 -0.23737 1.86736 0 0 0
-2.23273 -0.23030 1.86785 0 0 0
-2.20772 -0.22405 1.86284 0 0 0
-2.18150 -0.21860 1.85681 0 0 0
-2.15746 -0.21055 1.85983 0 0 0
-2.13102 -0.20325 1.85439 0 0 0
-2.10552 -0.19903 1.84295 0 0 0
-2.08118 -0.19147 1.84305 0 0 0
-2.05657 -0.18376 1.83649 0 0 0
-2.03472 -0.17625 1.83710 0 0 0
-2.01210 -0.17179 1.83071 0 0 0
-1.99036 -0.16468 1.82190 0 0 0
-1.94939 -0.15007 1.82501 0 0 0
-1.92983 -0.14436 1.82060 0 0 0
-1.88956 -0.12815 1.81475 0 0 0
-1.87112 -0.12045 1.81218 0 0 0
-1.83640 -0.10566 1.81035 0 0 0
-1.81855 -0.09863 1.80790 0 0 0
-1.78900 -0.08654 1.80978 0 0 0
-1.77161 -0.08133 1.80439 0 0 0
-1.75551 -0.07698 1.80031 0 0 0
-1.72888 -0.06869 1.80362 0 0 0
-1.71366 -0.06603 1.80331 0 0 0
-1.69781 -0.06604 1.80189 0 0 0
-1.66980 -0.06550 1.80151 0 0 0
-1.65637 -0.06628 1.80298 0 0 0
-1.64177 -0.06677 1.80562 0 0 0
-1.62865 -0.06678 1.81500 255 255 255
-1.59800 -0.07246 1.82113 255 255 255
-1.56338 -0.09404 1.84207 255 255 255
-1.54897 -0.10386 1.84723 255 255 255
-1.53238 -0.11394 1.85559 255 255 255
-1.51628 -0.12337 1.87120 255 255 255
-1.49991 -0.13512 1.87779 0 0 0
-1.48219 -0.14785 1.88020 0 0 0
-1.46661 -0.15829 1.89315 0 0 0
-1.44545 -0.17164 1.89594 0 0 0
-1.42843 -0.18217 1.90389 0 0 0
-1.41614 -0.19086 1.92235 0 0 0
-1.39966 -0.20025 1.93118 0 0 0
-1.38703 -0.20913 1.94248 0 0 0
-1.37510 -0.21758 1.95307 0 0 0
-1.36226 -0.22634 1.95866 0 0 0
-1.34258 -0.24128 1.97634 0 0 0
-1.33122 -0.24685 1.98566 0 0 0
-1.32399 -0.25335 1.99976 0 0 0
-1.31385 -0.26175 1.99943 0 0 0
-1.29881 -0.27511 2.01470 0 0 0
-1.28912 -0.28149 2.01782 0 0 0
-1.28029 -0.28735 2.02183 0 0 0
-1.27257 -0.29238 2.02541 0 0 0
-1.25515 -0.30164 2.02741 0 0 0
-1.25038 -0.30442 2.03176 0 0 0
-1.24453 -0.30654 2.03317 0 0 0
-1.24059 -0.30806 2.03635 0 0 0
-1.23768 -0.30874 2.04017 0 0 0
-1.23043 -0.30988 2.03631 0 0 0
-1.22335 -0.31066 2.03629 255 255 255
-1.20234 -0.30651 2.03313 255 255 255
-1.19686 -0.30086 2.03872 255 255 255
-1.17873 -0.29481 2.02704 255 255 255
-1.17435 -0.28691 2.03198 255 255 255
-1.16546 -0.27877 2.03211 255 255 255
-1.15363 -0.27281 2.02532 255 255 255
-1.14442 -0.26520 2.02097 255 255 255
-1.13523 -0.25734 2.01442 255 255 255
-1.12665 -0.24759 2.01224 0 0 0
-1.11829 -0.23645 2.01143 0 0 0
-1.10501 -0.22863 2.00063 0 0 0
-1.09406 -0.21935 1.99557 0 0 0
-1.08570 -0.20796 1.99429 0 0 0
-1.07604 -0.19829 1.98563 0 0 0
-1.06648 -0.18600 1.97975 0 0 0
-1.04298 -0.16225 1.96449 0 0 0
-1.01542 -0.13558 1.95324 0 0 0
-1.00074 -0.12703 1.94214 0 0 0
-0.98494 -0.11871 1.93118 0 0 0
-0.97652 -0.10233 1.92847 0 0 0
-0.94889 -0.07675 1.91254 0 0 0
-0.93415 -0.06579 1.90197 0 0 0
-0.84509 0.00690 1.84923 0 0 0
-0.83224 0.01395 1.83938 0 0 0
-0.82321 0.02452 1.83451 0 0 0
-0.81379 0.03412 1.82670 0 0 0
-0.80503 0.04288 1.81789 0 0 0
-0.79588 0.05194 1.81222 0 0 0
-0.78110 0.07420 1.80184 0 0 0
-0.77428 0.08326 1.79620 255 255 255
-0.75398 0.11364 1.77472 255 255 255
-0.74380 0.12090 1.76891 255 255 255
-0.74552 0.12555 1.76519 255 255 255
-0.75257 0.13060 1.75900 255 255 255
-0.76013 0.13408 1.75600 255 255 255
-0.76697 0.13449 1.75337 255 255 255
-0.77642 0.13625 1.75245 255 255 255
-0.78585 0.13575 1.75078 255 255 255
-0.79599 0.13382 1.74953 255 255 255
-0.80874 0.13161 1.74952 255 255 255
-0.84047 0.12703 1.74946 0 0 0
-0.85954 0.12261 1.74947 0 0 0
-0.88277 0.12035 1.75099 0 0 0
-0.93004 0.11467 1.75218 0 0 0
-0.95517 0.10950 1.75467 0 0 0
-0.98423 0.10793 1.75917 0 0 0
-1.03468 0.09712 1.76170 0 0 0
-1.06280 0.09329 1.76355 0 0 0
-1.12029 0.08689 1.76631 0 0 0
-1.14553 0.08324 1.76658 0 0 0
-1.17506 0.08182 1.76844 0 0 0
-1.23935 0.07982 1.76666 0 0 0
-1.27015 0.07741 1.76492 0 0 0
-1.29605 0.07367 1.76362 0 0 0
-1.32282 0.07233 1.76477 0 0 0
-1.36720 0.06603 1.76266 0 0 0
-1.39570 0.06695 1.76288 0 0 0
-1.42177 0.06519 1.75904 0 0 0
-1.44499 0.06311 1.75661 0 0 0
-1.46756 0.06079 1.75305 0 0 0
-1.49225 0.05853 1.75135 0 0 0
-1.51431 0.05653 1.74882 0 0 0
-1.53484 0.05493 1.74859 0 0 0
-1.54927 0.05795 1.74767 0 0 0
-1.56487 0.05842 1.74470 0 0 0
-1.57797 0.05835 1.74204 0 0 0
-1.59224 0.05779 1.73856 255 255 255
-1.63458 0.05634 1.72747 255 255 255
-1.64934 0.05251 1.72039 255 255 255
-1.66203 0.05241 1.71666 255 255 255
-1.67862 0.05623 1.71505 255 255 255
-1.69072 0.05913 1.70962 255 255 255
-1.70327 0.06121 1.70409 255 255 255
-1.71563 0.06410 1.70021 255 255 255
-1.72793 0.06921 1.69692 0 0 0
-1.74266 0.07700 1.69434 0 0 0
-1.75169 0.08043 1.68779 0 0 0
-1.76226 0.08726 1.68480 0 0 0
-1.79004 0.10337 1.67431 0 0 0
-1.80534 0.11226 1.66780 0 0 0
-1.82322 0.12231 1.66259 0 0 0
-1.91462 0.18597 1.61623 0 0 0
-1.93640 0.19768 1.60780 0 0 0
-1.95423 0.20336 1.59476 0 0 0
-1.97355 0.21275 1.58591 0 0 0
-1.99222 0.22289 1.57862 0 0 0
-2.00782 0.23193 1.56923 0 0 0
-2.02549 0.24022 1.56208 0 0 0
-2.04093 0.24868 1.55374 0 0 0
-2.05791 0.25781 1.54657 0 0 0
-2.07433 0.26530 1.53851 0 0 0
-2.08932 0.27222 1.52975 0 0 0
-2.10385 0.27909 1.52229 255 255 255
-2.14409 0.29860 1.50539 255 255 255
-2.15668 0.29614 1.49409 255 255 255
-2.18914 0.30751 1.48672 255 255 255
-2.19865 0.30605 1.47955 255 255 255
-2.21011 0.30809 1.47539 255 255 255
-2.22377 0.31137 1.47179 255 255 255
-2.23690 0.31514 1.46950 255 255 255
-2.24950 0.31989 1.46747 255 255 255
-2.26081 0.32187 1.46515 255 255 255
-2.27219 0.32240 1.46212 0 0 0
-2.28899 0.32497 1.46020 0 0 0
-2.30868 0.32962 1.45774 0 0 0
-2.32381 0.32687 1.45285 0 0 0
-2.33877 0.32278 1.45113 0 0 0
-2.35622 0.32300 1.44717 0 0 0
-2.36477 0.31239 1.44594 0 0 0
-2.39424 0.30801 1.45032 0 0 0
-2.40900 0.30307 1.44820 0 0 0
-2.41842 0.29660 1.45305 0 0 0
-2.44950 0.29384 1.45392 0 0 0
-2.46173 0.28540 1.45629 0 0 0
-2.47522 0.28048 1.45770 0 0 0
-2.48970 0.27716 1.45936 0 0 0
-2.50081 0.27245 1.46081 0 0 0
-2.51441 0.27013 1.46441 0 0 0
-2.53029 0.26921 1.46599 0 0 0
-2.54780 0.27034 1.46668 0 0 0
-2.56948 0.26693 1.46419 0 0 0
-2.59155 0.26292 1.46348 0 0 0
-2.60930 0.26412 1.46894 0 0 0
-2.62839 0.26402 1.47136 0 0 0
-2.64491 0.26089 1.47457 0 0 0
-2.66209 0.25893 1.47820 0 0 0
-2.69548 0.25278 1.48633 0 0 0
-2.71570 0.25288 1.48366 0 0 0
-2.73122 0.24990 1.48696 0 0 0
-2.75449 0.24886 1.48629 0 0 0
-2.77419 0.24568 1.48616 0 0 0
-2.79310 0.24226 1.48785 0 0 0
-2.81542 0.23931 1.48802 0 0 0
-2.83186 0.23318 1.48961 0 0 0
-2.86444 0.22863 1.49034 0 0 0
-2.89208 0.22087 1.49101 0 0 0
-2.90813 0.21774 1.49036 0 0 0
-2.92389 0.21616 1.48988 0 0 0
-2.93809 0.21268 1.48583 0 0 0
-2.94485 0.20702 1.49256 255 255 255
-2.99347 0.20912 1.47411 255 255 255
-3.00673 0.20673 1.46761 255 255 255
-3.01523 0.20131 1.46655 255 255 255
-3.02405 0.20026 1.46349 255 255 255
-3.03051 0.19692 1.46422 255 255 255
-3.03523 0.19775 1.46132 255 255 255
-3.04221 0.20120 1.45430 255 255 255
-3.04460 0.19492 1.45832 255 255 255
-3.04954 0.19645 1.45679 255 255 255
-3.05484 0.19588 1.45534 255 255 255
-3.06206 0.20144 1.44958 255 255 255
-3.06766 0.20943 1.43936 255 255 255
-3.07058 0.21040 1.43713 0 0 0
-3.07185 0.20980 1.44039 0 0 0
-3.07689 0.21693 1.43197 0 0 0
-3.08059 0.21730 1.42805 0 0 0
-3.08356 0.22127 1.42340 0 0 0
-3.08658 0.22472 1.41508 0 0 0
-3.08813 0.22592 1.41510 0 0 0
-3.09228 0.23306 1.40574 0 0 0
-3.09647 0.23812 1.40194 0 0 0
-3.10210 0.24558 1.39277 0 0 0
-3.10235 0.24745 1.39084 0 0 0
-3.10664 0.25418 1.38194 0 0 0
-3.11127 0.26069 1.37273 0 0 0
-3.11432 0.26564 1.37079 0 0 0
-3.11893 0.28010 1.35566 0 0 0
-3.12385 0.28534 1.34695 0 0 0
-3.12558 0.29074 1.34492 0 0 0
-3.12876 0.29808 1.33740 0 0 0
-3.13082 0.30412 1.33516 0 0 0
-3.13363 0.31770 1.32301 0 0 0
-3.13262 0.32430 1.31482 0 0 0
-3.13291 0.33298 1.30872 0 0 0
-3.13548 0.34364 1.30234 0 0 0
-3.14014 0.35333 1.29327 0 0 0
-3.14531 0.35802 1.28846 0 0 0
-3.14941 0.36509 1.28001 0 0 0
-3.15187 0.37584 1.26961 0 0 0
-3.15416 0.37843 1.26463 0 0 0
-3.15662 0.38751 1.25835 0 0 0
-3.16209 0.40229 1.24704 0 0 0
-3.16873 0.39869 1.24434 0 0 0
-3.17483 0.40092 1.23950 0 0 0
-3.17874 0.40067 1.23221 0 0 0
-3.18345 0.39728 1.23032 0 0 0
-3.19116 0.40662 1.22281 0 0 0
-3.19087 0.41017 1.21977 0 0 0
-3.19665 0.40785 1.21459 0 0 0
-3.21133 0.40571 1.20955 0 0 0
-3.22745 0.40878 1.20050 0 0 0
-3.23910 0.40358 1.20542 0 0 0
-3.25436 0.41079 1.19960 0 0 0
-3.26755 0.41364 1.19559 0 0 0
-3.28386 0.41038 1.20039 0 0 0
-3.30198 0.41598 1.19879 0 0 0
-3.31921 0.41099 1.20472 0 0 0
-3.33922 0.41746 1.20615 0 0 0
-3.36044 0.42008 1.19999 0 0 0
-3.37780 0.41572 1.20168 0 0 0
-3.39114 0.41117 1.20872 0 0 0
-3.40911 0.41710 1.20059 0 0 0
-3.42611 0.41789 1.19770 255 255 255
-3.48139 0.41617 1.19832 255 255 255
-3.50226 0.41300 1.19669 255 255 255
-3.52284 0.40907 1.19923 255 255 255
-3.54188 0.41151 1.19308 255 255 255
-3.56275 0.41060 1.18455 255 255 255
-3.58318 0.40625 1.18310 255 255 255
-3.60839 0.39594 1.18807 255 255 255
-3.62574 0.40518 1.18247 0 0 0
-3.64430 0.41019 1.17591 0 0 0
-3.66450 0.40734 1.17772 0 0 0
-3.68253 0.41170 1.17299 0 0 0
-3.70121 0.40948 1.16880 0 0 0
-3.72430 0.39526 1.17516 0 0 0
-3.74085 0.40305 1.16829 0 0 0
-3.75853 0.40511 1.16359 0 0 0
-3.77786 0.40405 1.16261 0 0 0
-3.79621 0.40242 1.16181 0 0 0
-3.83266 0.39757 1.15797 0 0 0
-3.84877 0.39791 1.15444 0 0 0
-3.86394 0.40240 1.14620 0 0 0
-3.88301 0.38937 1.14337 0 0 0
-3.90053 0.39112 1.13644 0 0 0
-3.91765 0.39340 1.13228 0 0 0
-3.93590 0.38466 1.13149 0 0 0
-3.95240 0.38556 1.12813 0 0 0
-3.96809 0.38527 1.12099 0 0 0
-3.98522 0.37832 1.11768 0 0 0
-4.00159 0.38287 1.10977 0 0 0
-4.01863 0.36544 1.11303 0 0 0
-4.03580 0.35946 1.10938 0 0 0
-4.05122 0.37839 1.08880 0 0 0
-4.06657 0.36626 1.09558 0 0 0
-4.08102 0.36596 1.10342 0 0 0
-4.09042 0.39194 1.08882 0 0 0
-4.10122 0.38431 1.09047 0 0 0
-4.11167 0.37357 1.09399 0 0 0
-4.11821 0.39146 1.07758 0 0 0
-4.12304 0.38713 1.07223 0 0 0
-4.12816 0.38819 1.06735 0 0 0
-4.13423 0.39316 1.05954 0 0 0
-4.13525 0.39226 1.06190 0 0 0
-4.13547 0.38921 1.06183 0 0 0
-4.13416 0.38476 1.05797 0 0 0
-4.13361 0.38142 1.05527 0 0 0
-4.13077 0.37945 1.05891 0 0 0
-4.12657 0.37648 1.06484 0 0 0
-4.11978 0.37220 1.06651 0 0 0
-4.11477 0.36218 1.06675 0 0 0
-4.10867 0.36188 1.06424 0 0 0
-4.09631 0.34685 1.06686 0 0 0
-4.09100 0.33759 1.07238 0 0 0
-4.08279 0.33148 1.07542 0 0 0
-4.07470 0.33020 1.07443 0 0 0
-4.07033 0.31898 1.07726 255 255 255
-4.04668 0.31951 1.07477 255 255 255
