ply
format ascii 1.0
element face 0
property list uchar int vertex_indices
element vertex 1328
property float x
property float y
property float z
property uchar diffuse_red
property uchar diffuse_green
property uchar diffuse_blue
end_header
0.03422 0.40139 -0.74781 95 16 41
0.05885 0.41307 -0.77691 99 46 79
0.10569 0.44272 -0.84597 122 92 115
0.11701 0.44281 -0.84965 137 111 114
0.12419 0.43951 -0.84579 155 119 112
0.12833 0.42803 -0.84326 231 208 193
0.73756 0.72109 -1.55371 40 54 81
0.91509 0.73613 -1.63625 71 79 87
0.90912 0.75270 -1.63990 58 71 99
0.90473 0.74090 -1.64183 62 74 89
0.94330 0.74256 -1.65680 68 71 77
0.96822 0.74675 -1.67221 60 49 69
0.55167 0.41835 -0.93889 189 145 177
0.54025 0.41290 -0.94471 254 254 252
0.56769 0.36287 -0.84170 83 115 169
0.59897 0.36400 -0.85345 123 162 235
0.59120 0.35218 -0.82929 148 187 254
0.62341 0.33086 -0.79999 149 190 254
0.61894 0.34328 -0.80272 155 195 254
0.61565 0.33444 -0.80417 149 190 254
0.62670 0.33971 -0.79854 154 196 254
0.63446 0.33613 -0.79436 153 196 254
0.63344 0.32842 -0.79859 148 189 254
0.64451 0.33370 -0.79296 154 196 254
0.64391 0.32617 -0.79769 147 189 254
0.65500 0.33146 -0.79204 154 195 254
0.66222 0.32773 -0.80621 146 189 254
0.67338 0.33305 -0.80053 154 195 254
0.67906 0.32849 -0.81280 146 187 254
0.69027 0.33383 -0.80710 154 192 254
0.69758 0.32997 -0.82125 146 183 254
0.70886 0.33534 -0.81551 153 187 254
0.71563 0.33114 -0.82898 144 179 254
0.72697 0.33654 -0.82320 151 188 254
0.73249 0.33166 -0.83516 141 178 254
0.74389 0.33710 -0.82935 150 189 254
0.76810 0.31855 -0.82202 137 176 254
0.77952 0.32400 -0.81620 147 183 254
0.77026 0.31221 -0.81102 138 175 254
0.78164 0.31764 -0.80522 146 185 254
0.79204 0.31469 -0.82232 137 176 254
0.80351 0.32016 -0.81648 148 186 254
0.90517 0.33475 -0.89419 130 168 254
0.91805 0.33280 -0.89457 126 161 252
0.93124 0.33094 -0.89522 125 157 246
0.93210 0.30919 -0.85544 110 148 234
0.93154 0.30170 -0.84150 108 145 229
0.93666 0.27533 -0.79453 103 145 230
0.95404 0.27516 -0.79958 106 146 229
0.96212 0.27132 -0.79500 102 139 229
0.95435 0.26139 -0.77432 99 136 228
0.95654 0.24854 -0.75134 94 129 209
0.93619 0.22754 -0.70638 43 68 140
0.95820 0.22904 -0.71595 40 66 138
0.98091 0.23070 -0.72602 41 64 134
1.00480 0.23269 -0.73707 37 59 133
1.03368 0.23637 -0.75276 34 57 130
1.05770 0.23819 -0.76353 32 56 125
1.07530 0.23765 -0.76798 35 59 129
1.08526 0.23440 -0.76507 36 57 127
1.08626 0.22805 -0.75368 34 50 118
1.10130 0.22653 -0.75554 33 54 119
1.10744 0.22197 -0.74904 32 52 106
1.11617 0.21829 -0.74496 32 47 100
1.11418 0.21104 -0.73099 32 47 95
1.13531 0.21147 -0.73831 29 45 95
1.14011 0.19816 -0.73539 16 24 42
1.13880 0.20606 -0.72944 26 40 93
1.14095 0.20025 -0.71940 26 38 87
1.11332 0.18492 -0.68264 28 35 80
1.09705 0.17342 -0.65643 29 35 78
1.09797 0.16747 -0.64577 29 34 72
1.10313 0.16288 -0.63891 29 33 72
1.11167 0.15935 -0.63506 34 30 73
1.12004 0.15577 -0.63105 34 26 63
1.13227 0.15336 -0.63039 29 23 60
1.18123 0.13742 -0.61616 32 26 49
1.18560 0.13264 -0.60872 37 31 56
1.17076 0.10482 -0.55291 56 56 50
1.19396 0.10538 -0.56111 67 56 41
1.21710 0.10585 -0.56912 82 67 47
1.23250 0.10416 -0.57077 93 79 63
1.25957 0.10554 -0.58167 73 61 50
1.27552 0.10389 -0.58356 40 36 37
1.38961 0.00809 -0.44243 101 91 108
1.42737 0.01071 -0.45893 220 245 239
1.43198 -0.00208 -0.45612 254 254 254
-0.39664 0.77132 -1.31430 205 199 195
-0.40106 0.78359 -1.31700 192 194 193
-0.40431 0.77485 -1.31843 193 193 192
-0.39339 0.78006 -1.31287 193 192 191
-0.39222 0.75905 -1.31160 242 226 218
-0.38969 0.76641 -1.30739 216 205 201
-0.38527 0.75415 -1.30469 245 224 221
-0.06236 0.62454 -1.14741 230 213 222
-0.07333 0.61931 -1.15300 247 244 247
-0.06563 0.61576 -1.14885 249 245 243
-0.10502 0.48654 -0.87832 238 235 237
-0.10902 0.49764 -0.88076 254 254 254
-0.11197 0.48973 -0.88206 250 253 250
-0.09514 0.49125 -0.87329 250 253 254
-0.09808 0.48334 -0.87458 235 230 237
-0.03338 0.40934 -0.75780 210 205 213
-0.02597 0.40685 -0.75551 211 207 224
-0.02224 0.40110 -0.74603 196 172 207
-0.00465 0.40753 -0.76348 165 114 163
0.00197 0.40427 -0.75951 134 57 101
0.01027 0.40244 -0.75874 107 19 62
0.01666 0.39898 -0.75434 104 44 51
0.02123 0.39399 -0.74653 144 122 93
0.03862 0.39971 -0.76259 188 174 141
0.06581 0.41335 -0.79641 220 211 182
0.07353 0.41077 -0.79405 241 237 212
0.10767 0.42954 -0.83957 208 193 201
0.90323 0.71964 -1.62713 69 53 66
0.94552 0.73480 -1.66852 72 44 49
0.54620 0.40802 -0.93754 210 166 195
0.55773 0.38191 -0.89278 54 53 80
0.55457 0.37219 -0.87378 79 86 127
0.57288 0.37426 -0.88337 72 67 115
0.58261 0.37160 -0.88150 68 77 123
0.57702 0.36074 -0.85963 75 97 152
0.58835 0.35897 -0.85990 82 112 182
0.60393 0.35939 -0.86558 112 155 231
0.59847 0.34880 -0.84425 133 177 252
0.60545 0.34475 -0.83893 138 176 253
0.61661 0.35007 -0.83325 149 190 254
0.61157 0.34026 -0.83254 141 174 254
0.62272 0.34558 -0.82687 149 190 254
0.61785 0.33588 -0.82639 140 175 254
0.62638 0.32514 -0.80917 138 173 254
0.63525 0.32208 -0.80630 134 172 254
0.64423 0.31908 -0.80355 129 171 252
0.68634 0.32461 -0.82704 131 167 249
0.70273 0.32499 -0.83289 127 163 247
0.73339 0.33202 -0.85556 113 142 237
0.74448 0.32973 -0.85479 103 133 234
0.74440 0.32223 -0.84088 106 149 239
0.75035 0.31757 -0.83412 109 152 236
0.75906 0.31419 -0.83059 103 138 224
0.78174 0.30975 -0.82949 100 137 225
0.78900 0.30568 -0.82424 102 140 227
0.79697 0.30193 -0.81980 101 138 224
0.86029 0.30753 -0.85007 80 107 203
0.88478 0.31063 -0.86351 74 101 191
0.93239 0.32330 -0.90196 78 107 186
0.93785 0.31816 -0.89415 77 102 187
0.94745 0.31474 -0.89084 71 97 182
0.93475 0.28780 -0.83691 67 92 161
0.94406 0.28438 -0.83351 59 82 152
0.95372 0.28109 -0.83046 62 83 153
0.97113 0.28083 -0.83544 67 94 161
0.96128 0.26994 -0.81218 61 89 159
0.96440 0.26416 -0.80245 57 93 155
0.93889 0.24074 -0.75103 49 77 141
0.93057 0.23090 -0.73018 47 73 122
0.95306 0.23257 -0.74035 44 52 95
0.96999 0.23211 -0.74481 45 55 82
0.98274 0.23006 -0.74503 44 57 79
1.00449 0.23123 -0.75403 43 53 73
1.00920 0.21815 -0.75115 31 17 50
1.02105 0.23046 -0.75780 40 52 70
1.02578 0.21732 -0.75491 31 15 52
1.03671 0.22931 -0.76060 37 50 66
1.04146 0.21613 -0.75771 26 16 52
1.03727 0.22283 -0.74876 32 45 62
1.04200 0.20970 -0.74587 22 19 54
1.01376 0.18867 -0.67809 25 30 49
1.02842 0.18722 -0.68002 21 31 53
1.08509 0.16780 -0.66183 17 19 35
1.08457 0.16140 -0.64981 20 20 38
1.08853 0.15644 -0.64188 18 17 37
1.09473 0.15221 -0.63598 24 21 34
1.10665 0.14972 -0.63512 43 39 49
1.10846 0.14416 -0.62538 60 53 52
1.10230 0.13624 -0.60878 73 63 59
1.23957 0.12150 -0.62461 100 96 87
1.24378 0.11666 -0.61697 100 95 81
1.23834 0.10923 -0.60149 112 110 89
1.23814 0.10328 -0.59040 133 133 106
1.24618 0.09955 -0.58602 130 128 102
1.25564 0.09619 -0.58277 84 78 55
1.27905 0.09646 -0.59062 35 30 21
1.38073 0.02474 -0.48970 96 88 171
1.39589 0.02260 -0.49051 77 46 59
1.39016 0.01594 -0.47636 75 56 55
1.40054 0.00740 -0.46380 52 46 76
1.39716 -0.00169 -0.46529 65 64 84
1.37592 -0.00307 -0.43666 165 150 180
1.43463 0.00380 -0.46785 241 252 250
-0.40097 0.76049 -1.31149 229 220 212
-0.00907 1.16891 -2.19837 212 213 217
-0.11181 0.49575 -0.91030 251 248 248
-0.11585 0.50697 -0.91277 254 254 254
-0.11882 0.49898 -0.91408 252 252 253
-0.10883 0.50374 -0.90899 254 254 254
-0.11081 0.48616 -0.89274 234 230 231
-0.11289 0.47348 -0.86843 215 210 216
-0.04519 0.42133 -0.79284 203 196 197
-0.04240 0.41452 -0.78104 194 181 175
-0.03875 0.40858 -0.77113 198 193 198
-0.03896 0.39923 -0.75362 202 200 210
-0.01941 0.40753 -0.77536 176 135 167
-0.00978 0.40690 -0.77726 153 60 109
-0.00210 0.40452 -0.77527 136 31 69
0.00310 0.39999 -0.76849 110 16 30
0.00805 0.39527 -0.76128 100 37 32
0.00895 0.38716 -0.74644 154 135 113
0.03358 0.39900 -0.77639 213 213 192
0.03754 0.38801 -0.77397 224 228 229
0.04635 0.40072 -0.78368 228 228 217
0.05823 0.40162 -0.78916 237 240 235
0.06759 0.40040 -0.78987 250 247 246
0.10061 0.41816 -0.83355 205 172 229
0.12802 0.42201 -0.84950 236 227 230
0.13827 0.42690 -0.84429 200 180 139
0.13217 0.41051 -0.84697 233 226 225
0.54276 0.67892 -1.46118 105 81 62
0.52940 0.67255 -1.46797 253 244 221
0.62269 0.72667 -1.57576 28 18 22
0.62834 0.71101 -1.57232 29 15 25
0.63401 0.72327 -1.57306 26 28 40
0.64796 0.72993 -1.56596 29 35 43
0.64381 0.71876 -1.56778 32 34 41
0.65338 0.70262 -1.54074 36 34 41
0.63951 0.69600 -1.54780 36 36 35
0.74260 0.69637 -1.55763 56 71 96
0.75864 0.69589 -1.56186 60 69 88
0.77281 0.70264 -1.55465 59 72 87
0.76820 0.69106 -1.55590 60 68 80
0.78236 0.69781 -1.54869 59 70 80
0.77882 0.68692 -1.55158 59 65 77
0.79298 0.69367 -1.54437 62 71 85
0.79815 0.68842 -1.56055 60 67 80
0.81313 0.68701 -1.56271 54 65 80
0.88672 0.71149 -1.63190 56 32 48
0.88026 0.69628 -1.60148 108 78 118
0.97441 0.73202 -1.69822 251 251 232
0.98052 0.71506 -1.69449 254 254 254
0.55535 0.41440 -0.97196 254 254 254
0.55068 0.42738 -0.97481 254 254 254
0.54724 0.41813 -0.97633 254 254 254
0.54380 0.40889 -0.97784 254 254 254
0.52566 0.38913 -0.91535 221 194 201
0.59654 0.41260 -0.98178 24 14 14
0.59794 0.40506 -0.96816 21 17 28
0.56477 0.37860 -0.90822 56 62 92
0.55677 0.36625 -0.88263 80 90 146
0.58217 0.37207 -0.90159 71 71 120
0.59063 0.36866 -0.89795 63 74 121
0.58772 0.35923 -0.87943 67 91 140
0.59662 0.35610 -0.87644 74 106 167
0.60645 0.35344 -0.87463 73 103 188
0.61596 0.35060 -0.87237 74 105 198
0.61770 0.34377 -0.86020 93 134 228
0.62965 0.34218 -0.86105 110 151 246
0.63492 0.33719 -0.85344 112 150 244
0.63811 0.33120 -0.84328 110 149 243
0.66612 0.32990 -0.84981 109 145 236
0.68639 0.33219 -0.86058 111 142 230
0.70079 0.33157 -0.86403 111 141 227
0.73125 0.33095 -0.87260 103 123 209
0.73107 0.32335 -0.85837 79 86 163
0.73519 0.31781 -0.84936 60 73 143
0.73908 0.31220 -0.84014 63 93 175
0.74506 0.30757 -0.83342 66 93 170
0.75410 0.30434 -0.83029 64 85 155
0.76658 0.30263 -0.83109 56 78 143
0.79467 0.30049 -0.83608 60 86 147
0.79876 0.29502 -0.82719 61 86 141
0.80327 0.28976 -0.81883 61 84 135
0.91171 0.29199 -0.85766 54 61 102
0.90779 0.28321 -0.84004 56 66 99
0.90271 0.27406 -0.82134 57 65 95
0.91467 0.27177 -0.82090 56 66 87
0.92075 0.26713 -0.81420 54 66 78
0.92952 0.26357 -0.81036 56 65 85
0.95053 0.25775 -0.80622 47 62 83
0.97323 0.25250 -0.80371 37 41 69
0.98170 0.24878 -0.79947 32 34 62
0.99509 0.24687 -0.80019 29 33 53
0.99414 0.23967 -0.78646 28 32 57
0.99558 0.23340 -0.77524 31 28 52
1.00089 0.22857 -0.76793 33 27 45
1.00432 0.22309 -0.75880 32 18 32
1.01073 0.18606 -0.69180 26 15 37
0.99930 0.18061 -0.69761 44 53 54
1.01113 0.17982 -0.68029 18 15 21
1.01573 0.16703 -0.67748 10 11 23
1.01963 0.17631 -0.67646 11 17 28
1.02424 0.16351 -0.67365 8 12 17
1.08014 0.15194 -0.65039 14 16 21
1.08229 0.14645 -0.64083 9 11 25
1.09989 0.14570 -0.64506 42 44 51
1.13048 0.14881 -0.66064 87 96 91
1.14626 0.14737 -0.66299 108 113 100
1.15095 0.13435 -0.66013 91 98 101
1.16011 0.14531 -0.66359 110 112 102
1.16482 0.13226 -0.66072 92 98 101
1.18133 0.14538 -0.67051 108 115 109
1.18606 0.13225 -0.66762 92 92 106
1.20078 0.14487 -0.67576 110 117 118
1.21930 0.14403 -0.68012 116 123 123
1.24089 0.14400 -0.68698 124 134 122
1.25009 0.14041 -0.68322 124 135 120
1.25824 0.13652 -0.67857 117 126 117
1.25297 0.12891 -0.66270 108 113 108
1.25184 0.09859 -0.60581 134 118 114
1.24004 0.08963 -0.58533 111 97 98
1.26102 0.08926 -0.59135 66 49 47
1.27489 0.08700 -0.59157 44 18 8
1.29147 0.08540 -0.59388 50 21 19
1.29617 0.07235 -0.59101 174 138 82
1.38050 0.03830 -0.53453 154 111 59
1.39208 0.04382 -0.52863 68 44 39
1.36601 0.02951 -0.51351 120 81 51
1.38141 0.02742 -0.51453 112 76 92
1.38441 0.02259 -0.50649 112 97 154
1.38480 0.01722 -0.49659 128 85 119
1.46895 0.00773 -0.50581 170 187 207
1.43571 -0.00444 -0.47248 236 248 253
1.46092 -0.00470 -0.48006 252 254 254
1.47246 0.00080 -0.47419 254 254 254
-0.40377 0.75263 -1.31468 248 210 198
-0.39827 0.74495 -1.30207 252 207 192
-0.39245 0.73800 -1.29090 252 200 185
-0.39103 0.70562 -1.23060 252 190 161
-0.00921 1.16385 -2.21476 235 222 212
-0.12025 0.49265 -0.91902 247 247 246
-0.12430 0.50389 -0.92150 253 254 254
-0.12728 0.49589 -0.92281 248 249 249
-0.11809 0.48424 -0.90394 242 241 239
-0.12200 0.46955 -0.87510 217 210 219
-0.11600 0.46542 -0.86930 215 212 214
-0.05192 0.40076 -0.76880 193 195 187
-0.04515 0.39770 -0.76526 185 173 189
-0.03167 0.40061 -0.77510 159 116 159
-0.02641 0.39616 -0.76846 129 50 85
-0.00957 0.40185 -0.78461 120 31 56
-0.00587 0.39599 -0.77482 113 23 43
0.00031 0.39232 -0.76994 88 26 35
-0.00515 0.37878 -0.74275 132 110 104
0.02887 0.39859 -0.79101 203 205 194
0.03295 0.39307 -0.78198 226 231 226
0.05469 0.39323 -0.78935 231 234 236
0.06672 0.39415 -0.79499 247 244 245
0.58312 0.70105 -1.53893 200 170 122
0.56940 0.69451 -1.54592 252 254 249
0.57904 0.69007 -1.54073 252 243 207
0.62056 0.71699 -1.58103 82 46 22
0.63315 0.70292 -1.55871 32 29 38
0.62901 0.69180 -1.56053 38 20 15
0.65880 0.69826 -1.55830 35 36 36
0.66335 0.69008 -1.54444 40 44 56
0.75179 0.69401 -1.58059 60 65 84
0.79043 0.68585 -1.57785 51 53 63
0.80632 0.68500 -1.58142 51 50 62
0.83739 0.69374 -1.60791 61 32 31
0.84027 0.68445 -1.59143 89 62 57
0.93357 0.73175 -1.71055 176 140 137
0.89850 0.69861 -1.63695 241 233 202
0.90446 0.68208 -1.63331 254 254 254
0.92512 0.70385 -1.65543 254 254 243
0.93113 0.68717 -1.65176 254 254 254
0.53945 0.39805 -0.95608 254 254 254
0.52798 0.39258 -0.96192 254 254 254
0.52578 0.38207 -0.92164 227 208 201
0.54712 0.38591 -0.93580 85 47 43
0.56727 0.38896 -0.94807 23 17 28
0.57036 0.38250 -0.93697 28 20 46
0.56789 0.37307 -0.91845 45 46 83
0.56918 0.36577 -0.90518 53 58 107
0.58286 0.36516 -0.90849 48 48 97
0.59813 0.36534 -0.91379 45 52 96
0.60879 0.36303 -0.91293 49 67 107
0.62046 0.36123 -0.91333 54 75 112
0.63919 0.36302 -0.92280 46 60 109
0.64870 0.36000 -0.92023 40 60 114
0.65554 0.35563 -0.91423 47 74 137
0.65792 0.34902 -0.90261 56 77 149
0.66106 0.34284 -0.89204 57 74 149
0.68322 0.34609 -0.90534 58 76 151
0.68937 0.34138 -0.89851 58 76 147
0.69855 0.33816 -0.89545 57 74 139
0.71353 0.33772 -0.89949 56 76 130
0.72748 0.33673 -0.90217 56 78 118
0.71996 0.32557 -0.87878 50 71 108
0.73078 0.32310 -0.87768 47 61 102
0.73831 0.31164 -0.85861 53 64 83
0.73684 0.30358 -0.84301 49 60 86
0.76167 0.30744 -0.85834 47 59 87
0.77157 0.30451 -0.85605 50 62 76
0.78688 0.30395 -0.85998 45 60 58
0.80704 0.30547 -0.86939 42 56 54
0.82909 0.30770 -0.88075 44 54 52
0.84844 0.30867 -0.88886 44 51 53
0.86601 0.30879 -0.89480 38 45 54
0.88075 0.30765 -0.89746 32 33 52
0.89998 0.30833 -0.90500 30 29 42
0.92184 0.30263 -0.90141 17 17 32
0.92671 0.28912 -0.89844 8 10 20
0.93090 0.29899 -0.89753 9 14 33
0.93577 0.28548 -0.89456 9 9 20
0.93910 0.29500 -0.89271 7 15 33
0.94397 0.28149 -0.88974 10 8 20
0.94617 0.29056 -0.88667 7 15 33
0.95104 0.27705 -0.88370 9 8 19
0.95101 0.28524 -0.87827 8 13 33
0.95587 0.27176 -0.87530 9 9 16
0.95696 0.28039 -0.87109 8 12 36
0.96181 0.26692 -0.86813 11 9 18
0.99600 0.26692 -0.85852 14 11 27
1.00087 0.25342 -0.85555 9 11 29
1.00223 0.26221 -0.85170 10 15 39
1.00709 0.24872 -0.84873 11 9 25
1.00212 0.25514 -0.83841 14 14 34
1.00311 0.24855 -0.82635 15 15 29
1.00150 0.24105 -0.81176 11 12 25
1.00048 0.23383 -0.79789 16 11 38
0.99809 0.22619 -0.78276 34 33 31
0.99329 0.21775 -0.76536 41 42 45
1.00312 0.21456 -0.76257 43 45 46
1.01053 0.21051 -0.75738 43 50 64
1.01873 0.20674 -0.75297 50 46 54
1.02417 0.20202 -0.74588 44 49 56
1.03236 0.19825 -0.74148 47 53 65
1.01435 0.17926 -0.69997 39 42 50
1.00673 0.17038 -0.68082 21 15 29
1.07442 0.14826 -0.66134 12 10 11
1.07617 0.14264 -0.65136 13 9 10
1.07890 0.13735 -0.64232 9 8 18
1.10416 0.13886 -0.65337 42 50 59
1.12705 0.13957 -0.66215 78 89 96
1.14281 0.13809 -0.66451 91 97 102
1.20744 0.13221 -0.67450 92 92 118
1.22811 0.13191 -0.68065 92 92 121
1.23609 0.12799 -0.67590 89 89 113
1.24836 0.12527 -0.67478 83 82 103
1.25233 0.12025 -0.66665 74 72 88
1.23730 0.08644 -0.59830 137 102 89
1.25251 0.08454 -0.59969 113 58 62
1.25836 0.08022 -0.59349 83 30 26
1.27111 0.07765 -0.59282 91 51 38
1.29225 0.07717 -0.59878 128 93 72
1.48422 0.10654 -0.71636 135 91 30
1.48927 0.09253 -0.71328 132 98 73
1.50450 0.10528 -0.72059 95 68 58
1.54474 0.10872 -0.74013 130 130 127
1.54987 0.09448 -0.73700 154 180 189
1.45376 -0.00933 -0.48900 177 192 205
1.46220 -0.01300 -0.48485 225 241 244
1.74395 0.01341 -0.62608 247 223 223
1.80033 0.01811 -0.65324 237 220 224
1.85618 0.02252 -0.67967 212 203 221
1.89196 0.02310 -0.69241 204 192 214
1.90757 0.01405 -0.68051 199 174 187
1.90817 0.00828 -0.66986 180 160 167
1.92270 0.00494 -0.66834 173 157 185
1.91977 -0.00140 -0.65549 194 143 152
-0.41237 0.69786 -1.22737 253 174 141
-0.40508 0.69419 -1.22285 253 171 121
-0.39391 0.69764 -1.23306 252 169 105
-0.39065 0.68660 -1.21329 249 192 135
-0.00482 1.16598 -2.24645 249 243 230
-0.02000 1.15875 -2.25418 252 206 188
0.01299 1.17234 -2.26435 245 252 252
0.01917 1.15517 -2.26058 178 175 203
-0.12586 0.48183 -0.91414 240 242 243
-0.12536 0.47172 -0.89521 235 236 236
-0.12396 0.46269 -0.87862 215 216 223
-0.11949 0.45697 -0.86930 221 231 232
-0.07859 0.43743 -0.84592 233 232 243
-0.07052 0.43539 -0.84474 232 217 242
-0.06955 0.42657 -0.82839 221 198 239
-0.07359 0.39435 -0.76620 179 156 211
-0.05627 0.40098 -0.78446 150 127 191
-0.05105 0.39646 -0.77764 146 107 164
-0.03222 0.40417 -0.79843 128 65 106
-0.03597 0.39163 -0.77352 114 30 75
-0.03207 0.38081 -0.77113 105 23 34
-0.02726 0.39022 -0.77374 114 28 50
-0.01790 0.38934 -0.77517 103 25 42
-0.01214 0.38532 -0.76948 86 15 43
-0.01319 0.37553 -0.75063 133 91 106
0.01610 0.39143 -0.79037 200 195 191
0.01847 0.38450 -0.77805 225 228 224
0.02242 0.37353 -0.77564 210 209 219
0.03042 0.38555 -0.78399 221 222 224
0.03439 0.37453 -0.78156 210 209 214
0.04324 0.38723 -0.79142 219 220 226
0.05446 0.38752 -0.79567 227 226 230
0.06992 0.39115 -0.80765 241 237 238
0.07396 0.37995 -0.80519 241 245 246
0.11992 0.40406 -0.84856 219 216 244
0.15736 0.42410 -0.89880 209 203 217
0.16785 0.42910 -0.89346 200 153 180
0.58868 0.68563 -1.53554 198 162 100
0.57495 0.67909 -1.54253 254 254 248
0.58459 0.67465 -1.53734 242 239 203
0.62996 0.70402 -1.58393 78 31 7
0.64965 0.69500 -1.57341 43 37 28
0.64549 0.68381 -1.57524 47 32 17
0.65531 0.67929 -1.56995 53 34 31
0.66842 0.69675 -1.58291 48 43 45
0.80806 0.68852 -1.61358 73 35 23
0.81174 0.67971 -1.59816 67 38 52
0.80204 0.66253 -1.56250 139 101 113
0.85685 0.68597 -1.62492 231 222 176
0.52481 0.38252 -0.94187 254 254 254
0.51342 0.37709 -0.94767 254 254 254
0.52300 0.37335 -0.92394 238 219 201
0.52679 0.36738 -0.91393 91 51 45
0.55172 0.37309 -0.93296 25 18 35
0.55566 0.36718 -0.92311 26 27 46
0.56557 0.36454 -0.92139 36 37 57
0.57253 0.36030 -0.91569 39 37 52
0.57624 0.35435 -0.90567 34 35 46
0.58913 0.35326 -0.90788 32 34 53
0.60350 0.35290 -0.91195 36 34 56
0.61642 0.35172 -0.91401 42 48 73
0.62997 0.35083 -0.91681 38 47 75
0.63638 0.34627 -0.91031 30 33 58
0.69579 0.35247 -0.94168 18 29 53
0.70053 0.33930 -0.93879 14 17 24
0.71076 0.35197 -0.94570 14 27 53
0.71553 0.33875 -0.94279 13 15 25
0.72755 0.35229 -0.95185 11 21 51
0.73233 0.33900 -0.94893 13 15 23
0.74073 0.35080 -0.95340 11 18 45
0.74553 0.33748 -0.95047 11 15 16
0.75368 0.34916 -0.95459 10 16 36
0.75849 0.33580 -0.95165 9 14 16
0.76668 0.34751 -0.95578 9 15 30
0.77151 0.33412 -0.95283 8 12 18
0.77935 0.34566 -0.95647 7 11 25
0.78418 0.33223 -0.95352 8 11 14
0.79112 0.34336 -0.95602 5 9 26
0.79597 0.32991 -0.95306 8 11 16
0.80726 0.34303 -0.96075 5 9 29
0.81213 0.32953 -0.95778 8 11 20
0.82224 0.34212 -0.96397 5 9 25
0.82712 0.32856 -0.96099 8 12 14
0.83422 0.33210 -0.94902 4 8 22
0.84100 0.32747 -0.94252 6 8 27
0.84536 0.32180 -0.93324 9 8 31
0.84905 0.31586 -0.92326 11 9 28
0.86041 0.31326 -0.92211 10 8 27
0.87228 0.31086 -0.92149 5 7 28
0.88290 0.30790 -0.91942 7 6 27
0.89248 0.30449 -0.91615 8 7 23
0.90119 0.30072 -0.91190 9 9 19
0.90995 0.29695 -0.90769 10 9 18
1.00120 0.23961 -0.82958 9 10 33
1.00101 0.23266 -0.81639 9 10 32
1.00328 0.22665 -0.80579 15 12 32
0.99697 0.21764 -0.78667 41 46 22
0.99375 0.20980 -0.77081 40 45 40
0.99959 0.20520 -0.76405 37 43 51
1.00804 0.20151 -0.75988 35 41 58
1.01766 0.19822 -0.75684 35 40 46
1.02401 0.19381 -0.75062 33 35 43
1.02411 0.18732 -0.73840 38 35 46
1.01979 0.17941 -0.72203 37 25 34
1.00582 0.16840 -0.69660 33 16 31
1.00793 0.16277 -0.68666 31 11 16
1.01542 0.15891 -0.68186 24 11 12
1.07666 0.14084 -0.66798 40 36 47
1.07325 0.13166 -0.66948 139 161 173
1.08131 0.12795 -0.66514 136 156 178
1.07755 0.13496 -0.65717 41 39 58
1.08916 0.13233 -0.65605 39 48 71
1.09379 0.11947 -0.65322 130 160 177
1.09662 0.12846 -0.65120 49 65 92
1.12361 0.13033 -0.66366 65 79 114
1.14859 0.13151 -0.67416 77 92 126
1.18170 0.13494 -0.69159 78 99 132
1.20468 0.13534 -0.69995 81 101 132
1.22028 0.13357 -0.70178 83 101 132
1.22510 0.12022 -0.69884 80 116 157
1.23196 0.13066 -0.70014 84 101 137
1.23677 0.11729 -0.69720 80 114 153
1.24771 0.12886 -0.70196 85 104 139
1.26389 0.12714 -0.70407 87 106 138
1.27955 0.12524 -0.70566 85 104 129
1.28112 0.11951 -0.69534 75 87 106
1.27937 0.11292 -0.68232 70 85 102
1.25244 0.08197 -0.61496 162 127 108
1.25818 0.07760 -0.60860 175 123 105
1.27165 0.07518 -0.60849 189 149 113
1.33741 0.08576 -0.65024 206 183 152
1.34224 0.07237 -0.64729 244 236 222
1.29845 0.03056 -0.53308 214 233 226
1.29506 0.02143 -0.53458 127 143 169
1.30308 0.01774 -0.53026 172 177 196
1.38270 -0.01083 -0.48277 203 161 124
1.42861 -0.02284 -0.47528 138 123 103
1.42520 -0.03201 -0.47678 200 173 116
1.50956 -0.01239 -0.52180 148 152 162
1.58589 -0.00867 -0.55409 175 177 169
1.71032 0.00920 -0.62902 204 202 200
1.74294 0.00954 -0.64046 217 203 204
1.82377 0.00693 -0.66228 145 123 171
1.86144 0.00782 -0.67642 137 115 164
1.89897 0.00857 -0.69026 175 131 156
1.91083 0.00475 -0.68697 198 154 161
1.92237 -0.01080 -0.66142 219 200 180
1.92769 -0.02556 -0.65817 254 254 243
-0.48263 0.71951 -1.26341 205 203 204
-0.48691 0.73138 -1.26602 193 195 195
-0.48578 0.71106 -1.26479 226 215 214
-0.42933 0.69824 -1.24090 253 161 97
-0.42335 0.69203 -1.23112 253 163 101
-0.41529 0.68982 -1.22963 252 171 122
-0.40913 0.68405 -1.22073 252 183 142
-0.39798 0.68748 -1.23101 251 197 157
-0.38930 0.68624 -1.23158 251 224 201
-0.38500 0.67430 -1.22895 254 254 254
-0.00467 1.16128 -2.26416 240 229 235
-0.01992 1.15401 -2.27193 249 160 129
-0.00921 1.14908 -2.26616 229 189 190
0.00150 1.14415 -2.26039 185 171 191
-0.20226 0.64138 -1.20924 253 244 243
-0.20993 0.64491 -1.21337 254 254 252
-0.19901 0.65012 -1.20780 249 232 232
-0.19133 0.64659 -1.20367 230 189 208
-0.18634 0.64888 -1.22885 252 223 218
-0.17530 0.65413 -1.22323 205 187 204
-0.17859 0.64531 -1.22468 239 210 173
-0.18187 0.63649 -1.22612 236 133 73
-0.19678 0.59472 -1.12238 74 44 91
-0.20107 0.60664 -1.12500 153 153 195
-0.20423 0.59815 -1.12639 162 108 107
-0.19362 0.60321 -1.12099 120 133 192
-0.18617 0.59978 -1.11698 113 115 180
-0.19248 0.58280 -1.11976 168 135 155
-0.17354 0.54829 -1.04192 245 242 241
-0.13514 0.51090 -0.98377 251 254 254
-0.12492 0.51578 -0.97857 254 254 254
-0.13720 0.46494 -0.89569 206 222 232
-0.13368 0.45814 -0.88395 187 204 226
-0.12978 0.45181 -0.87323 179 182 222
-0.12378 0.44770 -0.86744 181 176 217
-0.12049 0.44087 -0.85555 174 148 216
-0.09854 0.45293 -0.88588 172 126 194
-0.08300 0.44808 -0.88189 170 111 179
-0.07140 0.44937 -0.88825 172 103 167
-0.07604 0.43487 -0.85911 171 89 151
-0.07054 0.43031 -0.85229 170 71 133
-0.06898 0.42204 -0.83710 163 54 120
-0.06154 0.41938 -0.83454 166 76 128
-0.05804 0.41307 -0.82373 152 80 135
-0.07093 0.39177 -0.77890 107 33 86
-0.06705 0.38101 -0.77653 101 21 38
-0.05546 0.38737 -0.77573 97 20 68
-0.05158 0.37658 -0.77336 114 27 37
-0.04025 0.38268 -0.77193 114 27 44
-0.02171 0.38080 -0.77460 83 17 36
-0.01756 0.37542 -0.76577 125 82 101
0.00384 0.38468 -0.79058 193 180 186
0.00780 0.37369 -0.78816 221 223 227
0.00973 0.38070 -0.78499 221 223 223
0.01369 0.36972 -0.78258 220 219 221
0.01722 0.37806 -0.78249 219 218 223
0.02118 0.36708 -0.78007 219 218 218
0.05112 0.37929 -0.79625 218 218 218
0.04123 0.37457 -0.80129 218 217 217
0.04818 0.37138 -0.79754 216 215 217
0.06689 0.38313 -0.80884 228 230 232
0.09287 0.38604 -0.82312 238 237 243
0.60929 0.68100 -1.55772 173 151 95
0.59544 0.67440 -1.56477 254 252 248
0.64194 0.69279 -1.59112 67 33 5
0.68280 0.68694 -1.59376 55 35 35
0.70544 0.69106 -1.60920 63 49 51
0.78783 0.68915 -1.63330 114 85 98
0.77193 0.66764 -1.58705 177 143 102
0.74875 0.64179 -1.53011 233 205 100
0.79200 0.65840 -1.57625 203 165 81
0.78253 0.64155 -1.54103 160 102 93
0.51678 0.37081 -0.93686 254 254 254
0.50543 0.36540 -0.94264 254 254 254
0.52169 0.36544 -0.92829 248 231 201
0.51861 0.35570 -0.90873 98 56 45
0.54504 0.36217 -0.92993 29 19 32
0.55275 0.35833 -0.92524 24 23 28
0.56076 0.35467 -0.92096 30 34 37
0.56688 0.34999 -0.91413 32 37 37
0.57286 0.34526 -0.90716 36 38 37
0.58638 0.34448 -0.91023 34 39 44
0.60545 0.34651 -0.92050 37 45 61
0.63147 0.35199 -0.93968 45 77 102
0.63278 0.34479 -0.92642 38 69 89
0.63296 0.33707 -0.91182 26 30 36
0.83742 0.31785 -0.94409 9 12 25
0.84179 0.31220 -0.93481 9 11 29
0.84549 0.30629 -0.92483 8 10 20
0.85684 0.30367 -0.92368 7 10 11
0.86870 0.30125 -0.92307 5 11 12
0.87932 0.29829 -0.92100 6 10 10
0.88983 0.29526 -0.91878 10 9 6
0.89858 0.29149 -0.91455 13 7 6
0.90728 0.28770 -0.91028 15 6 7
0.91551 0.28372 -0.90548 16 5 7
0.92374 0.27974 -0.90068 18 5 7
0.93194 0.27575 -0.89586 17 6 7
0.93901 0.27132 -0.88982 18 6 7
0.94386 0.26604 -0.88141 19 7 7
0.94982 0.26121 -0.87423 21 9 9
1.00001 0.23784 -0.84670 26 27 27
1.00253 0.23183 -0.83613 24 33 42
1.00778 0.22685 -0.82842 31 39 40
1.00795 0.22008 -0.81561 18 15 37
1.01276 0.20673 -0.81268 6 10 18
1.01672 0.21639 -0.81154 15 16 23
1.02153 0.20303 -0.80860 7 10 20
1.00663 0.20614 -0.78866 15 18 28
1.01140 0.19290 -0.78574 8 8 23
1.00540 0.19905 -0.77477 15 17 36
1.01014 0.18588 -0.77188 8 8 22
1.00570 0.19255 -0.76252 15 16 34
1.01042 0.17943 -0.75963 8 9 15
1.01614 0.18953 -0.76029 14 17 21
1.02286 0.18525 -0.75442 17 18 35
1.03522 0.18285 -0.75401 49 68 90
1.02960 0.16810 -0.72407 66 70 93
1.01447 0.15685 -0.69759 88 98 118
1.02572 0.15417 -0.69627 77 101 117
1.19579 0.18171 -0.80588 121 141 147
1.23279 0.14740 -0.75311 111 124 151
1.23450 0.14155 -0.74256 98 115 156
1.24125 0.13717 -0.73650 93 116 159
1.25088 0.13359 -0.73294 88 117 159
1.27440 0.12138 -0.71764 82 108 147
1.29199 0.11993 -0.72081 82 103 137
1.29903 0.11563 -0.71500 73 91 120
1.30145 0.11012 -0.70534 52 85 124
1.31359 0.10718 -0.70383 95 126 159
1.40548 0.12480 -0.76826 186 190 189
1.41054 0.11075 -0.76517 209 193 177
1.39017 0.11460 -0.74371 217 214 194
1.39518 0.10069 -0.74065 208 191 179
1.32223 0.07336 -0.64245 242 237 218
1.32703 0.06003 -0.63952 220 206 190
1.50654 0.08135 -0.71968 106 62 53
1.48916 0.02461 -0.60595 171 130 121
1.49405 0.01105 -0.60297 230 228 209
1.55829 -0.02280 -0.53908 128 116 116
1.59035 -0.02231 -0.55081 134 126 118
1.76588 -0.00725 -0.63852 148 108 129
1.81272 -0.00470 -0.65914 168 160 184
1.84687 -0.00450 -0.67100 177 173 190
1.89301 -0.00819 -0.67953 237 225 213
1.92712 -0.00825 -0.69088 250 244 227
1.95032 -0.01023 -0.69493 254 252 241
1.95417 -0.01544 -0.68632 254 254 239
1.95956 -0.03038 -0.68303 254 254 254
-0.49757 0.70491 -1.24899 212 207 208
-0.50182 0.71668 -1.25158 193 193 195
-0.50494 0.70830 -1.25295 203 199 202
-0.47821 0.70796 -1.26146 244 212 204
-0.45190 0.68756 -1.23142 254 161 94
-0.44313 0.68689 -1.23314 252 162 81
-0.43506 0.68478 -1.23186 252 171 101
-0.42660 0.68339 -1.23210 252 188 132
-0.40572 0.68774 -1.24758 253 227 207
-0.40736 0.66763 -1.20854 252 237 228
-0.40311 0.65582 -1.20594 254 254 253
-0.39848 0.66693 -1.21023 253 248 245
-0.39422 0.65509 -1.20763 254 254 254
-0.26840 0.62937 -1.18288 234 172 165
-0.27273 0.64138 -1.18552 183 136 136
-0.27591 0.63283 -1.18693 210 136 117
-0.27910 0.62427 -1.18833 235 147 113
-0.27158 0.62081 -1.18428 245 166 130
-0.24930 0.64252 -1.21460 250 229 224
-0.24340 0.63658 -1.20524 254 254 254
-0.23257 0.64175 -1.19973 254 254 254
-0.23486 0.63438 -1.20396 253 254 254
-0.22402 0.63955 -1.19844 254 254 254
-0.22591 0.63273 -1.20386 251 253 254
-0.21755 0.63021 -1.20189 253 253 252
-0.20572 0.63235 -1.21005 253 241 236
-0.19332 0.63512 -1.21959 251 191 173
-0.19994 0.58623 -1.12377 110 46 63
-0.21702 0.53923 -1.02798 227 219 215
-0.20679 0.54411 -1.02278 181 170 173
-0.20790 0.53833 -1.02937 240 232 227
-0.20473 0.53008 -1.01468 228 218 215
-0.19024 0.53567 -1.03033 244 246 243
-0.18052 0.53534 -1.03302 252 253 252
-0.17452 0.53052 -1.02586 246 254 254
-0.16874 0.52550 -1.01823 234 252 254
-0.15845 0.53040 -1.01299 254 254 254
-0.16282 0.52066 -1.01099 231 249 254
-0.15717 0.51556 -1.00316 231 251 254
-0.15308 0.50873 -0.99150 213 234 254
-0.16647 0.48241 -0.93654 205 210 253
-0.16268 0.47562 -0.92484 195 186 246
-0.15822 0.46964 -0.91492 159 157 223
-0.15029 0.46748 -0.91351 115 130 196
-0.14966 0.45747 -0.89457 94 101 167
-0.14489 0.45200 -0.88575 79 86 148
-0.13785 0.44896 -0.88232 62 66 118
-0.13100 0.44572 -0.87848 78 52 103
-0.11948 0.44726 -0.88537 95 44 94
-0.11548 0.43616 -0.88293 94 24 48
-0.09783 0.45898 -0.91521 96 30 97
-0.08875 0.45777 -0.91600 118 30 93
-0.08266 0.45355 -0.91000 137 29 90
-0.07661 0.44931 -0.90396 147 28 86
-0.07254 0.43803 -0.90148 159 47 58
-0.08295 0.41340 -0.83308 163 32 79
-0.08088 0.40574 -0.81912 160 41 64
-0.08076 0.39635 -0.80119 152 46 64
-0.07277 0.39434 -0.80009 120 24 70
-0.06886 0.38349 -0.79770 105 21 35
-0.07158 0.38611 -0.78474 102 17 47
-0.06770 0.37532 -0.78237 108 24 38
-0.03572 0.37242 -0.77083 94 33 35
-0.02699 0.37100 -0.77110 131 99 97
-0.01183 0.37501 -0.78396 184 176 174
-0.00774 0.36956 -0.77493 213 217 218
0.06569 0.37654 -0.81343 222 223 226
0.05570 0.37178 -0.81851 214 212 213
0.07927 0.37847 -0.82175 238 241 243
0.09162 0.37933 -0.82763 249 246 244
0.13843 0.40662 -0.89588 205 198 216
0.14935 0.40597 -0.89839 169 165 194
0.16010 0.40514 -0.90047 200 192 192
0.17294 0.40583 -0.90618 192 163 139
0.18623 0.40677 -0.91253 176 158 148
0.19052 0.39486 -0.90991 222 219 238
0.63964 0.68287 -1.59612 153 119 95
0.65966 0.68541 -1.60783 96 49 10
0.67931 0.68756 -1.61867 92 60 14
0.70270 0.69214 -1.63543 105 78 17
0.72219 0.69390 -1.64547 108 82 22
0.72703 0.68569 -1.63143 105 69 33
0.75820 0.69508 -1.66007 138 97 53
0.70392 0.64789 -1.55117 197 167 93
0.70562 0.63804 -1.53291 240 213 156
0.78486 0.64516 -1.57366 245 220 158
0.76159 0.61983 -1.51722 163 88 71
0.80490 0.63594 -1.56287 191 194 212
0.51502 0.36263 -0.94061 254 254 254
0.50365 0.35721 -0.94640 254 254 254
0.51163 0.35354 -0.94210 254 254 254
0.51962 0.34986 -0.93781 254 242 230
0.52520 0.36017 -0.93939 252 240 203
0.51370 0.34585 -0.90805 121 64 49
0.53585 0.34992 -0.92343 53 16 20
0.54494 0.34686 -0.92068 47 17 15
0.55393 0.34373 -0.91778 53 26 18
0.56097 0.33957 -0.91222 54 26 21
0.56804 0.33543 -0.90671 50 18 18
0.57581 0.33166 -0.90217 50 16 19
0.58954 0.33094 -0.90549 56 20 35
0.60287 0.32997 -0.90819 68 44 71
0.60899 0.32532 -0.90139 57 36 53
0.70375 0.33313 -0.94878 74 35 18
0.72050 0.33336 -0.95495 76 39 18
0.73366 0.33182 -0.95651 61 32 16
0.74660 0.33013 -0.95771 34 16 13
0.75958 0.32843 -0.95890 23 10 16
0.77223 0.32654 -0.95960 23 14 24
0.78399 0.32420 -0.95916 23 12 22
0.80011 0.32380 -0.96390 22 13 22
0.81506 0.32281 -0.96713 21 15 22
0.82126 0.31791 -0.95987 20 18 18
0.83384 0.30823 -0.94567 20 25 30
0.83822 0.30260 -0.93639 21 28 34
0.84242 0.29693 -0.92697 22 35 33
0.85423 0.29449 -0.92635 20 35 37
0.86690 0.29239 -0.92666 21 36 57
0.87849 0.28981 -0.92569 26 40 65
0.88853 0.28657 -0.92292 30 42 67
0.91196 0.28875 -0.93513 34 50 69
0.92184 0.28538 -0.93205 40 56 73
0.96062 0.28610 -0.94671 51 68 81
0.96559 0.27231 -0.94368 81 117 160
0.98113 0.28679 -0.95505 47 74 92
0.98371 0.24451 -0.87502 65 99 126
1.01190 0.24080 -0.87758 71 105 122
1.01261 0.23407 -0.86494 71 100 119
1.03384 0.23471 -0.87344 73 97 117
1.04545 0.23187 -0.87197 61 72 93
1.01812 0.21537 -0.83105 21 14 23
1.02296 0.20193 -0.82809 8 9 16
1.02497 0.17775 -0.76139 11 12 26
1.01325 0.17216 -0.76736 8 7 16
1.04752 0.17866 -0.77085 32 43 60
1.25135 0.16993 -0.82393 95 102 164
1.25637 0.15600 -0.82086 126 159 198
1.23078 0.13817 -0.75610 100 118 148
1.23592 0.13331 -0.74856 111 122 156
1.25715 0.13294 -0.75512 117 129 165
1.24729 0.12394 -0.73452 98 116 159
1.25216 0.11906 -0.72684 70 102 159
1.26558 0.11650 -0.72655 68 105 166
1.29193 0.11738 -0.73725 75 109 167
1.30932 0.11579 -0.74016 79 113 165
1.31786 0.11183 -0.73551 75 107 154
1.32878 0.10849 -0.73286 54 91 145
1.32746 0.10200 -0.71998 84 122 171
1.39421 0.11287 -0.76364 170 180 193
1.47713 0.01321 -0.60130 175 128 142
1.55625 0.01230 -0.62665 253 246 242
1.56683 -0.02471 -0.55945 122 53 65
1.55216 -0.03284 -0.53886 114 89 120
1.60139 -0.02931 -0.56247 168 146 126
1.87386 -0.01547 -0.68224 240 224 212
1.89061 -0.01846 -0.68226 245 242 236
1.92445 -0.01865 -0.69347 245 251 251
1.94636 -0.02089 -0.69668 249 252 254
-0.50428 0.68869 -1.23402 230 198 193
-0.49804 0.68302 -1.22527 240 196 183
-0.49665 0.66714 -1.19517 249 172 147
-0.48832 0.66613 -1.19613 252 157 118
-0.43652 0.67959 -1.24009 252 217 183
-0.43753 0.66013 -1.20225 252 235 219
-0.43331 0.64842 -1.19968 254 254 254
-0.43004 0.65706 -1.19895 253 247 237
-0.42582 0.64534 -1.19637 254 254 254
-0.42228 0.65448 -1.19668 254 253 247
-0.41348 0.65379 -1.19841 254 254 252
-0.34990 0.66608 -1.24422 254 254 250
-0.35746 0.66956 -1.24829 254 254 254
-0.34234 0.66260 -1.24015 254 232 212
-0.31623 0.67329 -1.26982 240 113 65
-0.31181 0.66102 -1.26712 231 114 73
-0.26553 0.61526 -1.17570 248 211 185
-0.27621 0.61017 -1.18114 240 132 68
-0.24872 0.62495 -1.20022 249 249 252
-0.23964 0.62354 -1.20066 243 235 243
-0.22918 0.62398 -1.20515 238 224 235
-0.21788 0.62546 -1.21194 248 244 241
-0.20795 0.62498 -1.21447 252 228 217
-0.20935 0.60940 -1.18397 247 148 123
-0.22949 0.53152 -1.02692 224 227 226
-0.22006 0.53105 -1.02932 227 240 240
-0.21095 0.53013 -1.03071 209 221 237
-0.20319 0.52751 -1.02836 202 217 239
-0.19497 0.52543 -1.02722 207 224 252
-0.18646 0.52366 -1.02678 203 206 250
-0.11850 0.59194 -1.18197 178 172 234
-0.20750 0.47566 -0.92699 140 148 209
-0.20057 0.47247 -0.92326 131 128 197
-0.19364 0.46928 -0.91953 135 139 207
-0.17463 0.47970 -0.94621 77 80 158
-0.16258 0.48206 -0.95496 58 58 129
-0.15770 0.47641 -0.94576 55 48 112
-0.14912 0.47483 -0.94572 43 40 101
-0.14505 0.46354 -0.94324 40 37 42
-0.13794 0.46520 -0.93105 38 31 76
-0.13388 0.45394 -0.92857 44 35 41
-0.13216 0.46063 -0.92427 36 27 73
-0.12811 0.44939 -0.92179 52 38 48
-0.12546 0.45706 -0.91971 44 30 59
-0.12141 0.44582 -0.91724 71 41 44
-0.12270 0.44942 -0.90597 74 32 46
-0.11867 0.43824 -0.90351 92 41 43
-0.11826 0.44360 -0.89629 91 30 40
-0.11424 0.43244 -0.89383 101 35 47
-0.08322 0.40808 -0.84008 155 42 58
-0.07766 0.39416 -0.81518 124 32 50
-0.07373 0.38325 -0.81279 102 19 49
-0.07427 0.38787 -0.80426 107 19 49
-0.07036 0.37701 -0.80187 105 24 44
-0.05626 0.36729 -0.77089 102 21 40
-0.06300 0.37039 -0.77451 106 26 42
-0.04901 0.36465 -0.76832 99 40 40
-0.03794 0.36528 -0.77339 141 118 104
-0.02114 0.37073 -0.78973 183 180 170
-0.01720 0.35980 -0.78732 189 190 192
-0.01434 0.36755 -0.78599 192 194 196
-0.00386 0.36746 -0.78945 198 199 208
0.00355 0.36476 -0.78684 207 210 215
0.01041 0.36161 -0.78315 214 215 214
0.00751 0.35379 -0.78443 213 213 211
0.06494 0.37031 -0.81889 219 219 219
0.05493 0.36553 -0.82399 215 214 216
0.07770 0.37153 -0.82570 236 238 237
0.08670 0.36977 -0.82544 249 245 240
0.13235 0.39599 -0.89183 205 193 203
0.13912 0.39221 -0.88692 144 133 179
0.15629 0.39623 -0.90064 174 173 199
0.16936 0.39707 -0.90679 195 180 184
0.18310 0.39831 -0.91397 178 149 180
0.66770 0.68259 -1.63030 254 235 185
0.65345 0.67580 -1.63755 254 254 254
0.66346 0.67119 -1.63217 254 254 252
0.67018 0.67282 -1.61235 254 239 180
0.67424 0.66423 -1.59721 254 244 179
0.69520 0.66709 -1.61002 239 222 143
0.66760 0.63743 -1.54327 188 149 84
0.68514 0.63806 -1.55060 186 155 109
0.74940 0.61428 -1.52716 251 248 220
0.76010 0.61028 -1.52317 209 188 127
0.75738 0.59805 -1.49867 121 105 106
0.79103 0.59750 -1.50933 249 254 254
0.80507 0.60419 -1.50218 254 254 254
0.80090 0.59296 -1.50402 254 254 254
0.79672 0.58173 -1.50586 253 254 254
0.55098 0.35885 -0.96604 192 135 145
0.53945 0.35335 -0.97191 254 254 250
0.54755 0.34963 -0.96755 254 250 235
0.55565 0.34590 -0.96319 254 251 223
0.56793 0.35987 -0.97391 156 116 100
0.57263 0.34685 -0.97105 254 252 223
0.57554 0.35584 -0.96879 153 124 100
0.59010 0.35547 -0.97315 160 131 107
0.60963 0.34163 -0.95329 182 140 131
0.59682 0.32725 -0.92112 196 144 149
0.61663 0.32946 -0.93227 208 162 157
0.63074 0.32096 -0.92082 193 143 118
0.75765 0.35100 -1.02288 249 225 195
0.75660 0.34256 -1.00624 253 233 190
0.83643 0.36379 -1.07494 114 94 107
0.80917 0.34323 -1.02584 76 66 89
0.83774 0.34832 -1.04559 75 84 108
0.83723 0.34016 -1.02970 76 90 116
0.84500 0.33577 -1.02394 77 91 115
0.84576 0.32829 -1.00980 84 94 112
0.85095 0.32282 -1.00106 87 96 112
0.85957 0.31886 -0.99643 85 93 111
0.87479 0.31773 -0.99956 84 92 114
0.88402 0.31400 -0.99559 84 92 118
0.89478 0.31091 -0.99338 84 92 120
0.92396 0.31549 -1.01237 82 90 124
0.94317 0.31579 -1.01964 84 94 133
0.95501 0.31300 -1.01838 81 102 139
0.97011 0.31150 -1.02075 77 107 147
0.98622 0.31036 -1.02416 80 110 151
0.99407 0.30588 -1.01826 81 111 149
1.00647 0.30319 -1.01741 79 115 152
1.01619 0.29944 -1.01356 79 118 156
1.02763 0.28884 -0.99713 82 112 153
1.04406 0.22987 -0.88924 54 59 86
1.02131 0.21496 -0.85261 35 31 63
1.02619 0.20142 -0.84963 9 8 17
1.02339 0.20886 -0.84157 13 10 21
1.02825 0.19536 -0.83860 7 8 11
1.03244 0.17196 -0.77365 13 10 26
1.02066 0.16634 -0.77965 9 7 16
1.06101 0.17472 -0.78892 31 36 44
1.06583 0.16136 -0.78598 53 57 71
1.30862 0.18450 -0.89396 37 55 110
1.25829 0.16310 -0.83522 80 108 150
1.27258 0.13479 -0.78565 166 184 210
1.29052 0.13336 -0.78915 171 179 212
1.29581 0.12845 -0.78152 128 148 199
1.29092 0.12081 -0.76511 87 129 193
1.30009 0.11699 -0.76095 80 132 200
1.30760 0.11273 -0.75536 83 131 199
1.32279 0.11049 -0.75632 84 130 195
1.32389 0.10456 -0.74529 81 119 179
1.33300 0.10073 -0.74108 56 90 154
1.34573 0.09781 -0.73988 69 105 170
1.38524 0.10158 -0.76090 157 180 206
1.36778 0.09105 -0.73455 225 221 203
1.33919 0.06009 -0.66495 238 232 214
1.53416 -0.03964 -0.54072 162 95 58
1.52224 -0.04532 -0.54679 243 236 197
1.54740 -0.04262 -0.53959 123 86 104
1.55223 -0.05603 -0.53664 206 235 233
1.53605 -0.04998 -0.52145 219 226 215
1.53188 -0.05601 -0.50839 253 249 236
1.53665 -0.06925 -0.50548 254 254 254
1.86123 -0.02165 -0.68925 235 228 196
1.84810 -0.02791 -0.69593 254 254 250
1.85732 -0.03215 -0.69097 254 252 240
1.86654 -0.03639 -0.68601 252 248 242
1.86827 -0.02625 -0.68283 242 223 214
1.91281 -0.02471 -0.70130 224 218 211
1.94130 -0.02591 -0.70891 219 213 175
1.98647 -0.02452 -0.72732 232 211 209
1.99194 -0.03970 -0.72398 228 197 198
-0.52082 0.65104 -1.17377 238 165 146
-0.51195 0.65148 -1.17776 247 173 125
-0.50434 0.64915 -1.17594 251 163 103
-0.49138 0.65789 -1.19748 252 169 111
-0.45435 0.64285 -1.18143 253 251 243
-0.45017 0.63126 -1.17888 254 254 254
-0.44485 0.64379 -1.18661 254 254 251
-0.41826 0.64240 -1.19333 253 254 254
-0.40840 0.64355 -1.19905 253 253 254
-0.39841 0.64479 -1.20500 253 249 254
-0.38789 0.64981 -1.19964 254 254 254
-0.38861 0.64559 -1.21002 253 239 251
-0.37805 0.65062 -1.20464 254 254 254
-0.37499 0.65281 -1.22885 253 241 249
-0.36273 0.65744 -1.24216 254 250 251
-0.35301 0.65761 -1.24594 254 253 250
-0.34659 0.65226 -1.23784 253 229 214
-0.32095 0.66219 -1.26617 237 102 44
-0.26911 0.60616 -1.17587 231 163 131
-0.26180 0.60245 -1.17126 229 207 212
-0.22386 0.61304 -1.20524 240 225 221
-0.22156 0.60239 -1.18539 246 211 192
-0.20410 0.61195 -1.21011 237 117 91
-0.20385 0.55946 -1.10843 172 144 192
-0.19644 0.55605 -1.10444 141 121 178
-0.21889 0.51592 -1.01866 84 96 157
-0.21174 0.51263 -1.01481 70 92 154
-0.20394 0.51010 -1.01267 70 83 150
-0.18515 0.52062 -1.03972 63 61 129
-0.17413 0.52170 -1.04572 55 47 115
-0.16976 0.51496 -1.03420 41 42 98
-0.16557 0.50334 -1.03164 41 32 41
-0.16578 0.50785 -1.02181 38 33 95
-0.16931 0.49231 -0.99042 42 39 100
-0.16519 0.48087 -0.98791 52 36 46
-0.16366 0.48733 -0.98278 43 25 76
-0.15955 0.47592 -0.98027 57 40 47
-0.15985 0.48037 -0.97062 46 29 59
-0.15575 0.46900 -0.96812 54 41 39
-0.15701 0.47241 -0.95619 42 30 45
-0.15293 0.46109 -0.95370 53 42 35
-0.15181 0.46712 -0.94777 41 32 42
-0.14774 0.45582 -0.94529 53 44 41
-0.08524 0.40109 -0.84330 120 24 52
-0.08128 0.39008 -0.84088 98 18 44
-0.08304 0.39356 -0.82949 109 20 50
-0.07909 0.38261 -0.82708 98 18 42
-0.08038 0.38655 -0.81683 103 16 49
-0.07645 0.37564 -0.81443 97 20 42
-0.06613 0.37158 -0.79286 109 24 34
-0.07578 0.36698 -0.79777 96 24 37
-0.06006 0.36784 -0.78774 101 18 30
-0.05762 0.36093 -0.77521 102 49 40
-0.04486 0.36303 -0.78381 151 137 115
-0.03389 0.36350 -0.78858 179 189 178
-0.02477 0.36232 -0.78954 187 195 194
-0.00804 0.35859 -0.78822 191 188 191
0.00246 0.35845 -0.79167 202 202 202
0.06662 0.36594 -0.82891 220 221 221
0.06363 0.35790 -0.83023 223 224 224
0.07863 0.36653 -0.83430 230 234 236
0.08641 0.36379 -0.83174 229 235 237
0.11710 0.37844 -0.87102 188 185 196
0.12592 0.37629 -0.86998 145 140 173
0.16158 0.38521 -0.89989 224 227 228
0.17990 0.38979 -0.91527 198 159 189
0.19261 0.39017 -0.92051 193 163 203
0.20326 0.39525 -0.91509 250 254 254
0.20009 0.38673 -0.91649 239 250 254
0.19692 0.37822 -0.91788 234 245 249
0.66420 0.62679 -1.54632 210 172 131
0.66739 0.61797 -1.53035 149 123 97
0.74353 0.59146 -1.50589 244 232 187
0.74276 0.58054 -1.48445 144 132 70
0.74078 0.56902 -1.46141 137 143 117
0.78378 0.37160 -1.09381 254 254 248
0.78883 0.35759 -1.09073 254 254 254
0.79552 0.36899 -1.09290 254 254 254
0.80058 0.35495 -1.08981 254 254 254
0.80317 0.36442 -1.08674 254 254 254
0.80996 0.35946 -1.07953 254 254 247
0.80143 0.34743 -1.05318 191 193 203
0.83723 0.35585 -1.08218 112 106 124
0.84230 0.34176 -1.07909 80 90 105
0.83392 0.34630 -1.06250 89 89 105
0.84114 0.34158 -1.05591 82 104 141
0.83920 0.33280 -1.03819 73 102 148
0.84614 0.32802 -1.03138 84 109 149
0.85546 0.32430 -1.02746 132 144 160
0.86175 0.31926 -1.01992 167 168 170
0.87734 0.31823 -1.02344 168 161 169
0.89117 0.31640 -1.02478 165 154 171
0.90283 0.31361 -1.02351 163 149 168
0.90787 0.29962 -1.02043 215 238 232
0.91111 0.30939 -1.01826 162 150 170
0.91851 0.30481 -1.01199 167 154 173
0.93086 0.30227 -1.01144 159 154 162
0.95670 0.30516 -1.02620 114 126 140
0.96178 0.29104 -1.02309 71 94 130
0.96680 0.30161 -1.02289 67 99 152
0.98195 0.30006 -1.02523 68 99 165
0.98989 0.29561 -1.01943 71 103 164
0.99499 0.28145 -1.01632 40 37 53
1.00183 0.29274 -1.01809 72 107 157
1.00694 0.27855 -1.01497 18 13 44
1.00304 0.28569 -1.00485 64 93 136
0.97925 0.26912 -0.96429 56 75 102
1.04631 0.27979 -1.00872 27 32 64
1.05672 0.26885 -0.99120 21 17 55
1.06184 0.25465 -0.98808 20 24 35
1.05522 0.26097 -0.97538 12 18 55
1.06031 0.24684 -0.97227 21 26 39
1.01238 0.21719 -0.87532 77 91 86
1.03278 0.21742 -0.88298 78 79 77
1.02941 0.20935 -0.86615 28 16 25
1.03431 0.19574 -0.86316 11 9 16
1.04573 0.16796 -0.79165 15 9 31
1.03385 0.16229 -0.79770 9 7 16
1.07442 0.17062 -0.80698 34 43 50
1.31350 0.17006 -0.89053 54 84 117
1.26188 0.14869 -0.83082 77 102 153
1.27903 0.12770 -0.79620 156 194 242
1.28253 0.12231 -0.78697 162 188 239
1.29500 0.11934 -0.78564 124 154 221
1.30000 0.10547 -0.78259 87 142 229
1.30846 0.11662 -0.78512 89 135 213
1.31438 0.11189 -0.77804 83 137 217
1.32769 0.10285 -0.76523 85 140 217
1.33818 0.09932 -0.76211 84 134 206
1.33517 0.09238 -0.74759 59 99 172
1.34547 0.08883 -0.74433 55 102 177
1.38307 0.09200 -0.76381 140 186 221
1.36450 0.08130 -0.73648 233 247 240
1.37314 0.07732 -0.73182 254 252 245
1.37812 0.06349 -0.72877 254 253 246
1.37161 0.07091 -0.71884 254 253 246
1.37657 0.05714 -0.71581 254 253 247
1.38474 0.06801 -0.71788 254 253 246
1.38971 0.05422 -0.71485 253 254 249
1.38396 0.06184 -0.70563 254 253 247
1.38891 0.04810 -0.70260 253 254 250
1.64461 0.05914 -0.79268 132 73 33
1.69585 0.06368 -0.81963 106 66 75
1.51895 -0.06706 -0.50346 250 254 254
1.52370 -0.08026 -0.50056 253 254 254
1.87697 -0.04044 -0.68184 233 229 215
1.86383 -0.04671 -0.68853 254 254 254
1.96663 -0.03196 -0.73003 228 212 153
2.00343 -0.03205 -0.74289 238 197 190
-0.53799 0.64975 -1.18336 229 147 123
-0.53105 0.64603 -1.17859 239 157 137
-0.52193 0.64708 -1.18393 249 175 146
-0.51306 0.64744 -1.18783 253 200 149
-0.50316 0.64988 -1.19616 252 204 150
-0.44230 0.62909 -1.17748 254 254 254
-0.43296 0.62959 -1.18181 253 247 249
-0.42335 0.63044 -1.18694 250 232 231
-0.41890 0.62199 -1.17204 248 220 220
-0.41127 0.61926 -1.16947 249 213 216
-0.39778 0.62670 -1.18884 249 185 190
-0.38541 0.63190 -1.20345 251 173 163
-0.37098 0.64034 -1.22512 253 198 186
-0.35912 0.64417 -1.23686 253 221 222
-0.35366 0.63732 -1.22546 252 215 210
-0.34410 0.63718 -1.22863 250 196 163
-0.31654 0.64995 -1.26348 235 104 41
-0.30564 0.65515 -1.25793 208 141 130
-0.29070 0.58538 -1.14673 218 110 65
-0.29496 0.59719 -1.14933 244 144 77
-0.29809 0.58878 -1.15070 224 100 45
-0.29383 0.57696 -1.14810 213 132 101
-0.27821 0.58922 -1.15873 218 144 118
-0.26891 0.58841 -1.16049 216 170 161
-0.26104 0.58554 -1.15773 217 173 159
-0.23680 0.59125 -1.17760 235 211 201
-0.22651 0.59144 -1.18167 232 182 151
-0.19654 0.55138 -1.11427 106 35 93
-0.19225 0.53949 -1.11165 83 32 52
-0.19069 0.54601 -1.10588 59 25 81
-0.18642 0.53414 -1.10327 64 35 41
-0.18491 0.54061 -1.09743 47 27 65
-0.18064 0.52876 -1.09482 63 36 36
-0.17730 0.53744 -1.09397 48 27 55
-0.17303 0.52559 -1.09136 61 41 42
-0.17455 0.52852 -1.07756 45 28 53
-0.17030 0.51673 -1.07497 58 41 38
-0.17426 0.51686 -1.05489 46 30 47
-0.17004 0.50516 -1.05232 54 41 33
-0.17438 0.50491 -1.03152 44 33 40
-0.17020 0.49331 -1.02897 50 39 32
-0.17114 0.48552 -0.99483 42 33 39
-0.17418 0.47736 -0.99617 50 40 29
-0.16702 0.47407 -0.99231 52 40 39
-0.06928 0.36362 -0.79354 94 15 29
-0.06409 0.35910 -0.78660 96 56 58
-0.05452 0.35843 -0.78872 136 139 120
-0.05160 0.35198 -0.77719 158 167 163
-0.04051 0.35256 -0.78231 123 124 168
-0.03513 0.34825 -0.77584 147 151 184
-0.01874 0.35315 -0.79130 182 184 192
-0.00913 0.35229 -0.79309 192 190 191
0.00280 0.35328 -0.79930 200 200 197
0.01377 0.35340 -0.80349 215 218 212
0.02362 0.35809 -0.79847 218 215 214
0.02069 0.35021 -0.79976 221 226 221
0.04151 0.35805 -0.82256 212 211 214
0.04448 0.36603 -0.82125 217 215 215
0.05175 0.35737 -0.82491 212 212 214
0.07321 0.35659 -0.83113 212 216 225
0.09768 0.36658 -0.85944 172 158 182
0.10572 0.36392 -0.85714 151 138 164
0.12031 0.36614 -0.86672 176 177 196
0.15050 0.37978 -0.90421 222 222 232
0.15466 0.37402 -0.89448 246 245 230
0.17980 0.38353 -0.92208 215 188 148
0.19326 0.38439 -0.92862 193 173 150
0.66586 0.61946 -1.55767 219 203 154
0.72194 0.55940 -1.46062 246 223 160
0.74114 0.56067 -1.47001 122 118 80
0.74703 0.55397 -1.45904 154 215 232
0.76332 0.55339 -1.46379 231 252 254
0.77713 0.55998 -1.45676 254 254 254
0.77302 0.54893 -1.45856 253 254 254
0.80213 0.34757 -1.07595 254 253 247
0.78968 0.34163 -1.08229 253 254 254
0.82669 0.35079 -1.09108 167 184 203
0.83712 0.34746 -1.08834 79 100 125
0.83946 0.33253 -1.06003 80 99 140
0.83945 0.32463 -1.04462 69 95 148
0.84891 0.32094 -1.04083 91 116 169
0.84989 0.31359 -1.02681 163 178 209
0.85701 0.30892 -1.02026 203 218 230
0.86515 0.30470 -1.01497 203 217 225
0.87528 0.30132 -1.01201 207 229 227
0.88479 0.29767 -1.00832 212 236 232
0.92941 0.30083 -1.03053 216 238 229
0.92567 0.29080 -1.03217 144 118 169
0.93448 0.28675 -1.02743 125 95 140
0.94708 0.29275 -1.02113 146 158 163
0.99183 0.29533 -1.04229 62 86 121
0.99698 0.28106 -1.03915 27 26 46
1.02838 0.30200 -1.06846 52 69 95
1.03359 0.28754 -1.06527 27 24 33
1.02854 0.27929 -1.02419 28 27 43
1.01583 0.27323 -1.03066 27 28 26
1.02476 0.26912 -1.02585 29 32 25
1.03665 0.27488 -1.01849 33 40 50
1.04782 0.27161 -1.01612 32 40 40
1.05297 0.25732 -1.01298 25 31 31
1.05619 0.26729 -1.01071 29 34 27
1.06134 0.25301 -1.00757 23 26 27
