ply
format ascii 1.0
element face 0
property list uchar int vertex_indices
element vertex 1256
property float x
property float y
property float z
property uchar diffuse_red
property uchar diffuse_green
property uchar diffuse_blue
end_header
-0.68464 -0.13833 -0.87329 254 254 254
-0.67837 -0.14083 -0.87081 254 254 254
-0.67209 -0.14332 -0.86834 254 254 254
-0.66968 -0.13723 -0.86330 247 248 247
-0.66593 -0.14645 -0.86125 254 254 254
-0.66348 -0.14001 -0.85876 249 250 249
-0.65973 -0.14922 -0.85672 254 254 254
-0.65720 -0.14237 -0.85721 251 251 251
-0.65345 -0.15158 -0.85517 254 254 254
-0.65093 -0.14480 -0.85516 252 252 252
-0.64718 -0.15402 -0.85312 254 254 254
-0.64458 -0.14692 -0.85532 253 253 251
-0.64083 -0.15616 -0.85327 252 253 254
-0.63826 -0.14921 -0.85432 244 247 247
-0.63179 -0.15102 -0.85693 239 239 236
-0.62491 -0.15169 -0.86805 216 217 204
-0.61839 -0.15366 -0.86959 171 175 167
-0.61170 -0.15523 -0.87429 137 142 130
-0.60769 -0.16359 -0.82745 57 61 54
-0.58592 -0.16466 -0.86965 40 35 39
-0.57905 -0.16624 -0.87466 45 40 46
-0.57522 -0.17567 -0.87257 54 54 59
-0.57139 -0.16646 -0.89058 48 47 52
-0.56752 -0.17597 -0.88848 56 56 60
-0.56495 -0.16906 -0.88777 56 51 56
-0.56108 -0.17857 -0.88567 53 57 62
-0.47892 -0.24656 -0.56408 103 114 188
-0.48676 -0.25035 -0.56667 17 47 114
-0.47320 -0.24869 -0.56281 164 181 233
-0.46621 -0.24989 -0.57060 119 119 221
-0.46051 -0.25208 -0.56888 101 112 223
-0.45658 -0.25548 -0.55506 158 216 217
-0.44774 -0.25556 -0.57458 79 136 167
-0.35758 -0.25081 -0.81083 232 241 242
-0.36664 -0.25520 -0.81384 166 178 191
-0.35076 -0.25321 -0.81025 238 233 225
-0.34645 -0.25682 -0.79589 242 239 231
-0.33068 -0.26065 -0.80598 239 242 244
-0.32387 -0.26309 -0.80512 226 223 227
-0.31395 -0.26424 -0.81993 212 207 211
-0.30489 -0.26582 -0.82987 202 193 189
-0.29690 -0.26789 -0.83411 185 167 153
-0.28860 -0.26988 -0.83967 182 165 145
-0.28197 -0.27252 -0.83700 201 197 179
-0.27528 -0.27514 -0.83465 209 214 205
-0.26794 -0.27754 -0.83523 213 216 212
-0.26080 -0.28002 -0.83481 228 228 228
-0.24813 -0.28552 -0.82676 239 240 241
-0.24118 -0.28807 -0.82545 221 217 222
-0.23295 -0.29025 -0.82954 198 195 211
-0.22689 -0.29308 -0.82433 228 237 238
-0.21970 -0.29558 -0.82390 235 236 244
-0.21669 -0.29921 -0.80641 221 226 236
-0.20594 -0.30078 -0.82030 199 198 213
-0.19972 -0.30355 -0.81587 163 167 191
-0.19371 -0.30636 -0.81063 172 175 188
-0.18746 -0.30911 -0.80645 184 168 181
-0.18059 -0.31171 -0.80464 182 152 156
-0.17523 -0.31464 -0.79716 168 127 110
-0.16832 -0.31723 -0.79549 158 116 112
-0.16066 -0.31967 -0.79657 148 106 79
-0.15326 -0.32217 -0.79656 152 108 80
-0.14618 -0.32474 -0.79542 171 118 102
-0.13730 -0.32699 -0.80048 186 148 126
-0.12823 -0.32924 -0.80600 209 182 150
-0.12090 -0.33181 -0.80541 238 218 181
-0.11687 -0.34174 -0.80321 252 251 250
-0.11496 -0.33462 -0.80010 251 246 224
-0.11093 -0.34453 -0.79790 251 250 252
-0.10849 -0.33734 -0.79659 253 252 238
-0.10447 -0.34724 -0.79440 251 249 252
-0.10180 -0.34001 -0.79385 252 251 247
-0.09777 -0.34992 -0.79166 251 249 251
0.21771 -0.47530 -0.61290 184 155 169
0.22164 -0.48497 -0.61077 177 157 144
0.23419 -0.48069 -0.61421 184 179 161
0.24464 -0.48351 -0.61903 237 238 227
0.24859 -0.49325 -0.61687 254 254 254
0.25325 -0.48625 -0.62023 253 253 251
0.25722 -0.49601 -0.61807 254 254 254
0.49630 -0.58881 -0.48497 254 250 230
0.49268 -0.59008 -0.46825 145 110 134
0.51407 -0.59461 -0.48643 45 22 37
0.51254 -0.59614 -0.47274 86 69 52
0.53278 -0.60056 -0.48902 198 193 187
0.51930 -0.60045 -0.45918 248 247 246
0.52317 -0.60997 -0.45707 254 254 254
0.52673 -0.60316 -0.45793 254 254 254
0.53060 -0.61268 -0.45583 254 254 254
0.53624 -0.60615 -0.45948 254 254 254
0.54012 -0.61569 -0.45737 254 254 254
0.54501 -0.60904 -0.45998 254 254 252
0.54889 -0.61860 -0.45786 254 254 254
0.55296 -0.61183 -0.45935 254 254 253
0.55685 -0.62140 -0.45724 254 254 254
-0.81586 -0.10571 -0.79080 141 144 144
-0.80488 -0.10756 -0.80369 187 185 197
-0.79956 -0.10756 -0.81613 229 217 230
-0.79598 -0.11636 -0.81418 254 254 254
-0.79438 -0.10665 -0.83444 251 249 252
-0.79076 -0.11554 -0.83248 254 254 254
-0.63465 -0.15892 -0.84876 251 251 251
-0.64341 -0.16316 -0.85167 254 254 254
-0.63716 -0.16565 -0.84919 254 254 254
-0.62843 -0.16154 -0.84528 244 243 241
-0.61467 -0.16319 -0.86611 167 165 165
-0.60748 -0.16359 -0.88012 116 115 102
-0.60365 -0.17300 -0.87803 79 82 82
-0.60228 -0.16888 -0.85598 53 32 31
-0.58856 -0.17168 -0.86877 53 49 49
-0.58474 -0.18108 -0.86669 59 61 57
-0.58191 -0.17368 -0.87057 54 54 54
-0.57808 -0.18309 -0.86848 57 58 58
-0.48065 -0.25218 -0.56840 48 78 168
-0.48850 -0.25598 -0.57100 20 35 115
-0.47504 -0.25441 -0.56618 43 68 192
-0.46848 -0.25596 -0.57092 91 110 198
-0.46450 -0.25933 -0.55705 166 220 225
-0.44763 -0.26012 -0.59097 33 41 113
-0.44421 -0.26854 -0.58910 59 54 92
-0.35875 -0.25707 -0.81942 203 207 225
-0.36785 -0.26148 -0.82243 130 143 158
-0.35450 -0.26073 -0.80426 234 238 242
-0.34979 -0.26409 -0.79217 247 249 243
-0.34377 -0.26683 -0.78740 225 215 224
-0.33309 -0.26755 -0.80745 207 198 213
-0.32413 -0.26910 -0.81770 202 195 199
-0.31551 -0.27085 -0.82582 196 185 186
-0.30683 -0.27264 -0.83381 197 184 179
-0.29942 -0.27496 -0.83522 200 199 182
-0.29185 -0.27723 -0.83727 219 224 209
-0.28444 -0.27960 -0.83835 241 241 233
-0.27726 -0.28205 -0.83826 239 239 239
-0.27023 -0.28457 -0.83742 229 234 239
-0.26324 -0.28711 -0.83630 229 236 238
-0.25684 -0.28983 -0.83255 226 230 232
-0.25002 -0.29243 -0.83063 216 212 212
-0.24117 -0.29444 -0.83750 197 189 189
-0.23245 -0.29653 -0.84356 177 169 173
-0.22640 -0.29938 -0.83810 183 174 183
-0.22238 -0.30927 -0.83592 125 69 60
-0.21740 -0.30145 -0.84493 176 154 181
-0.21198 -0.30446 -0.83689 151 122 149
-0.20735 -0.30765 -0.82585 129 85 117
-0.20149 -0.31051 -0.81991 102 68 102
-0.19544 -0.31332 -0.81477 103 71 92
-0.19056 -0.31637 -0.80525 130 105 96
-0.18408 -0.31905 -0.80194 152 125 113
-0.17776 -0.32176 -0.79810 152 120 88
-0.17045 -0.32427 -0.79795 156 132 100
-0.16304 -0.32677 -0.79808 183 140 94
-0.15451 -0.32908 -0.80218 200 172 80
-0.14618 -0.33145 -0.80537 225 203 147
-0.13810 -0.33388 -0.80757 247 234 213
-0.13407 -0.34378 -0.80537 252 250 252
-0.13144 -0.33656 -0.80471 253 250 231
-0.12741 -0.34646 -0.80252 251 249 252
-0.12398 -0.33912 -0.80459 253 252 241
-0.11994 -0.34903 -0.80239 250 249 252
0.19177 -0.47665 -0.59811 248 251 245
0.18789 -0.46709 -0.60023 253 253 253
0.18529 -0.47407 -0.60068 253 253 253
0.22986 -0.48767 -0.61140 235 230 223
0.23380 -0.49735 -0.60926 253 254 254
0.24211 -0.49063 -0.61972 252 252 251
0.24607 -0.50037 -0.61756 254 254 254
0.48075 -0.59236 -0.47884 254 254 250
0.47687 -0.58283 -0.48095 254 254 254
0.47428 -0.58979 -0.48139 254 254 254
0.47169 -0.59675 -0.48184 254 254 254
0.48578 -0.59474 -0.47425 249 219 195
0.49502 -0.59769 -0.47560 123 44 64
0.52163 -0.60474 -0.48935 180 175 157
0.50876 -0.60462 -0.46011 245 244 236
0.51262 -0.61412 -0.45801 254 254 254
0.51610 -0.60731 -0.45878 254 254 253
0.51996 -0.61682 -0.45667 254 254 254
-0.82885 -0.11051 -0.77627 109 113 106
-0.83234 -0.10194 -0.77816 91 92 89
-0.83467 -0.10820 -0.77856 95 96 90
-0.82292 -0.11318 -0.77177 133 132 139
-0.81900 -0.10953 -0.80684 154 161 174
-0.81285 -0.11267 -0.79954 181 181 191
-0.80250 -0.11195 -0.82954 247 244 247
-0.79890 -0.12080 -0.82759 254 254 254
-0.63103 -0.16856 -0.84342 251 252 252
-0.63979 -0.17280 -0.84632 254 254 254
-0.63354 -0.17529 -0.84385 254 254 253
-0.62481 -0.17113 -0.84034 246 245 242
-0.61733 -0.17033 -0.86392 199 199 202
-0.61078 -0.17229 -0.86593 155 151 148
-0.59831 -0.17778 -0.85722 60 53 62
-0.59147 -0.17927 -0.86317 61 59 60
-0.58767 -0.18864 -0.86110 62 62 57
-0.47907 -0.25535 -0.59812 19 42 135
-0.48135 -0.26148 -0.59852 27 45 121
-0.47729 -0.26044 -0.56657 60 74 175
-0.46428 -0.26370 -0.57495 94 133 190
-0.45576 -0.26408 -0.59273 29 32 116
-0.35852 -0.26271 -0.83616 169 176 191
-0.36769 -0.26715 -0.83920 128 132 134
-0.35630 -0.26731 -0.80915 213 227 229
-0.35120 -0.27049 -0.79902 219 221 215
-0.34107 -0.27147 -0.81647 190 181 172
-0.33192 -0.27296 -0.82798 171 163 155
-0.32492 -0.27539 -0.82773 168 161 161
-0.31763 -0.27772 -0.82887 181 180 183
-0.31098 -0.28030 -0.82668 197 204 204
-0.30067 -0.28156 -0.84263 204 218 210
-0.29335 -0.28396 -0.84335 203 216 214
-0.28563 -0.28624 -0.84591 200 196 212
-0.27757 -0.28843 -0.84986 181 162 195
-0.26814 -0.29021 -0.85997 163 149 182
-0.26188 -0.29303 -0.85520 163 145 166
-0.25441 -0.29548 -0.85594 158 129 149
-0.24847 -0.29838 -0.84976 150 113 132
-0.24228 -0.30120 -0.84482 140 89 112
-0.23540 -0.30383 -0.84291 126 72 90
-0.22771 -0.30624 -0.84440 121 66 69
-0.21557 -0.31191 -0.83370 133 78 62
-0.20969 -0.31477 -0.82769 144 94 71
-0.20345 -0.31754 -0.82322 156 113 87
-0.19923 -0.32074 -0.81086 170 129 103
-0.19415 -0.32372 -0.80210 178 144 108
-0.18675 -0.32620 -0.80240 176 126 104
-0.18045 -0.32892 -0.79846 167 100 77
-0.17365 -0.33153 -0.79640 168 112 94
-0.16013 -0.33294 -0.81900 223 195 178
-0.15407 -0.33573 -0.81393 250 249 209
-0.15004 -0.34564 -0.81174 251 250 252
-0.14740 -0.33842 -0.81106 253 253 230
-0.14338 -0.34832 -0.80887 251 249 252
-0.14068 -0.34109 -0.80841 253 252 249
-0.13666 -0.35100 -0.80621 251 249 251
0.18231 -0.48103 -0.60036 250 252 248
0.17843 -0.47147 -0.60247 252 252 252
0.17583 -0.47845 -0.60292 253 252 253
0.18723 -0.48352 -0.59466 216 213 204
0.19600 -0.48623 -0.59669 146 102 121
0.20619 -0.48903 -0.60143 177 135 133
0.21660 -0.49187 -0.60650 232 220 207
0.22052 -0.50151 -0.60437 253 254 252
0.46829 -0.59960 -0.45363 213 172 152
0.49038 -0.60437 -0.47317 111 31 45
0.49197 -0.60624 -0.46381 159 109 119
0.49710 -0.60861 -0.45947 231 230 223
0.50096 -0.61809 -0.45737 254 254 254
0.57948 -0.64469 -0.40365 252 246 246
0.57567 -0.63531 -0.40573 254 254 254
0.57312 -0.64216 -0.40617 254 254 254
0.57057 -0.64901 -0.40661 254 254 254
0.58203 -0.63785 -0.40321 253 254 254
0.57693 -0.65154 -0.40409 251 250 246
0.56446 -0.64370 -0.37450 227 216 226
0.57323 -0.63946 -0.37159 249 253 254
0.57072 -0.64619 -0.37202 223 224 236
-0.83125 -0.11660 -0.77777 125 129 128
-0.83940 -0.12054 -0.78047 104 104 107
-0.83358 -0.12286 -0.77817 133 135 150
-0.82776 -0.12517 -0.77587 156 163 177
-0.81542 -0.11837 -0.80419 207 212 211
-0.80468 -0.11918 -0.82490 252 254 253
-0.80110 -0.12801 -0.82294 254 254 254
-0.62740 -0.17808 -0.83891 250 250 250
-0.63614 -0.18231 -0.84180 254 254 254
-0.62990 -0.18479 -0.83934 252 252 253
-0.62114 -0.18053 -0.83671 233 236 231
-0.61445 -0.18190 -0.84338 177 174 181
-0.60838 -0.18484 -0.83718 129 130 128
-0.60115 -0.18524 -0.85223 81 77 71
-0.59459 -0.18726 -0.85388 64 61 66
-0.59080 -0.19658 -0.85182 64 63 67
-0.48586 -0.25832 -0.61018 21 39 113
-0.48929 -0.24988 -0.61205 15 30 101
-0.48816 -0.26448 -0.61058 15 37 111
-0.48243 -0.26676 -0.60831 19 38 123
-0.47513 -0.26338 -0.60020 19 47 126
-0.47742 -0.26952 -0.60059 19 32 113
-0.47171 -0.27179 -0.59833 12 23 96
-0.47044 -0.26634 -0.59043 10 25 125
-0.46704 -0.27472 -0.58857 15 20 85
-0.45804 -0.27022 -0.59318 24 20 91
-0.45196 -0.27226 -0.59346 43 43 89
-0.44551 -0.27411 -0.59613 58 55 91
-0.43748 -0.27022 -0.59347 76 68 100
-0.35621 -0.26749 -0.86519 151 155 148
-0.36551 -0.27200 -0.86827 97 85 86
-0.35223 -0.27728 -0.86302 89 68 67
-0.35514 -0.27260 -0.83095 162 148 177
-0.35144 -0.27642 -0.81256 149 122 149
-0.34222 -0.28309 -0.78725 108 63 62
-0.33121 -0.28386 -0.80892 117 65 65
-0.32327 -0.28591 -0.81381 133 81 80
-0.31470 -0.28777 -0.82162 132 78 76
-0.30581 -0.28957 -0.83067 130 73 69
-0.29705 -0.29146 -0.83872 131 71 68
-0.28854 -0.29348 -0.84519 129 59 65
-0.28017 -0.29559 -0.85068 130 57 66
-0.27321 -0.29817 -0.84935 131 70 69
-0.26618 -0.30073 -0.84827 134 84 75
-0.25939 -0.30337 -0.84605 143 92 86
-0.25169 -0.30576 -0.84787 153 104 98
-0.24451 -0.30830 -0.84731 163 110 106
-0.23790 -0.31100 -0.84417 172 125 109
-0.23025 -0.31344 -0.84551 184 150 99
-0.22278 -0.31594 -0.84596 204 176 120
-0.21569 -0.31854 -0.84474 224 197 141
-0.20828 -0.32108 -0.84481 239 216 170
-0.20276 -0.32403 -0.83719 251 232 196
-0.19873 -0.33395 -0.83499 254 252 252
-0.19515 -0.32653 -0.83798 254 241 216
-0.18874 -0.32928 -0.83403 254 240 215
-0.18300 -0.33215 -0.82751 252 230 208
-0.17659 -0.33488 -0.82364 253 222 198
-0.17055 -0.33768 -0.81843 252 228 204
-0.16652 -0.34758 -0.81623 252 250 252
-0.16344 -0.34029 -0.81719 253 252 241
-0.15942 -0.35019 -0.81500 251 250 252
-0.15669 -0.34296 -0.81465 252 252 253
-0.15266 -0.35286 -0.81245 251 249 251
0.17411 -0.48765 -0.58941 226 223 215
0.18315 -0.49038 -0.59210 161 115 130
0.19322 -0.49319 -0.59676 171 127 124
0.20014 -0.49580 -0.59506 227 219 202
0.20403 -0.50537 -0.59295 253 254 252
0.21237 -0.49879 -0.60378 251 250 243
0.21628 -0.50841 -0.60165 253 253 253
0.46442 -0.60466 -0.46383 254 250 232
0.47160 -0.60732 -0.46239 154 110 150
0.47775 -0.60984 -0.45948 138 100 125
0.48675 -0.61277 -0.46058 211 217 207
0.49060 -0.62224 -0.45848 254 254 254
0.49290 -0.61529 -0.45765 249 252 249
0.49675 -0.62476 -0.45555 254 254 254
0.54302 -0.63400 -0.44671 250 251 252
0.53916 -0.62450 -0.44882 254 254 254
0.53657 -0.63144 -0.44926 254 254 253
0.54561 -0.62706 -0.44627 254 254 254
0.55206 -0.62963 -0.44372 254 254 254
0.54947 -0.63657 -0.44417 251 253 254
0.55967 -0.65146 -0.36186 199 197 210
0.56588 -0.65394 -0.35940 198 200 213
0.55557 -0.65491 -0.32680 240 243 242
0.54946 -0.65248 -0.32921 222 222 221
0.55802 -0.64834 -0.32638 253 254 254
0.55312 -0.66148 -0.32722 221 223 231
0.56412 -0.65077 -0.32397 254 254 254
-0.81868 -0.12205 -0.82225 230 236 235
-0.81510 -0.13084 -0.82031 253 254 254
-0.62436 -0.18913 -0.82130 250 250 245
-0.63304 -0.19333 -0.82418 254 254 254
-0.61747 -0.18989 -0.83331 199 199 208
-0.61128 -0.19248 -0.82994 153 152 158
-0.60495 -0.19476 -0.82919 113 107 101
-0.59760 -0.19502 -0.84603 73 65 64
-0.46028 -0.27633 -0.59392 29 29 85
-0.46828 -0.28020 -0.59657 17 19 75
-0.45401 -0.27827 -0.59556 44 45 86
-0.44741 -0.28005 -0.59922 57 55 90
-0.44397 -0.28851 -0.59735 65 63 95
-0.34480 -0.29000 -0.78769 121 69 70
-0.33490 -0.29126 -0.80362 158 110 89
-0.32204 -0.29156 -0.83429 193 154 107
-0.31528 -0.29412 -0.83258 210 179 116
-0.30737 -0.29630 -0.83659 214 183 113
-0.29772 -0.29795 -0.84900 219 186 117
-0.28953 -0.30013 -0.85381 225 194 125
-0.28185 -0.30249 -0.85592 231 201 132
-0.27485 -0.30507 -0.85468 236 209 143
-0.26700 -0.30741 -0.85736 241 216 159
-0.25928 -0.30982 -0.85923 249 226 184
-0.25140 -0.31220 -0.86167 253 239 205
-0.24736 -0.32216 -0.85947 254 253 252
-0.24404 -0.31474 -0.86169 254 248 214
-0.23999 -0.32470 -0.85948 253 252 253
-0.23695 -0.31735 -0.86045 254 250 220
-0.23290 -0.32732 -0.85824 252 252 253
-0.23006 -0.32001 -0.85830 254 251 220
-0.22601 -0.32999 -0.85609 252 252 252
-0.22335 -0.32272 -0.85540 254 252 227
-0.21930 -0.33269 -0.85319 252 251 252
-0.21684 -0.32546 -0.85164 254 254 234
-0.21279 -0.33543 -0.84944 252 250 252
-0.21039 -0.32822 -0.84771 254 253 241
-0.20634 -0.33818 -0.84550 252 250 252
-0.20426 -0.33103 -0.84248 254 253 248
-0.20022 -0.34098 -0.84028 251 250 251
-0.19145 -0.33653 -0.83444 254 252 251
-0.19415 -0.34379 -0.83491 251 250 251
-0.18741 -0.34647 -0.83224 251 250 251
-0.18509 -0.33928 -0.83029 254 253 250
-0.18106 -0.34921 -0.82810 251 250 252
-0.17875 -0.34203 -0.82615 254 252 250
-0.17471 -0.35195 -0.82395 251 250 252
-0.17237 -0.34477 -0.82214 253 252 250
-0.16834 -0.35468 -0.81994 251 250 251
0.16400 -0.49195 -0.59016 235 230 223
0.15499 -0.49631 -0.59315 239 234 227
0.17112 -0.49456 -0.58901 175 121 146
0.17870 -0.49720 -0.58878 167 120 93
0.18726 -0.49992 -0.59047 219 212 171
0.19113 -0.50944 -0.58836 253 254 251
0.19709 -0.50275 -0.59463 248 249 239
0.20098 -0.51231 -0.59251 253 253 253
0.44986 -0.60817 -0.45876 254 254 254
0.44604 -0.59877 -0.46084 254 254 254
0.44349 -0.60563 -0.46128 254 254 254
0.44093 -0.61249 -0.46172 254 254 254
0.45517 -0.61054 -0.45471 238 217 211
0.46389 -0.61344 -0.45553 163 68 98
0.47101 -0.61609 -0.45404 204 167 151
0.48196 -0.61934 -0.45791 246 243 237
0.48580 -0.62879 -0.45582 254 254 254
0.52852 -0.63748 -0.44240 253 251 247
0.52467 -0.62801 -0.44449 254 254 254
0.52209 -0.63492 -0.44493 254 254 254
0.51952 -0.64183 -0.44538 254 254 254
0.52864 -0.63899 -0.43150 233 221 231
0.53814 -0.64205 -0.43308 240 241 246
0.54712 -0.63771 -0.43011 253 254 254
0.54843 -0.64525 -0.43564 251 254 254
0.55743 -0.64089 -0.43266 254 254 254
0.55486 -0.64781 -0.43310 254 254 254
0.57208 -0.65939 -0.39118 248 246 242
0.56322 -0.66368 -0.39411 254 254 254
0.56955 -0.66619 -0.39161 254 253 253
0.56768 -0.66001 -0.37534 239 231 234
0.56268 -0.66050 -0.35895 240 233 233
0.55786 -0.66100 -0.34295 231 229 233
0.55585 -0.66330 -0.32072 233 228 237
0.55341 -0.66986 -0.32114 248 244 244
0.56439 -0.65917 -0.31789 253 254 254
0.56194 -0.66573 -0.31831 248 244 249
0.55950 -0.67228 -0.31873 250 248 251
-0.82700 -0.12618 -0.82443 208 209 213
-0.83297 -0.12381 -0.82679 158 167 188
-0.83536 -0.13023 -0.82720 162 171 194
-0.82156 -0.12705 -0.83219 243 246 247
-0.81796 -0.13589 -0.83024 254 254 254
-0.75551 -0.15398 -0.80111 250 253 254
-0.75909 -0.14517 -0.80306 254 254 254
-0.76149 -0.15160 -0.80348 253 254 254
-0.75311 -0.14755 -0.80070 254 254 254
-0.74713 -0.14992 -0.79834 254 254 254
-0.74947 -0.15687 -0.79501 247 247 250
-0.74111 -0.15282 -0.79224 252 253 254
-0.71963 -0.16845 -0.78545 200 203 220
-0.72321 -0.15964 -0.78740 227 232 242
-0.72560 -0.16608 -0.78781 201 208 228
-0.62081 -0.19865 -0.81591 218 222 226
-0.61441 -0.20063 -0.81768 159 161 166
-0.61070 -0.20976 -0.81566 140 138 131
-0.60776 -0.20213 -0.82376 134 127 125
-0.59386 -0.20436 -0.84346 67 61 63
-0.58504 -0.20009 -0.84053 60 62 61
-0.58756 -0.20687 -0.84097 58 60 61
-0.59009 -0.21364 -0.84140 56 58 62
-0.45567 -0.28407 -0.60035 45 45 85
-0.45224 -0.29252 -0.59848 58 55 92
-0.44874 -0.28569 -0.60629 58 56 90
-0.44529 -0.29418 -0.60441 62 60 94
-0.35424 -0.29452 -0.78819 163 130 106
-0.33937 -0.29396 -0.83170 214 191 148
-0.33323 -0.29672 -0.82688 246 237 193
-0.32930 -0.30638 -0.82474 254 254 253
-0.32872 -0.30003 -0.81352 254 253 220
-0.32482 -0.30964 -0.81139 254 254 254
-0.32078 -0.30215 -0.81828 254 254 226
-0.31686 -0.31180 -0.81615 254 253 254
-0.31331 -0.30446 -0.82037 254 254 226
-0.30938 -0.31413 -0.81823 253 253 254
-0.30408 -0.30625 -0.83111 254 254 228
-0.30012 -0.31598 -0.82896 253 253 254
-0.29569 -0.30835 -0.83724 254 254 231
-0.29172 -0.31812 -0.83507 253 253 254
-0.28798 -0.31068 -0.83982 254 254 232
-0.28400 -0.32047 -0.83765 253 253 253
-0.27868 -0.31259 -0.84977 254 254 235
-0.27467 -0.32245 -0.84758 253 253 253
-0.26960 -0.31462 -0.85826 254 254 239
-0.26557 -0.32453 -0.85606 253 253 253
-0.26116 -0.31686 -0.86347 254 254 246
-0.25711 -0.32680 -0.86127 252 252 253
-0.25362 -0.31935 -0.86435 254 254 251
-0.24957 -0.32931 -0.86215 252 252 253
0.16824 -0.50146 -0.58886 163 113 104
0.17434 -0.50399 -0.58562 219 212 177
0.17819 -0.51348 -0.58352 253 253 252
0.18342 -0.50677 -0.58841 249 250 233
0.18729 -0.51628 -0.58631 253 253 253
0.44729 -0.61503 -0.45917 254 253 240
0.44861 -0.61677 -0.44941 183 140 178
0.46891 -0.62151 -0.46676 142 95 141
0.46451 -0.62233 -0.44891 207 217 211
0.47838 -0.62608 -0.45694 248 252 249
0.48222 -0.63552 -0.45485 254 254 254
0.51623 -0.64273 -0.42983 254 248 239
0.50731 -0.64705 -0.43279 254 254 254
0.51040 -0.64318 -0.41108 218 193 206
0.52559 -0.64722 -0.42033 213 220 237
0.53126 -0.64963 -0.41692 237 246 254
0.54141 -0.65282 -0.41936 251 253 254
0.55034 -0.64850 -0.41641 254 254 254
0.54778 -0.65535 -0.41685 254 254 254
0.54523 -0.66221 -0.41729 252 254 254
0.56737 -0.66716 -0.37853 253 251 252
0.55858 -0.67142 -0.38145 254 254 254
0.56486 -0.67392 -0.37896 254 254 254
0.57114 -0.67641 -0.37648 254 254 254
0.56097 -0.66733 -0.36035 253 252 251
0.56470 -0.67649 -0.35832 254 254 254
0.55386 -0.66734 -0.34149 250 250 250
0.55754 -0.67641 -0.33948 254 254 253
0.55300 -0.66849 -0.33049 246 245 243
0.55667 -0.67751 -0.32850 254 253 252
-0.83101 -0.12831 -0.85408 221 226 226
-0.83949 -0.13242 -0.85689 169 178 199
-0.76421 -0.15617 -0.81764 247 249 251
-0.76782 -0.14730 -0.81961 254 254 254
-0.77023 -0.15377 -0.82002 253 254 254
-0.75804 -0.15956 -0.80790 233 237 244
-0.75445 -0.16840 -0.80595 221 222 234
-0.75195 -0.16262 -0.80044 229 229 240
-0.73993 -0.16803 -0.79085 201 208 222
-0.73406 -0.16888 -0.80017 182 184 201
-0.72806 -0.17113 -0.79885 163 172 201
-0.72205 -0.17369 -0.79513 176 182 208
-0.62332 -0.20539 -0.81554 233 236 235
-0.61711 -0.20779 -0.81366 156 155 168
-0.52884 -0.24905 -0.73061 14 13 47
-0.52522 -0.25795 -0.72864 15 11 46
-0.45621 -0.28927 -0.61316 48 49 92
-0.46430 -0.29318 -0.61584 33 36 86
-0.45275 -0.29778 -0.61127 53 51 95
-0.34847 -0.29838 -0.83524 245 235 194
-0.34454 -0.30805 -0.83310 250 253 247
-0.34495 -0.30206 -0.81600 252 251 228
-0.34105 -0.31165 -0.81388 254 254 254
-0.34163 -0.30573 -0.79621 254 254 246
-0.33777 -0.31525 -0.79411 254 254 254
0.14644 -0.50275 -0.58112 178 123 161
0.14262 -0.49333 -0.58321 253 253 250
0.14005 -0.50021 -0.58365 246 241 235
0.15483 -0.50546 -0.58274 146 100 86
0.16160 -0.50804 -0.58097 217 212 181
0.16544 -0.51748 -0.57888 253 253 252
0.17284 -0.51101 -0.58827 250 251 240
0.17670 -0.52051 -0.58617 252 252 253
0.44105 -0.62129 -0.45429 240 224 209
0.44453 -0.62335 -0.44764 146 56 96
0.45532 -0.62661 -0.45148 179 127 153
0.46453 -0.62961 -0.45300 235 234 236
0.46835 -0.63902 -0.45091 254 254 254
0.47286 -0.63248 -0.45323 252 254 253
0.47669 -0.64190 -0.45114 254 254 254
0.51330 -0.64952 -0.42976 254 252 235
0.50438 -0.65384 -0.43272 254 254 254
0.50778 -0.64995 -0.41139 227 196 168
0.49042 -0.64823 -0.37754 172 105 153
0.51317 -0.65367 -0.39690 193 166 200
0.53282 -0.65858 -0.41190 237 239 244
-0.82726 -0.13758 -0.84968 253 253 254
-0.82363 -0.14649 -0.84771 254 254 254
-0.77282 -0.15941 -0.82678 251 252 252
-0.77644 -0.15050 -0.82875 254 254 254
-0.77886 -0.15700 -0.82917 254 254 254
-0.78128 -0.16350 -0.82958 254 254 254
-0.76042 -0.16618 -0.80702 220 221 230
-0.75682 -0.17502 -0.80506 224 227 234
-0.74243 -0.17330 -0.80021 182 185 206
-0.73651 -0.17473 -0.80538 155 160 181
-0.73048 -0.17736 -0.80112 151 165 186
-0.72446 -0.18012 -0.79578 166 175 195
-0.71845 -0.18306 -0.78896 194 199 216
-0.71248 -0.18687 -0.77501 218 223 232
-0.70651 -0.18889 -0.77554 218 222 230
-0.61978 -0.21486 -0.81021 145 139 171
-0.61608 -0.22395 -0.80820 139 142 138
-0.60740 -0.21970 -0.80601 130 130 124
-0.59980 -0.21954 -0.82866 69 72 69
-0.59329 -0.22158 -0.83057 54 54 61
-0.58451 -0.21733 -0.82767 51 54 56
-0.58702 -0.22407 -0.82810 49 52 55
-0.58954 -0.23081 -0.82853 52 52 56
-0.54120 -0.24850 -0.75998 59 64 63
-0.54976 -0.25264 -0.76282 62 63 67
-0.54365 -0.25507 -0.76040 64 65 66
-0.53530 -0.25115 -0.75515 50 54 58
-0.53129 -0.25558 -0.73072 28 18 55
-0.35988 -0.29858 -0.86637 227 223 187
-0.35590 -0.30837 -0.86420 197 175 174
-0.35941 -0.30346 -0.82828 237 245 219
-0.35422 -0.30653 -0.81814 243 249 231
0.13440 -0.50681 -0.57755 195 164 177
0.14005 -0.50928 -0.57354 101 90 83
0.14950 -0.51210 -0.57745 200 205 171
0.15333 -0.52150 -0.57537 253 253 253
0.15867 -0.51490 -0.58067 249 251 241
0.16251 -0.52434 -0.57858 252 252 252
0.42872 -0.62503 -0.45224 254 254 240
0.43459 -0.62747 -0.44904 188 150 168
0.43552 -0.62907 -0.43875 113 75 105
0.44215 -0.63163 -0.43673 188 195 181
0.45912 -0.63599 -0.44939 245 249 244
0.46294 -0.64537 -0.44731 254 254 254
0.50682 -0.65566 -0.42492 254 254 244
0.49793 -0.65997 -0.42787 254 254 254
0.50966 -0.65754 -0.41772 249 218 181
0.48794 -0.65489 -0.37796 192 112 99
0.49417 -0.65736 -0.37558 189 154 167
-0.75077 -0.17785 -0.79915 217 218 227
-0.75915 -0.18191 -0.80193 228 231 238
-0.74485 -0.17966 -0.80134 181 182 202
-0.73892 -0.18128 -0.80518 150 155 175
-0.73289 -0.18382 -0.80159 150 159 176
-0.72689 -0.18592 -0.80163 164 171 188
-0.72085 -0.18951 -0.78939 196 198 211
-0.71487 -0.19360 -0.77276 225 231 240
-0.70891 -0.19564 -0.77321 231 232 240
-0.70534 -0.20442 -0.77127 240 239 249
-0.70293 -0.19770 -0.77350 236 239 242
-0.69692 -0.19949 -0.77605 231 236 245
-0.69334 -0.20831 -0.77410 252 254 254
-0.62998 -0.22282 -0.77711 204 207 227
-0.62226 -0.22151 -0.81052 128 123 153
-0.60993 -0.22645 -0.80530 139 137 131
-0.60349 -0.22841 -0.80776 72 82 81
-0.59675 -0.22994 -0.81475 53 48 54
-0.59303 -0.23909 -0.81272 52 51 57
-0.53879 -0.25874 -0.74407 62 66 63
-0.54730 -0.26286 -0.74689 67 67 68
-0.54122 -0.26527 -0.74449 72 74 68
-0.53340 -0.26179 -0.73438 50 38 60
-0.52741 -0.26425 -0.73145 22 16 56
-0.51894 -0.26014 -0.72865 12 11 54
-0.52136 -0.26665 -0.72907 14 13 53
-0.52378 -0.27316 -0.72948 15 14 56
-0.35145 -0.31174 -0.84912 207 199 201
-0.35195 -0.31664 -0.80696 237 239 242
-0.34751 -0.31984 -0.79325 252 253 254
-0.34107 -0.32240 -0.79070 254 254 254
-0.34365 -0.32934 -0.79114 254 254 254
0.11593 -0.50831 -0.57613 249 246 247
0.11213 -0.49896 -0.57820 252 250 251
0.10959 -0.50579 -0.57864 252 251 252
0.12482 -0.51107 -0.57908 204 192 196
0.13114 -0.51360 -0.57649 104 69 97
0.14075 -0.51644 -0.58080 190 187 167
0.14548 -0.51882 -0.57483 247 250 240
0.14930 -0.52821 -0.57275 252 252 253
0.41659 -0.62876 -0.45038 254 254 251
0.41280 -0.61945 -0.45244 254 254 254
0.41027 -0.62625 -0.45288 254 254 254
0.40774 -0.63305 -0.45331 254 254 254
0.42524 -0.63168 -0.45129 247 230 203
0.42475 -0.63301 -0.43887 137 59 92
0.43413 -0.63606 -0.44083 153 102 135
0.44607 -0.63957 -0.44641 224 226 222
0.44987 -0.64892 -0.44435 254 254 254
0.45366 -0.64232 -0.44568 251 253 251
0.45747 -0.65168 -0.44361 254 254 254
0.50376 -0.66240 -0.42466 254 254 252
0.49487 -0.66670 -0.42761 254 254 254
0.50122 -0.66922 -0.42510 254 254 254
0.50895 -0.66470 -0.42061 254 245 229
0.50724 -0.66569 -0.40739 243 215 185
0.51319 -0.66813 -0.40444 234 218 211
0.51697 -0.67741 -0.40238 253 253 253
0.52101 -0.67093 -0.40395 243 245 247
0.52479 -0.68022 -0.40189 254 254 254
-0.77148 -0.17548 -0.81993 237 243 245
-0.77992 -0.17956 -0.82273 253 254 253
-0.76540 -0.17818 -0.81506 227 229 235
-0.76179 -0.18705 -0.81310 230 234 240
-0.75319 -0.18414 -0.80084 222 226 233
-0.75559 -0.19058 -0.80125 230 236 241
-0.74713 -0.18707 -0.79393 198 197 211
-0.74117 -0.18937 -0.79226 178 177 186
-0.73517 -0.19204 -0.78744 180 184 188
-0.72916 -0.19507 -0.77957 198 200 207
-0.72319 -0.19797 -0.77272 228 227 232
-0.71963 -0.20672 -0.77079 254 254 254
-0.71725 -0.20017 -0.77176 244 246 250
-0.71369 -0.20893 -0.76982 254 252 253
-0.71130 -0.20214 -0.77280 247 244 249
-0.70773 -0.21092 -0.77086 249 248 253
-0.63391 -0.23298 -0.74182 175 177 201
-0.62606 -0.23112 -0.78140 113 106 129
-0.61938 -0.23231 -0.79141 135 141 139
-0.61285 -0.23395 -0.79705 142 139 139
-0.60621 -0.23550 -0.80374 76 84 88
-0.59948 -0.23701 -0.81112 53 42 47
-0.59576 -0.24615 -0.80910 51 50 58
-0.53455 -0.26714 -0.74861 73 67 69
-0.52844 -0.26955 -0.74639 31 24 64
-0.35447 -0.32359 -0.80782 223 224 230
-0.34994 -0.32673 -0.79453 249 248 250
0.11342 -0.51514 -0.57665 217 218 203
0.12309 -0.51800 -0.58128 125 85 108
0.12735 -0.52031 -0.57429 184 160 149
0.13626 -0.52311 -0.57717 244 238 229
0.14007 -0.53250 -0.57509 252 252 252
0.14235 -0.52561 -0.57407 254 253 253
0.14616 -0.53500 -0.57199 252 252 252
0.41322 -0.63541 -0.44957 254 254 240
0.41812 -0.63767 -0.44500 204 159 168
0.42148 -0.63965 -0.43821 99 68 102
0.43024 -0.64260 -0.43930 174 175 173
0.44019 -0.64578 -0.44205 242 244 241
0.44398 -0.65510 -0.43998 254 254 254
0.50379 -0.67101 -0.41753 254 253 250
0.49493 -0.67530 -0.42047 254 254 254
0.50126 -0.67782 -0.41797 254 254 254
0.50758 -0.68034 -0.41547 254 254 254
0.50581 -0.67269 -0.40928 254 251 243
0.50959 -0.68198 -0.40722 254 254 254
0.50775 -0.67433 -0.40100 252 250 247
0.51151 -0.68359 -0.39895 254 254 254
-0.77376 -0.18257 -0.81538 247 249 250
-0.78217 -0.18664 -0.81816 254 254 254
-0.77616 -0.18903 -0.81579 252 252 252
-0.76766 -0.18537 -0.80962 235 236 241
-0.74943 -0.19422 -0.78833 222 226 231
-0.75777 -0.19826 -0.79109 230 234 240
-0.75182 -0.20063 -0.78874 229 231 236
-0.74351 -0.19628 -0.78854 219 218 219
-0.73746 -0.19954 -0.77861 222 224 222
-0.73148 -0.20248 -0.77130 238 237 237
-0.72793 -0.21122 -0.76937 254 254 254
-0.72555 -0.20495 -0.76801 250 248 250
-0.72200 -0.21368 -0.76607 254 254 254
-0.64854 -0.23563 -0.73721 253 254 252
-0.65209 -0.22689 -0.73915 254 254 254
-0.65446 -0.23327 -0.73956 254 254 254
-0.65684 -0.23964 -0.73996 254 254 254
-0.64233 -0.23724 -0.74230 233 236 236
-0.63559 -0.23770 -0.75936 146 149 185
-0.63200 -0.24655 -0.75740 95 94 113
-0.62250 -0.24025 -0.77768 133 138 140
-0.61600 -0.24185 -0.78386 141 142 140
-0.60926 -0.24315 -0.79344 74 80 90
-0.60278 -0.24504 -0.79701 52 39 42
-0.59909 -0.25411 -0.79500 49 51 61
-0.53578 -0.27261 -0.76240 87 87 78
-0.52248 -0.27666 -0.76812 21 16 54
-0.51385 -0.27248 -0.76526 12 13 54
-0.51632 -0.27912 -0.76568 12 13 52
-0.35460 -0.33423 -0.78349 245 236 234
-0.35076 -0.34367 -0.78140 254 254 254
-0.34663 -0.33637 -0.78947 254 254 254
-0.33761 -0.33200 -0.78649 254 254 254
-0.34019 -0.33893 -0.78693 254 253 254
-0.34277 -0.34586 -0.78737 253 253 254
0.10387 -0.51937 -0.57812 239 226 218
0.11224 -0.52211 -0.58004 164 105 149
0.11889 -0.52467 -0.57817 186 125 144
0.12579 -0.52726 -0.57682 240 236 215
0.12960 -0.53663 -0.57474 253 252 252
0.13220 -0.52979 -0.57442 254 253 250
0.13601 -0.53916 -0.57235 252 252 252
0.40300 -0.63945 -0.45047 254 254 254
0.39923 -0.63015 -0.45252 254 254 254
0.39670 -0.63694 -0.45296 254 254 254
0.39417 -0.64372 -0.45339 254 254 254
0.40925 -0.64194 -0.44788 254 244 224
0.41420 -0.64420 -0.44339 136 77 133
0.42161 -0.64692 -0.44252 128 91 142
0.42920 -0.64967 -0.44189 210 219 216
0.43520 -0.65212 -0.43894 249 252 250
0.43898 -0.66142 -0.43688 254 254 254
-0.76991 -0.19253 -0.80412 241 243 247
-0.77829 -0.19659 -0.80689 253 254 254
-0.76390 -0.19505 -0.80056 231 234 242
-0.74580 -0.20347 -0.78223 232 231 236
-0.73982 -0.20612 -0.77742 238 237 241
-0.73627 -0.21487 -0.77549 252 254 254
-0.73386 -0.20888 -0.77155 251 251 252
-0.73030 -0.21761 -0.76961 254 254 254
-0.65105 -0.24241 -0.73347 252 252 252
-0.65933 -0.24641 -0.73621 253 254 254
-0.64486 -0.24403 -0.73868 211 221 227
-0.63809 -0.24437 -0.75752 109 112 158
-0.62504 -0.24701 -0.77572 134 140 140
-0.62748 -0.25354 -0.77614 139 148 137
-0.61187 -0.25003 -0.79090 64 76 87
-0.60606 -0.25298 -0.78273 46 45 43
-0.60240 -0.26199 -0.78074 49 53 59
-0.55732 -0.27259 -0.76150 64 68 69
-0.56098 -0.26359 -0.76349 55 62 60
-0.56343 -0.27016 -0.76391 58 64 60
-0.56587 -0.27673 -0.76433 62 67 66
-0.55977 -0.27916 -0.76192 68 71 72
-0.52429 -0.28278 -0.77542 29 27 51
-0.51787 -0.28507 -0.77532 14 16 53
-0.50920 -0.28087 -0.77245 11 11 53
-0.51168 -0.28753 -0.77288 12 12 54
-0.51416 -0.29419 -0.77330 12 14 56
0.08632 -0.52089 -0.57833 252 252 250
0.08254 -0.51157 -0.58039 251 250 250
0.08000 -0.51837 -0.58083 251 250 250
0.07747 -0.52517 -0.58126 252 251 249
0.09298 -0.52344 -0.57658 250 245 235
0.09953 -0.52598 -0.57460 230 201 182
0.10774 -0.52871 -0.57622 197 156 134
0.11433 -0.53126 -0.57425 236 234 203
0.11812 -0.54061 -0.57218 253 252 252
0.12215 -0.53397 -0.57493 254 252 246
0.12595 -0.54333 -0.57285 252 251 251
0.39916 -0.64598 -0.44893 254 254 251
0.39034 -0.65026 -0.45186 254 254 254
0.40800 -0.65027 -0.43841 129 69 86
0.41699 -0.65329 -0.43988 174 153 160
0.42315 -0.65577 -0.43720 236 239 237
0.42692 -0.66505 -0.43515 254 254 254
0.43011 -0.65841 -0.43569 253 254 253
0.43389 -0.66769 -0.43364 254 254 254
-0.76622 -0.20182 -0.79802 244 244 249
-0.76265 -0.21062 -0.79607 254 253 252
-0.75413 -0.20748 -0.78520 241 239 242
-0.75057 -0.21624 -0.78326 254 252 252
-0.74817 -0.20999 -0.78160 243 240 243
-0.74461 -0.21874 -0.77966 254 254 252
-0.65354 -0.24911 -0.73020 243 249 246
-0.64699 -0.24974 -0.74635 154 157 198
-0.64342 -0.25852 -0.74441 76 79 96
-0.64070 -0.25133 -0.75248 86 84 117
-0.63436 -0.25291 -0.75886 97 101 108
-0.61479 -0.25742 -0.78215 54 63 76
-0.61114 -0.26642 -0.78016 45 49 50
-0.60912 -0.26054 -0.77180 44 49 45
-0.60548 -0.26949 -0.76982 49 52 57
-0.55369 -0.28161 -0.75922 75 76 79
-0.56224 -0.28575 -0.76205 71 71 73
-0.55613 -0.28818 -0.75964 75 77 80
-0.55003 -0.29060 -0.75723 81 83 83
-0.52700 -0.28960 -0.77350 39 41 62
-0.51987 -0.29138 -0.78072 20 21 59
-0.51615 -0.30053 -0.77870 13 14 59
-0.37628 -0.34389 -0.76768 240 239 210
-0.36917 -0.34622 -0.76958 252 251 244
-0.36536 -0.35559 -0.76751 254 254 254
0.08564 -0.52790 -0.58292 249 243 234
0.08990 -0.53017 -0.57581 223 199 192
0.09340 -0.53234 -0.56709 197 167 154
0.10164 -0.53509 -0.56886 220 209 163
0.10542 -0.54439 -0.56680 253 252 251
0.11312 -0.53826 -0.57759 248 252 242
0.11693 -0.54761 -0.57552 252 250 251
0.39538 -0.65251 -0.44748 254 253 242
0.38656 -0.65678 -0.45040 254 254 254
0.40502 -0.65693 -0.43815 127 85 105
0.41617 -0.66041 -0.44283 197 202 188
0.41877 -0.66217 -0.43493 246 250 246
0.42253 -0.67143 -0.43288 254 254 254
-0.84559 -0.17861 -0.81914 184 199 220
-0.83975 -0.18077 -0.81842 228 236 247
-0.83364 -0.18350 -0.81313 249 252 254
-0.82532 -0.17947 -0.81037 254 254 254
-0.82770 -0.18586 -0.81078 254 254 254
-0.66191 -0.25345 -0.72927 249 250 249
-0.66543 -0.24477 -0.73119 254 254 254
-0.66780 -0.25111 -0.73160 254 254 254
-0.65566 -0.25474 -0.73858 189 189 214
-0.64905 -0.25531 -0.75615 84 95 132
-0.63678 -0.25940 -0.75901 109 108 109
-0.63077 -0.26179 -0.75666 140 148 140
-0.62468 -0.26403 -0.75604 104 117 121
-0.61751 -0.26445 -0.77714 49 50 62
-0.61386 -0.27341 -0.77516 46 50 48
-0.53009 -0.29671 -0.76728 50 53 70
-0.52263 -0.29825 -0.77830 27 24 63
-0.39181 -0.34989 -0.73059 189 195 204
-0.40052 -0.35411 -0.73348 109 122 162
-0.38020 -0.35105 -0.75999 239 242 240
-0.37338 -0.35345 -0.76038 253 254 253
-0.36960 -0.36277 -0.75831 254 254 254
0.07535 -0.53202 -0.58264 249 246 243
0.07157 -0.52270 -0.58470 251 250 251
0.06903 -0.52951 -0.58514 252 251 252
0.08231 -0.53462 -0.58158 220 201 203
0.08562 -0.53674 -0.57232 169 124 142
0.09200 -0.53926 -0.57001 192 174 158
0.10319 -0.54242 -0.57825 240 248 227
0.10699 -0.55177 -0.57618 252 250 251
0.39172 -0.65905 -0.44621 254 244 226
0.41381 -0.66842 -0.43179 251 253 251
0.41756 -0.67766 -0.42974 254 254 254
-0.85221 -0.17702 -0.88527 148 164 194
-0.84190 -0.18762 -0.81505 202 216 232
-0.83568 -0.19057 -0.80777 238 246 249
-0.82953 -0.19341 -0.80138 252 253 254
-0.82125 -0.18940 -0.79864 254 254 254
-0.82362 -0.19576 -0.79905 254 254 254
-0.67026 -0.25785 -0.72752 252 252 253
-0.67378 -0.24919 -0.72943 254 254 254
-0.67614 -0.25551 -0.72984 254 254 254
-0.66406 -0.25909 -0.73758 213 214 224
-0.65755 -0.25969 -0.75525 99 104 137
-0.65153 -0.26194 -0.75431 62 73 89
-0.64548 -0.26415 -0.75397 81 85 93
-0.63929 -0.26608 -0.75689 119 121 115
-0.63325 -0.26839 -0.75544 133 139 132
-0.62647 -0.26937 -0.77027 76 81 100
-0.62284 -0.27829 -0.76829 45 45 50
-0.62020 -0.27141 -0.77240 49 46 48
-0.61656 -0.28036 -0.77042 47 51 50
-0.53977 -0.30166 -0.75838 70 76 71
-0.53275 -0.30347 -0.76565 50 52 66
-0.52570 -0.30531 -0.77267 29 26 56
-0.52199 -0.31442 -0.77065 13 13 42
-0.39206 -0.35605 -0.74459 150 157 192
-0.40083 -0.36029 -0.74749 105 114 152
-0.39457 -0.36278 -0.74502 115 123 166
-0.38745 -0.35891 -0.73235 215 223 238
-0.37853 -0.36081 -0.74562 248 251 254
-0.37477 -0.37005 -0.74358 253 254 254
0.06771 -0.53647 -0.58838 252 250 244
0.06392 -0.52714 -0.59044 251 250 251
0.06138 -0.53395 -0.59088 251 250 251
0.05884 -0.54076 -0.59131 251 250 251
0.07410 -0.53900 -0.58601 239 220 199
0.07637 -0.54096 -0.57430 189 130 133
0.08279 -0.54348 -0.57209 186 150 163
0.09409 -0.54669 -0.58072 232 242 222
0.09789 -0.55604 -0.57865 252 250 251
0.10081 -0.54927 -0.57904 252 252 250
0.10461 -0.55862 -0.57697 252 250 251
0.38007 -0.66272 -0.44480 254 254 250
0.37631 -0.65348 -0.44685 254 254 254
0.37380 -0.66023 -0.44728 254 254 254
0.37129 -0.66697 -0.44771 254 254 254
0.37898 -0.66367 -0.43123 245 216 197
0.38843 -0.66798 -0.42183 168 167 176
0.39944 -0.67148 -0.42646 239 243 242
0.40318 -0.68068 -0.42442 254 254 254
-0.87350 -0.18292 -0.82136 64 58 71
-0.87705 -0.17419 -0.82329 53 54 66
-0.88179 -0.18693 -0.82410 50 50 57
-0.84506 -0.19255 -0.82790 161 178 199
-0.83775 -0.19753 -0.80314 210 223 234
-0.83164 -0.20028 -0.79731 239 244 249
-0.82550 -0.20314 -0.79051 250 253 253
-0.81726 -0.19915 -0.78778 254 254 254
-0.81962 -0.20548 -0.78818 254 254 254
-0.67860 -0.26229 -0.72497 252 254 253
-0.68211 -0.25366 -0.72689 254 254 254
-0.68446 -0.25996 -0.72729 254 254 254
-0.67267 -0.26437 -0.72561 221 239 232
-0.66614 -0.26450 -0.74914 114 128 156
-0.65988 -0.26592 -0.75796 57 63 83
-0.65380 -0.26804 -0.75869 74 73 84
-0.64779 -0.27039 -0.75678 96 96 96
-0.64173 -0.27261 -0.75635 127 133 131
-0.63566 -0.27486 -0.75574 109 116 122
-0.62880 -0.27570 -0.77297 54 50 65
-0.62516 -0.28464 -0.77100 45 49 55
-0.54245 -0.30841 -0.75625 58 62 64
-0.53516 -0.31005 -0.76670 40 40 56
-0.52877 -0.31234 -0.76683 22 22 44
-0.52508 -0.32142 -0.76482 9 11 36
-0.39016 -0.36565 -0.73149 185 192 218
-0.38203 -0.36775 -0.74026 240 243 248
0.06499 -0.54326 -0.58840 252 249 245
0.05613 -0.54755 -0.59133 251 250 251
0.06246 -0.55007 -0.58883 252 250 249
0.07110 -0.54574 -0.58538 247 232 212
0.07654 -0.54813 -0.58087 228 198 177
0.08497 -0.55096 -0.58312 239 238 224
0.08877 -0.56030 -0.58105 251 250 251
0.09155 -0.55351 -0.58116 250 252 249
0.09535 -0.56286 -0.57909 252 250 251
0.37402 -0.66870 -0.43985 254 254 239
0.36527 -0.67294 -0.44275 254 254 254
0.36783 -0.66849 -0.41856 204 163 157
0.38612 -0.67359 -0.43430 129 91 83
0.38894 -0.67533 -0.42673 194 206 188
0.39389 -0.67752 -0.42238 246 250 247
0.39762 -0.68669 -0.42035 254 254 254
-0.87622 -0.18876 -0.82615 59 53 60
-0.88453 -0.19278 -0.82890 51 49 59
-0.87860 -0.19514 -0.82656 55 50 59
-0.86768 -0.18811 -0.86733 84 87 95
-0.86405 -0.19704 -0.86535 85 86 94
-0.85598 -0.19219 -0.86899 90 99 114
-0.84822 -0.19762 -0.84021 122 138 157
-0.84117 -0.20193 -0.82083 164 180 204
-0.83382 -0.20698 -0.79457 202 215 229
-0.82781 -0.20956 -0.79003 230 238 245
-0.82163 -0.21255 -0.78187 247 251 253
-0.81341 -0.20857 -0.77915 254 254 254
-0.81576 -0.21488 -0.77955 252 254 254
-0.68682 -0.26634 -0.72681 247 253 253
-0.69033 -0.25771 -0.72872 254 254 254
-0.69267 -0.26401 -0.72912 254 254 254
-0.68093 -0.26852 -0.72633 221 237 234
-0.67448 -0.26855 -0.75160 125 153 164
-0.66837 -0.27036 -0.75604 47 61 91
-0.66235 -0.27258 -0.75557 66 67 79
-0.65630 -0.27474 -0.75590 87 82 92
-0.65034 -0.27718 -0.75284 113 115 108
-0.64431 -0.27944 -0.75199 120 130 126
-0.63747 -0.28018 -0.77105 70 75 89
-0.63385 -0.28909 -0.76908 50 47 55
-0.63141 -0.28256 -0.76896 47 42 53
-0.62779 -0.29148 -0.76699 47 52 54
-0.55791 -0.31073 -0.75180 66 71 75
-0.56155 -0.30176 -0.75378 72 72 78
-0.56399 -0.30830 -0.75420 69 70 77
-0.54458 -0.31477 -0.76032 47 49 55
-0.38649 -0.37482 -0.72915 225 228 239
-0.38029 -0.37730 -0.72660 251 253 254
-0.37158 -0.37308 -0.72372 254 253 254
-0.37407 -0.37977 -0.72415 254 253 254
-0.37656 -0.38647 -0.72457 254 254 254
0.06859 -0.55255 -0.58588 252 248 240
0.05972 -0.55685 -0.58881 251 250 251
0.06605 -0.55936 -0.58631 252 250 250
0.07238 -0.56188 -0.58381 252 251 249
0.07607 -0.55525 -0.58601 250 244 232
0.07987 -0.56459 -0.58395 251 250 251
0.08274 -0.55782 -0.58425 251 252 248
0.08654 -0.56717 -0.58219 251 250 251
0.36667 -0.67435 -0.43288 254 249 229
0.37532 -0.67737 -0.43411 152 106 143
0.38156 -0.67985 -0.43164 152 108 132
0.38199 -0.68102 -0.42050 220 225 219
0.38796 -0.68344 -0.41770 250 253 251
0.39168 -0.69258 -0.41568 254 254 254
-0.87311 -0.19683 -0.83006 62 59 66
-0.85835 -0.19885 -0.86840 86 86 95
-0.86079 -0.20539 -0.86882 84 83 92
-0.85127 -0.20297 -0.85059 95 106 114
-0.84437 -0.20691 -0.83422 114 132 151
-0.83788 -0.21021 -0.82349 145 162 185
-0.83079 -0.21471 -0.80141 187 202 220
-0.82386 -0.21908 -0.78017 220 230 240
-0.81178 -0.22456 -0.76770 248 252 253
-0.80360 -0.22060 -0.76499 254 254 254
-0.80594 -0.22688 -0.76539 252 253 254
-0.70094 -0.26863 -0.72425 252 254 253
-0.70444 -0.26003 -0.72615 254 254 254
-0.70677 -0.26630 -0.72656 254 254 254
-0.69860 -0.26235 -0.72385 254 254 254
-0.69507 -0.27070 -0.72495 231 245 238
-0.68902 -0.27179 -0.73767 195 184 197
-0.68289 -0.27296 -0.74978 119 128 157
-0.67690 -0.27510 -0.75010 50 65 78
-0.67082 -0.27698 -0.75390 57 59 76
-0.66481 -0.27921 -0.75340 81 78 91
-0.66124 -0.28800 -0.75145 111 117 115
-0.65878 -0.28139 -0.75351 101 99 101
-0.65290 -0.28400 -0.74806 117 126 114
-0.64654 -0.28553 -0.75709 82 92 100
-0.64295 -0.29437 -0.75514 48 46 56
-0.64007 -0.28701 -0.76709 48 42 59
-0.63645 -0.29590 -0.76512 52 52 56
-0.56698 -0.31528 -0.74740 64 66 74
-0.57061 -0.30635 -0.74938 70 69 75
-0.57304 -0.31287 -0.74979 67 68 76
-0.56064 -0.31749 -0.74852 60 63 69
-0.55385 -0.31941 -0.75477 50 60 56
-0.39731 -0.37583 -0.76002 84 86 149
-0.39288 -0.37865 -0.74615 132 124 172
-0.38851 -0.38144 -0.73241 208 213 228
-0.38274 -0.38398 -0.72729 248 252 254
-0.37901 -0.39315 -0.72527 254 254 254
0.35250 -0.67732 -0.42735 254 254 253
0.34879 -0.66820 -0.42937 254 254 254
0.34630 -0.67486 -0.42980 254 254 254
0.34382 -0.68152 -0.43022 254 254 254
0.35734 -0.67948 -0.42284 253 243 213
0.36260 -0.68172 -0.41900 122 72 111
0.36460 -0.68321 -0.41025 170 145 179
0.37440 -0.68651 -0.41328 237 238 242
0.37810 -0.69561 -0.41126 254 254 254
0.38208 -0.68932 -0.41307 253 254 253
0.38578 -0.69843 -0.41105 254 254 254
0.47438 -0.72517 -0.38662 248 241 231
0.47066 -0.71601 -0.38864 254 253 248
0.46568 -0.72938 -0.38950 254 254 252
0.47687 -0.71848 -0.38619 250 243 232
0.47811 -0.73432 -0.38459 243 233 225
-0.89201 -0.19791 -0.82203 56 50 56
-0.89554 -0.18921 -0.82395 49 48 54
-0.89791 -0.19556 -0.82436 50 48 54
-0.88964 -0.19156 -0.82162 48 48 53
-0.88649 -0.19973 -0.82435 63 56 63
-0.88148 -0.20081 -0.83331 62 59 58
-0.87558 -0.20311 -0.83151 58 55 60
-0.85359 -0.20963 -0.84947 83 89 94
-0.85601 -0.21612 -0.84989 81 82 87
-0.84724 -0.21257 -0.84202 86 97 109
-0.84158 -0.21434 -0.84556 98 109 135
-0.83453 -0.21858 -0.82557 127 143 168
-0.82719 -0.22354 -0.79832 162 179 202
-0.81985 -0.22870 -0.76858 195 211 230
-0.81408 -0.23090 -0.76745 220 232 243
-0.80806 -0.23364 -0.76101 237 243 247
-0.79991 -0.22969 -0.75831 253 254 254
-0.80196 -0.23661 -0.75216 246 250 253
-0.79383 -0.23267 -0.74947 254 254 254
-0.79592 -0.23949 -0.74402 251 253 254
-0.78782 -0.23557 -0.74133 254 254 254
-0.79014 -0.24179 -0.74173 253 254 254
-0.72076 -0.26875 -0.72199 253 254 254
-0.72424 -0.26019 -0.72389 254 254 254
-0.72657 -0.26644 -0.72429 254 254 254
-0.71843 -0.26250 -0.72159 254 254 254
-0.71263 -0.26481 -0.71930 254 254 254
-0.71495 -0.27078 -0.72308 246 254 253
-0.70912 -0.27281 -0.72414 233 244 243
-0.70321 -0.27412 -0.73431 218 192 211
-0.69739 -0.27674 -0.72843 149 152 168
-0.69129 -0.27756 -0.74515 93 82 110
-0.68523 -0.27920 -0.75202 56 54 85
-0.67928 -0.28148 -0.75073 54 58 50
-0.67331 -0.28374 -0.74973 75 75 84
-0.66738 -0.28616 -0.74670 98 94 101
-0.65529 -0.29042 -0.74849 91 97 104
-0.65172 -0.29920 -0.74654 45 43 49
-0.64877 -0.29162 -0.76252 51 48 64
-0.57645 -0.32019 -0.73645 63 65 72
-0.58006 -0.31131 -0.73842 70 69 74
-0.58247 -0.31779 -0.73883 68 70 72
-0.58489 -0.32427 -0.73925 63 68 72
-0.56962 -0.32196 -0.74500 59 60 68
-0.56301 -0.32398 -0.74974 53 55 63
-0.55937 -0.33293 -0.74776 33 36 47
-0.39953 -0.38256 -0.76238 80 81 140
-0.40836 -0.38684 -0.76531 78 78 137
-0.39437 -0.38524 -0.75286 117 112 161
-0.39007 -0.38801 -0.73845 196 206 224
-0.38514 -0.39067 -0.72825 245 252 253
-0.38141 -0.39983 -0.72623 254 254 254
0.34517 -0.68284 -0.42028 254 254 252
0.33654 -0.68702 -0.42314 254 254 254
0.34553 -0.68392 -0.40894 246 225 197
0.35402 -0.68692 -0.41012 110 84 79
0.35889 -0.68906 -0.40577 176 187 184
0.36771 -0.69215 -0.40738 243 247 246
0.37140 -0.70121 -0.40537 254 254 254
0.46651 -0.73050 -0.37977 250 247 240
0.45785 -0.73469 -0.38264 254 254 254
0.46610 -0.73218 -0.35781 248 244 242
0.47468 -0.72804 -0.35497 254 254 254
0.46977 -0.74120 -0.35581 234 220 241
-0.88492 -0.20579 -0.84662 101 84 67
-0.87827 -0.20909 -0.83585 80 76 68
-0.87270 -0.21091 -0.83859 53 51 71
-0.86157 -0.21442 -0.84562 81 82 89
-0.84938 -0.21947 -0.83830 80 83 93
-0.85179 -0.22593 -0.83871 77 80 84
-0.84578 -0.22832 -0.83634 77 80 86
-0.84297 -0.22255 -0.82924 79 84 102
-0.83644 -0.22587 -0.81761 85 95 114
-0.83012 -0.22889 -0.80880 99 117 145
-0.82397 -0.23164 -0.80252 124 147 183
-0.81689 -0.23625 -0.77726 159 177 213
-0.81056 -0.23955 -0.76497 189 203 224
-0.80405 -0.24334 -0.74745 212 225 236
-0.79822 -0.24574 -0.74411 227 238 243
-0.79231 -0.24836 -0.73846 238 246 250
-0.78423 -0.24444 -0.73578 254 254 254
-0.78630 -0.25127 -0.72951 244 251 253
-0.77824 -0.24737 -0.72684 254 254 254
-0.78038 -0.25404 -0.72202 248 253 254
-0.77234 -0.25015 -0.71935 254 254 254
-0.77464 -0.25632 -0.71984 249 254 254
-0.76661 -0.25243 -0.71718 254 254 254
-0.76898 -0.25837 -0.72017 250 254 254
-0.76093 -0.25447 -0.71750 254 254 254
-0.76331 -0.26037 -0.72111 250 254 254
-0.75525 -0.25646 -0.71844 254 254 254
-0.75762 -0.26239 -0.72189 250 254 254
-0.74955 -0.25848 -0.71922 254 254 254
-0.75188 -0.26457 -0.72092 248 253 254
-0.74380 -0.26066 -0.71824 254 254 254
-0.74614 -0.26673 -0.72022 246 253 254
-0.73805 -0.26281 -0.71754 254 254 254
-0.74039 -0.26882 -0.72031 242 252 254
-0.73230 -0.26490 -0.71763 254 254 254
-0.73464 -0.27087 -0.72100 236 250 254
-0.72887 -0.27296 -0.72131 229 247 252
-0.72309 -0.27505 -0.72170 222 228 243
-0.71729 -0.27611 -0.73498 193 192 224
-0.71146 -0.27916 -0.72358 148 152 182
-0.70547 -0.27915 -0.75117 113 87 130
-0.69961 -0.28192 -0.74338 69 60 93
-0.69368 -0.28404 -0.74400 51 55 68
-0.68767 -0.28585 -0.74893 68 67 77
-0.67574 -0.29033 -0.74750 89 92 93
-0.66974 -0.29250 -0.74781 103 110 105
-0.66374 -0.29470 -0.74779 92 94 112
-0.66017 -0.30348 -0.74585 40 40 59
-0.65748 -0.29636 -0.75575 51 51 78
-0.57905 -0.32680 -0.73429 58 61 65
-0.58747 -0.33088 -0.73708 62 66 70
-0.58146 -0.33327 -0.73471 57 60 61
-0.57545 -0.33566 -0.73233 52 55 56
-0.57212 -0.32853 -0.74433 54 56 61
-0.56565 -0.33066 -0.74745 47 51 57
-0.56202 -0.33960 -0.74547 26 30 42
-0.44874 -0.36837 -0.81134 36 32 78
-0.45770 -0.37271 -0.81431 34 29 81
-0.39581 -0.39187 -0.75993 109 108 160
-0.39336 -0.39483 -0.73416 191 201 222
-0.38625 -0.39721 -0.73688 244 250 252
-0.38251 -0.40642 -0.73485 254 254 254
0.33714 -0.68813 -0.41209 254 254 242
0.32855 -0.69228 -0.41493 254 254 254
0.34508 -0.69101 -0.41245 215 179 161
0.34612 -0.69220 -0.40223 133 101 70
0.35092 -0.69431 -0.39782 196 214 195
0.36199 -0.69796 -0.40290 247 252 249
0.36567 -0.70700 -0.40090 254 254 254
0.45781 -0.73555 -0.37175 253 252 244
0.44919 -0.73972 -0.37461 254 254 254
0.45550 -0.73581 -0.35791 245 233 217
0.46278 -0.73854 -0.35707 237 223 227
0.45989 -0.73947 -0.33227 233 219 245
0.45282 -0.73844 -0.31269 234 228 250
0.46006 -0.74115 -0.31198 236 240 252
0.46843 -0.73710 -0.30921 254 254 254
0.46843 -0.74416 -0.31272 237 247 253
0.47682 -0.74010 -0.30994 254 254 254
0.47771 -0.74741 -0.31459 241 249 254
0.48613 -0.74334 -0.31180 254 254 254
0.48087 -0.74905 -0.30858 245 251 254
0.48927 -0.74498 -0.30580 254 254 254
0.48533 -0.75102 -0.30427 248 253 254
0.49371 -0.74697 -0.30149 254 254 254
0.49132 -0.75340 -0.30191 251 254 254
-0.93202 -0.19667 -0.83558 78 64 71
-0.93556 -0.18797 -0.83751 45 45 49
-0.93792 -0.19432 -0.83791 53 49 60
-0.92376 -0.19267 -0.83285 50 45 47
-0.92494 -0.20033 -0.82168 80 68 74
-0.91959 -0.20208 -0.82454 58 55 64
-0.91135 -0.19809 -0.82181 54 54 64
-0.91371 -0.20442 -0.82222 57 56 61
-0.91607 -0.21075 -0.82262 55 56 60
-0.90260 -0.20832 -0.82471 73 65 70
-0.89529 -0.21240 -0.80640 134 124 102
-0.88961 -0.21451 -0.80613 154 125 119
-0.88375 -0.21684 -0.80382 149 113 118
-0.87999 -0.21639 -0.82790 106 107 103
-0.87479 -0.21776 -0.83504 47 44 58
-0.86911 -0.21973 -0.83652 51 56 75
-0.86324 -0.22195 -0.83569 71 73 78
-0.85718 -0.22445 -0.83211 75 79 79
-0.83876 -0.23239 -0.81693 72 78 88
-0.84710 -0.23642 -0.81969 75 79 82
-0.84115 -0.23879 -0.81734 75 77 80
-0.83519 -0.24116 -0.81498 70 74 83
-0.83231 -0.23559 -0.80598 67 78 98
-0.82594 -0.23873 -0.79550 68 85 122
