ply
format ascii 1.0
element face 0
property list uchar int vertex_indices
element vertex 1317
property float x
property float y
property float z
property uchar diffuse_red
property uchar diffuse_green
property uchar diffuse_blue
end_header
0.01224 0.11668 -0.99675 123 71 122
0.01768 0.11061 -0.98790 168 134 149
0.02764 0.10804 -0.99032 225 216 203
0.03050 0.09472 -0.98789 254 254 254
0.04340 0.10983 -1.00690 250 248 230
0.04629 0.09640 -1.00445 254 254 254
0.04959 0.10427 -0.99977 254 251 227
0.05248 0.09085 -0.99732 254 254 254
0.05452 0.09780 -0.98963 254 252 239
0.05740 0.08441 -0.98719 254 254 254
0.06224 0.09342 -0.98628 254 254 252
0.06512 0.08002 -0.98383 254 254 254
0.18053 0.02790 -0.93863 254 254 251
0.16900 0.02408 -0.94569 254 254 254
0.17622 0.01922 -0.94093 254 254 254
0.18344 0.01437 -0.93616 254 254 252
0.19012 0.02445 -0.93882 254 249 227
0.19876 0.02041 -0.93698 232 211 169
0.20763 0.01647 -0.93553 173 137 102
0.23824 0.02491 -0.97858 122 75 49
0.28983 0.02612 -1.02273 118 83 41
0.30087 0.02291 -1.02461 67 50 34
0.31428 0.02092 -1.03106 62 52 63
0.31855 0.01403 -1.01948 68 66 74
0.32558 0.00863 -1.01336 54 51 53
0.32865 -0.00561 -1.01075 58 53 64
0.33245 0.00314 -1.00693 56 51 54
0.33961 -0.00218 -1.00108 67 64 68
0.34267 -0.01640 -0.99848 68 72 86
0.34612 -0.00783 -0.99401 71 78 70
0.35336 -0.01309 -0.98836 65 63 47
0.35814 -0.01956 -0.97811 61 53 71
0.35623 -0.02919 -0.95557 86 90 81
0.36013 -0.03596 -0.94395 93 96 87
0.37429 -0.03788 -0.95117 80 67 64
0.37211 -0.04742 -0.92861 66 46 52
0.38126 -0.05169 -0.92666 69 67 82
0.38475 -0.05851 -0.91459 68 58 74
0.39000 -0.06451 -0.90574 71 82 82
0.39365 -0.07118 -0.89413 48 41 41
0.40332 -0.07522 -0.89312 28 38 76
0.41148 -0.07992 -0.88945 63 63 47
0.42180 -0.08372 -0.88946 88 81 46
0.46041 -0.11621 -0.84970 38 33 49
0.46498 -0.12229 -0.84011 43 42 59
0.47225 -0.12733 -0.83497 50 62 74
0.47545 -0.13388 -0.82327 50 62 65
0.47977 -0.13997 -0.81347 46 47 48
0.51863 -0.16411 -0.79212 51 53 55
0.52639 -0.16895 -0.78780 56 63 61
0.53483 -0.17358 -0.78451 50 48 49
0.54210 -0.17859 -0.77944 46 39 48
0.55392 -0.17467 -0.77221 44 42 71
0.54950 -0.18356 -0.77456 45 41 62
0.57265 -0.20538 -0.74561 44 44 54
0.57562 -0.21918 -0.74309 46 39 44
0.57715 -0.21118 -0.73659 42 40 47
0.58197 -0.21686 -0.72808 47 52 45
0.58943 -0.22878 -0.70811 55 55 71
0.59305 -0.23471 -0.69807 36 38 44
0.59707 -0.24051 -0.68868 40 38 40
0.60945 -0.24402 -0.69098 42 52 69
0.62998 -0.25228 -0.68949 58 47 60
0.65308 -0.26677 -0.67649 50 44 58
0.64516 -0.27544 -0.65123 80 94 91
0.65391 -0.27996 -0.64841 79 81 82
0.67484 -0.28161 -0.66167 62 40 38
0.68293 -0.28636 -0.65782 55 44 63
0.69840 -0.29603 -0.64918 42 47 45
0.70848 -0.30035 -0.64786 47 52 61
0.71654 -0.30514 -0.64391 49 54 61
0.72303 -0.31026 -0.63797 39 41 49
0.74695 -0.32470 -0.62575 41 28 33
0.74521 -0.33145 -0.60964 39 21 20
0.75130 -0.33660 -0.60329 40 17 16
0.75955 -0.34134 -0.59961 45 22 20
0.76963 -0.34574 -0.59813 51 37 33
0.77434 -0.35114 -0.59013 59 61 67
0.77840 -0.35665 -0.58140 86 85 91
0.77071 -0.37034 -0.54537 134 125 110
0.79922 -0.37156 -0.56566 150 153 139
0.81287 -0.37540 -0.56826 163 177 158
0.83239 -0.38447 -0.56420 159 175 155
0.83892 -0.38953 -0.55842 145 155 151
0.84923 -0.39401 -0.55696 125 128 148
0.85904 -0.39858 -0.55488 108 93 128
0.85951 -0.41052 -0.52922 47 46 78
0.86872 -0.42108 -0.51361 25 26 40
0.87572 -0.42602 -0.50848 30 34 57
0.89224 -0.42970 -0.51374 30 30 58
0.90634 -0.43375 -0.51626 51 23 28
0.91666 -0.43832 -0.51461 41 9 31
0.92051 -0.44369 -0.50600 156 125 147
0.94485 -0.44661 -0.51923 235 241 245
0.95502 -0.45127 -0.51725 253 249 219
0.97975 -0.45430 -0.53054 192 135 94
0.99454 -0.45853 -0.53323 96 45 29
0.99830 -0.46398 -0.52438 67 44 49
1.00580 -0.46901 -0.51943 60 48 50
1.00110 -0.49799 -0.45247 57 55 47
1.00979 -0.50837 -0.43684 78 53 49
1.04248 -0.51679 -0.44479 235 233 217
1.04546 -0.53062 -0.44226 254 254 254
1.06133 -0.52088 -0.45104 253 254 252
1.06433 -0.53480 -0.44850 254 254 254
1.31255 -0.70041 -0.26181 252 251 243
1.30077 -0.70431 -0.26902 254 254 254
1.30815 -0.70927 -0.26415 254 254 253
1.30030 -0.70512 -0.24167 249 241 231
-0.51082 0.33798 -1.08059 221 105 10
-0.52125 0.33453 -1.08697 228 109 33
-0.50332 0.33560 -1.08148 216 101 12
-0.49750 0.32976 -1.07340 219 107 21
-0.49487 0.31753 -1.07116 188 90 28
-0.49129 0.32472 -1.06740 216 110 37
-0.48619 0.31755 -1.05580 206 109 75
-0.47938 0.31376 -1.05303 202 129 127
-0.47302 0.30909 -1.04796 207 168 195
-0.46604 0.28928 -1.01016 240 237 236
-0.45880 0.28640 -1.00974 240 222 229
-0.45614 0.27535 -0.98762 231 161 175
-0.45356 0.26337 -0.98543 201 91 19
-0.43976 0.28846 -1.02980 219 100 95
-0.43060 0.28862 -1.03761 217 93 31
-0.42797 0.27635 -1.03536 195 90 7
-0.42151 0.28851 -1.04479 216 91 8
-0.41886 0.27619 -1.04254 191 87 15
-0.41548 0.28318 -1.03800 205 88 14
-0.41284 0.27087 -1.03575 188 83 16
-0.40670 0.28239 -1.04343 200 82 18
-0.39804 0.28128 -1.04806 200 79 16
-0.38792 0.28238 -1.05874 204 86 33
-0.38523 0.26991 -1.05646 191 97 50
-0.37195 0.27751 -1.06105 203 97 15
-0.36926 0.26498 -1.05876 181 79 29
-0.36398 0.27496 -1.06198 205 93 25
-0.33818 0.26969 -1.07144 192 91 19
-0.34898 0.26611 -1.07804 195 102 26
-0.34222 0.26157 -1.07359 165 83 37
-0.31338 0.26231 -1.07546 193 74 10
-0.31064 0.24957 -1.07314 236 118 10
-0.30516 0.25967 -1.07637 230 108 29
-0.28998 0.25255 -1.07311 232 102 8
-0.29406 0.24434 -1.07528 236 100 3
-0.28723 0.23975 -1.07077 233 100 5
-0.28176 0.24977 -1.07372 225 99 15
-0.25828 0.26653 -1.12969 231 129 87
-0.25077 0.26246 -1.12687 242 203 197
-0.24795 0.24933 -1.12447 238 200 201
-0.24336 0.25825 -1.12368 234 212 183
-0.21083 0.27125 -1.17877 142 100 90
-0.19421 0.26425 -1.17697 131 106 109
-0.18886 0.25726 -1.16597 129 106 107
-0.18220 0.25182 -1.15945 139 118 93
-0.17279 0.24951 -1.16206 121 92 71
-0.09854 0.14586 -0.99493 115 30 53
-0.10134 0.15885 -0.99731 93 39 53
-0.10548 0.15052 -0.99951 83 33 50
-0.09062 0.14208 -0.99309 130 33 51
-0.08307 0.13795 -0.99019 119 22 51
-0.06493 0.14317 -1.01645 159 104 141
-0.05045 0.14493 -1.03214 217 212 225
-0.04235 0.14104 -1.03019 238 238 241
-0.03797 0.13395 -1.01820 227 223 240
-0.03102 0.12908 -1.01318 209 203 222
-0.02021 0.12741 -1.01832 161 154 177
-0.01391 0.12198 -1.01153 147 105 139
-0.00712 0.11696 -1.00604 156 89 124
0.00013 0.11231 -1.00176 122 54 111
0.00568 0.10633 -0.99313 164 124 169
0.01814 0.10572 -1.00195 230 224 225
0.19291 0.01082 -0.93609 252 250 237
0.20140 0.00667 -0.93390 234 227 202
0.20599 0.00031 -0.92367 209 187 138
0.22763 -0.00545 -0.92868 227 195 139
0.29836 0.01488 -1.03104 88 61 46
0.30142 0.00064 -1.02844 48 40 49
0.30540 0.00948 -1.02492 61 49 53
0.30922 0.00240 -1.01249 76 81 74
0.31569 -0.00326 -1.00533 63 59 64
0.32451 -0.01659 -0.98324 64 62 75
0.33689 -0.02803 -0.96823 71 59 74
0.34406 -0.03325 -0.96260 60 62 84
0.34844 -0.03979 -0.95181 48 51 66
0.35217 -0.04659 -0.93992 49 56 75
0.36810 -0.04771 -0.95045 86 91 88
0.36602 -0.05714 -0.92803 82 79 56
0.35911 -0.06863 -0.89715 43 32 38
0.36371 -0.07484 -0.88727 48 39 50
0.38106 -0.07543 -0.90014 77 75 93
0.38406 -0.08935 -0.89759 80 93 110
0.38807 -0.08060 -0.89448 93 86 69
0.39165 -0.08723 -0.88284 42 43 54
0.39464 -0.10111 -0.88031 38 38 36
0.40923 -0.09605 -0.87782 58 48 48
0.41500 -0.10171 -0.87010 50 26 47
0.42685 -0.09778 -0.86285 25 32 41
0.42242 -0.10669 -0.86521 36 32 42
0.42938 -0.11185 -0.85955 31 40 59
0.43381 -0.10295 -0.85720 36 43 67
0.44122 -0.10793 -0.85231 44 34 68
0.43685 -0.11681 -0.85474 64 67 63
0.44580 -0.12119 -0.85242 82 81 36
0.44953 -0.12759 -0.84142 46 39 43
0.45477 -0.13337 -0.83300 38 37 53
0.46007 -0.13911 -0.82471 53 79 76
0.46413 -0.14528 -0.81446 51 68 54
0.47385 -0.15695 -0.79677 47 43 39
0.48119 -0.16188 -0.79193 50 47 52
0.49666 -0.17147 -0.78348 44 41 49
0.48932 -0.16653 -0.78832 48 45 52
0.50533 -0.17596 -0.78069 44 37 59
0.51331 -0.18069 -0.77681 42 33 55
0.52108 -0.18549 -0.77259 44 40 53
0.52404 -0.19926 -0.77008 52 52 61
0.52863 -0.19037 -0.76805 51 51 66
0.53160 -0.20414 -0.76553 53 50 60
0.55483 -0.21110 -0.74387 48 46 57
0.54749 -0.20617 -0.74872 45 44 43
0.56027 -0.21659 -0.73624 48 43 54
0.57028 -0.22778 -0.71983 48 47 49
0.56591 -0.23656 -0.72216 45 46 63
0.57418 -0.23365 -0.71011 53 60 61
0.57848 -0.23939 -0.70103 59 51 62
0.58209 -0.24528 -0.69102 62 41 40
0.58765 -0.25062 -0.68384 48 35 32
0.59058 -0.26420 -0.68136 57 45 64
0.59688 -0.25497 -0.68182 50 47 59
0.61540 -0.26370 -0.67773 80 79 95
0.62587 -0.26779 -0.67730 58 46 62
0.63347 -0.27261 -0.67290 54 45 66
0.63907 -0.27793 -0.66579 50 43 56
0.64042 -0.28426 -0.65300 80 97 98
0.64875 -0.28888 -0.64963 84 100 112
0.66105 -0.29260 -0.65151 85 93 83
0.67453 -0.29608 -0.65486 60 62 57
0.68179 -0.30101 -0.64995 57 70 65
0.69035 -0.30565 -0.64674 53 40 46
0.70119 -0.30981 -0.64645 47 25 32
0.70746 -0.31497 -0.64023 48 20 21
0.71591 -0.31966 -0.63683 48 20 23
0.72771 -0.32367 -0.63764 52 24 37
0.74043 -0.33395 -0.62543 80 73 74
0.75925 -0.34304 -0.62082 126 115 98
0.75964 -0.34929 -0.60741 146 146 119
0.76780 -0.35407 -0.60357 160 173 145
0.77763 -0.35855 -0.60174 169 186 163
0.77999 -0.36437 -0.59089 166 184 164
0.78385 -0.36989 -0.58190 154 171 159
0.78839 -0.37528 -0.57377 138 152 161
0.79404 -0.38046 -0.56700 120 123 162
0.80929 -0.39016 -0.55813 71 63 110
0.82625 -0.39356 -0.56450 38 37 83
0.83179 -0.39876 -0.55759 15 18 55
0.83961 -0.40362 -0.55332 5 16 54
0.85063 -0.40801 -0.55266 11 19 54
0.85144 -0.41388 -0.54043 25 22 55
0.85010 -0.42000 -0.52588 47 17 28
0.85691 -0.42496 -0.52053 59 17 4
0.86277 -0.43005 -0.51415 57 10 5
0.86862 -0.43513 -0.50777 58 11 12
0.88445 -0.43893 -0.51233 63 20 16
0.90165 -0.44261 -0.51827 80 53 37
0.90328 -0.44824 -0.50723 140 116 132
0.93174 -0.45068 -0.52511 223 222 219
0.93473 -0.46455 -0.52258 254 254 254
0.94178 -0.45535 -0.52304 251 252 251
0.95229 -0.45999 -0.52142 254 254 240
0.96469 -0.46444 -0.52176 242 204 161
0.98720 -0.46785 -0.53263 129 56 39
0.98990 -0.47338 -0.52268 80 21 23
0.99598 -0.47855 -0.51628 61 37 33
1.00793 -0.47460 -0.50897 55 48 47
0.99419 -0.49018 -0.48929 45 45 47
0.98927 -0.49629 -0.47185 45 43 47
0.99277 -0.50158 -0.46308 54 35 34
0.99165 -0.50725 -0.44971 51 29 31
0.99668 -0.51236 -0.44259 74 45 65
1.00867 -0.51690 -0.44239 154 115 128
1.01644 -0.52180 -0.43798 223 207 196
1.01939 -0.53554 -0.43547 254 254 253
1.04520 -0.52513 -0.45413 250 251 242
1.04819 -0.53901 -0.45159 254 254 254
1.29201 -0.71385 -0.24093 254 253 248
1.28034 -0.71771 -0.24807 254 254 254
1.28765 -0.72261 -0.24325 254 254 254
1.25280 -0.73637 -0.15946 253 245 222
-0.51317 0.33341 -1.09118 204 91 12
-0.52363 0.32995 -1.09758 186 83 28
-0.50670 0.32884 -1.08642 197 92 17
-0.50022 0.32431 -1.08175 193 94 18
-0.48815 0.31351 -1.06783 182 84 21
-0.48552 0.30128 -1.06560 150 71 28
-0.48245 0.30752 -1.05928 174 79 28
-0.47982 0.29531 -1.05705 153 74 24
-0.47736 0.30041 -1.04776 173 84 59
-0.47474 0.28823 -1.04553 156 77 27
-0.47029 0.29710 -1.04627 186 115 100
-0.46767 0.28490 -1.04404 158 74 34
-0.46407 0.29219 -1.04055 196 126 138
-0.45822 0.28665 -1.03312 196 95 120
-0.44871 0.28761 -1.04313 196 85 58
-0.44607 0.27537 -1.04089 175 81 14
-0.43415 0.28138 -1.04139 200 94 6
-0.43806 0.27351 -1.04347 177 84 12
-0.43151 0.26911 -1.03914 177 84 8
-0.40110 0.27477 -1.05409 190 84 18
-0.41168 0.27126 -1.06057 176 85 35
-0.39228 0.27378 -1.05918 195 95 42
-0.38960 0.26132 -1.05690 180 110 86
-0.37645 0.26871 -1.06106 182 83 40
-0.37375 0.25620 -1.05877 182 83 21
-0.33666 0.25533 -1.06435 124 39 26
-0.32785 0.25367 -1.06798 146 54 34
-0.31864 0.25250 -1.07300 210 99 18
-0.31590 0.23978 -1.07067 229 120 16
-0.30313 0.24595 -1.07132 240 110 10
-0.27798 0.23826 -1.07512 223 97 24
-0.28893 0.23463 -1.08182 238 106 6
-0.28207 0.23003 -1.07730 222 98 17
-0.27521 0.22542 -1.07278 214 97 29
-0.25941 0.24843 -1.11299 222 116 85
-0.23784 0.24842 -1.13081 239 228 207
-0.22012 0.25659 -1.16357 196 173 147
-0.21143 0.25363 -1.16420 152 119 89
-0.20244 0.25099 -1.16579 131 104 77
-0.19608 0.24524 -1.15832 120 98 96
-0.18836 0.24107 -1.15547 132 117 102
-0.16717 0.23904 -1.16851 94 65 71
-0.14785 0.24741 -1.20302 63 37 31
-0.13615 0.25129 -1.19586 53 40 48
-0.14008 0.24296 -1.19959 58 38 36
-0.12837 0.24684 -1.19242 52 40 46
-0.13275 0.23803 -1.19475 56 42 46
-0.10997 0.14186 -1.00072 80 35 57
-0.11277 0.15486 -1.00309 51 41 47
-0.11691 0.14652 -1.00530 54 43 43
-0.10221 0.13796 -0.99850 129 49 54
-0.09941 0.12496 -0.99613 158 52 66
-0.09332 0.13505 -0.99940 153 50 55
-0.09052 0.12201 -0.99702 155 45 69
-0.08319 0.13319 -1.00368 150 39 64
-0.06913 0.13472 -1.01868 162 107 138
-0.05941 0.13232 -1.02143 177 180 195
-0.05235 0.12758 -1.01677 179 169 196
-0.04026 0.12709 -1.02568 160 115 189
-0.03332 0.12219 -1.02057 142 77 151
-0.02757 0.11632 -1.01235 93 38 109
-0.01863 0.11307 -1.01253 133 87 136
-0.01134 0.10845 -1.00835 212 192 189
-0.00344 0.10431 -1.00572 200 169 190
0.00485 0.10047 -1.00408 201 174 206
0.01584 0.09867 -1.00918 235 232 242
0.01872 0.08530 -1.00674 254 254 254
0.02142 0.09268 -1.00054 252 254 254
0.02429 0.07933 -0.99810 254 254 254
0.15951 0.00323 -0.91676 251 254 254
0.15236 0.00803 -0.92148 254 254 254
0.17279 0.00201 -0.92504 242 251 250
0.18276 -0.00122 -0.92614 229 227 230
0.19223 -0.00477 -0.92612 202 188 195
0.20313 -0.00756 -0.92897 199 191 178
0.23884 -0.01461 -0.94289 211 189 158
0.29010 0.00378 -1.02602 100 65 69
0.30068 -0.00877 -1.00699 70 81 89
0.30453 -0.01573 -0.99476 69 73 85
0.30612 -0.02378 -0.97828 53 49 65
0.30915 -0.03781 -0.97571 46 43 47
0.31078 -0.03022 -0.96785 51 50 69
0.31379 -0.04423 -0.96529 44 43 49
0.31518 -0.03675 -0.95704 54 53 75
0.32059 -0.04276 -0.94823 71 61 80
0.33527 -0.04432 -0.95690 69 70 86
0.33193 -0.05445 -0.93173 39 39 57
0.33492 -0.06836 -0.92918 39 39 49
0.33080 -0.06341 -0.91095 34 36 51
0.33961 -0.06771 -0.90871 49 51 54
0.34109 -0.07534 -0.89305 48 46 34
0.34546 -0.08162 -0.88277 36 28 31
0.34842 -0.09537 -0.88026 40 39 49
0.35071 -0.08747 -0.87416 37 35 45
0.36420 -0.08973 -0.88032 45 40 85
0.38314 -0.09785 -0.87801 51 56 69
0.39949 -0.10713 -0.87099 61 52 46
0.40560 -0.11262 -0.86389 81 57 29
0.40858 -0.12646 -0.86137 41 36 42
0.41224 -0.11788 -0.85773 43 30 38
0.42553 -0.12837 -0.84551 50 58 56
0.43179 -0.13376 -0.83877 51 65 48
0.43751 -0.13933 -0.83116 42 31 42
0.44036 -0.14595 -0.81888 44 27 34
0.44972 -0.15014 -0.81733 43 36 46
0.45329 -0.15644 -0.80635 38 35 48
0.45897 -0.16195 -0.79884 51 59 41
0.46412 -0.16763 -0.79054 56 73 73
0.47113 -0.17264 -0.78523 46 45 53
0.47408 -0.18633 -0.78273 39 39 44
0.47715 -0.17799 -0.77837 48 40 54
0.48666 -0.18216 -0.77701 58 58 92
0.49421 -0.18700 -0.77254 58 56 96
0.49716 -0.20070 -0.77004 43 33 54
0.50239 -0.19163 -0.76905 44 38 48
0.51107 -0.19612 -0.76631 42 40 42
0.51402 -0.20984 -0.76380 49 51 61
0.53701 -0.21682 -0.74195 51 44 52
0.53406 -0.20313 -0.74445 45 42 41
0.52970 -0.21191 -0.74677 47 42 49
0.54095 -0.22273 -0.73213 63 58 68
0.54654 -0.22812 -0.72480 62 63 69
0.55412 -0.23293 -0.72043 53 53 61
0.56302 -0.24430 -0.70262 42 51 73
0.56478 -0.25069 -0.68995 82 93 99
0.57371 -0.25509 -0.68757 124 119 115
0.58222 -0.25962 -0.68459 74 63 72
0.59495 -0.26982 -0.67255 74 79 89
0.60408 -0.27421 -0.67039 82 92 105
0.61133 -0.27908 -0.66560 87 98 92
0.61733 -0.28425 -0.65912 72 76 72
0.62805 -0.28828 -0.65905 54 39 58
0.63711 -0.29274 -0.65669 59 64 64
0.64537 -0.29739 -0.65323 54 49 36
0.65258 -0.30229 -0.64834 38 22 31
0.66350 -0.30636 -0.64837 44 32 28
0.67432 -0.31048 -0.64820 66 62 51
0.68285 -0.31512 -0.64498 79 63 72
0.68844 -0.32039 -0.63793 89 78 78
0.69250 -0.32598 -0.62893 117 99 83
0.70552 -0.32970 -0.63146 148 141 128
0.71408 -0.33436 -0.62823 167 173 155
0.72343 -0.33888 -0.62596 178 197 173
0.73689 -0.34895 -0.61481 168 191 173
0.74588 -0.35355 -0.61205 150 168 164
0.75724 -0.35774 -0.61217 131 139 161
0.76151 -0.36322 -0.60357 110 105 149
0.76608 -0.36864 -0.59537 86 76 125
0.76903 -0.38234 -0.59286 45 8 24
0.77289 -0.37364 -0.58993 59 56 101
0.76593 -0.38096 -0.56796 34 39 76
0.77392 -0.38572 -0.56405 15 24 62
0.79380 -0.39463 -0.56076 23 13 46
0.80247 -0.39931 -0.55758 40 13 26
0.81859 -0.40287 -0.56303 51 13 17
0.82734 -0.40758 -0.55984 59 11 5
0.83558 -0.41237 -0.55604 58 9 6
0.84624 -0.41683 -0.55499 62 18 11
0.84661 -0.42273 -0.54224 70 39 27
0.85880 -0.42699 -0.54289 100 74 46
0.87330 -0.43098 -0.54606 134 105 49
0.89163 -0.43452 -0.55339 180 130 54
0.90414 -0.43886 -0.55413 223 174 130
0.91364 -0.44360 -0.55150 244 212 172
0.91093 -0.44981 -0.53551 243 231 190
0.91391 -0.46366 -0.53298 254 254 253
0.93021 -0.45924 -0.53057 252 252 251
0.93320 -0.47313 -0.52803 254 254 254
0.94819 -0.46887 -0.52414 254 254 251
0.94376 -0.47779 -0.52650 254 254 254
0.95538 -0.47389 -0.51898 253 244 229
0.96852 -0.47830 -0.52008 238 197 148
0.97838 -0.48307 -0.51768 171 97 27
0.98572 -0.48809 -0.51264 97 38 10
0.98332 -0.49966 -0.48503 59 17 17
0.97816 -0.50572 -0.46736 61 19 16
0.98703 -0.51053 -0.46405 72 40 25
0.98369 -0.51634 -0.44843 113 84 76
1.00233 -0.52036 -0.45495 181 154 147
1.00596 -0.52558 -0.44638 230 214 205
1.00892 -0.53933 -0.44387 254 254 253
1.02523 -0.52965 -0.45334 251 248 242
1.02821 -0.54347 -0.45081 254 254 254
-0.51629 0.32720 -1.09761 169 75 26
-0.52677 0.32373 -1.10402 162 78 13
-0.52021 0.31932 -1.09969 152 76 18
-0.51365 0.31492 -1.09536 148 69 26
-0.50921 0.32388 -1.09616 162 70 31
-0.50656 0.31159 -1.09391 141 64 26
-0.50335 0.31803 -1.08801 158 69 24
-0.50071 0.30575 -1.08577 137 61 23
-0.49810 0.31101 -1.07676 154 65 30
-0.49547 0.29877 -1.07452 141 62 28
-0.45904 0.28435 -1.05005 162 71 29
-0.46948 0.28089 -1.05644 139 65 25
-0.46294 0.27650 -1.05212 141 64 24
-0.45640 0.27211 -1.04781 145 69 23
-0.45259 0.27981 -1.04532 168 79 14
-0.44995 0.26757 -1.04309 149 71 32
-0.40449 0.26772 -1.05870 185 123 84
-0.40181 0.25529 -1.05643 180 147 130
-0.40200 0.25671 -1.03622 192 160 127
-0.35538 0.25453 -1.07048 155 87 44
-0.36212 0.25906 -1.07492 183 92 32
-0.35940 0.24645 -1.07262 83 38 23
-0.34949 0.24880 -1.06264 91 39 15
-0.34457 0.24173 -1.05099 66 11 16
-0.33681 0.23869 -1.05071 90 28 31
-0.32606 0.23971 -1.06201 177 99 38
-0.30960 0.23456 -1.06432 238 111 3
-0.31365 0.22641 -1.06648 231 116 48
-0.30170 0.23147 -1.06406 240 107 3
-0.25786 0.23382 -1.10607 219 127 89
-0.26897 0.23014 -1.11287 217 99 8
-0.24204 0.23996 -1.13305 238 222 219
-0.23484 0.23542 -1.12895 231 216 211
-0.23201 0.22224 -1.12655 221 211 200
-0.21300 0.23504 -1.14643 147 121 85
-0.19904 0.23815 -1.16507 104 63 49
-0.19615 0.22472 -1.16262 116 63 58
-0.17769 0.23636 -1.17899 123 91 90
-0.17050 0.23145 -1.17408 120 94 81
-0.15675 0.23368 -1.19058 87 76 66
-0.13972 0.22648 -1.18879 68 47 58
-0.12804 0.23035 -1.18164 55 41 49
-0.13060 0.22345 -1.18969 66 48 61
-0.11890 0.22733 -1.18252 52 41 49
-0.11421 0.14459 -1.02750 64 54 57
-0.11703 0.15768 -1.02989 57 46 44
-0.12538 0.14089 -1.03433 73 61 62
-0.11839 0.13619 -1.02972 67 60 63
-0.11139 0.13149 -1.02511 84 55 67
-0.11080 0.13659 -1.01251 84 48 67
-0.10800 0.12355 -1.01013 128 63 55
-0.10275 0.13290 -1.01105 133 59 61
-0.09994 0.11985 -1.00866 144 53 57
-0.07230 0.12718 -1.02382 130 54 83
-0.08355 0.12345 -1.03070 138 48 61
-0.06251 0.12481 -1.02674 112 61 84
-0.05298 0.12215 -1.02881 101 38 70
-0.04528 0.11791 -1.02579 107 29 77
-0.04243 0.10463 -1.02337 130 81 80
-0.03876 0.11268 -1.01960 122 38 77
-0.03195 0.10769 -1.01420 117 52 77
-0.02346 0.10407 -1.01323 118 83 99
-0.01406 0.10113 -1.01456 175 182 185
-0.00806 0.09549 -1.00701 228 236 229
0.00297 0.09375 -1.01239 249 250 241
0.00953 0.08853 -1.00623 253 253 250
0.01240 0.07518 -1.00379 252 253 254
0.09651 -0.00474 -0.87112 252 254 254
0.09371 0.00828 -0.87350 254 254 254
0.08956 -0.00007 -0.87571 254 254 254
0.10066 0.00361 -0.86891 254 254 254
0.10762 -0.00106 -0.86433 254 254 254
0.10606 -0.00784 -0.87223 248 253 254
0.11719 -0.00415 -0.86542 254 254 254
0.12010 -0.00827 -0.88303 243 252 252
0.13578 -0.00785 -0.89714 240 240 243
0.14457 -0.01159 -0.89616 224 210 227
0.14871 -0.01804 -0.88524 193 185 202
0.17011 -0.01462 -0.91081 165 156 167
0.17616 -0.02004 -0.90381 144 125 148
0.19494 -0.01839 -0.92323 167 161 176
0.23374 -0.02379 -0.94373 217 196 184
0.28058 -0.00794 -1.01839 110 77 81
0.28363 -0.02208 -1.01580 44 35 40
0.28522 -0.01452 -1.00760 48 55 50
0.28916 -0.02142 -0.99551 75 101 104
0.29142 -0.02912 -0.98025 74 82 97
0.28914 -0.03900 -0.95628 47 43 51
0.30482 -0.05711 -0.92902 46 45 60
0.30041 -0.06599 -0.93137 44 43 48
0.31196 -0.06219 -0.92369 53 48 65
0.31494 -0.07602 -0.92116 47 50 63
0.31688 -0.06830 -0.91419 45 45 61
0.32489 -0.08125 -0.89203 44 42 42
0.33095 -0.08674 -0.88484 71 64 52
0.33712 -0.09218 -0.87790 66 60 52
0.35134 -0.10219 -0.86748 41 41 66
0.34697 -0.11098 -0.86981 50 38 51
0.35971 -0.10666 -0.86454 78 77 71
0.36790 -0.11122 -0.86123 45 52 41
0.37972 -0.11431 -0.86427 34 32 22
0.38589 -0.11972 -0.85735 49 43 37
0.40444 -0.13588 -0.83687 40 42 39
0.40007 -0.14468 -0.83920 43 50 58
0.40740 -0.14960 -0.83436 39 47 49
0.42066 -0.14514 -0.82982 37 45 54
0.41628 -0.15395 -0.83215 36 42 42
0.42681 -0.15051 -0.82300 66 62 47
0.43119 -0.15651 -0.81329 83 71 27
0.43731 -0.16186 -0.80649 47 37 38
0.44030 -0.16830 -0.79464 36 34 39
0.44465 -0.17422 -0.78506 57 79 54
0.44867 -0.18023 -0.77503 59 73 75
0.45159 -0.19382 -0.77255 49 44 45
0.45712 -0.18470 -0.77215 40 41 40
0.47599 -0.19302 -0.76942 43 37 67
0.48343 -0.19787 -0.76485 43 28 73
0.50214 -0.20635 -0.76162 45 46 52
0.51867 -0.22269 -0.73903 47 43 53
0.51139 -0.21780 -0.74384 52 48 58
0.51432 -0.23143 -0.74135 50 48 54
0.52398 -0.22816 -0.73129 62 68 67
0.52340 -0.23533 -0.71480 96 101 82
0.53302 -0.23950 -0.71357 93 87 69
0.54060 -0.24427 -0.70927 65 59 60
0.54661 -0.24948 -0.70269 56 49 68
0.54964 -0.25550 -0.69182 66 72 83
0.55653 -0.26043 -0.68659 112 125 131
0.56093 -0.26603 -0.67780 125 127 136
0.58000 -0.26778 -0.68988 89 87 77
0.58878 -0.27898 -0.67227 58 55 62
0.59276 -0.28464 -0.66298 65 46 68
0.60095 -0.28925 -0.65955 56 35 49
0.60983 -0.29371 -0.65706 42 20 28
0.61881 -0.29815 -0.65467 48 34 37
0.63101 -0.30187 -0.65661 68 55 53
0.63393 -0.31547 -0.65413 189 212 197
0.64031 -0.30629 -0.65457 90 77 98
0.64742 -0.31120 -0.64956 129 109 90
0.66774 -0.31973 -0.64760 176 189 171
0.67100 -0.32548 -0.63750 186 210 178
0.67907 -0.33020 -0.63372 177 206 171
0.69015 -0.33432 -0.63384 164 184 167
0.70022 -0.33867 -0.63258 143 148 185
0.70936 -0.34322 -0.63011 122 111 169
0.71231 -0.35692 -0.62760 17 6 41
0.74191 -0.34328 -0.65726 101 87 139
0.74490 -0.35718 -0.65472 33 7 32
0.73362 -0.35753 -0.61851 33 45 93
0.74299 -0.36208 -0.61622 11 26 63
0.75542 -0.36610 -0.61768 7 17 51
0.76290 -0.37102 -0.61298 11 14 42
0.76301 -0.37720 -0.59929 25 10 32
0.76655 -0.38887 -0.57623 56 7 13
0.77255 -0.39396 -0.56990 58 7 8
0.77997 -0.39883 -0.56527 61 13 7
0.79079 -0.40317 -0.56466 69 32 13
0.80753 -0.40665 -0.57094 89 64 43
0.80880 -0.41842 -0.54576 167 128 54
0.85655 -0.42364 -0.57414 239 202 151
0.85363 -0.43000 -0.55751 247 231 187
0.87103 -0.43364 -0.56399 249 242 200
0.87605 -0.43892 -0.55643 250 248 203
0.88763 -0.44337 -0.55621 250 246 199
0.89062 -0.45725 -0.55368 254 254 253
0.89837 -0.44795 -0.55501 252 249 229
0.90136 -0.46185 -0.55247 254 254 254
0.90326 -0.45323 -0.54732 254 252 245
0.90625 -0.46712 -0.54478 254 254 254
0.91208 -0.45805 -0.54396 254 253 250
0.91507 -0.47195 -0.54142 254 254 254
0.95102 -0.48280 -0.52142 254 253 251
0.93916 -0.48673 -0.52869 254 254 254
0.94659 -0.49172 -0.52378 254 254 254
0.95402 -0.49671 -0.51888 254 254 252
0.95758 -0.48787 -0.51560 253 249 229
0.97011 -0.49238 -0.51605 245 230 178
0.97542 -0.49758 -0.50892 235 203 154
0.95399 -0.50512 -0.47411 225 178 130
0.96281 -0.51545 -0.45847 220 175 135
0.98367 -0.51928 -0.46744 225 202 161
0.98190 -0.52492 -0.45335 234 225 196
0.99681 -0.52928 -0.45614 244 238 223
0.99977 -0.54304 -0.45362 254 254 253
1.00849 -0.53391 -0.45561 252 250 244
1.01146 -0.54770 -0.45309 254 254 254
-0.41903 0.25778 -1.04737 179 121 70
-0.42169 0.27012 -1.04963 175 81 15
-0.42562 0.26221 -1.05172 169 87 25
-0.41279 0.25279 -1.04147 187 170 148
-0.39226 0.25536 -1.06470 170 91 60
-0.38559 0.25088 -1.06030 173 78 24
-0.38957 0.24287 -1.06242 169 79 25
-0.35580 0.23744 -1.05542 95 31 28
-0.36650 0.23389 -1.06197 70 12 19
-0.34499 0.23874 -1.06753 147 87 24
-0.34118 0.23012 -1.05141 83 39 12
-0.33406 0.22617 -1.04858 88 37 31
-0.32249 0.22821 -1.06301 179 98 63
-0.30575 0.22331 -1.06623 243 118 16
-0.29573 0.22291 -1.07385 232 100 5
-0.28890 0.21832 -1.06934 219 92 12
-0.26753 0.21865 -1.08827 212 85 15
-0.27855 0.21500 -1.09502 221 105 4
-0.25689 0.21856 -1.09711 225 149 94
-0.23873 0.22736 -1.13234 226 208 216
-0.23021 0.21140 -1.10370 176 147 112
-0.18199 0.22770 -1.18137 107 69 60
-0.18631 0.21901 -1.18367 111 66 59
-0.17528 0.22226 -1.17485 106 79 75
-0.16430 0.22146 -1.18238 106 85 86
-0.15417 0.21964 -1.18692 97 86 100
-0.15124 0.20600 -1.18442 98 87 103
-0.14363 0.21818 -1.19259 87 72 93
-0.13630 0.21327 -1.18778 86 60 84
-0.07499 0.12003 -1.03028 130 47 60
-0.06646 0.11655 -1.02973 126 49 61
-0.05747 0.11342 -1.03034 124 53 62
-0.05462 0.10016 -1.02792 117 81 64
-0.04977 0.10918 -1.02736 126 69 70
-0.03597 0.09935 -1.01699 119 70 67
-0.04020 0.09084 -1.01924 105 62 51
-0.02864 0.09479 -1.01298 104 59 61
-0.02162 0.08998 -1.00813 145 132 133
-0.01216 0.08707 -1.00964 188 199 197
-0.00693 0.08085 -1.00010 222 229 236
0.00032 0.07622 -0.99585 245 247 252
0.07421 -0.00642 -0.87290 251 254 254
0.07142 0.00655 -0.87527 254 254 254
0.06728 -0.00176 -0.87747 254 254 254
0.07834 0.00190 -0.87070 254 254 254
0.08328 -0.00974 -0.87315 244 252 250
0.09323 -0.01256 -0.87526 233 229 234
0.10197 -0.01616 -0.87460 213 203 216
0.11311 -0.01837 -0.87912 198 198 209
0.14059 -0.01995 -0.89894 169 146 170
0.14344 -0.03321 -0.89652 148 138 138
0.15387 -0.02116 -0.90751 151 130 149
0.15674 -0.03449 -0.90507 147 139 133
0.16437 -0.02404 -0.90997 139 130 132
0.17234 -0.02837 -0.90701 128 121 134
0.18382 -0.03079 -0.91132 161 156 170
0.23627 -0.02894 -0.96010 220 195 183
0.26890 -0.02074 -1.00629 120 77 80
0.27193 -0.03480 -1.00373 56 45 53
0.27958 -0.03302 -0.98778 61 70 85
0.27856 -0.04229 -0.96606 63 65 84
0.27942 -0.05052 -0.94829 51 50 57
0.28479 -0.05647 -0.93948 56 57 56
0.28762 -0.06361 -0.92584 48 48 54
0.29637 -0.07627 -0.90480 49 46 49
0.29199 -0.08506 -0.90713 45 44 42
0.30673 -0.08805 -0.88715 38 43 49
0.31345 -0.09321 -0.88125 44 40 48
0.31926 -0.09877 -0.87370 52 50 62
0.32638 -0.10373 -0.86859 52 46 58
0.33130 -0.10964 -0.85949 49 36 52
0.34753 -0.11871 -0.85290 42 43 46
0.35863 -0.12203 -0.85488 31 36 38
0.36635 -0.12677 -0.85079 64 53 68
0.37444 -0.13137 -0.84734 59 63 75
0.38041 -0.13680 -0.84020 34 32 39
0.38336 -0.15047 -0.83771 36 34 35
0.38752 -0.14178 -0.83505 37 39 44
0.41286 -0.16281 -0.80931 47 54 50
0.40123 -0.16666 -0.81643 42 41 46
0.40851 -0.17156 -0.81163 43 45 51
0.41579 -0.17645 -0.80682 42 43 51
0.41781 -0.16854 -0.80064 50 60 44
0.42074 -0.18215 -0.79816 42 43 52
0.42449 -0.17364 -0.79487 40 42 45
0.42870 -0.17959 -0.78507 40 41 44
0.43501 -0.18478 -0.77877 49 49 58
0.44125 -0.18999 -0.77235 50 47 63
0.45974 -0.19840 -0.76918 50 47 49
0.45540 -0.20712 -0.77149 66 55 69
0.46266 -0.21199 -0.76670 65 61 73
0.46698 -0.20328 -0.76437 50 46 57
0.46991 -0.21688 -0.76188 68 68 73
0.47448 -0.20808 -0.75995 53 41 63
0.48308 -0.21254 -0.75725 56 44 63
0.49702 -0.22249 -0.74673 60 53 67
0.50202 -0.22805 -0.73848 65 56 66
0.51399 -0.23853 -0.72509 43 51 68
0.50967 -0.24723 -0.72739 50 52 45
0.52249 -0.24304 -0.72219 59 74 100
0.52732 -0.24859 -0.71382 73 90 97
0.53563 -0.25315 -0.71063 73 88 74
0.53728 -0.25954 -0.69767 62 70 53
0.54556 -0.26410 -0.69445 60 62 46
0.55235 -0.26906 -0.68907 62 66 59
0.55879 -0.27412 -0.68319 48 37 42
0.56605 -0.27895 -0.67849 41 17 31
0.57162 -0.28421 -0.67140 51 28 34
0.57980 -0.28881 -0.66802 63 45 55
0.59276 -0.29226 -0.67128 85 68 89
0.60542 -0.29583 -0.67402 114 100 102
0.60820 -0.30176 -0.66306 142 131 111
0.63230 -0.30932 -0.66657 178 198 170
0.65681 -0.32343 -0.65568 162 174 187
0.67102 -0.32688 -0.66002 131 119 186
0.67780 -0.33191 -0.65446 98 84 143
0.68302 -0.33726 -0.64688 39 52 101
0.68293 -0.34365 -0.63245 9 21 72
0.75051 -0.37503 -0.61937 56 10 5
0.75851 -0.37986 -0.61532 65 24 4
0.75514 -0.38658 -0.59734 83 53 12
0.77547 -0.38938 -0.60834 113 88 36
0.78592 -0.39383 -0.60721 155 117 50
0.77594 -0.40149 -0.58150 202 152 78
0.77889 -0.41518 -0.57900 253 252 235
0.77255 -0.41399 -0.55052 246 220 177
0.78486 -0.41811 -0.55172 249 240 200
0.78576 -0.42389 -0.53950 250 245 210
0.80410 -0.42720 -0.54765 251 249 204
0.80703 -0.44082 -0.54516 254 254 252
0.82137 -0.43073 -0.55440 253 251 217
0.82431 -0.44443 -0.55190 254 254 253
0.85313 -0.43834 -0.56430 254 253 251
0.85610 -0.45217 -0.56178 254 254 254
0.86711 -0.44247 -0.56691 254 254 251
0.87009 -0.45634 -0.56438 254 254 254
0.87192 -0.44777 -0.55910 254 254 251
0.87490 -0.46162 -0.55657 254 254 254
0.88320 -0.45227 -0.55857 254 254 251
0.88619 -0.46615 -0.55603 254 254 254
0.96138 -0.50171 -0.51391 254 253 246
0.94952 -0.50564 -0.52118 254 254 254
0.95695 -0.51063 -0.51627 254 254 254
0.96438 -0.51562 -0.51137 254 254 253
0.96610 -0.50693 -0.50617 254 251 240
0.96909 -0.52082 -0.50364 254 254 252
0.96136 -0.51294 -0.48865 253 246 226
0.96433 -0.52674 -0.48612 254 254 251
0.96479 -0.51821 -0.47971 253 245 223
0.96775 -0.53199 -0.47719 254 254 252
0.97321 -0.52857 -0.46358 254 250 239
0.97616 -0.54230 -0.46107 254 254 254
0.97915 -0.53360 -0.45733 254 253 247
0.98211 -0.54732 -0.45482 254 254 254
0.99475 -0.53794 -0.46082 254 254 251
0.99771 -0.55172 -0.45830 254 254 254
-0.45271 0.26171 -1.05067 141 67 23
-0.45926 0.26611 -1.05499 140 67 22
-0.45662 0.25385 -1.05275 137 101 75
-0.44225 0.26518 -1.04427 155 75 27
-0.44532 0.25874 -1.05031 145 71 27
-0.43484 0.26221 -1.04389 163 82 17
-0.43792 0.25575 -1.04991 150 71 22
-0.43170 0.25075 -1.04395 157 80 35
-0.42257 0.25051 -1.05128 175 129 97
-0.41804 0.24278 -1.03768 193 182 166
-0.40986 0.24089 -1.04043 182 149 124
-0.39714 0.24597 -1.06291 164 84 41
-0.39445 0.23350 -1.06063 162 76 19
-0.38281 0.23854 -1.05843 174 80 12
-0.37883 0.24655 -1.05632 179 84 21
-0.37614 0.23406 -1.05403 136 54 21
-0.36053 0.22835 -1.05456 142 63 48
-0.35157 0.22704 -1.05932 180 101 43
-0.34571 0.22134 -1.05146 106 41 36
-0.33797 0.21823 -1.05110 64 15 17
-0.33026 0.21506 -1.05056 99 33 39
-0.31873 0.21690 -1.06467 175 103 63
-0.31019 0.21465 -1.06695 220 117 49
-0.30745 0.20193 -1.06462 210 104 45
-0.29910 0.21561 -1.07869 217 93 8
-0.29634 0.20281 -1.07635 226 106 27
-0.26971 0.21275 -1.09755 221 94 8
-0.28076 0.20909 -1.10432 225 101 2
-0.27384 0.20444 -1.09975 227 100 4
-0.25954 0.21204 -1.10471 223 109 33
-0.24935 0.21124 -1.11168 223 137 93
-0.23280 0.21780 -1.14081 213 189 192
-0.23437 0.20303 -1.10599 170 129 123
-0.19410 0.22325 -1.18655 148 75 30
-0.15927 0.21009 -1.18678 100 82 98
-0.15634 0.19646 -1.18429 100 80 101
-0.14412 0.20092 -1.17906 100 86 104
-0.10332 0.12312 -1.03795 97 49 58
-0.11036 0.12785 -1.04259 74 51 65
-0.09402 0.12041 -1.03983 117 53 56
-0.08571 0.11677 -1.03875 122 52 53
-0.08287 0.10355 -1.03633 79 17 35
-0.07701 0.11345 -1.03873 110 43 48
-0.06951 0.10905 -1.03523 105 45 54
-0.06101 0.10550 -1.03450 111 61 65
-0.05815 0.09222 -1.03208 117 70 35
-0.04724 0.09564 -1.02405 114 68 64
-0.03305 0.08614 -1.01475 115 61 48
-0.02448 0.08254 -1.01398 152 126 105
-0.02163 0.06925 -1.01156 144 130 129
-0.02195 0.07425 -0.99738 146 143 151
-0.01442 0.06986 -0.99393 168 166 195
-0.00775 0.06481 -0.98823 210 212 231
-0.00780 0.05479 -0.96548 239 244 250
0.00340 0.05850 -0.95862 254 254 254
-0.00079 0.05008 -0.96085 251 253 254
0.00076 0.03176 -0.92068 254 253 222
-0.00203 0.04473 -0.92305 254 254 253
-0.00616 0.03641 -0.92525 254 254 246
0.00490 0.04007 -0.91848 254 254 250
-0.00337 0.02344 -0.92288 254 253 193
0.01182 0.03542 -0.91391 254 254 252
0.00557 0.02562 -0.91091 254 254 235
0.01661 0.02927 -0.90415 254 254 254
0.01213 0.02073 -0.90549 254 254 251
0.02317 0.02438 -0.89874 254 254 254
0.01904 0.01609 -0.90093 254 254 254
0.05142 -0.00850 -0.87313 251 254 254
0.04864 0.00441 -0.87549 254 254 254
0.04452 -0.00387 -0.87768 254 254 254
0.05553 -0.00023 -0.87094 254 254 254
0.06103 -0.01142 -0.87481 245 251 249
0.06792 -0.01607 -0.87021 230 225 227
0.07975 -0.01770 -0.87674 202 199 197
0.09721 -0.01599 -0.89566 178 166 172
0.10528 -0.02006 -0.89339 167 146 162
0.10811 -0.03320 -0.89099 159 150 146
0.11527 -0.02303 -0.89529 159 144 156
0.11810 -0.03620 -0.89288 157 147 140
0.12438 -0.02654 -0.89518 152 139 145
0.12722 -0.03975 -0.89277 156 145 138
0.16845 -0.03675 -0.91007 136 129 132
0.15703 -0.04053 -0.91706 148 139 135
0.16418 -0.04533 -0.91234 138 131 130
0.17745 -0.04054 -0.90923 160 149 157
0.21275 -0.03026 -0.96298 225 217 217
0.21570 -0.04398 -0.96047 248 251 246
0.21741 -0.03660 -0.95263 252 252 244
0.22900 -0.03928 -0.95655 225 203 187
0.26056 -0.03174 -1.00085 125 85 84
0.26921 -0.04496 -0.97835 97 99 93
0.27309 -0.05173 -0.96637 105 104 82
0.27482 -0.05949 -0.95027 83 81 74
0.27583 -0.06752 -0.93295 70 68 65
0.28000 -0.08233 -0.90299 51 47 45
0.28932 -0.09452 -0.88340 43 44 58
0.29382 -0.10064 -0.87340 46 45 64
0.30312 -0.10461 -0.87244 51 60 79
0.30887 -0.11014 -0.86485 42 42 59
0.31542 -0.11532 -0.85877 41 41 56
0.31834 -0.12889 -0.85629 53 49 52
0.32273 -0.12016 -0.85411 72 65 44
0.33116 -0.12454 -0.85146 68 62 35
0.33409 -0.13813 -0.84898 39 41 40
0.33761 -0.12975 -0.84521 36 37 37
0.34544 -0.13438 -0.84147 32 34 34
0.35930 -0.14438 -0.83076 57 53 77
0.41542 -0.19138 -0.77267 47 44 54
0.42375 -0.19584 -0.76974 53 47 60
0.43064 -0.20079 -0.76447 58 46 58
0.43925 -0.20517 -0.76197 63 49 58
0.48428 -0.23373 -0.73609 87 98 97
0.49393 -0.23787 -0.73503 80 86 75
0.49891 -0.24338 -0.72682 59 56 52
0.50989 -0.25407 -0.71209 59 56 41
0.51598 -0.25922 -0.70566 59 38 36
0.52718 -0.26297 -0.70683 46 24 36
0.53367 -0.26802 -0.70098 45 32 39
0.54155 -0.27269 -0.69719 61 50 47
0.54884 -0.27753 -0.69252 82 68 72
0.55175 -0.29105 -0.69005 173 197 179
0.55799 -0.28189 -0.69053 105 87 78
0.57047 -0.29209 -0.67818 158 154 138
0.56811 -0.29926 -0.65989 171 185 168
0.57429 -0.30432 -0.65376 187 210 188
0.58541 -0.30821 -0.65452 182 205 188
0.59793 -0.31182 -0.65714 164 180 171
0.60505 -0.31669 -0.65225 140 148 188
0.62188 -0.31941 -0.66060 115 101 157
0.63302 -0.32344 -0.66107 80 72 123
0.64082 -0.32822 -0.65698 27 41 99
0.64909 -0.33290 -0.65350 5 14 61
0.65729 -0.33760 -0.64992 1 11 68
0.66481 -0.34245 -0.64542 25 8 43
0.66831 -0.34809 -0.63565 37 11 20
0.67759 -0.35259 -0.63346 46 8 9
0.73108 -0.36778 -0.64517 103 77 71
0.74075 -0.37234 -0.64319 140 108 73
0.74886 -0.37718 -0.63921 184 143 89
0.75106 -0.38303 -0.62786 225 184 129
0.73850 -0.39127 -0.59835 247 219 169
0.74144 -0.40492 -0.59586 254 254 252
0.73738 -0.39752 -0.58321 254 241 193
0.74031 -0.41111 -0.58072 254 254 252
0.73786 -0.41536 -0.54320 252 251 211
0.74075 -0.42878 -0.54075 254 254 254
0.75794 -0.42416 -0.54057 254 253 248
0.75365 -0.43280 -0.54285 254 254 254
0.76084 -0.43763 -0.53811 254 254 254
0.76458 -0.42907 -0.53518 254 254 252
0.76748 -0.44253 -0.53272 254 254 254
0.77122 -0.43398 -0.52978 254 254 253
0.77412 -0.44743 -0.52733 254 254 254
-0.47001 0.26212 -1.05994 132 64 23
-0.47265 0.27438 -1.06218 135 61 34
-0.47656 0.26652 -1.06426 130 59 25
-0.48047 0.25866 -1.06633 125 58 20
-0.46610 0.26998 -1.05786 138 65 28
-0.46181 0.26064 -1.06372 135 77 42
-0.44733 0.25412 -1.06149 136 91 60
-0.44327 0.24546 -1.04526 133 63 21
-0.43550 0.24307 -1.04660 140 70 40
-0.42615 0.24317 -1.05500 162 130 114
-0.42243 0.23414 -1.03764 182 174 167
-0.41344 0.23354 -1.04412 176 134 109
-0.40127 0.23773 -1.06435 159 76 18
-0.39858 0.22527 -1.06207 147 71 21
-0.37945 0.22704 -1.05901 146 66 8
-0.39011 0.22351 -1.06554 148 72 11
-0.38343 0.21902 -1.06113 151 78 6
-0.37204 0.22361 -1.05764 95 46 8
-0.36454 0.22029 -1.05662 151 91 21
-0.35717 0.21674 -1.05498 146 59 25
-0.34956 0.21350 -1.05423 98 26 24
-0.33997 0.21291 -1.06126 163 103 29
-0.33363 0.20785 -1.05525 124 60 24
-0.32573 0.20486 -1.05534 93 32 51
-0.31452 0.20614 -1.06805 147 75 49
-0.26593 0.20099 -1.09879 229 101 10
-0.27700 0.19732 -1.10557 231 105 2
-0.27006 0.19267 -1.10100 235 104 6
-0.26313 0.18801 -1.09642 232 102 15
-0.25708 0.19861 -1.10110 227 105 34
-0.24664 0.19804 -1.10892 197 142 130
-0.23988 0.19309 -1.10353 196 164 156
-0.22629 0.19592 -1.12186 229 204 156
-0.21016 0.20138 -1.14846 195 142 48
-0.18922 0.21188 -1.19075 118 67 34
-0.18234 0.20660 -1.18472 103 69 69
-0.14909 0.19153 -1.17937 95 84 104
-0.13878 0.18971 -1.18424 86 75 86
-0.13584 0.17603 -1.18174 65 24 41
-0.11014 0.12341 -1.05785 49 45 62
-0.11298 0.13665 -1.06027 66 59 62
-0.11720 0.12816 -1.06251 64 58 61
-0.10729 0.11017 -1.05543 45 31 31
-0.10343 0.11833 -1.05211 52 33 55
-0.09531 0.11452 -1.05049 83 46 44
-0.08729 0.11059 -1.04853 96 29 36
-0.07143 0.10251 -1.04395 92 33 25
-0.06489 0.09728 -1.03774 111 59 39
-0.05255 0.08626 -1.02334 127 67 24
-0.04478 0.08206 -1.02055 126 73 35
-0.03718 0.07771 -1.01728 141 86 70
-0.02793 0.07463 -1.01833 160 128 103
-0.01500 0.06413 -1.00564 127 112 133
-0.01304 0.05553 -0.98773 160 158 178
-0.01774 0.04213 -0.95300 207 214 226
-0.01459 0.03466 -0.93869 238 245 247
-0.01102 0.02758 -0.92564 251 252 237
-0.00823 0.01462 -0.92327 250 250 223
-0.00336 0.01396 -0.90124 254 253 193
0.00297 0.00896 -0.89535 254 253 219
0.00837 0.00334 -0.88724 254 254 245
0.01933 0.00698 -0.88053 254 254 254
0.01523 -0.00127 -0.88271 254 254 254
0.02951 -0.01013 -0.87496 250 254 254
0.02674 0.00273 -0.87731 254 254 254
0.02264 -0.00551 -0.87949 254 254 254
0.03361 -0.00188 -0.87278 254 254 254
0.03720 -0.01421 -0.87236 246 252 250
0.04803 -0.01632 -0.87701 230 230 233
0.06414 -0.01519 -0.89370 206 205 209
0.06695 -0.02822 -0.89132 155 143 146
0.07270 -0.01888 -0.89274 181 164 172
0.08246 -0.02186 -0.89448 158 136 135
0.09230 -0.02484 -0.89627 149 137 134
0.09512 -0.03796 -0.89387 173 164 151
0.10083 -0.02865 -0.89503 156 148 147
0.10365 -0.04179 -0.89263 166 157 145
0.17157 -0.05000 -0.90813 157 142 144
0.16015 -0.05378 -0.91512 140 133 129
0.20754 -0.03950 -0.96356 211 200 203
0.22219 -0.04935 -0.95390 227 207 190
0.25047 -0.04359 -0.99177 133 95 88
0.25786 -0.04863 -0.98674 58 43 47
0.26189 -0.05533 -0.97495 86 85 81
0.26605 -0.06192 -0.96355 91 87 77
0.26772 -0.06966 -0.94733 75 72 75
0.26875 -0.07763 -0.93002 62 61 64
0.26770 -0.08649 -0.90886 65 63 62
0.27071 -0.09336 -0.89579 77 74 61
0.27147 -0.10121 -0.87853 46 45 39
0.27415 -0.10811 -0.86513 38 40 49
0.28122 -0.11301 -0.86011 48 48 76
0.29073 -0.11684 -0.85967 53 68 101
0.29844 -0.12147 -0.85584 40 44 46
0.30562 -0.12634 -0.85101 38 37 47
0.31915 -0.13642 -0.83982 52 50 40
0.31484 -0.14508 -0.84211 42 42 38
0.32206 -0.14992 -0.83735 39 41 45
0.33457 -0.14571 -0.83207 38 38 36
0.34203 -0.15047 -0.82774 47 43 62
0.35601 -0.16034 -0.81740 34 32 46
0.35929 -0.16668 -0.80581 38 35 38
0.36649 -0.17151 -0.80106 37 38 47
0.39122 -0.19227 -0.77528 44 36 57
0.38405 -0.18745 -0.78001 37 34 45
0.37976 -0.19607 -0.78229 48 61 55
0.39820 -0.19716 -0.77021 54 43 62
0.40646 -0.20161 -0.76726 60 56 64
0.41324 -0.20657 -0.76187 65 68 76
0.41810 -0.21215 -0.75336 69 79 93
0.42816 -0.21603 -0.75330 71 87 93
0.42987 -0.22260 -0.73980 77 90 84
0.43703 -0.22741 -0.73508 76 87 72
0.48118 -0.24205 -0.74025 59 32 40
0.48294 -0.24849 -0.72707 48 21 39
0.48852 -0.25380 -0.71984 49 31 30
0.49757 -0.25811 -0.71790 61 52 34
0.50799 -0.26206 -0.71800 82 68 66
0.51868 -0.26597 -0.71841 105 88 86
0.52618 -0.27076 -0.71403 127 116 93
0.52440 -0.27799 -0.69597 148 147 122
0.52792 -0.29042 -0.67065 174 194 172
0.55244 -0.29751 -0.67591 167 183 174
0.55555 -0.30332 -0.66534 149 156 188
0.56318 -0.30803 -0.66126 124 112 177
0.60059 -0.30581 -0.69905 93 83 136
0.59298 -0.31414 -0.67337 54 55 99
0.64357 -0.34188 -0.65425 51 6 7
0.65190 -0.34656 -0.65084 59 15 11
0.65724 -0.35183 -0.64347 78 48 22
0.68923 -0.35830 -0.65668 163 123 48
0.69446 -0.36363 -0.64907 209 169 116
0.71513 -0.37243 -0.64706 247 231 190
0.70795 -0.37992 -0.62368 249 242 209
0.71123 -0.38551 -0.61377 250 247 211
0.71417 -0.39915 -0.61128 254 254 253
0.71872 -0.39646 -0.59531 253 252 230
0.72164 -0.41005 -0.59283 254 254 254
-0.47239 0.25701 -1.06971 127 64 23
-0.48287 0.25354 -1.07613 104 51 24
-0.46442 0.25508 -1.07232 130 86 59
-0.45374 0.25775 -1.08794 136 119 114
-0.44745 0.25271 -1.08193 137 115 109
-0.44355 0.24368 -1.06458 129 82 78
-0.43845 0.23679 -1.05325 122 65 68
-0.43580 0.22447 -1.05100 125 106 99
-0.42858 0.23769 -1.06406 138 117 108
-0.42498 0.22845 -1.04599 153 145 141
-0.41462 0.22994 -1.05860 151 106 84
-0.40532 0.22962 -1.06613 147 72 14
-0.37724 0.21384 -1.05469 146 73 5
-0.36965 0.21066 -1.05411 106 47 13
-0.36230 0.20711 -1.05244 47 14 22
-0.35359 0.20541 -1.05625 120 64 24
-0.34405 0.20475 -1.06320 179 122 58
-0.33452 0.20396 -1.06983 162 94 53
-0.33007 0.19634 -1.05624 105 13 25
-0.32166 0.19397 -1.05824 103 24 30
-0.31894 0.18131 -1.05593 221 121 34
-0.30936 0.19652 -1.07501 192 92 50
-0.30254 0.19194 -1.07052 226 105 9
-0.25038 0.19015 -1.11265 197 112 66
-0.26154 0.18645 -1.11948 230 100 7
-0.24007 0.18928 -1.11980 219 191 190
-0.22501 0.19368 -1.14328 239 236 222
-0.22413 0.18198 -1.11714 225 209 167
-0.18725 0.19727 -1.18504 106 64 58
-0.17769 0.19489 -1.18804 105 78 79
-0.17043 0.19001 -1.18325 101 83 94
-0.16106 0.18732 -1.18537 100 85 106
-0.15513 0.18105 -1.17620 87 70 85
-0.15220 0.16745 -1.17371 62 27 22
-0.14470 0.17937 -1.18157 71 40 46
-0.12010 0.13220 -1.09478 64 56 54
-0.11862 0.12224 -1.07315 61 60 65
-0.11576 0.10896 -1.07073 44 42 43
-0.11273 0.11638 -1.06489 40 40 51
-0.10988 0.10312 -1.06247 48 39 34
-0.09727 0.10801 -1.05934 55 27 29
-0.09126 0.10231 -1.05153 68 18 16
-0.08373 0.09793 -1.04812 94 55 18
-0.07638 0.09339 -1.04419 128 83 19
-0.06893 0.08893 -1.04053 146 94 41
-0.06246 0.08365 -1.03413 144 82 37
-0.05430 0.07976 -1.03240 163 106 37
-0.04539 0.07643 -1.03263 178 134 55
-0.03756 0.07223 -1.02990 166 115 84
-0.03126 0.06681 -1.02302 152 108 109
-0.02675 0.06006 -1.01146 168 153 146
-0.01955 0.05538 -1.00708 153 131 131
-0.01012 0.04238 -0.98551 177 176 187
-0.02033 0.02517 -0.93684 207 215 223
-0.01749 0.01760 -0.92194 235 240 239
-0.01057 0.00355 -0.89571 253 253 179
-0.01467 -0.00468 -0.89789 248 248 218
-0.00781 -0.00929 -0.89336 250 252 178
-0.00411 -0.00132 -0.89023 254 252 161
0.00235 -0.00619 -0.88475 254 253 219
0.00846 -0.01129 -0.87843 251 254 252
0.01653 -0.01508 -0.87685 246 252 248
0.02721 -0.01722 -0.88140 228 230 226
0.03601 -0.02061 -0.88139 209 211 208
0.04564 -0.02352 -0.88324 185 174 179
0.05661 -0.02564 -0.88808 165 149 153
0.07848 -0.03014 -0.89713 160 151 145
0.08129 -0.04323 -0.89473 173 168 156
0.08734 -0.03372 -0.89674 170 162 150
0.16577 -0.05940 -0.90717 148 134 133
0.15437 -0.06318 -0.91415 146 138 127
0.20031 -0.04980 -0.95991 196 191 194
0.20509 -0.05602 -0.94982 242 251 245
0.21960 -0.05723 -0.95991 231 212 194
0.24073 -0.05521 -0.98331 141 101 88
0.23552 -0.06646 -0.95277 59 41 33
0.25407 -0.06591 -0.97051 79 83 73
0.26209 -0.07059 -0.96682 88 88 92
0.26033 -0.07994 -0.94374 73 73 78
0.26330 -0.09372 -0.94123 36 41 41
0.26024 -0.08838 -0.92423 48 52 55
0.26036 -0.09663 -0.90535 60 66 66
0.25814 -0.10585 -0.88215 80 86 72
0.26279 -0.11186 -0.87244 48 46 39
0.26813 -0.11752 -0.86414 43 34 38
0.27424 -0.12283 -0.85733 48 43 47
0.28220 -0.12732 -0.85404 47 49 65
0.28875 -0.13243 -0.84808 52 46 57
0.29164 -0.14589 -0.84563 72 65 89
0.30128 -0.14285 -0.83521 55 48 64
0.32108 -0.15800 -0.81788 46 42 47
0.30963 -0.16180 -0.82489 44 46 51
0.33112 -0.16170 -0.81827 52 45 60
0.33401 -0.17516 -0.81581 77 81 72
0.33603 -0.16740 -0.80950 55 46 69
0.34424 -0.17183 -0.80660 50 46 62
0.34966 -0.17730 -0.79880 52 49 55
0.38967 -0.19994 -0.78215 56 69 60
0.39071 -0.20686 -0.76715 64 71 66
0.39755 -0.21178 -0.76189 62 71 70
0.41291 -0.22106 -0.75415 60 52 49
0.42248 -0.22510 -0.75333 48 37 45
0.43191 -0.22921 -0.75223 43 26 49
0.44159 -0.23327 -0.75147 49 36 41
0.48742 -0.26154 -0.72703 162 167 141
0.49691 -0.26575 -0.72574 174 190 154
0.50669 -0.26991 -0.72485 178 197 174
0.51393 -0.27477 -0.72007 170 191 178
0.51472 -0.28132 -0.70569 163 180 176
0.51998 -0.28666 -0.69807 149 150 178
0.53742 -0.28890 -0.70838 127 110 164
0.54102 -0.29467 -0.69828 98 86 135
0.55264 -0.29845 -0.69989 61 65 108
0.56615 -0.30181 -0.70413 32 42 75
0.57910 -0.31196 -0.69225 12 19 62
0.58507 -0.31713 -0.68563 21 14 33
0.58665 -0.32328 -0.67287 47 11 21
0.62749 -0.34026 -0.67001 91 69 83
0.63211 -0.34570 -0.66157 139 109 70
0.64277 -0.34991 -0.66134 197 151 81
0.64994 -0.35484 -0.65636 235 196 155
0.66144 -0.35893 -0.65714 247 233 187
0.67245 -0.36314 -0.65720 250 245 204
0.68135 -0.36777 -0.65443 251 249 202
0.68431 -0.38151 -0.65192 254 254 253
0.69373 -0.37803 -0.64178 254 253 245
0.69668 -0.39175 -0.63928 254 254 254
0.69314 -0.38433 -0.62677 254 253 251
0.69608 -0.39798 -0.62428 254 254 254
0.69718 -0.38977 -0.61781 254 254 253
0.70011 -0.40340 -0.61532 254 254 254
0.69817 -0.39571 -0.60503 254 254 253
0.70109 -0.40928 -0.60255 254 254 254
-0.47444 0.25247 -1.08122 106 51 27
-0.48497 0.24898 -1.08766 89 43 18
-0.46820 0.24743 -1.07513 114 63 45
-0.45892 0.24767 -1.08403 125 96 84
-0.45055 0.24621 -1.08820 134 118 121
-0.44524 0.23952 -1.07744 130 109 103
-0.44257 0.22712 -1.07518 115 95 92
-0.43937 0.23383 -1.06950 125 92 93
-0.42560 0.22580 -1.06326 123 115 104
-0.41775 0.22328 -1.06448 122 98 83
-0.40963 0.22110 -1.06671 122 82 54
-0.40276 0.21696 -1.06327 122 67 44
-0.39611 0.21249 -1.05888 120 49 38
-0.38856 0.20933 -1.05835 118 45 25
-0.38123 0.20581 -1.05676 109 39 16
-0.37387 0.20231 -1.05527 67 24 22
-0.36638 0.19896 -1.05423 30 16 29
-0.35850 0.19611 -1.05468 81 56 20
-0.34830 0.19634 -1.06440 121 75 40
-0.34130 0.19217 -1.06103 91 42 19
-0.33858 0.17955 -1.05872 122 63 23
-0.33306 0.18962 -1.06250 113 45 25
-0.33034 0.17697 -1.06019 164 87 53
-0.32142 0.19139 -1.07710 182 98 47
-0.30481 0.18602 -1.07956 228 109 25
-0.29389 0.18963 -1.07288 228 103 1
-0.29797 0.18142 -1.07505 229 105 2
-0.30205 0.17322 -1.07722 220 107 6
-0.25736 0.17850 -1.10479 207 99 49
-0.26847 0.17482 -1.11159 229 102 17
-0.24309 0.18220 -1.12620 227 195 199
-0.23025 0.18402 -1.14199 235 243 247
-0.19595 0.18385 -1.17245 113 61 64
-0.18755 0.18029 -1.17173 98 85 90
-0.18146 0.17427 -1.16323 92 83 91
-0.17050 0.17333 -1.17090 74 60 70
-0.12487 0.12316 -1.09549 42 32 46
-0.12253 0.11401 -1.07637 45 46 52
-0.10330 0.09793 -1.05634 47 38 35
-0.11460 0.09418 -1.06326 44 40 38
-0.10752 0.08943 -1.05859 45 43 39
-0.09620 0.09319 -1.05172 84 57 28
-0.08505 0.09188 -1.05872 164 151 45
-0.07898 0.08624 -1.05108 187 142 33
-0.07256 0.08091 -1.04448 177 118 55
-0.06279 0.07831 -1.04725 168 143 71
-0.05326 0.07546 -1.04920 180 167 106
-0.05038 0.06210 -1.04676 169 172 176
-0.04547 0.07118 -1.04626 190 167 146
-0.04014 0.06498 -1.03666 172 144 140
-0.03363 0.05972 -1.03031 134 105 127
-0.02983 0.05241 -1.01677 169 162 163
-0.02338 0.04716 -1.01039 193 190 178
-0.01858 0.04071 -0.99973 190 183 167
-0.01344 0.02475 -0.96730 178 176 189
-0.01589 0.01335 -0.93865 205 206 216
-0.02200 -0.00041 -0.90122 232 232 236
-0.00326 -0.01543 -0.88320 247 252 211
0.00361 -0.02001 -0.87875 230 232 226
0.01627 -0.02082 -0.88825 211 216 208
0.01904 -0.03370 -0.88590 163 155 154
0.02474 -0.02442 -0.88751 185 175 168
0.03263 -0.02842 -0.88533 168 151 149
0.04217 -0.03141 -0.88697 160 151 147
0.04495 -0.04436 -0.88461 175 168 156
0.05238 -0.03402 -0.89009 167 159 147
0.05518 -0.04701 -0.88772 175 168 157
0.06403 -0.03583 -0.89638 173 163 153
0.06684 -0.04888 -0.89399 171 165 155
0.07474 -0.03827 -0.90034 173 167 158
0.15930 -0.06914 -0.90475 140 132 129
0.19374 -0.05972 -0.95758 178 182 186
0.19165 -0.06944 -0.93315 238 247 240
0.21765 -0.06481 -0.96727 234 218 197
0.22900 -0.06776 -0.97064 140 105 86
0.22755 -0.07704 -0.94778 56 37 23
0.24688 -0.07614 -0.96726 65 66 56
0.24986 -0.08999 -0.96473 57 56 58
0.24953 -0.09180 -0.93331 51 53 58
0.25248 -0.10551 -0.93081 41 38 44
0.25127 -0.10754 -0.89835 43 49 55
