ply
format ascii 1.0
element face 0
property list uchar int vertex_indices
element vertex 1324
property float x
property float y
property float z
property uchar diffuse_red
property uchar diffuse_green
property uchar diffuse_blue
end_header
0.77156 -0.34517 -0.60133 30 30 25
0.79050 -0.34639 -0.58581 43 44 46
0.80093 -0.35230 -0.57592 31 42 60
0.79899 -0.35515 -0.56452 46 67 72
0.81678 -0.35827 -0.57100 42 49 44
0.82342 -0.36124 -0.56736 31 30 41
0.83309 -0.35655 -0.56293 32 37 54
0.83024 -0.36421 -0.56389 26 31 44
0.87056 -0.37924 -0.55191 24 27 36
0.87747 -0.38222 -0.54848 32 32 57
0.88284 -0.38516 -0.54374 32 34 54
0.88874 -0.38812 -0.53947 33 30 39
0.89722 -0.39115 -0.53738 30 27 27
0.90456 -0.39414 -0.53431 31 31 36
0.91427 -0.38943 -0.52987 26 31 36
0.90792 -0.39701 -0.52792 29 31 39
0.91761 -0.39230 -0.52349 28 36 40
0.93169 -0.40606 -0.52019 19 23 36
0.96287 -0.41003 -0.53656 37 55 88
0.97177 -0.41586 -0.52551 226 228 204
0.98778 -0.41928 -0.52929 194 162 145
0.99493 -0.42231 -0.52592 137 103 79
1.03580 -0.42695 -0.54927 71 56 38
1.04200 -0.42999 -0.54500 36 39 38
1.04612 -0.44101 -0.54241 30 36 46
1.05362 -0.43601 -0.53587 30 32 47
1.05067 -0.44394 -0.53686 27 31 44
1.05632 -0.43886 -0.52891 23 46 74
1.03614 -0.44045 -0.50436 64 116 152
1.01307 -0.44181 -0.47786 152 199 219
1.01991 -0.44479 -0.47438 187 203 200
1.04880 -0.44905 -0.48758 131 118 116
1.05805 -0.45220 -0.48582 61 47 49
1.06503 -0.45522 -0.48234 33 32 35
1.06906 -0.46602 -0.47980 25 27 26
-0.92404 0.42750 -1.57850 24 31 64
-0.92821 0.43867 -1.58114 33 42 75
-0.93419 0.42258 -1.58315 22 31 57
-0.92105 0.43555 -1.57750 33 38 71
-0.91389 0.43243 -1.57386 24 31 56
-0.91683 0.42510 -1.57736 20 28 54
-0.90667 0.43004 -1.57271 21 32 52
-0.58376 0.17414 -1.04904 42 42 58
-0.58016 0.16448 -1.04676 54 57 77
-0.57547 0.17411 -1.05695 62 65 81
-0.57185 0.16440 -1.05466 52 58 70
-0.47135 0.15252 -1.08465 57 65 69
-0.48049 0.14808 -1.08883 70 78 81
-0.47404 0.14527 -1.08556 62 71 74
-0.46760 0.14247 -1.08228 54 64 66
-0.32328 0.10940 -1.08192 31 35 42
-0.33270 0.10483 -1.08623 36 40 42
-0.29657 0.11244 -1.11810 95 110 119
-0.28590 0.11200 -1.12696 143 159 165
-0.28401 0.10590 -1.10811 189 208 214
-0.27580 0.10386 -1.10914 214 230 240
-0.26892 0.10097 -1.10602 233 241 246
-0.25956 0.09958 -1.11037 244 248 250
-0.25275 0.09661 -1.10691 249 252 252
-0.24604 0.09359 -1.10316 250 252 252
-0.23949 0.09048 -1.09896 236 237 242
-0.23558 0.08588 -1.08715 198 196 215
-0.22923 0.08270 -1.08251 194 191 198
-0.20961 0.08007 -1.09262 210 217 224
-0.20081 0.07815 -1.09462 211 222 229
-0.19683 0.06748 -1.09211 214 223 229
-0.19250 0.07593 -1.09516 220 234 239
-0.18358 0.07401 -1.09727 225 236 242
-0.17602 0.07136 -1.09561 230 238 244
-0.16745 0.06921 -1.09663 235 243 246
-0.15978 0.06658 -1.09515 245 251 244
-0.15143 0.06427 -1.09542 247 251 236
-0.14741 0.05349 -1.09288 240 246 246
-0.14430 0.06136 -1.09246 242 244 221
-0.14290 0.05578 -1.07489 225 217 178
-0.13107 0.05506 -1.08392 189 173 132
-0.12806 0.05029 -1.07066 129 108 72
-0.12617 0.04508 -1.05480 70 52 30
-0.12091 0.04141 -1.04745 44 25 16
-0.11517 0.03797 -1.04135 31 15 29
-0.10701 0.03557 -1.04111 24 33 50
-0.09849 0.03330 -1.04167 61 70 85
-0.07762 0.03608 -1.07133 82 115 132
-0.07463 0.03145 -1.05854 76 91 96
-0.06363 0.03006 -1.06449 65 75 85
-0.06052 0.02553 -1.05212 46 40 49
-0.04538 0.02568 -1.06732 19 18 28
-0.03757 0.02295 -1.06564 22 30 58
-0.03021 0.02005 -1.06291 91 119 141
-0.04243 0.00995 -1.01682 147 169 176
-0.03118 -0.00226 -0.98632 178 195 206
-0.02203 -0.00966 -0.97008 186 199 201
-0.02485 -0.01725 -0.97103 182 200 206
-0.01894 -0.01382 -0.95897 176 185 185
-0.01778 -0.01858 -0.94396 163 168 164
0.23698 -0.09541 -0.93030 33 24 51
0.24128 -0.09897 -0.92237 23 26 49
0.24876 -0.11054 -0.89039 25 35 52
0.24587 -0.11831 -0.89137 19 25 28
0.25164 -0.11427 -0.88056 24 34 57
0.25329 -0.11818 -0.86890 27 22 32
0.26637 -0.12426 -0.86095 31 27 27
0.27195 -0.13153 -0.84168 23 33 34
0.26910 -0.13919 -0.84264 24 28 22
0.27650 -0.13485 -0.83483 23 35 46
0.28046 -0.14545 -0.83233 69 67 82
0.29035 -0.14074 -0.82830 35 34 38
0.30244 -0.14292 -0.83262 21 29 28
0.30641 -0.15356 -0.83011 28 29 23
0.35918 -0.16644 -0.80782 22 27 36
0.46171 -0.20755 -0.76777 45 44 45
0.45197 -0.21228 -0.77223 63 73 75
0.45884 -0.21528 -0.76873 66 75 80
0.46571 -0.21827 -0.76524 67 76 81
0.46951 -0.21047 -0.76544 46 41 46
0.47351 -0.22119 -0.76292 64 78 84
0.47705 -0.21341 -0.76278 43 39 47
0.48106 -0.22414 -0.76025 64 80 88
0.48682 -0.21618 -0.76285 43 41 49
0.49083 -0.22693 -0.76032 64 81 85
0.49441 -0.21913 -0.76021 45 44 49
0.49842 -0.22988 -0.75768 66 83 85
0.49868 -0.22232 -0.75351 45 47 49
0.50245 -0.22555 -0.74624 45 48 49
0.51219 -0.22082 -0.74178 30 33 38
0.51181 -0.23865 -0.71088 53 65 74
0.52447 -0.24461 -0.70292 65 63 75
0.53409 -0.23994 -0.69852 37 31 37
0.53125 -0.24756 -0.69947 51 53 57
0.52842 -0.25519 -0.70043 55 66 59
0.55679 -0.25617 -0.69504 57 76 100
0.55283 -0.24556 -0.69754 25 27 50
0.54999 -0.25321 -0.69850 31 38 58
0.54714 -0.26085 -0.69946 25 36 46
0.55395 -0.26382 -0.69600 44 64 77
0.56667 -0.25899 -0.69505 100 122 139
0.57256 -0.26200 -0.69055 101 110 111
0.57479 -0.26517 -0.68197 61 59 51
0.58253 -0.26809 -0.67957 34 37 46
0.58879 -0.27107 -0.67553 38 42 59
0.59178 -0.27417 -0.66791 56 72 68
0.59572 -0.28474 -0.66541 37 40 47
0.67622 -0.30650 -0.64009 47 63 46
0.66655 -0.31120 -0.64451 48 47 58
0.67337 -0.31417 -0.64105 58 74 62
0.77125 -0.34809 -0.59114 29 31 29
0.76840 -0.35575 -0.59210 61 73 68
0.77521 -0.35872 -0.58864 67 77 85
0.78026 -0.35108 -0.58973 40 39 46
0.78424 -0.36173 -0.58722 75 86 94
0.78541 -0.35403 -0.58470 53 56 57
0.79086 -0.35699 -0.57998 44 38 47
0.80233 -0.36003 -0.58077 41 29 45
0.80905 -0.36300 -0.57719 33 28 39
0.81823 -0.36603 -0.57585 36 27 27
0.82162 -0.36893 -0.56927 37 28 32
0.82746 -0.37189 -0.56492 38 34 40
0.83714 -0.36719 -0.56049 24 34 39
0.83277 -0.37482 -0.56011 33 35 42
0.84244 -0.37013 -0.55568 26 37 41
0.84072 -0.37782 -0.55763 35 38 42
0.84821 -0.38081 -0.55476 39 42 40
0.85655 -0.38383 -0.55260 43 41 40
0.86233 -0.38677 -0.54822 40 43 46
0.86952 -0.38976 -0.54507 39 43 51
0.87349 -0.40041 -0.54256 68 83 78
0.87488 -0.39268 -0.54033 40 49 53
0.87885 -0.40332 -0.53783 64 84 82
0.88058 -0.39562 -0.53592 47 50 59
0.88455 -0.40625 -0.53341 68 82 72
0.88856 -0.39863 -0.53343 54 52 59
0.89253 -0.40927 -0.53092 64 80 78
0.89833 -0.40171 -0.53244 53 53 63
0.90803 -0.40480 -0.53137 54 53 62
0.91761 -0.40789 -0.53017 51 50 57
0.92774 -0.41102 -0.52939 45 46 48
0.93565 -0.41405 -0.52676 40 41 37
0.94269 -0.41705 -0.52341 19 28 50
0.95198 -0.42283 -0.51282 218 221 202
0.97982 -0.42684 -0.52621 197 170 148
0.99118 -0.43008 -0.52622 137 105 84
1.02677 -0.43458 -0.54544 70 54 44
1.03881 -0.43792 -0.54580 36 38 42
1.04292 -0.44893 -0.54321 33 38 41
1.05432 -0.44682 -0.53063 21 33 44
1.04433 -0.45167 -0.53520 29 31 37
1.05138 -0.45474 -0.53162 25 29 41
1.05842 -0.45781 -0.52804 22 31 54
1.04500 -0.44894 -0.51442 34 63 74
1.03296 -0.45085 -0.49627 75 113 142
1.03988 -0.45387 -0.49276 102 123 157
1.04417 -0.45672 -0.48724 77 78 81
1.04816 -0.45954 -0.48152 44 40 35
1.05600 -0.46261 -0.47872 32 29 36
1.06002 -0.47338 -0.47618 23 24 20
1.07649 -0.47415 -0.45945 19 20 41
1.06961 -0.47115 -0.46295 21 21 27
1.09538 -0.47799 -0.46471 84 97 110
-0.59469 0.16705 -1.04123 44 50 46
-0.59110 0.15744 -1.03897 49 53 66
-0.58691 0.16645 -1.04686 49 60 64
-0.32203 0.10464 -1.09610 36 41 48
-0.33150 0.10004 -1.10044 35 43 48
-0.32482 0.09713 -1.09705 37 45 53
-0.28838 0.10458 -1.12911 96 113 141
-0.28636 0.09860 -1.11059 157 184 207
-0.27906 0.09598 -1.10879 194 213 231
-0.26898 0.09503 -1.11549 216 229 239
-0.25926 0.09380 -1.12086 233 243 248
-0.25441 0.08966 -1.11143 246 252 252
-0.24683 0.08713 -1.11022 249 251 250
-0.23888 0.08480 -1.11006 230 229 235
-0.23629 0.07946 -1.09428 205 203 222
-0.22983 0.07631 -1.08986 219 225 232
-0.22095 0.07448 -1.09233 229 236 238
-0.21395 0.07161 -1.08941 228 234 239
-0.20762 0.06839 -1.08460 224 229 234
-0.20366 0.05777 -1.08210 219 223 231
-0.18286 0.06165 -1.08591 220 231 240
-0.17888 0.05098 -1.08340 220 229 238
-0.17346 0.05992 -1.08925 221 232 242
-0.16946 0.04921 -1.08672 223 233 239
-0.16453 0.05793 -1.09120 226 235 243
-0.16052 0.04719 -1.08867 225 234 241
-0.15569 0.05585 -1.09281 229 239 244
-0.15167 0.04509 -1.09028 229 238 244
-0.13993 0.05074 -1.09081 248 250 243
-0.14282 0.04296 -1.09178 234 242 247
-0.13591 0.03995 -1.08827 238 245 246
-0.13390 0.04733 -1.08505 242 242 225
-0.13320 0.04155 -1.06593 228 221 187
-0.12109 0.04086 -1.07549 217 200 163
-0.11775 0.03632 -1.06322 181 164 127
-0.12239 0.02845 -1.03164 115 81 56
-0.11403 0.02616 -1.03201 68 44 67
-0.10320 0.02485 -1.03821 65 52 80
-0.08568 0.02619 -1.06010 71 78 103
-0.07663 0.02403 -1.06160 67 55 71
-0.06337 0.02348 -1.07282 60 44 50
-0.05585 0.02066 -1.07055 59 61 55
-0.04867 0.01769 -1.06745 58 61 17
-0.04048 0.01510 -1.06664 58 51 20
-0.03410 0.01183 -1.06171 82 69 69
-0.02803 0.00846 -1.05613 132 137 146
-0.03573 -0.00516 -1.00179 173 183 192
-0.03300 -0.00953 -0.98948 172 187 196
-0.02905 -0.02013 -0.98698 178 194 203
-0.02843 -0.01324 -0.98126 178 200 205
-0.01860 -0.02036 -0.96655 179 195 198
-0.01467 -0.03088 -0.96407 174 190 197
-0.01695 -0.02493 -0.95247 174 191 190
-0.01262 -0.02861 -0.94413 172 187 187
0.13645 -0.09241 -0.87228 177 193 192
0.21855 -0.10186 -0.92084 71 79 36
0.22260 -0.11271 -0.91828 50 53 55
0.22658 -0.10469 -0.91906 62 64 42
0.23500 -0.10745 -0.91790 29 32 55
0.23845 -0.11112 -0.90869 21 24 50
0.23886 -0.11531 -0.89472 24 27 39
0.24412 -0.12280 -0.87421 15 23 27
0.24863 -0.12618 -0.86706 37 43 50
0.24151 -0.13147 -0.84189 85 93 95
0.26265 -0.13616 -0.84664 39 33 14
0.27063 -0.14295 -0.83122 34 37 44
0.27458 -0.15353 -0.82873 63 74 85
0.28292 -0.14905 -0.82243 48 43 41
0.28008 -0.15666 -0.82338 60 73 73
0.28686 -0.15961 -0.81994 59 72 75
0.29298 -0.15153 -0.82384 36 28 24
0.32953 -0.16980 -0.79721 45 47 48
0.32560 -0.15924 -0.79970 30 34 48
0.32277 -0.16685 -0.80065 52 48 56
0.33500 -0.17291 -0.79194 41 45 42
0.34531 -0.17543 -0.79344 37 38 43
0.35510 -0.17804 -0.79416 36 36 41
0.36238 -0.18094 -0.79138 36 33 36
0.37202 -0.17626 -0.78696 21 27 34
0.36936 -0.18389 -0.78816 32 30 33
0.37900 -0.17921 -0.78375 22 29 33
0.37331 -0.19449 -0.78566 61 77 71
0.49683 -0.23345 -0.74385 70 84 80
0.48711 -0.23817 -0.74830 49 55 63
0.49706 -0.23686 -0.73238 64 75 63
0.50574 -0.23972 -0.73113 41 43 47
0.51189 -0.24274 -0.72684 28 29 46
0.51101 -0.24615 -0.71425 50 65 69
0.51712 -0.24915 -0.70998 62 71 81
0.52107 -0.25974 -0.70748 39 43 39
0.52431 -0.25209 -0.70700 61 71 67
0.52826 -0.26268 -0.70451 39 44 38
0.55951 -0.26683 -0.69113 50 63 87
0.54987 -0.27151 -0.69554 36 45 44
0.56461 -0.26986 -0.68577 46 54 74
0.57010 -0.27287 -0.68086 46 44 43
0.57742 -0.27581 -0.67801 33 25 32
0.58582 -0.27871 -0.67633 28 25 46
0.59035 -0.28174 -0.67041 38 43 56
0.67913 -0.31715 -0.63650 54 46 55
0.66946 -0.32184 -0.64093 79 95 97
0.67628 -0.32481 -0.63746 88 94 98
0.68309 -0.32777 -0.63400 89 93 95
0.79712 -0.36482 -0.58933 74 87 89
0.78740 -0.36953 -0.59378 77 96 100
0.80544 -0.36783 -0.58720 72 80 80
0.80993 -0.37077 -0.58156 70 79 73
0.81377 -0.37368 -0.57536 75 79 70
0.82041 -0.37665 -0.57171 78 80 74
0.82382 -0.37953 -0.56517 79 82 80
0.82756 -0.38242 -0.55897 73 83 78
0.83269 -0.38534 -0.55402 73 86 78
0.83909 -0.38829 -0.55021 76 86 82
0.84181 -0.39112 -0.54318 71 86 89
0.84821 -0.39406 -0.53940 70 86 82
0.85513 -0.39702 -0.53607 73 83 78
0.91043 -0.41541 -0.52754 60 72 74
0.92080 -0.41855 -0.52698 51 61 59
0.93046 -0.42166 -0.52582 42 45 38
0.93791 -0.42468 -0.52281 21 21 42
0.95661 -0.42827 -0.52896 116 127 141
0.92945 -0.42952 -0.49787 216 217 199
0.97654 -0.43461 -0.52688 199 171 149
0.98850 -0.43790 -0.52738 136 101 83
1.01800 -0.44218 -0.54180 68 53 47
1.03079 -0.44557 -0.54279 37 40 42
1.03489 -0.45655 -0.54021 36 38 48
1.04408 -0.45952 -0.50803 22 41 69
1.03420 -0.46432 -0.51255 24 27 35
1.03417 -0.46146 -0.49157 24 50 64
1.03363 -0.46398 -0.48240 27 43 45
1.03926 -0.46690 -0.47795 29 32 33
1.04327 -0.47763 -0.47543 21 25 26
1.04660 -0.46992 -0.47480 26 27 27
1.05060 -0.48066 -0.47227 18 24 25
1.06475 -0.47874 -0.46246 15 19 27
1.06075 -0.46802 -0.46498 23 25 23
1.05788 -0.47574 -0.46595 21 23 19
1.05500 -0.48347 -0.46692 19 22 29
1.07797 -0.48220 -0.46362 31 40 68
1.10611 -0.48679 -0.47563 123 140 159
-0.93759 0.40603 -1.55423 20 31 47
-0.94171 0.41706 -1.55683 26 33 58
-0.94467 0.40911 -1.55782 26 37 62
-0.94762 0.40116 -1.55882 20 32 54
-0.60786 0.15686 -1.02009 43 46 56
-0.58398 0.15597 -1.04100 59 61 73
-0.28096 0.09608 -1.13747 121 144 171
-0.28068 0.08910 -1.11352 169 189 214
-0.27152 0.08757 -1.11739 203 221 239
-0.26174 0.08634 -1.12296 222 237 245
-0.25473 0.08346 -1.12000 233 243 247
-0.24675 0.08113 -1.11992 239 246 249
-0.23961 0.07831 -1.11729 227 229 238
-0.23456 0.07433 -1.10854 229 227 236
-0.23059 0.06366 -1.10603 253 254 254
-0.23014 0.07005 -1.09811 244 248 251
-0.22617 0.05942 -1.09561 254 254 254
-0.22509 0.06614 -1.08962 248 251 251
-0.22113 0.05553 -1.08712 254 253 253
-0.22008 0.06224 -1.08110 247 248 249
-0.21337 0.05925 -1.07746 238 239 241
-0.20942 0.04867 -1.07497 239 242 244
-0.13187 0.03568 -1.07749 247 252 244
-0.14164 0.03093 -1.08197 234 242 245
-0.13475 0.02793 -1.07846 238 246 249
-0.12785 0.02493 -1.07496 243 248 250
-0.12562 0.03240 -1.07237 251 250 241
-0.12161 0.02165 -1.06984 245 250 248
-0.11901 0.02928 -1.06818 242 241 222
-0.13462 0.01692 -1.00958 227 217 180
-0.12971 0.01327 -1.00182 216 199 181
-0.06849 0.01480 -1.06865 193 182 162
-0.05838 0.01296 -1.07241 208 207 177
-0.05480 0.00865 -1.06106 217 213 161
-0.04731 0.00582 -1.05876 224 212 161
-0.05122 -0.00111 -1.03075 195 191 140
-0.03178 0.00033 -1.05528 164 164 106
-0.04591 -0.01003 -1.00510 170 184 164
-0.04033 -0.01342 -0.99892 189 204 202
-0.03719 -0.01762 -0.98751 187 197 201
-0.02572 -0.02421 -0.97614 176 196 202
-0.02183 -0.02807 -0.96664 174 193 198
-0.01236 -0.03519 -0.95142 173 188 193
0.13344 -0.10429 -0.85794 160 157 174
0.20398 -0.10755 -0.91750 38 48 56
0.22214 -0.11706 -0.90269 46 47 60
0.22573 -0.12066 -0.89381 48 54 56
0.22734 -0.12457 -0.88185 44 51 45
0.23374 -0.12763 -0.87764 31 35 32
0.23661 -0.13128 -0.86785 29 36 44
0.23191 -0.13613 -0.84629 67 92 96
0.24758 -0.13766 -0.85671 114 146 147
0.25445 -0.14063 -0.85331 109 115 126
0.24943 -0.14540 -0.83169 53 57 48
0.26403 -0.15112 -0.82648 39 47 48
0.26796 -0.16167 -0.82399 57 72 82
0.28294 -0.16399 -0.80081 46 62 56
0.27342 -0.16861 -0.80517 61 73 84
0.29247 -0.15936 -0.79645 21 24 33
0.28966 -0.16691 -0.79740 28 32 44
0.29181 -0.17042 -0.78737 45 62 69
0.29460 -0.16290 -0.78642 33 36 50
0.30129 -0.16581 -0.78302 49 46 55
0.30531 -0.17249 -0.79376 71 89 99
0.30923 -0.17576 -0.78633 73 92 103
0.32478 -0.18136 -0.78250 72 94 96
0.33538 -0.18385 -0.78449 73 92 93
0.33987 -0.18704 -0.77793 70 88 83
0.34628 -0.19001 -0.77407 67 81 76
0.35152 -0.19310 -0.76861 61 79 72
0.49536 -0.24446 -0.73472 45 48 44
0.49951 -0.24759 -0.72804 35 26 33
0.51306 -0.25353 -0.72100 34 37 43
0.51817 -0.25659 -0.71553 38 39 50
0.55851 -0.27441 -0.69418 38 42 41
0.56271 -0.27746 -0.68779 35 40 43
0.57140 -0.28036 -0.68645 40 41 41
0.57948 -0.28328 -0.68441 45 43 40
0.58741 -0.28622 -0.68219 43 45 47
0.59329 -0.28921 -0.67771 50 47 56
0.59495 -0.29231 -0.66862 55 49 61
0.60458 -0.28763 -0.66422 39 41 54
0.60052 -0.29529 -0.66385 56 52 69
0.61014 -0.29062 -0.65945 36 40 54
0.60583 -0.29828 -0.65882 59 62 66
0.61544 -0.29361 -0.65442 26 33 32
0.60978 -0.30885 -0.65633 92 106 100
0.61244 -0.30123 -0.65520 62 70 54
0.62205 -0.29657 -0.65080 33 32 25
0.61638 -0.31180 -0.65271 91 104 109
0.79440 -0.37252 -0.59043 78 92 95
0.80265 -0.37554 -0.58824 73 88 90
0.80713 -0.37846 -0.58258 69 84 86
0.81067 -0.38135 -0.57610 68 84 84
0.81730 -0.38432 -0.57244 66 81 82
0.82097 -0.38720 -0.56613 64 76 80
0.82472 -0.39007 -0.55992 60 73 75
0.82985 -0.39298 -0.55498 58 71 70
0.83712 -0.39596 -0.55193 55 68 68
0.84091 -0.39881 -0.54584 51 65 73
0.84881 -0.40182 -0.54334 48 63 69
0.85682 -0.40483 -0.54094 49 59 69
0.86442 -0.40782 -0.53817 45 50 66
0.87050 -0.41076 -0.53409 43 45 59
0.87830 -0.41376 -0.53148 44 42 58
0.88716 -0.41682 -0.52975 41 38 61
0.89779 -0.41997 -0.52950 39 37 57
0.90869 -0.42315 -0.52943 38 39 55
0.91501 -0.42610 -0.52552 37 37 46
0.92144 -0.42906 -0.52170 27 23 29
0.92945 -0.43210 -0.51919 23 20 49
0.95431 -0.43606 -0.53042 131 144 144
0.93819 -0.43779 -0.50822 223 225 196
0.97057 -0.44222 -0.52537 207 178 144
0.98638 -0.44575 -0.52899 132 95 75
1.02431 -0.46875 -0.48721 25 34 31
1.02832 -0.47949 -0.48468 23 26 26
1.02920 -0.47161 -0.48219 26 33 34
1.03321 -0.48234 -0.47966 21 24 22
1.03241 -0.47435 -0.47591 23 28 31
1.03640 -0.48506 -0.47339 19 24 21
1.05595 -0.48601 -0.45904 17 21 44
1.07074 -0.48961 -0.46139 56 69 102
1.06767 -0.49183 -0.45062 161 178 192
-0.94059 0.39701 -1.55141 13 21 35
-0.95061 0.39214 -1.55600 11 15 37
-0.94355 0.38906 -1.55241 8 11 23
-0.80664 0.33734 -1.47874 96 134 131
-0.79664 0.34220 -1.47416 46 56 66
-0.74672 0.18607 -1.00820 37 10 3
-0.73841 0.19010 -1.00439 37 10 3
-0.74055 0.18420 -1.00793 33 11 8
-0.73223 0.18824 -1.00412 36 10 2
-0.73553 0.17981 -0.99766 34 10 7
-0.72724 0.18384 -0.99386 34 9 2
-0.72928 0.17810 -0.99804 31 11 4
-0.72097 0.18214 -0.99424 34 9 3
-0.72342 0.17555 -0.99506 29 10 7
-0.62189 0.15627 -1.03118 16 4 7
-0.62544 0.16578 -1.03342 18 7 2
-0.62799 0.15893 -1.03428 12 4 4
-0.61155 0.14849 -1.01441 45 48 56
-0.60359 0.14832 -1.02196 44 48 63
-0.59570 0.14795 -1.02874 58 59 69
-0.30982 0.08659 -1.10556 47 56 70
-0.30092 0.08501 -1.10910 60 74 91
-0.28946 0.08494 -1.12060 95 115 128
-0.28299 0.08179 -1.11613 138 157 178
-0.27388 0.08019 -1.11983 175 193 218
-0.26531 0.07824 -1.12174 197 215 229
-0.25698 0.07612 -1.12281 208 222 233
-0.24840 0.07411 -1.12451 221 232 243
-0.24141 0.07119 -1.12140 223 229 242
-0.23527 0.06781 -1.11581 244 247 249
-0.23128 0.05711 -1.11329 254 254 254
-0.11499 0.01854 -1.06567 247 250 243
-0.12476 0.01380 -1.07014 245 250 250
-0.11787 0.01080 -1.06664 247 250 251
-0.11099 0.00780 -1.06314 248 252 253
-0.10754 0.01577 -1.06356 251 251 243
-0.10353 0.00502 -1.06103 252 254 254
-0.09906 0.01339 -1.06387 254 251 244
-0.09505 0.00262 -1.06133 254 254 254
-0.09005 0.01120 -1.06539 253 251 245
-0.08603 0.00041 -1.06285 254 254 254
-0.08140 0.00885 -1.06598 249 249 242
-0.07736 -0.00196 -1.06343 254 254 253
-0.07309 0.00634 -1.06567 247 245 238
-0.06905 -0.00449 -1.06312 253 253 254
-0.06587 0.00342 -1.06279 252 251 244
-0.06182 -0.00741 -1.06024 253 253 253
-0.05977 0.00009 -1.05732 253 253 243
-0.05573 -0.01073 -1.05477 253 253 254
-0.05449 -0.00353 -1.04999 254 252 241
-0.05069 -0.00764 -1.03941 247 246 224
-0.05123 -0.01322 -1.01924 218 219 182
-0.04514 -0.01647 -1.01408 189 190 177
-0.04257 -0.02087 -1.00121 193 203 205
-0.03982 -0.02518 -0.98889 205 217 218
-0.03426 -0.02853 -0.98281 193 203 200
-0.03016 -0.03232 -0.97365 170 183 186
-0.02542 -0.03589 -0.96596 162 178 191
-0.02039 -0.03936 -0.95893 165 184 195
-0.01469 -0.04260 -0.95336 167 183 190
0.11266 -0.08945 -0.91897 140 141 132
0.10870 -0.07884 -0.92147 132 135 128
0.10586 -0.08648 -0.92243 138 138 132
0.10302 -0.09413 -0.92339 145 149 137
0.16430 -0.10941 -0.90164 50 46 52
0.17692 -0.11127 -0.90800 28 25 42
0.18380 -0.11426 -0.90455 28 33 47
0.19174 -0.11705 -0.90285 34 45 52
0.21013 -0.12221 -0.90353 52 68 63
0.21284 -0.12594 -0.89319 56 67 69
0.21848 -0.12914 -0.88770 58 70 66
0.21982 -0.13305 -0.87532 50 63 56
0.22499 -0.13630 -0.86920 34 39 33
0.22862 -0.13978 -0.86067 33 39 38
0.23802 -0.14234 -0.86131 49 76 72
0.24071 -0.14594 -0.85138 59 85 94
0.24470 -0.14932 -0.84359 58 78 89
0.24555 -0.15314 -0.83101 46 64 62
0.25139 -0.15621 -0.82620 33 34 43
0.25830 -0.15913 -0.82303 37 40 45
0.27935 -0.17163 -0.80060 46 55 63
0.28934 -0.17415 -0.80197 20 29 27
0.28994 -0.17783 -0.78966 34 48 60
0.29631 -0.18078 -0.78579 50 64 82
0.30370 -0.18362 -0.78338 52 60 84
0.31282 -0.18626 -0.78341 52 60 82
0.31956 -0.18919 -0.78004 52 60 70
0.33775 -0.19453 -0.77985 46 55 54
0.34554 -0.19736 -0.77789 45 47 45
0.35160 -0.20037 -0.77353 36 43 40
0.35805 -0.20333 -0.76971 39 42 39
0.36761 -0.19869 -0.76533 62 77 75
0.36713 -0.20604 -0.76944 34 39 41
0.37670 -0.20140 -0.76506 64 77 80
0.37387 -0.20898 -0.76601 28 32 43
0.42737 -0.22911 -0.75001 38 34 39
0.42342 -0.21853 -0.75250 63 80 76
0.42059 -0.22615 -0.75346 36 32 38
0.43020 -0.22149 -0.74906 63 79 77
0.43698 -0.22444 -0.74561 62 77 85
0.43791 -0.23179 -0.75136 39 37 46
0.44755 -0.22711 -0.74695 60 73 89
0.44471 -0.23475 -0.74791 40 40 54
0.48578 -0.24916 -0.73929 46 51 45
0.49989 -0.25840 -0.72124 55 49 50
0.50598 -0.26140 -0.71693 57 53 50
0.51259 -0.26437 -0.71326 62 57 52
0.51939 -0.26733 -0.70980 64 63 52
0.52263 -0.27043 -0.70220 65 67 58
0.53225 -0.26577 -0.69780 32 35 28
0.52658 -0.28101 -0.69971 103 116 116
0.52438 -0.27358 -0.69293 68 72 60
0.53396 -0.26893 -0.68854 26 32 29
0.52831 -0.28412 -0.69044 101 114 118
0.53935 -0.27942 -0.68772 76 84 79
0.53652 -0.28702 -0.68867 100 115 124
0.54329 -0.28997 -0.68524 99 115 125
0.54677 -0.28234 -0.68503 78 89 79
0.55501 -0.28525 -0.68325 81 94 85
0.56229 -0.28818 -0.68038 83 97 96
0.57039 -0.29110 -0.67841 86 101 95
0.57899 -0.29401 -0.67698 89 104 95
0.58928 -0.29689 -0.67738 94 105 94
0.59550 -0.29987 -0.67328 95 103 104
0.61007 -0.30578 -0.66742 94 105 104
0.72512 -0.34748 -0.63855 57 65 87
0.72111 -0.33674 -0.64108 89 101 104
0.71824 -0.34448 -0.64205 59 70 95
0.72800 -0.33974 -0.63758 88 99 101
0.73489 -0.34274 -0.63408 89 100 99
0.73311 -0.35049 -0.63613 55 66 76
0.74288 -0.34575 -0.63166 89 103 96
0.72569 -0.35331 -0.61863 55 64 67
0.73538 -0.34860 -0.61420 93 105 97
0.73351 -0.35630 -0.61612 55 63 74
0.74321 -0.35159 -0.61168 90 105 90
0.74807 -0.36227 -0.61001 52 58 56
0.75777 -0.35756 -0.60557 82 99 87
0.75742 -0.36530 -0.60894 51 54 49
0.76713 -0.36058 -0.60449 81 100 94
0.78151 -0.36865 -0.62181 40 53 48
0.79133 -0.36389 -0.61732 80 96 94
0.78973 -0.37169 -0.61952 38 48 51
0.79955 -0.36693 -0.61502 80 96 94
0.79588 -0.37469 -0.61528 37 48 51
0.80300 -0.37771 -0.61194 32 46 55
0.80703 -0.38851 -0.60940 26 31 34
0.80703 -0.38065 -0.60574 34 42 55
0.81105 -0.39142 -0.60320 28 30 24
0.81009 -0.38354 -0.59869 33 37 53
0.81410 -0.39430 -0.59616 31 30 32
0.80546 -0.38619 -0.58463 33 35 50
0.80944 -0.39688 -0.58212 33 28 33
0.80983 -0.38910 -0.57890 30 33 43
0.81381 -0.39977 -0.57639 34 29 33
0.81234 -0.39193 -0.57150 28 29 39
0.81631 -0.40258 -0.56900 34 29 33
0.81570 -0.39478 -0.56492 24 25 36
0.81960 -0.39764 -0.55886 22 24 37
0.83152 -0.40080 -0.55994 22 24 41
0.83539 -0.40366 -0.55388 22 22 30
0.84254 -0.40664 -0.55071 26 22 36
0.84645 -0.40948 -0.54472 25 22 27
0.85238 -0.41240 -0.54051 31 27 35
0.85971 -0.41539 -0.53752 28 31 32
0.86617 -0.41833 -0.53377 31 30 36
0.87377 -0.42133 -0.53100 34 30 42
0.88163 -0.42435 -0.52845 34 31 39
0.88845 -0.42731 -0.52500 30 32 31
0.89876 -0.43046 -0.52447 30 32 33
0.90862 -0.43360 -0.52355 33 32 33
0.91626 -0.43662 -0.52075 23 20 34
0.93233 -0.44012 -0.52487 57 57 91
0.95170 -0.44384 -0.53162 167 184 183
0.95572 -0.45462 -0.52908 237 236 226
0.94418 -0.44599 -0.51637 235 238 212
0.96789 -0.45000 -0.52651 222 196 156
0.98423 -0.45361 -0.53057 131 92 61
0.99512 -0.45689 -0.53019 72 51 41
1.03718 -0.49002 -0.45673 20 27 36
1.03035 -0.48705 -0.46020 19 26 26
1.04403 -0.49299 -0.45329 28 37 56
1.05556 -0.49635 -0.45329 82 101 115
1.07492 -0.50036 -0.45900 180 193 195
-0.81787 0.32725 -1.46337 79 102 116
-0.82779 0.32243 -1.46791 40 45 75
-0.80959 0.32942 -1.47973 91 133 144
-0.79620 0.29269 -1.36298 55 70 80
-0.79337 0.30029 -1.36203 54 70 81
-0.78662 0.29734 -1.35860 48 65 77
-0.79092 0.28472 -1.34008 46 61 68
-0.78142 0.28933 -1.33573 38 51 67
-0.77720 0.19571 -1.03757 16 16 29
-0.77139 0.19291 -1.03366 22 23 29
-0.76570 0.18981 -1.02857 27 25 31
-0.76005 0.18666 -1.02325 29 26 33
-0.75431 0.18375 -1.01886 34 26 26
-0.74835 0.18135 -1.01654 32 24 24
-0.74223 0.17932 -1.01571 27 24 26
-0.73658 0.17624 -1.01062 30 23 26
-0.73316 0.16706 -1.00846 33 36 62
-0.72984 0.17547 -1.01491 29 21 28
-0.69660 0.15617 -0.98084 26 17 10
-0.68830 0.16020 -0.97703 33 6 5
-0.69055 0.15396 -0.97929 26 16 11
-0.68223 0.15799 -0.97548 29 6 3
-0.68399 0.15256 -0.98114 28 14 14
-0.67566 0.15660 -0.97733 26 5 5
-0.67834 0.14964 -0.97663 30 13 17
-0.67002 0.15368 -0.97281 24 5 7
-0.67132 0.14892 -0.98140 28 9 19
-0.66296 0.15298 -0.97757 22 6 6
-0.66368 0.14906 -0.98986 27 9 22
-0.65527 0.15314 -0.98601 23 5 6
-0.65539 0.15007 -1.00208 23 8 17
-0.64692 0.15418 -0.99820 18 5 5
-0.64765 0.15009 -1.01023 17 7 11
-0.63913 0.15422 -1.00633 13 5 4
-0.64020 0.14956 -1.01612 11 8 10
-0.63303 0.14855 -1.01998 10 6 14
-0.62647 0.14662 -1.01995 18 8 27
-0.61987 0.14470 -1.01999 35 41 41
-0.61394 0.14187 -1.01613 45 52 59
-0.60657 0.14092 -1.02040 56 55 70
-0.29215 0.07740 -1.12203 79 96 105
-0.27988 0.07767 -1.13580 114 130 146
-0.27616 0.07287 -1.12257 151 165 191
-0.25984 0.06843 -1.12379 193 211 224
-0.25164 0.06619 -1.12436 213 227 236
-0.24428 0.06348 -1.12238 227 233 241
-0.24028 0.05277 -1.11986 252 254 254
-0.23831 0.06001 -1.11625 248 253 253
-0.23432 0.04932 -1.11373 254 254 254
-0.05366 -0.01543 -1.04019 254 254 251
-0.06345 -0.02019 -1.04467 253 253 253
-0.05655 -0.02319 -1.04116 253 253 254
-0.05015 -0.01959 -1.02906 248 247 240
-0.05059 -0.02502 -1.00928 225 227 220
-0.04680 -0.02898 -0.99913 202 209 216
-0.04273 -0.03282 -0.98970 201 215 228
-0.03735 -0.03622 -0.98321 199 214 218
-0.03020 -0.03905 -0.98058 167 177 187
-0.02395 -0.04216 -0.97601 146 159 174
-0.02001 -0.05272 -0.97353 149 164 171
-0.01990 -0.04593 -0.96685 151 172 184
-0.01226 -0.04861 -0.96528 157 176 185
-0.00832 -0.05915 -0.96280 152 167 171
-0.00793 -0.05226 -0.95679 154 168 172
-0.00401 -0.06277 -0.95432 153 166 168
-0.00278 -0.05564 -0.95010 149 161 165
0.00113 -0.06614 -0.94763 153 166 169
0.10881 -0.09731 -0.91810 144 151 140
0.10597 -0.10495 -0.91906 139 126 106
0.11183 -0.10108 -0.90785 140 149 129
0.11632 -0.10450 -0.90035 149 139 112
0.12358 -0.11590 -0.86734 161 170 126
0.13020 -0.11882 -0.86385 225 217 154
0.15777 -0.11778 -0.89629 144 124 98
0.16594 -0.12049 -0.89516 48 36 37
0.16991 -0.13111 -0.89266 26 18 25
0.17353 -0.12332 -0.89300 18 19 26
0.17928 -0.12648 -0.88775 16 26 38
0.19813 -0.12734 -0.90431 22 28 34
0.20588 -0.13019 -0.90224 31 28 30
0.21305 -0.13315 -0.89920 34 28 32
0.21339 -0.13722 -0.88507 34 30 29
0.21319 -0.14134 -0.87020 32 32 29
0.21498 -0.14509 -0.85870 28 28 25
0.22076 -0.14820 -0.85367 27 26 30
0.22322 -0.15180 -0.84341 29 34 45
0.22824 -0.15499 -0.83728 31 35 51
0.23593 -0.15780 -0.83532 32 34 52
0.24574 -0.16418 -0.82282 31 30 32
0.25210 -0.16716 -0.81884 30 32 27
0.25895 -0.17007 -0.81562 33 41 49
0.26849 -0.16544 -0.81125 57 71 81
0.26188 -0.17349 -0.80650 37 41 55
0.26728 -0.17657 -0.80116 38 43 48
0.27453 -0.17942 -0.79857 37 37 30
0.28089 -0.18238 -0.79466 33 34 9
0.28734 -0.18533 -0.79090 37 41 24
0.29982 -0.19127 -0.78277 41 43 35
0.32069 -0.19632 -0.78656 47 48 46
0.32550 -0.19945 -0.78044 47 49 54
0.33194 -0.20240 -0.77663 48 49 52
0.33931 -0.20527 -0.77410 51 49 41
0.34521 -0.20827 -0.76956 52 51 36
0.35157 -0.21123 -0.76565 56 54 39
0.36169 -0.21386 -0.76684 61 58 48
0.36960 -0.21669 -0.76500 63 58 55
0.37916 -0.21205 -0.76063 27 29 44
0.37741 -0.21954 -0.76301 67 61 60
0.38697 -0.21490 -0.75863 29 30 46
0.38448 -0.22245 -0.76002 69 65 66
0.39405 -0.21781 -0.75564 29 29 48
0.39181 -0.22535 -0.75734 72 68 74
0.40138 -0.22070 -0.75296 31 29 47
0.39930 -0.22823 -0.75489 77 70 74
0.40888 -0.22358 -0.75051 35 32 43
0.40794 -0.23104 -0.75390 87 79 72
0.41572 -0.23391 -0.75178 92 88 73
0.41965 -0.24447 -0.74929 140 162 154
0.42354 -0.23679 -0.74969 94 92 77
0.43262 -0.23959 -0.74919 97 98 86
0.43843 -0.24261 -0.74451 98 102 94
0.44805 -0.23794 -0.74011 40 40 56
0.44515 -0.24557 -0.74099 96 101 97
0.45477 -0.24090 -0.73659 42 42 50
0.45333 -0.24844 -0.73929 97 106 96
0.46296 -0.24377 -0.73489 43 43 46
0.46088 -0.25135 -0.73679 99 112 101
0.47024 -0.25417 -0.73650 105 122 109
0.47767 -0.25710 -0.73381 108 124 112
0.48618 -0.25998 -0.73243 107 124 117
0.49481 -0.26287 -0.73117 109 124 120
0.50447 -0.26571 -0.73111 110 121 115
0.51166 -0.26868 -0.72806 111 123 109
0.55347 -0.29283 -0.68567 98 114 126
0.56041 -0.29578 -0.68241 95 111 132
0.56756 -0.29872 -0.67937 92 107 121
0.57615 -0.30164 -0.67793 88 106 109
0.58643 -0.30454 -0.67834 81 102 101
0.59265 -0.30751 -0.67424 74 92 96
0.59952 -0.31048 -0.67085 70 89 98
0.61023 -0.31643 -0.66082 60 75 86
0.61822 -0.31938 -0.65865 58 67 90
0.62785 -0.31470 -0.65424 91 106 116
0.62719 -0.32233 -0.65751 54 61 85
0.63684 -0.31764 -0.65310 89 106 112
0.63705 -0.32528 -0.65728 51 58 72
0.64672 -0.32059 -0.65285 88 102 102
0.64768 -0.32824 -0.65781 46 55 64
0.65737 -0.32354 -0.65338 82 98 105
0.65603 -0.33122 -0.65593 41 47 64
0.66573 -0.32651 -0.65149 76 94 104
0.66001 -0.34189 -0.65341 28 22 31
0.66222 -0.33420 -0.65177 36 45 61
0.67192 -0.32949 -0.64734 73 88 96
0.66620 -0.34486 -0.64926 25 24 25
0.66744 -0.33717 -0.64664 30 40 52
0.67713 -0.33247 -0.64220 69 83 97
0.67475 -0.34015 -0.64366 26 33 43
0.68444 -0.33544 -0.63922 66 77 96
0.68005 -0.34311 -0.63862 23 24 44
0.68973 -0.33841 -0.63419 61 74 91
0.68564 -0.34608 -0.63391 21 23 34
0.69532 -0.34138 -0.62948 58 71 93
0.69712 -0.34910 -0.63512 20 23 25
0.70765 -0.35212 -0.63533 21 21 26
0.71557 -0.35512 -0.63290 26 17 24
0.72595 -0.35817 -0.63288 23 19 23
0.72858 -0.36109 -0.62523 23 21 35
0.73643 -0.36409 -0.62271 25 21 37
0.74399 -0.36710 -0.61990 22 22 19
0.75143 -0.37010 -0.61696 29 24 27
0.76282 -0.37320 -0.61781 32 22 19
0.77962 -0.37645 -0.62373 25 25 25
0.78835 -0.37952 -0.62192 27 27 26
0.79405 -0.38250 -0.61725 31 29 21
0.80073 -0.38551 -0.61350 23 29 32
0.81676 -0.40529 -0.55982 34 30 29
0.82866 -0.40847 -0.56090 35 30 19
0.83360 -0.41135 -0.55577 36 28 14
0.83848 -0.41423 -0.55060 39 26 15
0.84361 -0.41712 -0.54568 44 22 9
0.84904 -0.42002 -0.54103 48 24 10
0.85626 -0.42300 -0.53795 47 22 9
0.86311 -0.42596 -0.53454 47 20 10
0.87102 -0.42898 -0.53204 47 18 12
0.87785 -0.43194 -0.52861 47 17 12
0.88375 -0.43486 -0.52439 47 16 10
0.89302 -0.43796 -0.52301 44 12 9
0.90269 -0.44109 -0.52194 46 13 11
0.91157 -0.44418 -0.52018 51 22 35
0.92739 -0.44771 -0.52413 112 99 135
0.94343 -0.45127 -0.52818 197 198 210
0.94744 -0.46201 -0.52565 237 230 218
0.95784 -0.45731 -0.52169 233 215 185
0.97974 -0.46131 -0.53028 151 117 87
0.98593 -0.46429 -0.52614 75 49 36
1.01153 -0.49101 -0.45772 25 26 22
1.00474 -0.48805 -0.46117 24 25 20
1.01803 -0.49394 -0.45405 29 29 30
1.02887 -0.49724 -0.45362 33 37 45
1.03586 -0.50022 -0.45030 54 64 78
1.02515 -0.50169 -0.43390 118 129 141
1.07037 -0.50795 -0.45874 191 200 197
1.08533 -0.51165 -0.46115 226 225 217
1.08935 -0.52242 -0.45861 233 229 225
-0.80050 0.27984 -1.34338 48 65 74
-0.77855 0.19208 -1.05043 30 37 44
-0.77510 0.18283 -1.04825 34 45 55
-0.77319 0.18801 -1.04142 34 41 53
-0.76975 0.17878 -1.03925 31 43 52
-0.76751 0.18484 -1.03607 34 40 50
-0.76407 0.17563 -1.03389 32 43 52
-0.76170 0.18202 -1.03205 34 39 55
-0.75826 0.17280 -1.02988 38 40 46
-0.75571 0.17962 -1.02975 39 38 43
-0.75228 0.17040 -1.02758 36 40 51
-0.74998 0.17664 -1.02511 34 37 43
-0.74654 0.16743 -1.02294 34 38 55
-0.74375 0.17478 -1.02503 31 38 45
-0.74031 0.16556 -1.02285 32 39 52
-0.73812 0.17161 -1.01957 32 37 50
-0.73468 0.16240 -1.01740 35 30 56
-0.70771 0.16037 -1.01134 32 35 38
-0.71019 0.15371 -1.01217 31 33 41
-0.70426 0.15112 -1.00916 30 36 45
-0.69784 0.15171 -0.99061 30 32 33
-0.69442 0.14253 -0.98845 34 38 47
-0.67810 0.14742 -0.99611 43 47 39
-0.67098 0.14673 -1.00118 48 53 41
-0.65059 0.14270 -1.00832 34 24 31
-0.63777 0.13863 -1.00726 23 13 20
-0.63091 0.13718 -1.00930 32 20 35
-0.62440 0.13521 -1.00912 43 46 60
-0.27976 0.07171 -1.14619 101 117 134
-0.28345 0.06266 -1.10967 143 157 180
-0.27163 0.06254 -1.12179 174 191 212
-0.26279 0.06068 -1.12447 188 205 223
-0.25531 0.05805 -1.12291 210 223 239
-0.24773 0.05545 -1.12161 238 241 246
-0.24374 0.04475 -1.11909 254 254 254
-0.05579 -0.02823 -1.02380 253 252 250
-0.06552 -0.03295 -1.02825 253 253 254
-0.05376 -0.03279 -1.00953 227 229 235
-0.05020 -0.03681 -0.99884 197 214 219
-0.04594 -0.04056 -0.98983 173 193 211
-0.03858 -0.04334 -0.98764 182 203 217
-0.03436 -0.04707 -0.97868 184 196 201
-0.02806 -0.05015 -0.97424 162 167 171
0.08766 -0.09561 -0.93331 149 153 145
0.08370 -0.08498 -0.93581 145 149 141
0.08085 -0.09264 -0.93677 151 153 142
0.09051 -0.08795 -0.93235 146 148 138
0.09732 -0.09092 -0.92889 146 148 136
0.09780 -0.09785 -0.93599 143 150 137
0.10090 -0.10162 -0.92567 137 140 121
0.10813 -0.10887 -0.90725 140 138 109
0.10817 -0.11317 -0.89176 175 172 127
0.10296 -0.11847 -0.86715 149 131 105
0.12015 -0.12352 -0.86718 187 198 180
0.12025 -0.12766 -0.85238 241 243 212
0.13188 -0.12964 -0.85760 165 145 128
0.16172 -0.12839 -0.89377 60 42 39
0.17657 -0.13411 -0.88895 29 37 48
0.18505 -0.13680 -0.88826 55 77 85
0.19391 -0.13943 -0.88816 89 109 109
0.20027 -0.14248 -0.88392 102 113 100
0.21460 -0.14428 -0.89267 102 111 99
0.22296 -0.14704 -0.89158 95 104 95
0.22930 -0.15012 -0.88721 88 96 86
0.23478 -0.15333 -0.88147 86 91 88
0.24344 -0.15606 -0.88081 91 96 100
0.24582 -0.15970 -0.87024 97 103 105
0.24875 -0.16322 -0.86065 97 103 102
0.25444 -0.16636 -0.85540 98 106 103
0.25331 -0.17038 -0.83971 96 100 92
0.25640 -0.17381 -0.83063 100 104 93
0.25731 -0.17749 -0.81833 101 108 108
0.26088 -0.18081 -0.81016 103 112 113
0.26468 -0.18408 -0.80240 105 116 113
0.26965 -0.18720 -0.79643 110 126 111
0.27570 -0.19018 -0.79210 113 130 102
0.28340 -0.19299 -0.79017 119 138 111
0.29053 -0.19585 -0.78740 124 142 117
0.30037 -0.19844 -0.78853 129 147 123
0.31083 -0.20098 -0.79047 136 155 128
0.32071 -0.20360 -0.79152 143 165 147
0.32631 -0.20665 -0.78647 146 167 152
0.33480 -0.20943 -0.78550 148 170 157
0.34573 -0.21904 -0.76244 167 185 160
0.34880 -0.22226 -0.75410 172 190 165
0.35951 -0.22485 -0.75613 173 194 171
0.38574 -0.22973 -0.76639 165 191 175
0.39240 -0.23269 -0.76282 162 185 176
0.40037 -0.23555 -0.76095 159 180 172
0.40669 -0.23854 -0.75692 155 175 163
0.41393 -0.24145 -0.75409 148 170 157
0.42932 -0.24725 -0.74955 134 153 158
0.43785 -0.25010 -0.74833 126 144 156
0.45353 -0.25591 -0.74405 115 134 145
0.46065 -0.25885 -0.74099 113 133 147
0.46822 -0.26178 -0.73848 114 132 149
0.47482 -0.26475 -0.73477 111 125 145
0.48333 -0.26764 -0.73339 105 120 142
0.49196 -0.27054 -0.73213 99 112 139
0.50162 -0.27340 -0.73207 95 105 130
0.50880 -0.27636 -0.72902 91 105 117
0.51482 -0.27937 -0.72457 84 102 109
0.51211 -0.28582 -0.69843 71 88 99
0.51627 -0.28884 -0.69196 66 85 97
0.52287 -0.29178 -0.68836 61 78 91
0.53152 -0.29468 -0.68713 58 73 88
0.53999 -0.29758 -0.68565 57 68 86
0.54879 -0.30048 -0.68453 51 65 85
0.55317 -0.30348 -0.67838 44 57 85
0.55435 -0.30651 -0.66870 42 54 77
0.55827 -0.31702 -0.66623 22 19 32
0.56331 -0.30942 -0.66776 38 52 68
0.56724 -0.31994 -0.66528 27 22 21
0.57254 -0.31232 -0.66707 36 51 55
0.57965 -0.31526 -0.66402 30 44 47
0.60611 -0.32107 -0.67121 29 37 45
0.61264 -0.32404 -0.66744 23 32 38
0.62079 -0.32700 -0.66541 26 23 34
0.62955 -0.32997 -0.66401 27 21 28
0.63810 -0.33295 -0.66237 26 19 25
0.64544 -0.33592 -0.65943 22 21 29
0.65230 -0.33890 -0.65597 27 19 23
0.67026 -0.34781 -0.64294 30 22 18
0.67643 -0.35078 -0.63880 32 24 28
0.68279 -0.35374 -0.63487 33 27 19
0.69426 -0.35678 -0.63608 36 31 5
0.70479 -0.35983 -0.63629 38 28 4
0.71271 -0.36283 -0.63386 48 28 4
0.72308 -0.36589 -0.63385 50 28 4
0.72572 -0.36879 -0.62620 52 31 10
0.73356 -0.37180 -0.62368 53 29 13
0.74112 -0.37481 -0.62086 52 28 12
0.74941 -0.37784 -0.61876 54 28 15
0.76012 -0.38094 -0.61895 54 26 13
0.77597 -0.38421 -0.62399 55 28 18
0.78495 -0.38729 -0.62243 59 29 18
0.79115 -0.39028 -0.61822 62 31 17
0.79784 -0.39329 -0.61448 59 30 21
0.80125 -0.39618 -0.60769 62 32 23
0.80433 -0.39905 -0.60063 65 34 20
0.79973 -0.40159 -0.58656 63 32 22
0.80411 -0.40448 -0.58083 67 35 24
0.80663 -0.40727 -0.57343 70 37 24
0.81001 -0.41010 -0.56684 72 41 25
0.81392 -0.41293 -0.56077 69 49 22
0.82648 -0.41616 -0.56246 71 56 21
0.83317 -0.41913 -0.55887 75 59 20
0.84576 -0.42239 -0.56049 81 69 21
0.84560 -0.42501 -0.55087 86 70 21
0.84803 -0.42775 -0.54359 100 76 26
0.84360 -0.43010 -0.53040 113 84 36
0.85015 -0.43304 -0.52679 119 91 36
0.85012 -0.43559 -0.51754 122 94 42
0.86115 -0.43878 -0.51777 124 92 46
0.86591 -0.44160 -0.51266 134 95 49
0.88705 -0.44542 -0.52134 141 103 49
0.90693 -0.44920 -0.52883 155 123 74
0.86958 -0.44935 -0.48862 184 167 107
0.93596 -0.45616 -0.53456 216 213 172
0.93998 -0.46692 -0.53202 240 235 221
0.94482 -0.45930 -0.53266 234 229 213
0.94884 -0.47007 -0.53012 240 235 217
0.96214 -0.46556 -0.52849 240 227 196
0.97775 -0.47171 -0.52288 110 63 43
0.98950 -0.47508 -0.52321 53 30 34
0.99102 -0.49478 -0.45384 31 30 32
0.98709 -0.48424 -0.45632 25 26 21
0.98426 -0.49183 -0.45727 27 29 36
0.98144 -0.49943 -0.45822 31 32 39
0.98819 -0.50237 -0.45479 38 36 39
0.99843 -0.49778 -0.45090 35 32 38
1.00236 -0.50831 -0.44841 42 44 54
1.00568 -0.50076 -0.44784 40 36 47
1.01763 -0.50416 -0.44829 46 47 54
1.02301 -0.50699 -0.44381 73 82 85
1.03254 -0.51018 -0.44240 143 154 152
1.06864 -0.51578 -0.46055 205 213 201
1.07264 -0.52651 -0.45802 233 231 224
1.08010 -0.51920 -0.46041 230 229 220
1.08412 -0.52995 -0.45787 233 229 225
-0.80649 0.26091 -1.29929 36 48 64
-0.80267 0.25067 -1.29688 28 35 52
-0.71997 0.16292 -1.03522 41 55 37
-0.68762 0.14149 -0.99200 41 34 50
-0.68033 0.14116 -0.99869 65 47 46
-0.67312 0.14059 -1.00438 63 67 54
-0.66710 0.13810 -1.00180 65 75 70
-0.65436 0.13412 -1.00107 57 73 69
-0.64116 0.13066 -1.00273 57 62 51
-0.63268 0.13143 -1.01471 62 69 66
-0.62732 0.12790 -1.00762 64 71 75
-0.62020 0.12669 -1.01090 63 69 81
-0.51457 0.10128 -1.03243 91 104 107
-0.51821 0.11103 -1.03472 67 73 89
-0.52082 0.10400 -1.03560 73 77 88
-0.52344 0.09698 -1.03648 81 88 91
-0.32580 0.05251 -1.05862 51 60 78
-0.28885 0.05360 -1.10258 139 155 176
-0.29842 0.04895 -1.10696 81 93 114
-0.26184 0.04839 -1.11276 204 214 233
-0.25620 0.04480 -1.10578 243 247 253
-0.25224 0.03419 -1.10328 254 254 254
-0.06641 -0.03845 -1.00723 254 253 249
-0.07605 -0.04313 -1.01164 252 252 253
-0.06129 -0.04194 -1.00001 224 226 230
-0.05250 -0.04427 -1.00102 163 160 200
-0.05139 -0.04898 -0.98503 101 106 167
-0.04651 -0.05250 -0.97749 123 144 183
-0.03730 -0.05471 -0.97938 167 189 204
-0.03337 -0.06526 -0.97689 161 182 190
0.06877 -0.09787 -0.93657 145 157 149
0.06481 -0.08728 -0.93906 149 153 149
0.06197 -0.09491 -0.94002 153 159 148
0.07161 -0.09024 -0.93561 149 153 150
0.07500 -0.10095 -0.93207 134 148 136
0.08433 -0.10337 -0.93335 137 123 130
0.09614 -0.10527 -0.93917 122 98 139
0.09858 -0.10916 -0.92761 125 113 137
0.08832 -0.11986 -0.87746 199 196 148
0.09329 -0.12309 -0.87104 227 222 171
0.09912 -0.12615 -0.86620 169 149 124
0.10383 -0.12941 -0.85939 113 99 95
0.11806 -0.13090 -0.86934 182 201 196
0.12003 -0.13466 -0.85777 241 244 220
0.12808 -0.13731 -0.85679 174 147 131
0.14940 -0.13768 -0.87851 70 44 40
0.16155 -0.13970 -0.88425 26 23 27
0.16549 -0.15028 -0.88176 22 29 37
0.17060 -0.14228 -0.88464 25 31 44
0.18578 -0.14388 -0.89521 36 51 69
0.19129 -0.14707 -0.88952 63 92 115
0.19742 -0.15016 -0.88489 91 116 139
0.20917 -0.15239 -0.88946 95 115 131
0.22008 -0.15478 -0.89255 87 107 125
0.23752 -0.16026 -0.89141 83 102 118
0.24402 -0.16332 -0.88727 89 108 125
0.24418 -0.16724 -0.87314 95 112 130
0.24767 -0.17067 -0.86438 94 112 132
0.25205 -0.17397 -0.85707 95 117 135
0.25075 -0.17797 -0.84109 98 116 134
0.25379 -0.18138 -0.83191 102 121 134
0.25449 -0.18505 -0.81928 99 117 135
0.25807 -0.18835 -0.81110 98 115 138
0.26188 -0.19161 -0.80335 101 119 141
0.26685 -0.19472 -0.79737 105 127 144
0.27291 -0.19770 -0.79304 109 132 150
0.28060 -0.20051 -0.79111 114 136 160
0.28773 -0.20338 -0.78835 118 139 163
0.30801 -0.20855 -0.79142 124 144 171
0.31789 -0.21119 -0.79247 127 141 186
0.32349 -0.21423 -0.78742 126 132 185
0.33346 -0.21688 -0.78853 126 133 184
0.33684 -0.22011 -0.78039 130 135 189
0.34200 -0.22318 -0.77478 130 136 190
0.34867 -0.22612 -0.77128 125 134 187
0.35774 -0.22887 -0.77104 122 135 185
0.36816 -0.23153 -0.77259 114 131 182
0.37488 -0.23448 -0.76910 101 126 176
0.38430 -0.23724 -0.76920 86 118 169
0.39526 -0.23992 -0.77131 78 111 159
0.40111 -0.24294 -0.76661 70 101 146
0.40860 -0.24585 -0.76408 65 95 133
0.41418 -0.24888 -0.75904 60 87 119
0.42168 -0.25180 -0.75651 60 85 112
0.42814 -0.25478 -0.75263 57 76 110
0.43546 -0.25771 -0.74985 54 69 106
0.44207 -0.26068 -0.74616 53 71 99
0.45045 -0.26356 -0.74471 49 64 93
0.46123 -0.26634 -0.74622 47 57 89
0.47018 -0.26922 -0.74540 45 54 90
0.47821 -0.27215 -0.74341 45 53 92
0.48653 -0.27507 -0.74174 42 48 88
0.49051 -0.28574 -0.73923 24 15 29
0.49435 -0.27801 -0.73945 37 45 85
0.49833 -0.28869 -0.73693 23 15 28
0.49960 -0.28105 -0.73405 36 44 80
0.50398 -0.28411 -0.72763 33 44 69
0.52731 -0.29610 -0.70910 24 35 44
0.53115 -0.29913 -0.70219 27 32 29
0.53753 -0.30210 -0.69825 30 28 27
0.54201 -0.30510 -0.69216 31 22 24
0.54974 -0.30804 -0.68978 26 22 24
0.54926 -0.31109 -0.67812 21 19 22
0.55846 -0.31401 -0.67743 23 19 23
0.57923 -0.32285 -0.66763 27 22 14
0.59452 -0.32576 -0.67352 31 22 30
0.60170 -0.32873 -0.67047 35 23 26
0.60979 -0.33169 -0.66840 33 31 15
0.61794 -0.33466 -0.66637 40 30 17
0.62696 -0.33764 -0.66526 55 35 20
0.63521 -0.34063 -0.66329 60 37 13
0.64257 -0.34361 -0.66038 59 40 23
0.64977 -0.34659 -0.65729 67 38 12
0.65534 -0.34955 -0.65249 75 46 33
0.66229 -0.35253 -0.64914 83 54 36
0.67251 -0.35556 -0.64915 87 59 35
0.68351 -0.35861 -0.64991 94 64 40
0.68888 -0.36157 -0.64490 99 72 41
0.69248 -0.36449 -0.63813 97 82 37
0.69615 -0.36741 -0.63147 102 90 37
0.69991 -0.37031 -0.62493 115 100 39
0.70348 -0.37320 -0.61825 123 101 38
0.71621 -0.37632 -0.62062 130 106 42
0.72649 -0.37940 -0.62053 136 111 52
0.73570 -0.38245 -0.61935 139 115 66
0.74531 -0.38552 -0.61853 139 113 66
0.75556 -0.38862 -0.61829 148 120 71
0.76254 -0.39162 -0.61490 156 125 83
0.77131 -0.39469 -0.61320 161 131 82
0.78135 -0.39781 -0.61268 172 142 87
0.79180 -0.40095 -0.61250 182 155 99
0.78881 -0.40356 -0.59976 190 165 108
0.79695 -0.40661 -0.59744 194 172 108
0.80587 -0.40969 -0.59582 201 180 115
0.81337 -0.41272 -0.59289 208 190 123
0.81996 -0.41571 -0.58912 214 196 129
0.83924 -0.41931 -0.59683 218 201 134
0.84317 -0.42218 -0.59060 221 209 144
0.84613 -0.42499 -0.58354 226 213 151
0.85026 -0.42785 -0.57756 231 216 151
0.85412 -0.43069 -0.57137 234 221 149
0.85954 -0.43361 -0.56658 237 224 158
0.86777 -0.43668 -0.56426 240 227 165
0.87553 -0.43974 -0.56152 244 231 171
0.88517 -0.44290 -0.56039 246 231 174
0.89439 -0.44605 -0.55887 247 232 180
0.90314 -0.44917 -0.55693 247 233 185
0.90716 -0.45996 -0.55439 240 233 224
0.91153 -0.45228 -0.55467 248 235 187
0.91556 -0.46307 -0.55213 239 234 225
0.91714 -0.45521 -0.55005 249 237 186
0.92117 -0.46600 -0.54751 239 234 226
0.92200 -0.45809 -0.54481 249 237 195
0.92602 -0.46886 -0.54228 240 234 225
0.92970 -0.46115 -0.54196 248 240 203
0.93372 -0.47193 -0.53942 239 234 224
0.93773 -0.46424 -0.53938 244 238 214
0.94176 -0.47502 -0.53684 238 233 222
0.96502 -0.47375 -0.53416 242 234 210
0.95518 -0.47853 -0.53866 238 233 220
0.96212 -0.48155 -0.53514 239 234 217
0.97163 -0.47675 -0.53036 237 215 180
0.97850 -0.47977 -0.52678 178 133 97
0.98439 -0.48271 -0.52243 93 49 33
0.98511 -0.48524 -0.51396 45 25 24
0.98135 -0.48740 -0.50201 38 33 36
0.99109 -0.48267 -0.49755 37 34 39
0.97940 -0.48968 -0.49159 40 36 37
0.98911 -0.48497 -0.48715 34 33 35
0.98624 -0.49266 -0.48811 40 36 32
0.98625 -0.50454 -0.44475 43 43 46
1.00773 -0.51113 -0.44394 50 53 51
1.00568 -0.51326 -0.43394 99 108 89
1.02063 -0.51696 -0.43662 180 186 177
1.06559 -0.52350 -0.46139 225 226 216
1.06959 -0.53423 -0.45886 234 230 226
-0.73542 0.15934 -1.03338 51 29 52
-0.74137 0.16193 -1.03641 36 35 46
-0.74386 0.15525 -1.03725 39 36 48
-0.72574 0.16424 -1.06217 83 89 78
-0.72061 0.15984 -1.05155 122 143 43
-0.71366 0.15898 -1.05603 82 106 46
-0.71014 0.14956 -1.05381 29 35 51
-0.69485 0.13937 -1.00426 41 27 42
-0.70077 0.14195 -1.00727 26 36 46
-0.68826 0.13787 -1.00599 43 56 50
-0.68053 0.13816 -1.01558 108 107 143
-0.67456 0.13554 -1.01247 89 99 132
-0.66951 0.13153 -1.00321 55 66 78
-0.66275 0.13013 -1.00548 54 73 83
-0.64938 0.12693 -1.00841 62 75 77
-0.64077 0.12793 -1.02157 93 103 109
-0.63372 0.12666 -1.02465 105 122 124
-0.62811 0.12341 -1.01883 98 110 112
-0.62267 0.11997 -1.01210 81 86 84
-0.57079 0.09356 -0.97166 73 80 81
-0.57428 0.10293 -0.97387 73 84 86
-0.57680 0.09618 -0.97472 76 86 90
-0.57330 0.08681 -0.97251 76 82 89
-0.56226 0.09770 -0.96776 56 68 64
-0.56729 0.08419 -0.96945 72 78 87
-0.51789 0.09360 -1.03012 116 154 131
-0.52050 0.08659 -1.03099 146 189 141
-0.43411 0.06018 -0.99889 51 60 75
-0.43776 0.06996 -1.00120 47 52 63
-0.44038 0.06291 -1.00208 46 51 65
-0.44301 0.05586 -1.00297 46 50 67
-0.43149 0.06723 -0.99801 52 61 76
-0.42522 0.06449 -0.99482 62 73 85
-0.42738 0.05777 -0.99742 60 71 84
-0.41848 0.06209 -0.99334 72 80 91
-0.42111 0.05504 -0.99423 68 79 90
-0.42373 0.04798 -0.99511 67 78 88
-0.35049 0.04553 -1.03689 46 51 62
-0.35427 0.05565 -1.03928 38 45 53
-0.35698 0.04835 -1.04019 41 46 54
-0.35970 0.04106 -1.04111 41 48 56
-0.34778 0.05282 -1.03598 44 50 61
-0.34007 0.04504 -1.04659 53 61 69
-0.33627 0.03486 -1.04419 62 72 75
-0.33220 0.04298 -1.04764 58 66 75
-0.32152 0.04251 -1.05767 56 66 79
-0.25775 0.03782 -1.11064 243 252 254
-0.25378 0.02719 -1.10814 254 254 254
-0.07656 -0.04840 -0.99159 254 253 251
-0.08613 -0.05304 -0.99597 252 252 252
-0.07164 -0.05190 -0.98406 233 227 218
-0.06098 -0.05364 -0.98941 125 107 125
-0.06325 -0.05929 -0.96603 42 39 91
-0.04746 -0.05953 -0.98254 77 98 143
-0.04188 -0.06281 -0.97654 141 168 188
-0.03210 -0.06973 -0.96174 155 172 178
-0.02818 -0.08022 -0.95927 147 165 177
0.05940 -0.10249 -0.94149 132 137 118
0.05544 -0.09189 -0.94399 155 159 148
0.05260 -0.09953 -0.94495 148 160 148
0.06351 -0.10603 -0.93292 113 90 74
0.07167 -0.10869 -0.93209 82 75 74
0.08117 -0.11108 -0.93373 120 101 132
0.08440 -0.11478 -0.92362 172 161 145
0.08251 -0.11948 -0.90417 203 196 177
0.08218 -0.12379 -0.88784 223 215 189
0.08584 -0.12729 -0.87896 236 229 203
0.09175 -0.13033 -0.87422 248 241 211
0.10254 -0.13247 -0.87821 195 174 164
0.10041 -0.13698 -0.85919 94 99 114
0.11643 -0.13820 -0.87233 162 196 204
0.11725 -0.14213 -0.85870 235 245 220
0.12765 -0.14439 -0.86181 181 149 118
0.14848 -0.14495 -0.88272 78 45 32
0.15758 -0.14751 -0.88329 27 24 27
0.16153 -0.15807 -0.88080 24 28 30
0.17881 -0.15221 -0.88929 25 29 40
0.17596 -0.15988 -0.89025 23 25 29
0.18902 -0.15467 -0.89146 25 32 56
0.19299 -0.16533 -0.88894 21 24 34
0.19839 -0.15727 -0.89218 26 36 67
0.20238 -0.16796 -0.88966 22 23 35
0.20720 -0.15997 -0.89190 27 38 63
0.21120 -0.17068 -0.88938 19 21 32
0.21664 -0.16260 -0.89260 27 37 63
0.22065 -0.17333 -0.89007 16 20 26
0.22374 -0.16556 -0.88945 26 36 61
0.22774 -0.17630 -0.88692 13 19 23
0.23093 -0.16852 -0.88646 25 38 58
0.23815 -0.17147 -0.88350 23 39 60
0.24458 -0.17453 -0.87927 23 37 60
0.24513 -0.17833 -0.86585 24 43 63
0.24783 -0.18182 -0.85591 25 48 65
0.25119 -0.18520 -0.84711 26 46 66
0.25444 -0.18858 -0.83820 25 47 65
0.25637 -0.19209 -0.82736 25 44 66
0.25879 -0.19551 -0.81738 25 37 68
0.26386 -0.19862 -0.81146 25 35 71
0.26777 -0.20911 -0.80898 11 15 41
0.26865 -0.20176 -0.80515 27 39 74
0.27255 -0.21223 -0.80269 14 15 42
0.27389 -0.20483 -0.79957 28 38 77
0.27780 -0.21529 -0.79711 11 14 41
0.27960 -0.20785 -0.79470 29 38 77
0.28350 -0.21830 -0.79224 13 16 39
0.28624 -0.21078 -0.79119 31 38 75
0.29014 -0.22123 -0.78873 14 16 37
0.29272 -0.21372 -0.78747 32 38 75
0.30036 -0.21655 -0.78542 36 42 81
0.30887 -0.21931 -0.78458 36 38 86
0.31591 -0.22221 -0.78163 36 34 85
0.32490 -0.22495 -0.78142 35 33 82
0.33299 -0.22777 -0.77989 35 35 84
0.33909 -0.23075 -0.77560 36 37 91
0.34375 -0.23384 -0.76933 32 35 91
0.35247 -0.23663 -0.76864 27 33 90
