ply
format ascii 1.0
element face 0
property list uchar int vertex_indices
element vertex 1307
property float x
property float y
property float z
property uchar diffuse_red
property uchar diffuse_green
property uchar diffuse_blue
end_header
-0.37837 0.43702 -1.01312 191 86 38
-0.38681 0.43341 -1.01632 197 97 30
-0.37276 0.43422 -1.00995 215 126 99
-0.35977 0.44658 -1.05291 229 152 148
-0.35362 0.44456 -1.05225 231 151 141
-0.34723 0.44298 -1.05293 232 143 123
-0.34080 0.44144 -1.05375 236 150 116
-0.33543 0.43785 -1.04829 235 166 115
-0.32519 0.44327 -1.07062 202 104 37
-0.31558 0.44723 -1.08856 183 79 3
-0.31256 0.43782 -1.08602 186 83 3
-0.30296 0.44288 -1.08663 185 103 65
-0.28871 0.45420 -1.12778 200 167 175
-0.28562 0.44457 -1.12519 206 188 213
-0.26727 0.45072 -1.13493 209 205 218
-0.27641 0.44681 -1.13839 215 212 232
-0.26067 0.44857 -1.13427 181 166 176
-0.24623 0.44606 -1.13866 128 93 139
-0.23525 0.45034 -1.15849 163 156 210
-0.22961 0.44652 -1.15263 185 189 233
-0.22566 0.44031 -1.13909 189 194 231
-0.12153 0.31036 -0.87231 77 12 37
-0.12992 0.30678 -0.87548 69 12 32
-0.12430 0.30411 -0.87269 75 10 32
-0.11237 0.31099 -0.88102 81 37 68
-0.10477 0.31008 -0.88443 114 108 135
-0.09799 0.30839 -0.88513 132 134 148
-0.09129 0.30660 -0.88548 132 125 136
-0.09385 0.29665 -0.85696 87 74 101
-0.08819 0.29402 -0.85431 98 82 97
-0.07335 0.29922 -0.87954 135 140 152
-0.07214 0.29274 -0.86320 134 131 134
-0.07027 0.28691 -0.84907 126 120 117
-0.05590 0.29138 -0.87204 142 141 164
-0.05300 0.28234 -0.86960 153 159 180
-0.04620 0.28461 -0.86142 163 169 180
-0.03870 0.27621 -0.84475 167 169 182
-0.04149 0.26992 -0.84514 167 175 197
-0.02986 0.26899 -0.83227 168 185 203
-0.02362 0.26676 -0.83112 168 183 208
-0.01745 0.26447 -0.82975 179 190 203
-0.00561 0.26625 -0.84359 126 127 133
0.00976 0.27041 -0.86649 63 56 74
0.01856 0.26979 -0.87157 80 93 100
0.02035 0.26426 -0.85820 40 29 54
0.02687 0.26204 -0.85728 77 76 97
0.03095 0.25816 -0.85005 116 118 126
0.03674 0.25545 -0.84727 60 40 49
0.04230 0.25258 -0.84389 43 40 77
0.05027 0.25127 -0.84649 107 101 125
0.06501 0.25423 -0.86570 156 160 171
0.10590 0.26017 -0.91292 112 104 138
0.10633 0.25394 -0.89663 123 133 162
0.12024 0.25581 -0.91231 121 107 107
0.13067 0.25552 -0.91954 94 92 107
0.13825 0.25351 -0.91998 101 101 134
0.14475 0.25086 -0.91792 134 125 129
0.16860 0.25798 -0.95521 164 166 177
0.17177 0.24813 -0.95255 179 184 210
0.19981 0.25593 -0.97367 208 211 218
0.20606 0.25291 -0.97042 177 162 151
0.25639 0.26005 -1.02809 202 208 244
0.34960 0.26710 -1.11843 252 254 253
0.34610 0.27801 -1.12137 254 254 254
0.34271 0.27036 -1.12185 253 254 254
0.33933 0.26271 -1.12232 253 254 254
0.35578 0.26350 -1.11358 230 231 247
0.35684 0.25756 -1.09853 153 154 230
0.37192 0.25807 -1.11146 91 105 220
0.37781 0.25435 -1.10607 93 131 234
0.38687 0.25205 -1.10688 101 133 234
0.39713 0.25024 -1.10993 118 139 234
0.41439 0.24513 -1.10955 133 149 230
0.42773 0.24453 -1.11816 110 136 220
0.43518 0.24141 -1.11557 119 155 228
0.47935 0.24697 -1.16430 129 167 233
0.48842 0.24433 -1.16420 118 153 202
0.49207 0.23294 -1.16113 76 134 191
0.60154 0.16152 -1.03008 149 171 145
0.63242 0.16526 -1.06375 142 151 127
0.63495 0.16056 -1.05316 106 102 86
0.64535 0.15815 -1.05472 116 118 114
0.64213 0.15187 -1.03549 162 161 157
0.64572 0.14070 -1.03247 173 162 157
0.65857 0.14583 -1.03199 169 152 139
0.66607 0.14260 -1.02913 112 100 100
0.66801 0.13789 -1.01805 33 30 57
0.67067 0.13340 -1.00813 10 13 45
0.67423 0.12229 -1.00513 12 14 36
0.67953 0.13056 -1.00733 7 18 51
0.68310 0.11943 -1.00433 13 15 40
0.68597 0.12708 -1.00300 6 14 54
0.68953 0.11596 -0.99999 13 15 40
0.70903 0.10267 -0.95555 3 9 67
0.71255 0.09169 -0.95259 10 18 42
0.71895 0.10008 -0.95626 3 9 72
0.72248 0.08908 -0.95329 10 18 48
0.72179 0.09586 -0.94717 3 8 76
0.72530 0.08489 -0.94421 9 19 47
0.78631 0.07146 -0.93161 9 10 79
0.78985 0.06043 -0.92863 13 20 60
0.78872 0.06726 -0.92226 9 14 76
0.79225 0.05626 -0.91929 12 22 59
0.79067 0.06301 -0.91239 9 16 70
0.79418 0.05204 -0.90943 11 25 57
0.80128 0.06043 -0.91367 8 21 69
0.80481 0.04944 -0.91071 13 26 66
0.81232 0.05792 -0.91543 10 22 70
0.81586 0.04690 -0.91246 14 26 69
0.82252 0.05522 -0.91608 13 22 72
0.82607 0.04418 -0.91309 14 26 70
0.84381 0.04993 -0.91830 12 23 69
0.84037 0.04215 -0.91878 13 26 69
0.84737 0.03883 -0.91530 13 26 72
1.18922 -0.14506 -0.66314 47 72 101
1.17910 -0.14938 -0.66697 46 75 115
1.19086 -0.14848 -0.65527 25 35 84
1.20051 -0.15157 -0.65442 75 71 100
1.22969 -0.15396 -0.67043 170 176 173
1.23317 -0.16483 -0.66749 188 172 168
1.51476 -0.22896 -0.68910 154 132 132
1.50390 -0.23360 -0.69321 173 148 157
1.52603 -0.23242 -0.68851 146 118 106
1.53286 -0.23587 -0.68455 143 119 122
1.53758 -0.24940 -0.65208 181 172 175
-0.58392 0.53464 -1.13534 219 225 241
-0.59245 0.53100 -1.13856 218 218 239
-0.57813 0.53248 -1.13403 216 218 236
-0.50415 0.49573 -1.09271 232 232 240
-0.51267 0.49209 -1.09593 225 228 242
-0.49966 0.48840 -1.07646 205 205 221
-0.48900 0.48059 -1.06376 203 203 219
-0.48436 0.47442 -1.05075 226 230 240
-0.47841 0.47285 -1.05115 233 223 222
-0.46771 0.46575 -1.04037 244 242 220
-0.46485 0.45685 -1.03797 235 234 243
-0.46070 0.46734 -1.05013 242 237 217
-0.44779 0.44793 -1.00792 192 101 42
-0.38205 0.42880 -1.00762 194 91 41
-0.39047 0.42521 -1.01081 201 99 30
-0.37627 0.42642 -1.00572 220 131 94
-0.36249 0.44041 -1.05410 235 162 146
-0.35604 0.43899 -1.05531 243 190 175
-0.34983 0.43703 -1.05487 247 202 185
-0.34303 0.43618 -1.05788 251 215 189
-0.33673 0.43431 -1.05776 253 229 184
-0.33134 0.43074 -1.05232 216 136 80
-0.31947 0.43888 -1.08351 191 82 13
-0.30571 0.43657 -1.08800 184 87 31
-0.29654 0.43922 -1.10226 192 129 127
-0.27277 0.43993 -1.12270 218 215 227
-0.27576 0.43317 -1.12312 225 225 235
-0.25894 0.43671 -1.12481 172 143 147
-0.24411 0.43479 -1.13117 125 73 126
-0.23133 0.44157 -1.15938 145 123 182
-0.22664 0.43639 -1.14909 154 145 205
-0.22348 0.42654 -1.14643 151 145 200
-0.11337 0.30635 -0.88724 78 19 47
-0.12184 0.30274 -0.89045 74 10 29
-0.11616 0.30005 -0.88763 77 11 36
-0.10787 0.30350 -0.88385 92 77 98
-0.09849 0.30414 -0.89287 130 135 155
-0.09216 0.30198 -0.89197 141 136 150
-0.08746 0.29839 -0.88597 133 127 146
-0.08099 0.29634 -0.88550 137 134 144
-0.07808 0.28728 -0.88305 145 150 167
-0.07498 0.29387 -0.88354 143 148 165
-0.07208 0.28482 -0.88109 146 151 173
-0.06909 0.29131 -0.88124 145 148 165
-0.06618 0.28225 -0.87879 147 152 180
-0.04563 0.27378 -0.85231 160 165 193
-0.05410 0.27017 -0.85551 156 158 184
-0.04842 0.26748 -0.85270 157 159 189
-0.03607 0.26705 -0.84164 152 172 209
-0.02631 0.26743 -0.85025 112 115 187
-0.02002 0.26517 -0.84906 99 101 176
-0.01650 0.26090 -0.84031 134 146 202
-0.00986 0.25889 -0.84007 116 119 143
0.00757 0.26445 -0.86863 93 97 93
0.01245 0.26108 -0.86335 83 74 91
0.01736 0.25775 -0.85822 63 54 71
0.02478 0.25612 -0.85961 37 35 64
0.02936 0.25258 -0.85365 108 120 130
0.03443 0.24939 -0.84900 99 82 56
0.04454 0.24946 -0.85706 132 137 124
0.05775 0.25144 -0.87269 167 173 183
0.06268 0.24808 -0.86748 174 180 196
0.09889 0.25103 -0.90361 99 81 87
0.10750 0.24974 -0.90686 95 103 123
0.11517 0.24787 -0.90779 88 75 100
0.12539 0.24744 -0.91459 95 101 129
0.13446 0.24629 -0.91857 134 133 155
0.15652 0.25243 -0.95227 178 183 188
0.15967 0.24261 -0.94962 186 197 218
0.16998 0.25354 -0.96575 190 200 210
0.17316 0.24364 -0.96308 178 184 208
0.21216 0.25076 -0.99109 202 200 192
0.25077 0.25801 -1.04069 103 47 86
0.34277 0.25784 -1.11189 251 253 252
0.33253 0.25347 -1.11576 253 254 254
0.34649 0.25313 -1.10211 214 212 236
0.35923 0.25258 -1.11055 98 99 187
0.36311 0.24797 -1.10117 34 64 158
0.37428 0.24663 -1.10625 38 104 193
0.38295 0.24415 -1.10632 48 104 194
0.39017 0.24102 -1.10351 90 133 209
0.40374 0.24058 -1.11292 187 211 236
0.40996 0.23699 -1.10809 124 145 212
0.43000 0.23293 -1.11277 81 126 196
0.51865 0.17799 -1.03391 115 161 189
0.52341 0.17403 -1.02695 116 164 194
0.52645 0.16953 -1.01722 126 169 197
0.56333 0.14879 -0.99008 153 191 213
0.56885 0.14517 -0.98464 158 194 206
0.59591 0.14779 -1.01278 149 167 167
0.62366 0.15046 -1.04157 110 118 119
0.63149 0.14734 -1.03928 103 108 123
0.63336 0.14256 -1.02787 145 142 152
0.64930 0.13643 -1.02376 172 154 143
0.66134 0.13443 -1.02776 110 99 92
0.66724 0.13078 -1.02253 29 27 35
0.67082 0.11960 -1.01951 9 12 21
0.67004 0.12634 -1.01276 10 8 24
0.67361 0.11520 -1.00975 12 17 37
0.93050 -0.04605 -0.75153 23 40 86
0.93389 -0.05664 -0.74868 37 53 95
1.18662 -0.15257 -0.66425 46 70 92
1.19147 -0.15585 -0.65919 20 22 72
1.16516 -0.16020 -0.62700 105 102 129
1.22258 -0.16170 -0.66766 177 178 175
1.22605 -0.17255 -0.66473 185 168 163
1.52106 -0.24051 -0.68796 166 142 130
1.52815 -0.25732 -0.64823 153 143 161
1.52172 -0.26050 -0.63467 165 160 171
1.51802 -0.26369 -0.62320 181 173 182
1.50861 -0.26993 -0.59907 195 183 187
1.51565 -0.27326 -0.59558 201 187 189
-0.58666 0.52885 -1.13731 212 215 228
-0.59519 0.52521 -1.14054 223 227 237
-0.58012 0.53198 -1.15096 203 182 192
-0.57542 0.52206 -1.12773 216 216 236
-0.56690 0.52570 -1.12451 224 226 239
-0.56932 0.52187 -1.13204 224 229 244
-0.56077 0.52552 -1.12880 225 224 238
-0.56359 0.51915 -1.12919 226 227 240
-0.55794 0.51601 -1.12511 232 234 243
-0.55512 0.52236 -1.12471 230 230 240
-0.54939 0.51965 -1.12187 231 231 241
-0.55503 0.50693 -1.12266 248 249 250
-0.50668 0.49051 -1.09637 227 229 240
-0.51521 0.48687 -1.09960 211 214 236
-0.50949 0.48416 -1.09677 219 221 237
-0.50187 0.48431 -1.08332 205 208 224
-0.49641 0.48078 -1.07805 189 186 204
-0.49352 0.47178 -1.07562 190 184 205
-0.49096 0.47725 -1.07276 189 189 209
-0.48607 0.47186 -1.06198 197 197 220
-0.48139 0.46589 -1.04947 222 225 237
-0.47528 0.46479 -1.05130 237 240 233
-0.47242 0.45585 -1.04889 232 232 241
-0.44930 0.46402 -1.06976 222 202 170
-0.44852 0.44738 -1.02517 209 151 86
-0.38632 0.41934 -0.99815 195 91 33
-0.36597 0.43269 -1.05051 244 190 174
-0.35944 0.43146 -1.05233 251 240 226
-0.35221 0.43152 -1.05822 250 234 230
-0.34660 0.42837 -1.05408 247 227 227
-0.33998 0.42713 -1.05596 250 217 210
-0.33646 0.42013 -1.03970 236 174 142
-0.32148 0.43393 -1.08903 204 98 37
-0.31447 0.43301 -1.09208 188 81 3
-0.31144 0.42357 -1.08953 187 84 12
-0.30806 0.43098 -1.09163 185 83 14
-0.29814 0.43486 -1.11002 186 96 70
-0.28990 0.43568 -1.11877 200 160 171
-0.28324 0.43379 -1.11888 216 210 227
-0.27112 0.42802 -1.11279 220 218 227
-0.27410 0.42128 -1.11321 228 231 242
-0.26062 0.43196 -1.13180 203 191 202
-0.25113 0.43413 -1.14520 176 144 149
-0.22959 0.44164 -1.18263 146 110 141
-0.22751 0.43261 -1.15975 155 143 190
-0.21533 0.42626 -1.15212 151 142 189
-0.10345 0.30372 -0.90765 81 41 69
-0.09773 0.30098 -0.90473 122 122 152
-0.09131 0.29885 -0.90402 141 142 160
-0.08838 0.28973 -0.90156 144 144 163
-0.08676 0.29507 -0.89736 144 143 163
-0.08385 0.28598 -0.89490 143 146 168
-0.08082 0.29253 -0.89514 144 147 164
-0.07790 0.28343 -0.89269 145 149 171
-0.04291 0.26467 -0.84941 155 164 186
-0.03511 0.26357 -0.85261 64 86 156
-0.02691 0.25587 -0.83817 46 31 100
-0.00865 0.26221 -0.86983 89 85 138
-0.01261 0.25260 -0.84058 146 160 171
0.00581 0.25878 -0.87194 77 85 131
0.00934 0.25448 -0.86305 83 66 105
0.01622 0.25249 -0.86308 96 102 113
0.02082 0.24896 -0.85710 57 34 53
0.02705 0.24652 -0.85542 107 96 130
0.04170 0.24955 -0.87521 155 156 150
0.04467 0.24028 -0.87271 173 175 200
0.04850 0.24739 -0.87473 169 179 182
0.05365 0.24416 -0.87004 171 176 198
0.05946 0.24137 -0.86704 171 181 201
0.06551 0.23871 -0.86461 157 177 203
0.07843 0.24022 -0.87892 143 156 162
0.10490 0.24327 -0.90814 78 103 108
0.10865 0.23910 -0.89976 83 54 91
0.12416 0.24172 -0.91913 61 41 98
0.13116 0.23937 -0.91828 106 107 154
0.15197 0.24471 -0.94925 167 181 211
0.20923 0.24378 -0.99199 210 214 216
0.19971 0.23972 -0.99559 208 214 233
0.23109 0.24873 -1.02272 179 174 145
0.26064 0.25090 -1.05196 126 101 153
0.28761 0.25135 -1.07452 249 253 254
0.29760 0.25562 -1.07073 254 254 254
0.29430 0.24818 -1.07119 254 254 254
0.29101 0.24074 -1.07165 254 254 254
0.33183 0.24672 -1.09689 252 253 251
0.32167 0.24238 -1.10074 254 254 254
0.33963 0.24395 -1.09552 202 204 229
0.35375 0.24400 -1.10681 88 95 178
0.35488 0.23820 -1.09195 52 76 150
0.36908 0.23819 -1.10314 61 116 181
0.37257 0.22729 -1.10020 59 112 180
0.37737 0.23554 -1.10250 65 114 183
0.38461 0.23243 -1.09977 92 135 201
0.40083 0.23308 -1.11437 162 195 228
0.40262 0.22766 -1.10105 108 140 197
0.51303 0.16961 -1.03064 125 163 195
0.54337 0.14678 -0.99260 172 206 233
0.54683 0.13599 -0.98969 161 199 234
0.55882 0.14086 -0.98873 159 198 228
0.56513 0.13748 -0.98453 173 211 231
0.57166 0.13417 -0.98069 185 206 213
0.59294 0.13499 -0.99974 162 167 171
0.61606 0.13620 -1.02132 126 113 112
0.63768 0.13164 -1.02601 167 163 166
0.64470 0.12831 -1.02252 174 161 151
0.65524 0.12590 -1.02429 111 101 87
0.66502 0.12327 -1.02488 28 27 27
0.66861 0.11208 -1.02186 15 12 20
1.17901 -0.15680 -0.67032 47 75 112
1.17556 -0.14603 -0.67323 45 75 117
1.17221 -0.15358 -0.67369 46 75 116
1.16887 -0.16113 -0.67416 46 74 114
1.18473 -0.16005 -0.66600 41 62 80
1.19454 -0.16317 -0.66528 25 22 49
1.16053 -0.16764 -0.62627 128 134 137
1.16391 -0.17818 -0.62342 185 172 160
1.22857 -0.16904 -0.67625 181 174 169
1.23206 -0.17993 -0.67331 184 166 160
1.51554 -0.25527 -0.66882 178 152 145
1.52069 -0.25866 -0.66368 172 143 137
1.52155 -0.26197 -0.65537 155 127 134
1.49771 -0.27440 -0.60275 155 147 165
1.48839 -0.27733 -0.58743 171 165 178
1.48847 -0.28046 -0.57900 187 180 189
1.49886 -0.27602 -0.57507 207 193 193
1.48911 -0.28358 -0.57102 196 185 196
1.49947 -0.27916 -0.56710 212 198 196
1.49189 -0.28675 -0.56461 202 189 201
1.50222 -0.28233 -0.56070 214 202 200
1.49699 -0.28997 -0.55988 200 190 201
1.50732 -0.28556 -0.55597 216 203 203
1.50391 -0.29325 -0.55645 197 188 199
1.58427 -0.31752 -0.55405 150 100 141
1.57380 -0.32199 -0.55802 170 142 142
1.58082 -0.32531 -0.55453 192 169 163
1.58784 -0.32864 -0.55105 211 189 173
1.60437 -0.32140 -0.55939 108 70 122
1.60795 -0.33258 -0.55637 223 205 186
-0.58933 0.52361 -1.14085 206 208 214
-0.58171 0.53458 -1.17706 185 114 129
-0.57606 0.53056 -1.17057 191 148 173
-0.57179 0.51776 -1.13888 211 202 234
-0.56624 0.51382 -1.13255 227 226 243
-0.56072 0.50983 -1.12604 236 238 245
-0.49941 0.47372 -1.07622 192 186 205
-0.49652 0.46473 -1.07379 189 185 202
-0.48834 0.46734 -1.06760 189 186 211
-0.49113 0.46104 -1.06799 190 187 208
-0.48371 0.46116 -1.05438 209 208 227
-0.47808 0.45847 -1.05153 225 229 241
-0.47521 0.44954 -1.04911 233 233 242
-0.45440 0.45105 -1.05017 230 229 233
-0.46285 0.44744 -1.05337 233 233 242
-0.45719 0.44475 -1.05056 232 230 241
-0.44825 0.44971 -1.05144 230 220 199
-0.43833 0.45869 -1.08402 215 177 134
-0.39069 0.40966 -0.98781 197 91 29
-0.36867 0.42656 -1.05181 245 207 199
-0.36211 0.42538 -1.05384 243 212 210
-0.35844 0.41847 -1.03785 230 169 170
-0.35183 0.41737 -1.04012 232 169 173
-0.34351 0.41941 -1.05239 243 179 190
-0.33783 0.41641 -1.04874 251 208 184
-0.33126 0.41500 -1.05014 214 120 66
-0.30296 0.42503 -1.10034 187 86 27
-0.30591 0.41837 -1.10075 189 87 11
-0.29288 0.42894 -1.11916 192 119 96
-0.28758 0.42484 -1.11217 210 184 191
-0.28135 0.42227 -1.11011 223 221 237
-0.26888 0.41710 -1.10594 225 224 232
-0.24436 0.42971 -1.16020 181 161 165
-0.22326 0.42422 -1.16206 149 139 189
-0.21643 0.42204 -1.16157 150 144 193
-0.21324 0.41210 -1.15888 140 128 186
-0.20154 0.41921 -1.16577 146 126 136
-0.20335 0.40566 -1.12717 108 59 53
-0.19410 0.40961 -1.12367 67 13 27
-0.19715 0.40273 -1.12409 74 13 17
-0.11293 0.29923 -0.90791 77 10 35
-0.11867 0.30195 -0.91075 73 11 26
-0.12149 0.29558 -0.91115 70 12 26
-0.11575 0.29286 -0.90830 77 11 34
-0.10556 0.29798 -0.91040 78 23 59
-0.10070 0.29447 -0.90465 104 94 123
-0.09374 0.29281 -0.90569 137 144 163
-0.09081 0.28368 -0.90322 143 146 165
-0.05012 0.26201 -0.85626 158 159 183
-0.05580 0.26470 -0.85908 156 158 181
-0.05860 0.25839 -0.85947 157 160 181
-0.04291 0.26047 -0.85781 138 144 165
-0.04042 0.25539 -0.84589 46 25 87
-0.03178 0.25487 -0.85139 76 65 88
-0.02433 0.25344 -0.85345 135 138 157
-0.01736 0.25163 -0.85409 148 159 163
-0.01338 0.24771 -0.84652 150 155 155
0.00047 0.25062 -0.86562 63 56 86
0.00549 0.24738 -0.86075 52 26 46
0.01183 0.24503 -0.85940 74 70 68
0.02213 0.24529 -0.86837 114 111 120
0.03481 0.24702 -0.88331 157 159 175
0.03779 0.23773 -0.88080 174 176 198
0.04094 0.24441 -0.88105 171 179 192
0.04392 0.23511 -0.87854 181 184 203
0.05296 0.23903 -0.87596 177 180 206
0.07569 0.24016 -0.89729 68 75 89
0.08174 0.23739 -0.89456 85 82 64
0.09206 0.23716 -0.90219 79 88 80
0.09511 0.22767 -0.89963 71 57 69
0.10778 0.23363 -0.90513 99 106 111
0.11525 0.23161 -0.90558 105 94 86
0.12878 0.23295 -0.92013 136 138 153
0.14513 0.23574 -0.94088 171 184 211
0.15899 0.23702 -0.95550 182 194 214
0.16521 0.23407 -0.95242 180 186 211
0.18729 0.23953 -0.98511 197 205 226
0.19051 0.22950 -0.98240 208 216 240
0.20791 0.23764 -0.99646 208 211 229
0.21693 0.23595 -0.99906 201 201 205
0.26589 0.24777 -1.07075 98 44 117
0.29019 0.24675 -1.08744 235 246 254
0.32444 0.23731 -1.08907 254 253 251
0.31432 0.23299 -1.09290 254 254 254
0.33496 0.23578 -1.09329 189 200 228
0.34580 0.23434 -1.09804 59 93 179
0.35045 0.23014 -1.09028 50 81 149
0.36166 0.22881 -1.09561 63 115 174
0.36514 0.21795 -1.09268 64 113 180
0.37700 0.22300 -1.09201 59 117 188
0.38049 0.21213 -1.08908 111 152 202
0.38856 0.22170 -1.09769 96 143 202
0.39206 0.21078 -1.09475 71 117 203
0.39668 0.21894 -1.09665 61 119 201
0.41093 0.21258 -1.09063 121 156 204
0.51213 0.15193 -1.00557 146 185 226
0.55337 0.13268 -0.98587 159 199 232
0.54320 0.12834 -0.98971 159 197 236
0.55001 0.12511 -0.98633 156 198 233
0.56041 0.12952 -0.98285 178 218 242
0.56801 0.12651 -0.98069 188 216 237
0.58098 0.12497 -0.98689 160 164 202
0.60846 0.12732 -1.01537 140 133 150
0.63795 0.11965 -1.01802 164 157 155
0.65570 0.11908 -1.03069 111 96 79
0.66561 0.11645 -1.03142 31 24 14
0.66921 0.10523 -1.02839 16 13 21
1.10997 -0.11754 -0.74641 24 47 88
1.12028 -0.11314 -0.74251 21 53 99
1.11688 -0.12081 -0.74298 26 50 89
1.17695 -0.16431 -0.67193 48 73 106
1.16680 -0.16864 -0.67577 45 74 114
1.18580 -0.16747 -0.67037 31 47 78
1.19253 -0.17069 -0.66692 51 45 63
1.21608 -0.17348 -0.67818 154 157 146
1.21957 -0.18436 -0.67525 188 172 158
1.50026 -0.26309 -0.66049 199 179 171
1.50391 -0.27449 -0.65742 202 184 179
1.50248 -0.27609 -0.62665 154 127 116
1.47518 -0.27858 -0.59791 131 103 109
1.47903 -0.28492 -0.58362 135 108 133
1.49220 -0.29149 -0.57616 150 127 162
1.50806 -0.29815 -0.57063 164 129 169
1.51160 -0.30919 -0.56765 182 159 155
1.51984 -0.30162 -0.57057 161 125 160
1.53026 -0.29717 -0.56662 195 185 198
1.52339 -0.31268 -0.56758 193 175 165
-0.59814 0.51771 -1.13766 218 223 237
-0.60105 0.52676 -1.14010 215 219 233
-0.60386 0.52042 -1.14049 217 220 238
-0.60667 0.51407 -1.14088 218 225 241
-0.59041 0.53089 -1.18041 192 174 193
-0.58443 0.52917 -1.18053 182 108 97
-0.57860 0.52631 -1.17737 186 109 98
-0.57300 0.52196 -1.16990 196 133 136
-0.56806 0.51370 -1.15106 216 203 226
-0.56313 0.50588 -1.13342 232 233 246
-0.50806 0.46938 -1.07728 219 219 233
-0.51652 0.46577 -1.08049 230 230 242
-0.48605 0.45638 -1.05921 204 199 221
-0.49448 0.45278 -1.06241 191 187 207
-0.48135 0.45056 -1.04694 222 223 238
-0.43675 0.44592 -1.07044 216 193 162
-0.39482 0.40051 -0.97892 199 94 49
-0.37335 0.41640 -1.04036 241 199 182
-0.37043 0.40729 -1.03791 223 134 97
-0.36554 0.41779 -1.05058 229 152 139
-0.35501 0.42431 -1.07721 213 109 94
-0.35453 0.41122 -1.04137 224 153 132
-0.34760 0.41065 -1.04544 242 198 196
-0.34136 0.40871 -1.04516 251 229 206
-0.33541 0.40623 -1.04312 215 135 91
-0.31983 0.42066 -1.09576 192 84 19
-0.31680 0.41121 -1.09321 189 85 6
-0.29980 0.41570 -1.09835 187 92 33
-0.30875 0.41188 -1.10174 188 87 8
-0.28286 0.41788 -1.11817 209 180 197
-0.27775 0.41351 -1.11023 222 219 240
-0.27289 0.40881 -1.10119 224 226 241
-0.26982 0.39924 -1.09861 206 203 228
-0.26496 0.40878 -1.10757 215 214 229
-0.25427 0.41271 -1.12716 198 191 206
-0.23933 0.42253 -1.16649 177 158 171
-0.20307 0.41428 -1.17319 138 123 162
-0.10605 0.29368 -0.91848 77 13 46
-0.11467 0.29000 -0.92174 77 10 31
-0.10096 0.29034 -0.91336 87 49 84
-0.09597 0.28693 -0.90801 130 131 158
-0.05037 0.25762 -0.86404 159 160 181
-0.05889 0.25399 -0.86726 156 161 183
-0.05318 0.25128 -0.86443 158 161 185
-0.04531 0.25444 -0.85935 146 144 156
-0.04535 0.24752 -0.84017 48 18 56
-0.03393 0.24903 -0.85365 52 50 77
-0.02695 0.24723 -0.85436 126 159 177
-0.01577 0.24838 -0.86665 100 105 146
-0.00948 0.24602 -0.86524 93 70 102
0.00258 0.24092 -0.86096 88 73 37
0.01227 0.24079 -0.86849 128 124 110
0.03303 0.24122 -0.88658 171 175 197
0.04950 0.23216 -0.87491 185 187 202
0.07245 0.23336 -0.89693 73 69 96
0.08473 0.23429 -0.90952 127 127 112
0.09316 0.23287 -0.91244 132 131 122
0.10800 0.22876 -0.91315 113 118 132
0.12268 0.23075 -0.93062 164 166 157
0.13072 0.22892 -0.93212 171 168 181
0.14047 0.22801 -0.93752 169 176 203
0.15351 0.22880 -0.95035 155 175 208
0.16378 0.22803 -0.95657 163 181 216
0.19101 0.23608 -1.00104 197 211 236
0.20585 0.23109 -0.99931 206 209 234
0.21514 0.22952 -1.00252 197 202 215
0.25218 0.24166 -1.06628 147 117 137
0.27072 0.24433 -1.08878 83 30 87
0.26689 0.23607 -1.06279 126 109 169
0.32027 0.22940 -1.08781 254 252 250
0.31015 0.22508 -1.09164 254 254 254
0.32979 0.22741 -1.09006 189 196 227
0.33540 0.22366 -1.08426 60 89 179
0.34388 0.22118 -1.08430 53 90 155
0.35115 0.21815 -1.08184 63 114 175
0.35461 0.20737 -1.07893 61 110 181
0.36591 0.21218 -1.07734 75 124 187
0.36937 0.20139 -1.07443 109 150 205
0.39241 0.20491 -1.07880 112 151 210
0.38218 0.20055 -1.08267 75 116 199
0.39589 0.19406 -1.07587 129 159 213
0.50312 0.14262 -0.99659 144 188 231
0.52417 0.13320 -0.98767 142 185 224
0.53074 0.12993 -0.98396 160 201 241
0.53419 0.11918 -0.98106 149 191 236
0.55391 0.12107 -0.97834 157 198 235
0.54377 0.11674 -0.98217 151 195 237
0.56144 0.11805 -0.97610 142 180 215
0.59236 0.12134 -1.01039 107 123 172
0.60027 0.11832 -1.00846 127 132 157
0.65100 0.11092 -1.02932 102 96 82
0.66224 0.10861 -1.03207 30 27 9
0.66583 0.09739 -1.02904 15 13 26
1.10148 -0.12549 -0.74197 27 40 72
1.10255 -0.12907 -0.73296 29 44 75
1.11280 -0.12469 -0.72908 25 48 91
1.10942 -0.13232 -0.72955 32 46 77
1.10604 -0.13995 -0.73002 36 48 71
1.17347 -0.17187 -0.67228 46 71 99
1.18156 -0.17505 -0.67004 21 32 82
1.18533 -0.17835 -0.66399 92 86 98
1.21756 -0.18100 -0.68292 174 172 159
1.22106 -0.19191 -0.67998 192 173 165
1.47813 -0.28341 -0.61174 204 180 161
1.47510 -0.28645 -0.60086 193 168 146
1.47871 -0.28966 -0.59490 182 150 138
1.47405 -0.29261 -0.58296 163 126 117
1.48354 -0.29599 -0.58134 149 119 115
1.48878 -0.29922 -0.57664 146 121 128
1.50234 -0.30276 -0.57790 156 125 139
1.50490 -0.30590 -0.57129 173 144 154
1.50844 -0.31694 -0.56831 221 205 190
-0.60075 0.51310 -1.14304 212 204 213
-0.60929 0.50945 -1.14627 205 212 232
-0.59268 0.52919 -1.19468 181 116 115
-0.58970 0.51989 -1.19217 177 101 64
-0.58697 0.52519 -1.18823 180 101 84
-0.58141 0.52028 -1.17910 186 109 67
-0.57561 0.51724 -1.17539 183 98 62
-0.56949 0.51619 -1.17754 188 116 94
-0.56434 0.50916 -1.16216 209 187 210
-0.55985 0.49882 -1.13697 222 221 241
-0.55458 0.49344 -1.12630 234 239 245
-0.54601 0.49710 -1.12306 249 249 247
-0.54884 0.49072 -1.12346 241 242 245
-0.50488 0.46152 -1.07822 197 192 208
-0.50200 0.45252 -1.07579 188 186 201
-0.48817 0.45234 -1.06642 196 192 216
-0.49663 0.44873 -1.06962 192 187 203
-0.47730 0.44546 -1.05619 231 231 242
-0.46886 0.44907 -1.05299 238 238 244
-0.47164 0.44278 -1.05338 237 237 243
-0.47443 0.43650 -1.05377 233 234 242
-0.44759 0.43598 -1.05425 231 231 241
-0.45609 0.43235 -1.05746 235 235 242
-0.45039 0.42966 -1.05464 233 233 241
-0.44470 0.42696 -1.05182 230 228 240
-0.44176 0.43368 -1.05266 230 226 229
-0.43215 0.40704 -0.98618 204 133 56
-0.42390 0.41056 -0.98306 188 85 24
-0.42662 0.40442 -0.98343 191 95 20
-0.42934 0.39828 -0.98381 206 143 68
-0.40874 0.39943 -0.98429 199 102 44
-0.41704 0.39589 -0.98743 195 95 28
-0.40385 0.39534 -0.97690 209 120 59
-0.39699 0.39555 -0.98315 202 98 70
-0.39416 0.38672 -0.98077 224 128 91
-0.37830 0.40566 -1.02686 236 168 153
-0.37540 0.39662 -1.02442 220 121 79
-0.36013 0.41344 -1.06360 216 121 88
-0.35781 0.40398 -1.03909 227 162 138
-0.35029 0.40452 -1.04683 244 210 200
-0.34454 0.40167 -1.04362 250 221 206
-0.33765 0.40089 -1.04714 216 139 100
-0.29752 0.40496 -1.09168 183 90 40
-0.28984 0.40482 -1.09765 187 117 112
-0.28010 0.40776 -1.11392 197 170 197
-0.27466 0.40393 -1.10773 203 197 225
-0.26146 0.39979 -1.10705 206 202 223
-0.23036 0.40901 -1.15852 124 63 126
-0.22040 0.41109 -1.17259 148 125 169
-0.19419 0.41158 -1.19561 148 113 135
-0.19520 0.39917 -1.16011 108 54 57
-0.19200 0.38919 -1.15742 100 60 47
-0.10527 0.29047 -0.93082 77 10 38
-0.11394 0.28676 -0.93410 74 12 29
-0.10813 0.28401 -0.93121 78 9 29
-0.09724 0.28964 -0.93513 79 24 58
-0.09425 0.28444 -0.92308 111 100 119
-0.09269 0.27810 -0.90666 141 147 166
-0.08409 0.28177 -0.90340 144 146 169
-0.08693 0.27536 -0.90380 145 148 167
-0.08976 0.26896 -0.90419 145 148 167
-0.04580 0.24982 -0.86644 160 154 166
-0.05433 0.24617 -0.86967 159 161 187
-0.04016 0.24705 -0.86336 97 83 88
-0.02804 0.24211 -0.85959 54 60 74
-0.02495 0.23756 -0.84944 39 30 63
-0.00210 0.23990 -0.87487 154 165 169
0.01639 0.23894 -0.88748 170 172 178
0.01937 0.22966 -0.88497 185 184 201
0.02331 0.23686 -0.88737 172 172 198
0.03685 0.23244 -0.88622 163 181 204
0.04140 0.22883 -0.87990 157 182 210
0.04764 0.22627 -0.87792 171 182 201
0.06440 0.23006 -0.90237 71 60 126
0.07385 0.22932 -0.90812 109 122 131
0.08267 0.22815 -0.91213 136 152 161
0.08912 0.22556 -0.91022 127 116 132
0.09313 0.22156 -0.90238 93 81 111
0.11035 0.22505 -0.92635 132 142 168
0.12043 0.22438 -0.93282 168 179 198
0.12984 0.22329 -0.93756 180 186 203
0.13562 0.22019 -0.93368 157 165 185
0.16000 0.22700 -0.97285 90 81 140
0.16823 0.22506 -0.97424 115 127 185
0.18373 0.22685 -0.99205 180 204 236
0.19601 0.22686 -1.00225 199 209 234
0.20240 0.22384 -0.99908 200 206 228
0.21114 0.22197 -1.00109 183 189 206
0.25069 0.23515 -1.07061 131 91 118
0.26518 0.23580 -1.08440 84 16 78
0.26210 0.22796 -1.05997 115 85 160
0.32261 0.25011 -1.17187 200 205 239
0.31469 0.22087 -1.08365 254 251 247
0.32383 0.21871 -1.08515 189 190 211
0.33025 0.21534 -1.08105 59 81 159
0.33825 0.21265 -1.08015 52 93 155
0.34449 0.20921 -1.07569 63 110 178
0.35614 0.20200 -1.06519 73 124 190
0.35958 0.19127 -1.06229 108 154 200
0.38042 0.19393 -1.06273 115 157 209
0.37028 0.18960 -1.06656 72 117 198
0.40055 0.18418 -1.05212 112 153 206
0.40400 0.17341 -1.04922 112 151 201
0.46358 0.15040 -1.00988 101 147 197
0.46015 0.16112 -1.01278 105 152 205
0.45682 0.15360 -1.01324 113 158 207
0.46691 0.15791 -1.00942 101 148 198
0.47017 0.14713 -1.00622 110 158 196
0.47804 0.14428 -1.00474 134 175 206
0.48629 0.13624 -0.98912 124 166 206
0.49922 0.12969 -0.98152 159 189 227
0.50393 0.12591 -0.97482 134 175 217
0.51177 0.12304 -0.97331 132 182 222
0.51935 0.12010 -0.97136 143 191 234
0.54619 0.11233 -0.97185 157 200 240
0.53609 0.10802 -0.97568 148 193 238
0.54286 0.10481 -0.97232 146 192 239
0.55491 0.10964 -0.97155 151 184 214
0.58571 0.11278 -1.00579 112 132 163
0.59494 0.11011 -1.00595 126 140 159
0.59846 0.09914 -1.00299 179 181 175
0.59667 0.10550 -0.99450 183 181 167
0.63365 0.10473 -1.02293 123 106 87
0.63816 0.10079 -1.01565 76 68 57
0.65739 0.10042 -1.03051 23 23 15
0.66098 0.08921 -1.02749 13 15 34
0.67833 0.07080 -0.96510 16 25 51
0.67481 0.08178 -0.96806 15 18 44
0.67141 0.07408 -0.96853 15 21 43
0.68174 0.07850 -0.96462 13 18 47
0.68867 0.07521 -0.96118 11 18 45
0.68256 0.06694 -0.95781 18 24 57
0.69287 0.07135 -0.95391 11 18 46
0.68835 0.06343 -0.95280 20 21 60
0.69866 0.06784 -0.94890 12 18 52
0.69537 0.06018 -0.94953 25 21 65
0.70568 0.06459 -0.94562 13 18 55
0.70373 0.05721 -0.94812 23 20 54
0.71405 0.06161 -0.94421 11 19 55
0.71065 0.05393 -0.94469 16 20 44
1.09687 -0.13681 -0.73121 23 40 63
1.08664 -0.14118 -0.73509 23 38 64
1.16777 -0.17608 -0.68012 45 72 111
1.16431 -0.16528 -0.68303 43 72 117
1.16095 -0.17286 -0.68350 43 72 116
1.15760 -0.18043 -0.68397 43 71 112
1.17263 -0.17936 -0.67498 42 64 84
1.18013 -0.18257 -0.67222 24 27 65
1.14138 -0.18672 -0.62858 125 127 121
1.22263 -0.18849 -0.69082 187 180 169
1.22614 -0.19945 -0.68786 196 180 174
1.47967 -0.29449 -0.60724 207 190 182
1.46918 -0.29897 -0.61121 205 187 187
1.47621 -0.30230 -0.60772 206 191 192
1.48324 -0.30564 -0.60423 206 193 193
1.48325 -0.29771 -0.60122 210 192 182
1.48682 -0.30883 -0.59822 208 195 194
1.49624 -0.30124 -0.60208 214 194 179
1.49982 -0.31240 -0.59907 210 197 198
1.50670 -0.30470 -0.60106 218 197 181
1.51028 -0.31588 -0.59804 212 199 199
1.51073 -0.30793 -0.59539 220 200 182
1.51431 -0.31909 -0.59238 214 200 199
1.52242 -0.31145 -0.59522 220 204 185
1.52601 -0.32263 -0.59220 214 200 201
1.52638 -0.31466 -0.58951 221 205 190
1.52996 -0.32583 -0.58649 214 200 200
-0.59542 0.52390 -1.19868 170 93 79
-0.59243 0.51459 -1.19617 179 98 53
-0.58395 0.51619 -1.18655 185 104 53
-0.58684 0.50967 -1.18695 183 100 42
-0.58097 0.50690 -1.18404 185 101 28
-0.57828 0.51212 -1.17983 186 98 42
-0.57531 0.50284 -1.17733 185 96 32
-0.57223 0.51059 -1.18060 181 88 43
-0.56628 0.50834 -1.17926 178 98 86
-0.56007 0.50752 -1.18214 199 167 182
-0.55741 0.48701 -1.12654 226 223 240
-0.55225 0.48127 -1.11469 240 242 249
-0.54372 0.48491 -1.11147 226 230 238
-0.54653 0.47856 -1.11186 239 242 243
-0.51415 0.45477 -1.07195 231 232 239
-0.52259 0.45117 -1.07514 240 240 244
-0.50832 0.45279 -1.07125 200 197 213
-0.50544 0.44382 -1.06883 189 185 203
-0.49093 0.44615 -1.06713 195 192 214
-0.43864 0.42523 -1.05203 232 230 236
-0.44715 0.42160 -1.05525 230 228 239
-0.44145 0.41890 -1.05242 230 230 240
-0.43575 0.41620 -1.04960 234 234 242
-0.43240 0.42392 -1.05357 234 230 216
-0.42755 0.41906 -1.04394 227 206 163
-0.41259 0.39078 -0.97674 198 98 43
-0.40704 0.38817 -0.97404 211 124 64
-0.36647 0.40019 -1.04199 224 136 91
-0.35948 0.39980 -1.04677 226 142 113
-0.35536 0.39394 -1.03368 238 171 154
-0.34757 0.39492 -1.04298 240 177 168
-0.34272 0.39049 -1.03456 211 126 89
-0.32600 0.40687 -1.09481 191 91 18
-0.32297 0.39743 -1.09226 185 85 9
-0.30144 0.39675 -1.08688 175 82 16
-0.29585 0.39332 -1.08189 167 75 46
-0.28518 0.39777 -1.10341 174 117 130
-0.27911 0.39497 -1.10062 198 181 204
-0.27002 0.39666 -1.11298 217 214 232
-0.26347 0.39446 -1.11228 221 219 234
-0.25501 0.39497 -1.12084 198 188 198
-0.24251 0.40106 -1.14849 146 96 126
-0.22338 0.41595 -1.20654 125 57 102
-0.20595 0.41610 -1.22160 205 214 232
-0.20127 0.41072 -1.21036 207 213 226
-0.19072 0.41297 -1.22555 198 198 201
-0.18373 0.41055 -1.22460 163 147 132
-0.09898 0.28414 -0.93926 78 15 34
-0.10770 0.28041 -0.94257 79 10 26
-0.10822 0.26853 -0.88747 89 52 81
-0.09366 0.27325 -0.91302 133 135 157
-0.04639 0.24509 -0.87329 161 161 184
-0.05496 0.24143 -0.87654 162 162 189
-0.04921 0.23872 -0.87369 163 165 191
-0.04196 0.24143 -0.86669 154 146 157
-0.03072 0.24263 -0.87950 114 97 94
-0.02890 0.23712 -0.86548 78 68 44
-0.02304 0.23448 -0.86298 92 78 68
-0.01448 0.23367 -0.86787 147 145 158
-0.00203 0.23543 -0.88327 170 177 198
0.00093 0.22620 -0.88078 181 186 210
0.00759 0.23517 -0.89062 173 175 194
0.01357 0.23248 -0.88806 175 177 196
0.02888 0.22920 -0.89167 164 178 200
0.04006 0.22972 -0.90250 114 110 158
0.04674 0.22736 -0.90147 75 74 157
0.05636 0.22679 -0.90793 107 124 163
0.06095 0.22314 -0.90148 64 78 120
0.06747 0.22065 -0.89994 75 86 103
0.07466 0.21854 -0.90003 75 84 143
0.08455 0.21796 -0.90669 110 91 127
0.09568 0.21801 -0.91618 156 158 169
0.10707 0.21813 -0.92608 175 184 199
0.11603 0.21683 -0.92992 180 185 208
0.12444 0.21518 -0.93235 188 188 205
0.14528 0.22014 -0.96382 121 123 174
0.15392 0.21846 -0.96632 69 77 133
0.16251 0.21671 -0.96862 82 100 147
0.17565 0.21726 -0.98118 131 151 198
0.18829 0.21746 -0.99236 168 182 220
0.19746 0.21584 -0.99549 184 194 217
0.20341 0.21260 -0.99136 159 156 174
0.25993 0.23382 -1.09864 113 62 84
0.25723 0.22613 -1.07468 92 17 53
0.26526 0.22361 -1.07432 94 36 85
0.26584 0.21762 -1.05792 142 126 167
0.30198 0.22796 -1.11741 210 226 246
0.30116 0.22127 -1.09785 242 248 254
0.30949 0.21874 -1.09771 249 251 254
0.31076 0.21309 -1.08285 250 250 245
0.31671 0.20954 -1.07784 185 184 203
0.32451 0.20679 -1.07661 54 70 151
0.33008 0.20308 -1.07085 55 91 159
0.33278 0.19821 -1.05936 92 123 182
0.33998 0.19521 -1.05695 72 108 175
0.34340 0.18455 -1.05408 62 103 172
0.37599 0.18017 -1.04475 115 153 212
0.38289 0.17703 -1.04170 127 166 216
0.46224 0.14352 -1.01381 93 129 180
0.47917 0.12243 -0.96856 154 190 225
0.48257 0.11185 -0.96570 156 194 234
0.49368 0.11643 -0.96382 144 186 223
0.49708 0.10584 -0.96096 124 171 217
0.50159 0.11361 -0.96251 123 172 217
0.50956 0.11080 -0.96126 123 176 220
0.51999 0.10866 -0.96398 141 188 232
0.52341 0.09801 -0.96110 161 200 238
0.55149 0.10209 -0.97189 149 188 218
0.57727 0.10380 -0.99835 117 152 168
0.58076 0.09289 -0.99540 138 164 160
0.58565 0.10092 -0.99727 125 153 159
0.58916 0.08999 -0.99432 175 176 172
0.63520 0.09312 -1.01687 79 61 56
0.65365 0.09250 -1.03061 26 18 25
0.65724 0.08129 -1.02758 26 24 40
0.67519 0.06793 -0.97939 21 26 56
0.67165 0.07896 -0.98236 14 21 40
0.66822 0.07122 -0.98284 15 20 47
0.67542 0.06321 -0.96627 32 43 67
0.67894 0.05223 -0.96331 63 69 84
0.68232 0.05992 -0.96279 43 51 76
0.68758 0.05630 -0.95700 46 51 77
0.69110 0.04533 -0.95404 70 65 77
0.69461 0.05304 -0.95370 54 59 79
0.70169 0.04979 -0.95049 48 50 58
0.71027 0.04683 -0.94935 32 28 49
0.72061 0.05125 -0.94543 12 20 52
0.71720 0.04355 -0.94591 18 22 54
0.73270 0.03728 -0.94126 20 25 54
0.72918 0.04828 -0.94422 12 21 54
0.72576 0.04057 -0.94470 15 24 53
0.73612 0.04499 -0.94078 13 21 55
0.74306 0.04171 -0.93734 14 21 57
0.73818 0.03373 -0.93583 22 25 54
0.74852 0.03815 -0.93192 13 20 58
0.74249 0.02998 -0.92888 23 24 54
0.75281 0.03439 -0.92497 15 22 56
0.74481 0.02590 -0.91933 23 28 53
0.75510 0.03030 -0.91543 15 24 59
0.74635 0.02172 -0.90882 21 28 59
0.75660 0.02610 -0.90494 15 24 60
0.75322 0.01846 -0.90541 20 26 60
1.08840 -0.14465 -0.72677 22 39 66
1.09104 -0.14807 -0.71935 33 43 75
1.10122 -0.14372 -0.71549 43 51 74
1.08883 -0.15167 -0.70734 46 48 78
1.09896 -0.14734 -0.70351 47 52 77
1.09660 -0.15485 -0.70490 54 55 77
1.10673 -0.15052 -0.70106 50 57 80
1.10339 -0.15806 -0.70153 56 56 74
1.16608 -0.18362 -0.68208 46 71 104
1.15590 -0.18797 -0.68594 44 73 111
1.16955 -0.19443 -0.67916 30 41 85
1.17257 -0.18686 -0.67839 36 52 76
1.17974 -0.19008 -0.67532 50 44 60
1.20954 -0.19294 -0.69227 156 164 140
1.21305 -0.20389 -0.68932 200 185 181
1.21994 -0.19616 -0.69192 196 182 176
1.22345 -0.20713 -0.68896 200 184 178
-0.60423 0.51986 -1.20113 172 107 102
-0.61300 0.51612 -1.20445 188 150 182
-0.59868 0.51432 -1.19010 174 93 72
-0.59570 0.50505 -1.18760 178 97 55
-0.56892 0.50336 -1.18425 182 88 26
-0.57769 0.49962 -1.18757 190 97 44
-0.57181 0.49683 -1.18466 187 91 36
-0.56304 0.50056 -1.18130 181 92 70
-0.55869 0.48925 -1.15279 199 147 165
-0.55471 0.47679 -1.12069 228 220 237
-0.54961 0.47085 -1.10813 245 249 251
-0.54110 0.47448 -1.10491 228 224 235
-0.51789 0.44470 -1.06071 235 236 241
-0.52628 0.44111 -1.06388 246 247 250
-0.51181 0.44379 -1.06331 206 205 218
-0.49972 0.44135 -1.06666 192 188 205
-0.49389 0.43926 -1.06569 198 201 225
-0.48710 0.44032 -1.07450 209 209 227
-0.43062 0.41208 -1.04222 237 236 233
-0.43911 0.40846 -1.04543 230 230 241
-0.43342 0.40576 -1.04261 233 231 243
-0.42488 0.40953 -1.03985 225 212 185
-0.40847 0.38485 -0.98358 218 138 76
-0.38160 0.39771 -1.04308 222 133 83
-0.37691 0.39288 -1.03333 213 107 56
-0.36854 0.39528 -1.04730 225 137 87
-0.36310 0.39190 -1.04232 230 147 119
-0.36016 0.38275 -1.03985 239 153 108
-0.35760 0.38865 -1.03774 237 159 130
-0.35167 0.38620 -1.03582 233 155 130
-0.34500 0.38507 -1.03831 207 110 68
-0.33069 0.39720 -1.08502 190 88 17
-0.32767 0.38780 -1.08248 185 87 7
-0.30607 0.38740 -1.07811 166 72 17
-0.31494 0.38361 -1.08146 173 71 18
-0.30899 0.38080 -1.07851 169 69 17
-0.30010 0.38462 -1.07529 159 62 26
-0.29184 0.38538 -1.08449 172 94 91
-0.28132 0.38942 -1.10496 209 180 190
-0.27001 0.39436 -1.12866 234 233 241
-0.26476 0.39018 -1.12122 230 231 241
-0.25779 0.38851 -1.12241 197 188 200
-0.24956 0.38856 -1.12957 151 110 124
-0.20176 0.41868 -1.25609 164 174 221
-0.18788 0.41347 -1.25305 171 178 223
-0.18480 0.40600 -1.23444 165 164 198
-0.10070 0.27863 -0.94346 79 10 27
-0.10944 0.27490 -0.94677 78 11 31
-0.10358 0.27213 -0.94386 78 9 37
-0.09762 0.27351 -0.93150 82 25 60
-0.08819 0.26616 -0.91862 142 147 165
-0.07952 0.26986 -0.91534 146 148 171
-0.08238 0.26341 -0.91574 147 147 168
-0.08524 0.25696 -0.91613 147 148 169
-0.04131 0.23754 -0.87708 166 168 188
-0.04991 0.23387 -0.88033 166 172 193
-0.04415 0.23114 -0.87747 168 173 196
-0.03838 0.22841 -0.87462 168 176 199
-0.03497 0.23522 -0.87588 163 168 170
-0.02761 0.23360 -0.87752 162 161 145
-0.01941 0.23252 -0.88144 165 164 158
-0.01646 0.22332 -0.87896 171 176 200
-0.01263 0.23043 -0.88127 169 176 193
-0.00389 0.22962 -0.88642 174 180 202
0.01203 0.22684 -0.89207 171 185 209
0.01943 0.22503 -0.89322 181 188 203
0.02832 0.22413 -0.89823 95 106 156
0.03477 0.22166 -0.89672 82 73 111
0.03778 0.21230 -0.89419 79 80 105
0.04173 0.21950 -0.89647 67 71 114
0.04886 0.21742 -0.89665 59 62 110
0.05735 0.21613 -0.90020 89 95 114
0.05955 0.21112 -0.88782 62 42 55
0.07071 0.21133 -0.89791 43 28 68
0.08500 0.21322 -0.91548 119 122 150
0.08806 0.20367 -0.91290 177 187 207
0.09415 0.21211 -0.92012 168 176 198
0.10274 0.21064 -0.92325 179 183 207
0.11149 0.20922 -0.92667 174 189 211
0.11943 0.20732 -0.92802 170 182 192
0.14546 0.21493 -0.97189 92 97 123
0.15081 0.21150 -0.96667 33 33 73
0.16043 0.21026 -0.97136 22 29 82
0.16930 0.20860 -0.97419 88 107 150
0.18611 0.21086 -0.99495 150 165 199
0.19272 0.20796 -0.99232 169 179 204
0.20674 0.20865 -1.00624 134 123 151
0.24439 0.22050 -1.07207 99 43 69
0.24777 0.20997 -1.06923 88 17 46
0.24988 0.21681 -1.06623 92 17 45
0.25325 0.20629 -1.06339 94 21 56
0.25733 0.21404 -1.06469 86 16 54
0.26070 0.20351 -1.06185 104 20 61
0.27472 0.20959 -1.06685 137 107 164
0.32202 0.22448 -1.14956 177 182 240
0.31494 0.21504 -1.11663 194 208 244
0.30676 0.20529 -1.08191 202 224 238
0.30823 0.19984 -1.06766 152 160 197
0.31983 0.19871 -1.07431 41 54 154
0.31529 0.19084 -1.04804 73 118 182
0.32540 0.18907 -1.05163 187 211 212
0.32842 0.18442 -1.04095 136 148 173
0.34242 0.17835 -1.03559 99 152 198
0.34745 0.17454 -1.02905 69 116 192
0.36406 0.16945 -1.02871 81 129 202
0.37159 0.16659 -1.02698 94 143 210
0.37918 0.16374 -1.02535 83 131 210
0.38259 0.15313 -1.02248 117 150 206
0.43531 0.13916 -1.00319 107 153 210
0.42529 0.13488 -1.00698 99 141 201
0.43200 0.13170 -1.00365 96 142 207
0.43872 0.12852 -1.00032 97 145 205
0.44049 0.13549 -0.99715 106 152 205
0.45196 0.13381 -1.00213 97 136 190
0.45670 0.13000 -0.99533 120 138 184
0.47134 0.11369 -0.96137 140 180 218
0.48274 0.10685 -0.95161 132 179 222
0.49977 0.10158 -0.95112 136 181 223
0.50316 0.09102 -0.94827 170 205 241
0.50964 0.09929 -0.95301 156 196 232
0.51303 0.08870 -0.95015 165 203 243
0.53204 0.09532 -0.96082 161 198 240
0.54123 0.09277 -0.96137 171 203 225
0.56581 0.09410 -0.98612 142 177 177
0.59537 0.08656 -0.98985 179 165 152
0.58508 0.08217 -0.99374 174 167 167
0.61651 0.08669 -1.00823 156 137 105
0.63089 0.08513 -1.01604 105 87 50
0.64971 0.08454 -1.03039 44 34 27
0.65330 0.07334 -1.02737 27 20 35
0.66892 0.06437 -0.98933 19 19 53
0.66537 0.07543 -0.99232 15 19 45
0.66193 0.06767 -0.99280 17 19 47
0.65850 0.05991 -0.99328 24 24 44
0.66726 0.05925 -0.97335 28 29 64
0.66453 0.05397 -0.95600 46 60 76
0.68169 0.04811 -0.95394 62 63 77
0.67829 0.04044 -0.95442 53 64 90
0.68520 0.03717 -0.95099 61 70 91
0.69914 0.04226 -0.95216 65 60 64
0.70712 0.03918 -0.95019 46 50 53
0.71064 0.02820 -0.94722 24 34 60
0.71511 0.03609 -0.94821 27 27 60
0.72167 0.03274 -0.94424 25 30 62
0.72843 0.02942 -0.94056 35 42 61
0.73304 0.02573 -0.93398 39 43 64
0.73752 0.02203 -0.92725 40 44 64
0.74076 0.01813 -0.91893 43 44 67
0.74330 0.01414 -0.90973 47 48 67
0.74621 0.01024 -0.90109 34 33 63
0.75643 0.01461 -0.89722 15 25 63
0.75306 0.00699 -0.89769 22 27 64
1.03761 -0.13315 -0.74120 47 64 105
1.03414 -0.12235 -0.74411 44 62 105
1.03079 -0.12992 -0.74458 51 69 104
1.04096 -0.12558 -0.74073 39 61 107
1.05303 -0.13594 -0.74639 37 55 99
1.06267 -0.13905 -0.74576 28 50 90
1.06953 -0.14230 -0.74235 29 42 72
1.07936 -0.14896 -0.73176 36 45 73
1.07252 -0.14572 -0.73516 32 38 62
1.08541 -0.15574 -0.71762 42 50 84
1.08650 -0.15917 -0.70877 55 60 87
1.08995 -0.16994 -0.70587 68 77 95
1.09430 -0.16236 -0.70636 67 68 85
1.09776 -0.17312 -0.70346 63 72 89
1.13359 -0.17832 -0.69439 36 64 104
1.12677 -0.17509 -0.69778 33 51 86
1.13694 -0.17075 -0.69393 37 63 103
1.14376 -0.17398 -0.69054 38 68 109
1.14041 -0.18155 -0.69101 40 69 109
1.13705 -0.18912 -0.69148 44 72 109
1.16417 -0.19117 -0.68385 46 71 101
1.15398 -0.19553 -0.68771 46 74 111
1.17846 -0.19763 -0.67764 88 84 96
1.20777 -0.20059 -0.69419 177 180 162
1.21128 -0.21155 -0.69123 199 186 183
-0.60796 0.50549 -1.17828 160 72 63
-0.61664 0.50179 -1.18156 178 103 109
-0.60187 0.50517 -1.18262 170 96 58
-0.59890 0.49592 -1.18013 176 96 50
-0.56579 0.49487 -1.18422 186 89 38
-0.57458 0.49112 -1.18755 186 92 29
-0.56869 0.48833 -1.18463 186 93 23
-0.55979 0.49273 -1.18326 186 94 58
-0.55695 0.47355 -1.13058 201 136 135
-0.55227 0.46528 -1.11087 226 214 225
-0.54729 0.45899 -1.09709 243 244 250
-0.52136 0.43566 -1.05246 246 246 248
-0.52971 0.43209 -1.05562 252 251 252
-0.49695 0.43201 -1.06307 199 199 222
-0.49408 0.42304 -1.06065 204 206 223
-0.49023 0.43290 -1.07147 204 202 225
-0.42836 0.40156 -1.03490 230 229 237
-0.43682 0.39794 -1.03811 232 230 242
-0.43115 0.39526 -1.03529 231 229 241
-0.41818 0.39348 -1.02049 219 178 141
-0.41718 0.38040 -0.98374 211 131 92
-0.40552 0.39112 -1.02465 237 200 140
-0.39831 0.39171 -1.03260 246 217 183
-0.38741 0.38525 -1.02345 234 163 116
-0.37355 0.38465 -1.03372 220 120 61
-0.36719 0.38310 -1.03478 226 138 110
-0.35651 0.37615 -1.02404 231 140 95
-0.34347 0.38642 -1.06484 205 98 35
-0.34049 0.37713 -1.06233 192 89 8
-0.33608 0.38630 -1.07089 191 87 10
-0.33309 0.37697 -1.06837 185 88 5
-0.30500 0.37493 -1.06510 173 73 21
-0.29780 0.37409 -1.06893 185 92 57
-0.28502 0.38160 -1.10158 207 149 135
-0.27381 0.38638 -1.12502 228 209 217
-0.26690 0.38466 -1.12604 220 216 237
-0.26192 0.38012 -1.11732 189 181 200
-0.25538 0.37784 -1.11640 152 116 130
-0.23186 0.39876 -1.19689 122 48 59
-0.19284 0.40398 -1.24568 145 128 202
-0.18727 0.39967 -1.23812 155 143 210
-0.17780 0.40020 -1.24784 146 121 168
-0.20222 0.35976 -1.11045 95 54 75
-0.19302 0.36369 -1.10696 35 10 21
-0.19606 0.35684 -1.10738 39 10 18
-0.19909 0.34999 -1.10781 62 30 35
-0.09806 0.26908 -0.93987 79 16 45
-0.10679 0.26535 -0.94318 78 10 35
-0.13257 0.23302 -0.80635 90 63 92
-0.02907 0.22812 -0.88184 172 175 196
-0.03772 0.22443 -0.88511 167 172 199
-0.03192 0.22169 -0.88224 170 171 198
-0.02105 0.22690 -0.88525 171 175 199
-0.00609 0.22358 -0.88866 171 181 206
0.00180 0.22214 -0.89136 164 178 212
0.01100 0.22150 -0.89749 109 118 198
0.01399 0.21218 -0.89497 112 126 125
0.01705 0.21881 -0.89499 139 150 178
0.02531 0.21750 -0.89837 53 52 113
0.03332 0.21599 -0.90094 75 82 110
0.04692 0.21141 -0.89956 77 83 108
0.05629 0.21061 -0.90535 125 128 135
0.06661 0.21029 -0.91337 139 134 130
0.07498 0.20879 -0.91631 153 150 133
0.08457 0.20794 -0.92217 168 179 189
0.10006 0.20406 -0.92441 176 190 212
0.11603 0.20649 -0.94521 126 130 190
0.13166 0.20858 -0.96476 94 92 159
0.14046 0.20698 -0.96778 78 85 118
0.14765 0.20452 -0.96691 80 77 79
0.15632 0.20278 -0.96943 78 68 95
0.17034 0.20368 -0.98414 117 122 155
0.18236 0.20349 -0.99399 154 163 188
0.18933 0.20076 -0.99218 152 159 184
0.20314 0.20130 -1.00568 118 96 124
0.23096 0.20834 -1.04999 93 31 58
0.23430 0.19792 -1.04717 88 15 45
0.27561 0.20403 -1.07625 90 17 80
0.26561 0.19976 -1.08003 112 24 53
0.27231 0.19658 -1.07671 92 23 59
0.28072 0.20016 -1.06953 66 28 116
0.29312 0.19945 -1.07824 73 61 147
0.29654 0.18879 -1.07536 104 92 126
0.29748 0.19525 -1.06994 96 87 163
0.30608 0.19286 -1.07052 80 59 143
0.31799 0.19182 -1.07781 24 33 134
0.31143 0.18318 -1.04731 62 127 194
0.32210 0.18163 -1.05207 195 234 243
0.32871 0.17842 -1.04857 186 201 218
0.32953 0.17295 -1.03356 70 117 193
0.33292 0.16239 -1.03071 86 131 188
0.33506 0.16936 -1.02801 86 137 192
0.34220 0.16639 -1.02567 55 109 191
0.35241 0.16456 -1.02925 105 147 196
0.35697 0.16062 -1.02185 82 129 212
0.37131 0.15466 -1.01715 74 116 209
0.43684 0.12269 -0.98193 107 144 195
0.43489 0.11691 -0.96363 134 169 205
0.43254 0.11110 -0.94488 147 173 207
0.46250 0.10471 -0.95243 150 187 214
0.47018 0.10187 -0.95092 157 192 223
0.47887 0.09930 -0.95105 127 173 218
0.48224 0.08878 -0.94821 133 177 227
0.49196 0.09296 -0.94416 161 201 237
0.49533 0.08244 -0.94132 164 204 247
0.52268 0.08630 -0.95160 177 214 248
0.51269 0.08203 -0.95538 164 205 247
0.51939 0.07886 -0.95206 166 212 251
0.53020 0.08333 -0.94957 197 227 240
0.54752 0.08279 -0.96302 165 190 214
0.55096 0.07208 -0.96013 113 143 178
0.57122 0.08373 -0.98622 147 159 185
0.57470 0.07287 -0.98329 167 165 164
0.58857 0.07810 -0.98505 175 160 150
0.61600 0.07963 -1.01320 150 132 112
0.62801 0.07748 -1.01740 104 86 65
0.64588 0.07660 -1.03034 49 35 32
0.64947 0.06541 -1.02732 21 20 26
0.66284 0.05606 -0.98594 23 25 52
0.65243 0.05161 -0.98988 30 28 43
0.65940 0.04831 -0.98642 27 27 47
0.66357 0.05148 -0.97342 27 34 70
0.66247 0.04658 -0.95839 37 56 82
0.66919 0.04328 -0.95471 46 61 88
0.67269 0.03235 -0.95176 50 61 94
0.69412 0.03427 -0.95038 58 68 75
0.70305 0.03136 -0.94975 40 51 61
0.70657 0.02038 -0.94679 18 29 60
0.71806 0.02500 -0.94445 28 34 65
0.72419 0.02157 -0.93991 50 53 66
0.72771 0.01059 -0.93694 53 54 74
0.72823 0.01780 -0.93255 51 56 73
0.73169 0.01394 -0.92446 52 58 77
0.73613 0.01027 -0.91774 59 64 89
0.73860 0.00629 -0.90844 84 87 96
0.74152 0.00242 -0.89982 47 55 62
0.74561 -0.00126 -0.89281 22 31 68
0.75581 0.00310 -0.88895 15 28 59
0.75245 -0.00449 -0.88942 16 28 64
0.74908 -0.01209 -0.88989 18 34 63
1.01674 -0.13803 -0.73424 65 79 111
1.01330 -0.12730 -0.73714 48 66 104
1.00664 -0.14234 -0.73807 76 91 116
1.01341 -0.14555 -0.73471 75 91 117
1.02880 -0.14098 -0.73619 58 73 108
1.04124 -0.14394 -0.73845 41 57 103
1.05146 -0.14701 -0.73845 32 50 91
1.06050 -0.15016 -0.73724 37 42 73
1.07220 -0.15671 -0.72853 49 55 79
1.07567 -0.16753 -0.72561 53 66 86
1.07594 -0.16005 -0.72215 48 61 88
1.07940 -0.17086 -0.71923 53 75 102
1.08034 -0.16337 -0.71644 54 70 97
1.08380 -0.17415 -0.71352 57 78 109
1.08129 -0.16678 -0.70744 63 79 101
1.11511 -0.18285 -0.69051 37 58 90
1.11166 -0.17210 -0.69341 50 57 78
1.10833 -0.17964 -0.69388 48 57 80
1.10499 -0.18717 -0.69434 43 59 89
1.11856 -0.19360 -0.68761 42 72 111
1.12519 -0.18600 -0.69020 40 69 108
1.12865 -0.19677 -0.68729 42 72 108
1.16168 -0.19875 -0.68511 46 70 93
1.16770 -0.20199 -0.68099 36 44 85
1.18534 -0.20512 -0.68727 121 126 134
1.19927 -0.20832 -0.69014 183 179 173
1.20277 -0.21924 -0.68719 201 188 184
-0.61104 0.49704 -1.17271 159 82 40
-0.61969 0.49335 -1.17598 169 88 50
-0.61389 0.49060 -1.17311 166 91 47
-0.60809 0.48785 -1.17023 170 95 40
-0.60488 0.49740 -1.17917 169 98 48
-0.60192 0.48817 -1.17668 174 95 38
-0.56299 0.48445 -1.17837 190 93 21
-0.57176 0.48070 -1.18169 184 94 13
-0.56588 0.47792 -1.17877 186 92 16
-0.56001 0.47514 -1.17585 188 87 23
-0.55750 0.47957 -1.16904 190 96 39
-0.54755 0.46525 -1.13621 213 193 214
-0.54521 0.44618 -1.08291 231 232 243
-0.53678 0.44978 -1.07972 246 247 248
-0.54013 0.44090 -1.07202 245 247 251
-0.53174 0.44448 -1.06884 247 247 248
-0.53451 0.43823 -1.06922 249 251 252
-0.52475 0.42689 -1.04488 251 250 250
-0.53306 0.42334 -1.04803 250 250 252
-0.51841 0.42718 -1.05130 222 221 233
-0.51260 0.42532 -1.05099 192 187 207
-0.50975 0.41643 -1.04859 184 175 204
-0.42169 0.38553 -1.01537 232 226 224
