ply
format ascii 1.0
element face 0
property list uchar int vertex_indices
element vertex 1295
property float x
property float y
property float z
property uchar diffuse_red
property uchar diffuse_green
property uchar diffuse_blue
end_header
-0.38708 0.44351 -1.03786 254 178 45
-0.37818 0.44200 -1.03815 252 181 57
-0.36217 0.45507 -1.07095 253 205 127
-0.35759 0.44448 -1.05103 254 247 218
-0.35199 0.43286 -1.04915 254 254 250
-0.34840 0.44333 -1.05216 253 250 221
-0.33845 0.44357 -1.05644 254 247 202
-0.32500 0.45044 -1.07558 253 237 158
-0.30365 0.47184 -1.12745 252 166 34
-0.29785 0.45981 -1.12550 250 145 35
-0.29500 0.46892 -1.12477 251 142 46
-0.27574 0.48532 -1.16561 252 217 189
-0.26058 0.49373 -1.18857 254 251 246
-0.25462 0.48137 -1.18657 254 254 254
-0.25316 0.48813 -1.17994 254 253 249
-0.24111 0.47244 -1.15242 253 248 249
-0.24293 0.45165 -1.10920 206 182 235
-0.23695 0.44432 -1.09647 213 210 242
-0.22032 0.43751 -1.08885 248 214 181
-0.17481 0.49285 -1.21932 198 96 67
-0.18770 0.45564 -1.13832 139 41 24
-0.18180 0.44340 -1.13634 110 43 41
-0.17837 0.45347 -1.13743 98 51 48
-0.11864 0.30612 -0.85870 131 51 76
-0.12924 0.30044 -0.86194 118 47 55
-0.09288 0.32496 -0.90700 154 119 132
-0.08994 0.31594 -0.88968 198 195 202
-0.07212 0.30021 -0.86426 163 136 130
-0.07060 0.27839 -0.82021 141 106 109
-0.04576 0.29450 -0.86259 184 184 177
-0.04434 0.28448 -0.84262 237 238 208
-0.03898 0.27334 -0.84082 249 247 245
-0.03810 0.27986 -0.83555 246 238 201
-0.03283 0.27424 -0.82605 207 182 165
-0.02749 0.26316 -0.82426 241 250 230
-0.01887 0.27788 -0.83879 194 158 156
-0.01249 0.27345 -0.83216 234 246 251
0.01591 0.26975 -0.83536 194 210 236
0.03091 0.27395 -0.84964 176 193 228
0.03924 0.27143 -0.84765 205 190 179
0.04609 0.26746 -0.84214 73 69 53
0.05941 0.26975 -0.85187 180 187 136
0.06506 0.26462 -0.84353 71 74 47
0.08271 0.27084 -0.86293 131 158 138
0.08940 0.26666 -0.85693 101 107 140
0.10860 0.27403 -0.87928 177 152 197
0.11415 0.26252 -0.87742 248 252 251
0.13283 0.28574 -0.91242 239 239 246
0.16383 0.29268 -0.93838 231 233 248
0.18005 0.29657 -0.95249 236 234 241
0.19102 0.29574 -0.95497 249 250 251
0.23709 0.31451 -1.01084 193 119 99
0.24373 0.30969 -1.00349 213 192 201
0.29029 0.33818 -1.07944 246 248 254
0.73988 0.28927 -1.15000 251 246 239
0.76520 0.28592 -1.15274 250 254 253
0.80376 0.27227 -1.13946 206 181 225
0.83769 0.27329 -1.15442 159 181 173
0.78205 0.23524 -1.05549 179 202 214
0.79011 0.23126 -1.05040 181 195 221
0.80093 0.22872 -1.04931 183 197 222
0.81148 0.22603 -1.04782 183 194 221
0.82048 0.22254 -1.04410 180 192 217
0.82993 0.21928 -1.04102 178 191 218
0.84016 0.21642 -1.03903 181 191 201
0.82747 0.20216 -1.00506 80 85 120
0.86452 0.13021 -0.87194 104 89 111
0.87099 0.12603 -0.86586 169 159 144
0.88095 0.12340 -0.86426 204 186 155
0.89149 0.12101 -0.86337 207 183 152
0.90511 0.11994 -0.86634 198 176 148
0.91852 0.11874 -0.86897 196 173 150
0.93242 0.11771 -0.87214 196 170 149
0.94619 0.11659 -0.87509 198 168 148
0.95983 0.11539 -0.87780 200 167 148
0.96609 0.11111 -0.87143 199 165 146
0.97553 0.10816 -0.86896 197 163 145
0.98385 0.10475 -0.86515 187 151 133
0.99025 0.10057 -0.85904 177 140 120
0.99207 0.09460 -0.84752 167 128 101
0.98034 0.08335 -0.82006 155 110 85
0.96647 0.07142 -0.79039 138 90 71
0.96015 0.06255 -0.76985 125 86 51
0.98362 0.06519 -0.78416 117 82 47
0.99680 0.06384 -0.78639 113 83 54
0.99648 0.05737 -0.77304 115 88 61
1.00240 0.04509 -0.77105 149 139 127
0.98726 0.04764 -0.74965 128 114 85
0.99527 0.04441 -0.74606 133 126 91
1.02281 0.04832 -0.76452 93 75 32
1.03453 0.05461 -0.76094 67 65 72
1.03163 0.04533 -0.76174 76 66 56
1.15471 -0.01404 -0.68702 62 66 69
1.14600 -0.01108 -0.68977 69 69 63
1.14314 -0.02024 -0.69056 73 70 80
1.15757 -0.00488 -0.68624 54 58 54
1.16742 -0.01576 -0.68833 49 58 75
1.17474 -0.01915 -0.68417 69 86 95
1.19394 -0.01892 -0.69191 123 146 146
1.20967 -0.01980 -0.69609 101 150 193
1.21825 -0.02285 -0.69310 88 150 222
1.22829 -0.02547 -0.69156 91 153 227
1.24014 -0.02756 -0.69177 97 157 217
1.25510 -0.02876 -0.69500 75 111 185
1.26341 -0.03192 -0.69170 83 137 193
1.27255 -0.03483 -0.68921 95 145 178
1.30229 -0.03190 -0.70648 88 104 129
1.37999 -0.02129 -0.75766 107 130 176
1.45618 -0.01168 -0.80623 225 224 239
1.47279 -0.01292 -0.81000 243 248 250
1.48530 -0.00621 -0.80618 254 254 254
1.49851 -0.01174 -0.82218 250 253 250
1.51111 -0.00498 -0.81833 254 254 254
1.50799 -0.01496 -0.81919 253 254 250
1.60495 -0.00686 -0.87254 252 254 246
1.59841 0.00671 -0.87474 254 254 252
1.59520 -0.00355 -0.87562 254 254 251
1.60815 0.00339 -0.87166 254 253 247
1.62422 -0.00772 -0.87809 249 242 238
1.60603 -0.01817 -0.84982 230 226 187
1.62995 -0.01787 -0.85952 210 173 102
1.63773 -0.02166 -0.85471 197 160 159
1.65507 -0.02308 -0.85839 237 207 158
1.66607 -0.02608 -0.85642 229 181 150
1.65597 -0.03423 -0.83591 246 253 254
1.66246 -0.04771 -0.83373 254 254 254
1.68735 -0.03794 -0.84023 254 254 253
1.68415 -0.04818 -0.84111 254 254 254
-0.61221 0.51475 -1.11779 254 253 249
-0.61778 0.52630 -1.11966 254 254 254
-0.62051 0.51757 -1.12041 254 254 254
-0.60311 0.51504 -1.12189 253 237 215
-0.59121 0.52574 -1.14853 252 196 140
-0.58110 0.52911 -1.15937 252 200 103
-0.57326 0.52400 -1.15186 254 217 149
-0.56601 0.51695 -1.14011 254 243 217
-0.55855 0.51084 -1.13039 254 253 254
-0.54739 0.51682 -1.12698 254 254 254
-0.55015 0.50799 -1.12774 254 254 254
-0.43873 0.47643 -1.10556 254 254 251
-0.44994 0.47042 -1.10899 254 254 254
-0.44151 0.46755 -1.10633 254 254 254
-0.42970 0.47498 -1.10605 254 252 221
-0.42123 0.47216 -1.10350 254 233 131
-0.41156 0.47209 -1.10709 253 196 46
-0.39732 0.43926 -1.04490 254 164 56
-0.38918 0.43612 -1.04155 254 188 73
-0.38111 0.43287 -1.03795 252 188 83
-0.36986 0.43613 -1.04901 254 222 161
-0.36145 0.43347 -1.04675 254 250 240
-0.34209 0.43306 -1.05336 254 254 248
-0.34484 0.42425 -1.05412 254 253 230
-0.33195 0.43359 -1.05836 254 249 213
-0.31062 0.45500 -1.11068 252 180 85
-0.26591 0.48009 -1.17959 252 239 224
-0.24719 0.47585 -1.17806 254 253 246
-0.24772 0.45689 -1.13878 244 220 220
-0.24186 0.44473 -1.13681 186 142 201
-0.23671 0.45773 -1.14474 190 173 209
-0.23193 0.44819 -1.12692 205 194 196
-0.22487 0.44254 -1.11800 244 239 229
-0.21618 0.43959 -1.11525 254 243 226
-0.20510 0.44040 -1.12118 209 134 127
-0.18334 0.45762 -1.16505 159 49 40
-0.11683 0.30314 -0.87228 126 39 57
-0.12749 0.29743 -0.87554 115 42 55
-0.10370 0.30657 -0.88439 136 73 95
-0.09213 0.30798 -0.89176 191 183 182
-0.08204 0.30756 -0.89477 206 197 197
-0.07500 0.30354 -0.88920 194 182 183
-0.06687 0.30079 -0.88666 206 201 188
-0.06143 0.28949 -0.88483 221 221 225
-0.06307 0.29316 -0.87239 220 220 213
-0.05765 0.28192 -0.87057 224 225 228
-0.05803 0.28702 -0.86168 227 222 206
-0.05263 0.27582 -0.85987 227 229 234
-0.05297 0.28100 -0.85121 232 234 226
-0.04759 0.26984 -0.84940 232 232 238
-0.04635 0.27675 -0.84500 241 244 242
-0.03403 0.26738 -0.83043 251 250 240
-0.01489 0.26528 -0.83346 234 248 252
-0.00229 0.26728 -0.84245 242 246 239
0.01703 0.27598 -0.86780 167 146 181
0.01638 0.26441 -0.84370 75 89 91
0.02273 0.25997 -0.83700 16 42 103
0.04160 0.26783 -0.86045 167 170 186
0.04587 0.26131 -0.84867 82 101 77
0.05957 0.26391 -0.85929 138 174 145
0.06208 0.25579 -0.84352 86 68 64
0.09038 0.27192 -0.88764 192 212 183
0.10269 0.27283 -0.89426 234 233 217
0.11447 0.27318 -0.89951 238 244 239
0.14251 0.27766 -0.91954 227 245 245
0.16692 0.28892 -0.95214 194 207 224
0.17010 0.28132 -0.93769 189 182 206
0.19491 0.29251 -0.97029 228 233 243
0.20071 0.28048 -0.96834 246 251 250
0.20802 0.29339 -0.97716 250 244 231
0.23320 0.30441 -1.00954 201 134 167
0.24496 0.30388 -1.01299 203 155 194
0.28338 0.32538 -1.07207 236 230 241
0.30219 0.33029 -1.08944 252 254 254
0.31432 0.33680 -1.08573 254 254 254
0.31132 0.32719 -1.08656 254 254 254
0.30832 0.31759 -1.08738 254 254 254
0.73299 0.28582 -1.16352 253 253 252
0.72642 0.29946 -1.16573 254 254 254
0.72319 0.28915 -1.16661 254 254 254
0.74108 0.28152 -1.15777 246 233 227
0.74969 0.27753 -1.15286 250 215 183
0.76432 0.27693 -1.15724 253 253 250
0.80816 0.25749 -1.13404 68 72 110
0.77507 0.22323 -1.05070 87 111 165
0.78143 0.21003 -1.04857 75 100 158
0.78171 0.21853 -1.04357 91 112 176
0.78806 0.20535 -1.04144 73 102 165
0.80220 0.21289 -1.03984 108 126 182
0.80706 0.20734 -1.03027 116 131 185
0.81646 0.20411 -1.02722 121 140 192
0.82632 0.20110 -1.02482 124 139 180
0.83927 0.11789 -0.85832 45 60 107
0.83034 0.12092 -0.86114 71 83 109
0.82740 0.11152 -0.86195 59 64 89
0.85429 0.11753 -0.86336 91 117 162
0.87064 0.11771 -0.87002 184 211 223
0.87877 0.11427 -0.86606 237 247 241
0.88942 0.11192 -0.86531 246 247 238
0.90032 0.10967 -0.86486 248 247 239
0.91174 0.10762 -0.86502 250 246 239
0.92372 0.10578 -0.86585 251 245 238
0.93549 0.10384 -0.86638 251 245 238
0.94634 0.10149 -0.86572 252 244 238
0.95570 0.09853 -0.86322 252 244 238
0.95877 0.09303 -0.85307 251 242 235
0.95982 0.08677 -0.84056 249 239 230
0.95603 0.07865 -0.82238 246 236 222
0.94597 0.06816 -0.79689 242 232 208
0.94092 0.05976 -0.77762 238 225 196
0.93845 0.05243 -0.76158 232 217 186
0.93888 0.04630 -0.74910 227 214 172
0.94549 0.04256 -0.74395 220 207 162
0.95225 0.03889 -0.73898 207 195 155
0.96248 0.03653 -0.73804 177 159 132
0.97962 0.03055 -0.73233 153 152 145
1.00169 0.03245 -0.74472 143 129 103
1.02647 0.03524 -0.76000 94 75 79
1.03817 0.04151 -0.75642 69 69 65
1.03528 0.03224 -0.75722 71 64 62
1.03238 0.02297 -0.75801 69 61 68
1.14786 -0.02442 -0.68375 66 63 81
1.16125 -0.02594 -0.68577 41 58 94
1.17588 -0.02711 -0.68899 75 112 157
1.18103 -0.03116 -0.68264 190 222 213
1.19373 -0.03293 -0.68386 146 181 219
1.21144 -0.03325 -0.69001 99 162 239
1.21571 -0.03755 -0.68280 97 170 244
1.22687 -0.03983 -0.68239 100 173 230
1.25353 -0.03767 -0.69710 78 123 198
1.25964 -0.04145 -0.69166 90 143 203
1.26785 -0.04463 -0.68827 99 142 173
1.30901 -0.03859 -0.71656 68 51 57
1.31796 -0.04163 -0.71373 60 43 62
1.32692 -0.04467 -0.71090 51 50 83
1.47230 -0.02212 -0.81330 203 206 197
1.49707 -0.02126 -0.82461 228 223 220
1.51995 -0.02097 -0.83401 240 242 235
1.53263 -0.01418 -0.83013 254 254 252
1.55069 -0.01870 -0.85051 246 251 240
1.57239 -0.01886 -0.85854 246 251 241
1.58261 -0.02774 -0.84417 228 209 194
1.58666 -0.03241 -0.83610 213 181 154
1.60167 -0.03434 -0.83790 220 185 166
1.61293 -0.03721 -0.83631 246 229 220
1.63121 -0.04401 -0.82934 243 213 182
1.63101 -0.04964 -0.81766 252 254 254
1.63745 -0.06300 -0.81549 254 254 254
1.79431 -0.03383 -0.91307 218 180 200
-0.62458 0.50326 -1.10907 254 254 252
-0.63013 0.51476 -1.11093 254 254 254
-0.63285 0.50607 -1.11168 254 254 254
-0.63557 0.49737 -1.11242 254 254 254
-0.61446 0.50797 -1.12281 253 236 230
-0.60252 0.51929 -1.15095 252 183 163
-0.59113 0.52771 -1.17290 252 168 88
-0.58543 0.51588 -1.17098 254 188 92
-0.58224 0.52625 -1.17333 253 191 95
-0.57294 0.52622 -1.17690 253 188 99
-0.56636 0.51651 -1.15930 252 197 131
-0.56061 0.50440 -1.13638 253 241 209
-0.43246 0.46613 -1.10689 254 254 251
-0.44369 0.46011 -1.11033 254 254 254
-0.43524 0.45724 -1.10766 254 254 254
-0.42349 0.46449 -1.10700 254 252 220
-0.41689 0.45735 -1.09475 254 239 148
-0.41329 0.44364 -1.06767 253 195 93
-0.41200 0.42528 -1.03005 252 154 21
-0.39954 0.43163 -1.04811 254 177 47
-0.38707 0.43767 -1.06550 254 199 94
-0.37871 0.43482 -1.06286 252 194 106
-0.37177 0.42907 -1.05363 253 229 183
-0.36277 0.42756 -1.05399 253 251 245
-0.35278 0.42794 -1.05867 253 253 247
-0.33499 0.42422 -1.05790 254 252 224
-0.31361 0.44566 -1.11075 252 196 123
-0.30193 0.44845 -1.12109 252 149 27
-0.29320 0.44570 -1.11880 252 154 67
-0.28169 0.44791 -1.12788 254 223 212
-0.26155 0.46502 -1.17125 254 252 254
-0.25563 0.45273 -1.16926 254 253 250
-0.25255 0.46233 -1.16919 254 252 242
-0.24798 0.45212 -1.14977 230 203 205
-0.22939 0.44788 -1.14822 210 201 220
-0.21747 0.44996 -1.15718 246 249 245
-0.21155 0.43768 -1.15519 254 254 254
-0.20892 0.44653 -1.15340 254 253 248
-0.20274 0.43939 -1.14098 246 223 192
-0.17969 0.45840 -1.18945 192 99 73
-0.15589 0.46110 -1.20433 84 47 54
-0.11438 0.30088 -0.88783 125 30 58
-0.12511 0.29514 -0.89111 109 44 54
-0.10354 0.30146 -0.89324 134 58 94
-0.09273 0.30190 -0.89838 180 167 183
-0.08301 0.30100 -0.90031 212 212 213
-0.07754 0.28967 -0.89848 217 216 219
-0.07601 0.29692 -0.89455 219 215 214
-0.07055 0.28559 -0.89272 218 220 223
-0.06865 0.29327 -0.88984 222 222 217
-0.06320 0.28196 -0.88801 220 223 226
-0.04072 0.26588 -0.84387 238 239 244
-0.05136 0.26018 -0.84712 233 235 238
-0.03388 0.26193 -0.83833 220 230 245
-0.02458 0.26056 -0.83912 167 139 226
-0.00324 0.27161 -0.87038 141 134 205
-0.00257 0.26123 -0.84910 204 196 229
0.01504 0.26811 -0.87025 118 133 166
0.02474 0.26689 -0.87150 152 143 120
0.01896 0.25040 -0.83499 79 43 68
0.03447 0.25493 -0.85046 148 154 146
0.05302 0.26222 -0.87282 133 122 125
0.05159 0.25029 -0.84750 88 63 89
0.06959 0.25682 -0.86808 156 131 152
0.08251 0.25843 -0.87647 230 242 227
0.10125 0.26528 -0.89799 217 210 217
0.10712 0.26023 -0.88980 201 174 195
0.12476 0.26579 -0.90822 226 230 224
0.13803 0.26728 -0.91651 166 166 173
0.15133 0.26871 -0.92466 143 138 164
0.16272 0.26838 -0.92841 134 111 152
0.19523 0.28614 -0.97796 203 212 229
0.20105 0.27407 -0.97601 249 247 249
0.23258 0.29705 -1.01520 239 213 209
0.25187 0.30275 -1.03455 196 125 142
0.25749 0.29702 -1.02485 216 199 213
0.29678 0.31873 -1.08525 247 252 254
0.30289 0.30605 -1.08320 253 254 254
0.72694 0.28287 -1.17856 254 254 254
0.72034 0.29656 -1.18078 254 254 254
0.71710 0.28621 -1.18167 254 254 254
0.73068 0.27604 -1.16585 251 252 253
0.73904 0.27190 -1.16051 223 226 232
0.74684 0.26745 -1.15432 244 233 195
0.76925 0.26237 -1.15251 244 228 178
0.80950 0.24961 -1.14171 62 69 99
0.78028 0.19343 -1.01364 76 106 168
0.77720 0.18357 -1.01449 80 112 172
0.78657 0.18039 -1.01153 85 113 176
0.79565 0.18539 -1.00294 83 113 175
0.79071 0.16753 -0.96393 66 70 107
0.83904 0.10968 -0.86266 32 35 62
0.83610 0.10027 -0.86347 37 35 46
0.85323 0.10892 -0.86662 39 64 110
0.86508 0.10712 -0.86749 111 156 206
0.87673 0.10520 -0.86805 178 203 250
0.88573 0.10214 -0.86521 192 204 249
0.89719 0.10011 -0.86547 205 227 251
0.90877 0.09812 -0.86584 217 246 254
0.92074 0.09626 -0.86666 217 248 254
0.93251 0.09431 -0.86719 215 248 254
0.94336 0.09196 -0.86654 216 248 254
0.95272 0.08899 -0.86404 227 251 254
0.95580 0.08353 -0.85389 241 253 254
0.95948 0.07834 -0.84455 244 253 253
0.95717 0.07085 -0.82809 234 249 249
0.95403 0.06311 -0.81081 229 248 247
0.94711 0.05401 -0.78920 230 250 247
0.94330 0.04620 -0.77150 228 249 245
0.94148 0.03922 -0.75630 221 248 239
0.94415 0.03400 -0.74650 208 222 225
0.94942 0.02978 -0.73979 174 162 191
0.96732 0.03023 -0.74770 119 111 145
0.98151 0.02926 -0.75123 99 96 128
0.98952 0.02603 -0.74764 110 109 154
0.99881 0.02326 -0.74551 126 108 147
1.00467 0.01110 -0.74354 69 59 80
1.01836 0.02412 -0.75493 84 65 90
1.02426 0.01189 -0.75295 68 63 74
1.13112 -0.03221 -0.68194 64 68 71
1.12531 -0.02014 -0.68390 65 72 72
1.12246 -0.02926 -0.68468 50 66 80
1.14063 -0.03490 -0.68007 100 93 87
1.16138 -0.03420 -0.68960 89 125 159
1.17077 -0.03697 -0.68752 97 157 222
1.17919 -0.04002 -0.68446 202 248 244
1.18834 -0.04286 -0.68214 152 189 240
1.20091 -0.04471 -0.68321 107 172 249
1.20678 -0.05688 -0.68123 111 192 254
1.20802 -0.04815 -0.67883 105 184 253
1.21713 -0.05101 -0.67643 107 187 243
1.24654 -0.04813 -0.69390 85 134 214
1.25482 -0.05128 -0.69059 89 148 210
1.26379 -0.05423 -0.68795 119 165 194
1.29940 -0.04984 -0.71096 137 114 75
1.30689 -0.05327 -0.70676 139 94 61
1.51750 -0.03652 -0.82370 206 202 198
1.54662 -0.03477 -0.83869 202 205 197
1.55521 -0.03827 -0.83476 213 188 162
1.56883 -0.04052 -0.83541 213 194 162
1.58241 -0.04279 -0.83598 231 203 183
1.59612 -0.04505 -0.83664 248 225 226
1.59142 -0.05180 -0.82079 253 250 241
1.60690 -0.05363 -0.82303 216 188 216
1.60067 -0.06066 -0.80600 240 225 219
1.61561 -0.06263 -0.80775 254 253 253
-0.62729 0.49462 -1.10994 254 247 244
-0.61504 0.50791 -1.14259 252 206 182
-0.60402 0.51544 -1.16270 250 146 81
-0.59457 0.51635 -1.16834 253 164 69
-0.57491 0.52022 -1.18422 253 182 79
-0.56918 0.50832 -1.18229 254 172 53
-0.56786 0.51211 -1.17003 252 176 71
-0.55925 0.50954 -1.16806 253 203 118
-0.42736 0.45304 -1.10199 254 254 251
-0.43858 0.44703 -1.10542 254 254 254
-0.43014 0.44416 -1.10275 254 254 254
-0.42170 0.44129 -1.10008 254 254 253
-0.42053 0.44651 -1.09104 254 253 232
-0.41142 0.44522 -1.09193 254 234 160
-0.41136 0.42398 -1.04751 251 177 28
-0.40161 0.42432 -1.05208 252 179 46
-0.38771 0.43333 -1.07643 254 222 108
-0.38232 0.42423 -1.05953 252 207 134
-0.37672 0.41261 -1.05764 253 245 173
-0.37667 0.41590 -1.04431 254 243 184
-0.36724 0.41533 -1.04686 250 237 208
-0.35825 0.41380 -1.04721 250 235 189
-0.34799 0.41469 -1.05313 252 249 230
-0.33892 0.41318 -1.05356 254 253 225
-0.31747 0.43471 -1.10710 253 206 121
-0.30750 0.43437 -1.11033 254 160 22
-0.30174 0.42242 -1.10840 253 149 13
-0.29795 0.43319 -1.11163 253 145 32
-0.28734 0.43382 -1.11716 253 201 138
-0.26543 0.45404 -1.16812 254 244 231
-0.24738 0.44878 -1.16425 251 234 222
-0.23502 0.45166 -1.17518 221 153 188
-0.22800 0.44564 -1.16534 228 202 226
-0.21725 0.44571 -1.16974 249 251 253
-0.21130 0.43337 -1.16774 254 254 254
-0.19805 0.44197 -1.16952 254 245 215
-0.17960 0.45364 -1.20122 199 126 88
-0.16276 0.46243 -1.22627 131 35 21
-0.15046 0.46410 -1.23464 92 37 42
-0.13755 0.46654 -1.24486 74 54 55
-0.12534 0.47308 -1.24113 74 63 54
-0.12836 0.46342 -1.24196 72 59 53
-0.13139 0.45376 -1.24279 69 54 58
-0.11063 0.30013 -0.90728 122 34 53
-0.12144 0.29433 -0.91059 101 45 53
-0.11330 0.29157 -0.90802 125 41 51
-0.09882 0.30173 -0.91530 126 47 84
-0.08616 0.30423 -0.92555 163 134 163
-0.08374 0.29470 -0.90655 209 214 223
-0.07827 0.28333 -0.90471 219 218 221
-0.04184 0.25907 -0.84857 230 228 225
-0.05250 0.25336 -0.85183 235 236 239
-0.01392 0.27725 -0.89765 144 121 156
-0.01240 0.26752 -0.87790 73 53 93
0.00514 0.27439 -0.89920 76 105 169
-0.00186 0.25615 -0.85828 178 182 198
0.01773 0.25402 -0.86157 145 107 121
0.03121 0.25650 -0.87209 136 141 132
0.02794 0.24268 -0.84186 141 87 82
0.04334 0.24694 -0.85687 187 193 194
0.05588 0.24833 -0.86474 231 209 182
0.06136 0.23696 -0.86290 253 254 252
0.06566 0.24705 -0.86594 250 250 234
0.07513 0.24546 -0.86634 252 253 240
0.09724 0.25536 -0.89581 209 199 199
0.10658 0.25347 -0.89554 170 136 181
0.11931 0.25457 -0.90288 187 185 215
0.13330 0.25669 -0.91286 174 155 148
0.14946 0.26061 -0.92744 163 139 129
0.15561 0.25574 -0.91969 165 153 163
0.19284 0.27741 -0.97975 218 212 221
0.19866 0.26533 -0.97779 251 254 253
0.22652 0.28514 -1.00925 245 229 210
0.25546 0.29876 -1.04920 195 121 109
0.25509 0.28811 -1.02676 210 181 195
0.28580 0.30271 -1.06946 244 245 253
0.73007 0.35181 -1.34790 252 254 254
0.72311 0.36626 -1.35024 254 254 254
0.71969 0.35534 -1.35118 254 254 254
0.73348 0.36273 -1.34696 254 254 254
0.74386 0.35920 -1.34368 254 254 254
0.73637 0.34579 -1.33779 250 251 254
0.75013 0.35317 -1.33359 254 254 254
0.74490 0.34117 -1.33149 250 248 254
0.75864 0.34853 -1.32729 254 254 254
0.72663 0.27419 -1.18412 240 235 244
0.72641 0.26514 -1.16509 226 207 231
0.75533 0.27253 -1.19198 168 157 191
0.74310 0.25688 -1.15440 228 241 212
0.66135 0.17899 -0.95910 219 184 183
0.78219 0.16278 -0.97295 87 119 169
0.76991 0.15620 -0.97671 90 120 186
0.78083 0.14702 -0.93944 58 73 111
0.79054 0.12949 -0.90660 34 36 83
0.80256 0.13593 -0.90293 60 77 97
0.79661 0.11691 -0.90456 26 27 53
0.80481 0.10041 -0.85139 74 84 105
0.84821 0.09859 -0.86475 27 45 70
0.84526 0.08916 -0.86556 38 46 59
0.85847 0.09610 -0.86359 55 82 132
0.86933 0.09385 -0.86319 79 95 169
0.87953 0.09131 -0.86189 69 81 168
0.89490 0.09091 -0.86714 80 103 172
0.91163 0.09102 -0.87400 92 120 180
0.92291 0.08885 -0.87391 85 118 182
0.93484 0.08693 -0.87460 79 118 184
0.94691 0.08504 -0.87543 87 124 191
0.94415 0.07723 -0.85800 115 149 209
0.92174 0.06177 -0.81679 164 182 233
0.94617 0.06482 -0.83283 174 172 221
0.89785 0.03962 -0.76098 141 129 182
0.90453 0.03590 -0.75584 125 118 168
0.91169 0.03237 -0.75129 127 132 174
0.91963 0.02915 -0.74769 124 133 182
0.92537 0.02511 -0.74152 99 123 173
0.94345 0.02566 -0.74981 71 90 142
0.95879 0.02514 -0.75478 55 48 101
0.96464 0.01299 -0.75281 40 37 39
0.96494 0.02124 -0.74905 40 39 76
0.97078 0.00911 -0.74708 42 42 50
0.97346 0.01821 -0.74608 41 43 73
0.97930 0.00608 -0.74411 47 46 59
0.98807 0.01734 -0.75005 46 48 90
0.99828 0.01489 -0.74896 64 56 103
1.00414 0.00272 -0.74699 69 62 72
1.10437 -0.03746 -0.68137 50 47 70
1.09858 -0.02543 -0.68331 67 68 82
1.09573 -0.03452 -0.68410 55 59 79
1.11491 -0.03982 -0.68060 44 54 87
1.11936 -0.04403 -0.67355 62 93 128
1.13872 -0.04374 -0.68181 143 182 163
1.14454 -0.05581 -0.67986 137 204 250
1.14739 -0.04669 -0.67907 149 198 227
1.15321 -0.05876 -0.67712 138 211 252
1.16074 -0.04826 -0.68107 150 211 250
1.17147 -0.05062 -0.68037 167 224 250
1.18430 -0.05238 -0.68175 122 185 244
1.19436 -0.05496 -0.68034 108 185 253
1.20022 -0.06711 -0.67837 113 200 254
1.21108 -0.06110 -0.67410 113 198 249
1.23645 -0.05941 -0.68766 95 152 229
1.24643 -0.06208 -0.68604 90 150 216
1.48369 -0.04869 -0.80788 145 132 145
1.50211 -0.04962 -0.81322 157 130 139
1.52386 -0.04975 -0.82154 147 122 140
1.54457 -0.05020 -0.82878 171 167 177
1.56271 -0.05134 -0.83358 216 203 178
1.57771 -0.05328 -0.83545 237 226 213
1.58203 -0.05782 -0.82767 243 248 245
1.58900 -0.06170 -0.82230 245 246 238
1.57922 -0.06953 -0.80205 193 162 203
1.60280 -0.06946 -0.81152 225 236 234
1.59634 -0.07642 -0.79439 246 246 249
-0.63978 0.48221 -1.09893 254 254 249
-0.64530 0.49365 -1.10078 254 254 254
-0.64800 0.48500 -1.10152 254 254 254
-0.65070 0.47636 -1.10226 254 254 253
-0.62592 0.50302 -1.14838 253 230 208
-0.62030 0.49135 -1.14649 251 148 59
-0.61101 0.49003 -1.12696 252 139 28
-0.60541 0.47843 -1.12508 254 168 57
-0.59752 0.50681 -1.16774 254 168 60
-0.58774 0.50875 -1.17577 254 194 101
-0.57754 0.51189 -1.18646 254 185 82
-0.57180 0.49998 -1.18453 254 182 74
-0.56185 0.50127 -1.17037 253 176 69
-0.56465 0.49230 -1.17114 254 169 60
-0.55392 0.49642 -1.16333 253 209 134
-0.41837 0.42702 -1.07134 254 252 226
-0.42946 0.42107 -1.07473 254 254 254
-0.40628 0.43237 -1.08747 253 229 134
-0.40125 0.42223 -1.06808 250 191 74
-0.39311 0.41893 -1.06440 253 234 133
-0.38560 0.41434 -1.05774 252 231 174
-0.37061 0.40531 -1.04471 251 224 160
-0.36005 0.40688 -1.05226 252 233 165
-0.35123 0.40495 -1.05172 254 250 201
-0.34272 0.40241 -1.04976 254 242 179
-0.31796 0.43001 -1.11790 253 193 90
-0.31362 0.41933 -1.09713 254 157 17
-0.29350 0.41889 -1.10426 253 162 60
-0.27538 0.43254 -1.14030 253 216 171
-0.26095 0.43933 -1.16040 254 249 241
-0.25040 0.43930 -1.16458 254 252 246
-0.24008 0.43879 -1.16764 247 236 222
-0.22935 0.43887 -1.17212 246 230 216
-0.21691 0.44159 -1.18284 251 245 241
-0.19504 0.44183 -1.19212 254 253 243
-0.18739 0.43679 -1.18455 230 198 176
-0.17534 0.43843 -1.19285 168 75 64
-0.14975 0.46000 -1.24858 104 26 32
-0.13790 0.46078 -1.25498 73 44 51
-0.09724 0.29820 -0.92844 127 39 57
-0.10816 0.29234 -0.93178 122 44 51
-0.07838 0.30784 -0.95635 142 94 112
-0.08335 0.28967 -0.91603 202 207 214
-0.03885 0.25658 -0.86410 229 223 211
-0.04958 0.25083 -0.86738 235 237 238
-0.01983 0.26526 -0.89003 128 96 120
-0.01266 0.26145 -0.88487 113 97 93
-0.00559 0.25756 -0.87950 194 231 210
-0.00453 0.24764 -0.85901 186 185 192
0.00765 0.24896 -0.86667 149 123 133
0.00943 0.23995 -0.84839 132 90 70
0.02658 0.24603 -0.86808 141 145 111
0.02720 0.23602 -0.84722 186 155 155
0.03262 0.22476 -0.84540 253 254 253
0.04490 0.24239 -0.86776 239 249 243
0.05339 0.23992 -0.86594 253 252 246
0.07137 0.23587 -0.86462 228 246 246
0.09035 0.24286 -0.88696 232 230 216
0.10449 0.24530 -0.89778 133 115 169
0.11008 0.23371 -0.89591 154 142 172
0.11677 0.24597 -0.90413 138 153 194
0.12238 0.23434 -0.90224 156 112 155
0.12880 0.24634 -0.90974 180 167 169
0.14009 0.24601 -0.91356 168 154 177
0.17718 0.26770 -0.97416 187 196 215
0.19263 0.27052 -0.98632 232 244 243
0.19846 0.25842 -0.98436 254 254 254
0.21599 0.26956 -0.99364 254 245 226
0.25381 0.29040 -1.05276 205 134 146
0.26277 0.28735 -1.04993 196 126 162
0.27049 0.28331 -1.04449 230 218 232
0.29292 0.29094 -1.06957 251 254 254
0.30495 0.29739 -1.06589 254 254 254
0.30197 0.28786 -1.06671 254 254 254
0.29899 0.27833 -1.06753 254 254 254
0.71212 0.34185 -1.34503 253 251 243
0.70518 0.35626 -1.34736 254 254 254
0.70177 0.34537 -1.34830 254 254 253
0.69837 0.33448 -1.34924 254 254 234
0.70872 0.33096 -1.34597 254 254 229
0.72361 0.33903 -1.34368 247 238 216
0.73637 0.33697 -1.34445 243 224 187
0.73696 0.32757 -1.32487 242 226 195
0.74388 0.31321 -1.32254 254 253 231
0.72751 0.26616 -1.19158 211 180 203
0.75119 0.26162 -1.19151 158 141 174
0.74012 0.24672 -1.15565 227 240 227
0.74796 0.24234 -1.14956 250 226 194
0.75452 0.22874 -1.14736 254 254 253
0.77781 0.23267 -1.14113 155 137 155
0.77399 0.13559 -0.93490 78 105 151
0.77957 0.13084 -0.92712 67 84 122
0.78625 0.12663 -0.92092 50 53 91
0.78618 0.11934 -0.90551 31 29 58
0.78166 0.09600 -0.85448 40 55 89
0.79394 0.09450 -0.85625 52 72 97
0.79990 0.08214 -0.85425 29 34 59
0.79574 0.08837 -0.84405 54 69 88
0.80168 0.07606 -0.84205 29 35 52
0.85719 0.08737 -0.86657 37 47 81
0.84526 0.08097 -0.87022 36 42 58
0.87048 0.08612 -0.86927 35 41 91
0.88372 0.08482 -0.87183 29 35 91
0.88977 0.07226 -0.86980 47 51 63
0.89414 0.08233 -0.87076 29 40 90
0.90020 0.06976 -0.86872 49 54 63
0.90313 0.07924 -0.86786 31 46 90
0.90919 0.06667 -0.86582 47 50 58
0.91092 0.07567 -0.86345 28 44 88
0.91697 0.06311 -0.86142 45 47 57
0.91824 0.07192 -0.85848 29 44 92
0.92429 0.05938 -0.85645 47 50 61
0.92402 0.06758 -0.85163 29 43 97
0.93005 0.05505 -0.84960 51 50 63
0.92966 0.06320 -0.84465 34 48 107
0.93524 0.05882 -0.83766 48 57 118
0.93878 0.05368 -0.82824 49 52 109
0.93447 0.04557 -0.80942 39 37 87
0.93709 0.04019 -0.79911 35 34 76
0.93909 0.03461 -0.78816 38 41 82
0.94192 0.02939 -0.77828 36 42 88
0.94359 0.02378 -0.76712 30 41 87
0.95005 0.01997 -0.76168 30 34 71
0.95341 0.01505 -0.75265 37 30 44
0.98535 0.00218 -0.73833 56 55 69
0.98249 -0.00697 -0.73911 64 65 70
1.07461 -0.03805 -0.68928 44 54 66
1.06882 -0.02603 -0.69122 49 60 66
1.06598 -0.03512 -0.69200 34 54 74
1.07746 -0.02897 -0.68850 49 60 65
1.08609 -0.03190 -0.68577 56 62 82
1.08022 -0.04192 -0.68336 56 61 81
1.08908 -0.04478 -0.68088 53 68 99
1.09733 -0.04783 -0.67777 78 86 115
1.10267 -0.05175 -0.67165 106 135 164
1.12094 -0.05179 -0.67889 116 172 215
1.12674 -0.06383 -0.67694 120 205 254
1.12872 -0.05498 -0.67527 154 218 237
1.13452 -0.06702 -0.67332 111 200 254
1.16438 -0.06099 -0.67689 120 202 253
1.15284 -0.06718 -0.68042 109 199 252
1.16152 -0.07013 -0.67768 108 205 254
1.17021 -0.07308 -0.67493 113 208 254
1.17543 -0.06327 -0.67652 110 195 250
1.18126 -0.07538 -0.67456 114 210 254
1.18536 -0.06588 -0.67500 112 200 254
1.19120 -0.07799 -0.67304 115 210 254
1.20305 -0.07171 -0.66979 119 205 252
1.22659 -0.07058 -0.68161 96 164 238
1.23924 -0.07250 -0.68265 94 156 220
1.52073 -0.05975 -0.82240 169 139 135
1.53859 -0.06094 -0.82704 167 144 151
1.55489 -0.06255 -0.83019 189 174 170
1.56408 -0.06589 -0.82684 195 194 191
1.57636 -0.06849 -0.82627 199 208 212
1.57978 -0.07319 -0.81773 203 209 206
1.58618 -0.08649 -0.81557 145 109 148
1.57789 -0.07910 -0.80451 161 137 184
1.57582 -0.08500 -0.79123 185 195 218
1.66387 -0.09212 -0.81154 192 144 165
-0.69031 0.60169 -1.35251 254 254 254
-0.67839 0.60808 -1.34886 254 254 254
-0.68134 0.59864 -1.34968 254 254 254
-0.68430 0.58920 -1.35049 254 254 254
-0.64250 0.47351 -1.09956 254 243 236
-0.65342 0.46766 -1.10289 254 251 243
-0.63699 0.46208 -1.09770 252 170 97
-0.58980 0.50253 -1.18265 254 201 119
-0.60114 0.49645 -1.18611 254 153 49
-0.59261 0.49355 -1.18342 254 185 97
-0.58408 0.49065 -1.18072 254 200 121
-0.58112 0.50015 -1.18111 254 197 113
-0.57540 0.48826 -1.17918 254 194 97
-0.55632 0.48880 -1.16708 253 175 72
-0.55912 0.47984 -1.16785 254 168 66
-0.55287 0.46961 -1.12770 253 201 132
-0.42496 0.40966 -1.05230 254 254 251
-0.43597 0.40376 -1.05566 254 254 254
-0.42769 0.40094 -1.05305 254 254 254
-0.41940 0.39813 -1.05043 254 254 252
-0.42018 0.39918 -1.03197 254 252 226
-0.40388 0.41370 -1.06946 253 239 184
-0.39827 0.40206 -1.06758 254 254 249
-0.40422 0.39257 -1.02441 254 250 211
-0.39608 0.38962 -1.02145 254 250 228
-0.38557 0.39147 -1.02966 253 249 202
-0.37304 0.39717 -1.04687 252 221 142
-0.36283 0.39802 -1.05283 254 239 157
-0.35462 0.39494 -1.04962 254 244 181
-0.34336 0.39759 -1.05982 254 230 160
-0.32912 0.40557 -1.08257 253 179 64
-0.32079 0.40240 -1.07923 254 153 28
-0.31081 0.40223 -1.08291 254 150 20
-0.30511 0.39040 -1.08100 250 111 18
-0.30202 0.39985 -1.08143 252 139 19
-0.28989 0.40324 -1.09358 251 134 83
-0.26847 0.42222 -1.14261 252 213 202
-0.25420 0.42852 -1.16181 254 251 250
-0.24829 0.41627 -1.15983 254 254 254
-0.24290 0.42964 -1.16877 253 253 248
-0.23141 0.43094 -1.17621 250 246 239
-0.21846 0.43442 -1.18887 250 242 241
-0.20543 0.43783 -1.20143 252 250 251
-0.19397 0.43862 -1.20775 254 254 253
-0.18230 0.43960 -1.21458 252 236 212
-0.17794 0.42952 -1.19493 189 108 80
-0.14525 0.46144 -1.27607 110 25 19
-0.13579 0.45856 -1.27379 78 35 38
-0.12507 0.45747 -1.27582 69 50 52
-0.11272 0.46409 -1.27205 69 56 56
-0.11578 0.45431 -1.27289 65 53 54
-0.11884 0.44453 -1.27373 64 49 53
-0.09753 0.29239 -0.93620 126 33 55
-0.10849 0.28651 -0.93954 118 43 47
-0.08516 0.29438 -0.94547 135 64 103
-0.07970 0.28832 -0.93481 190 185 203
-0.07509 0.28139 -0.92195 219 218 224
-0.06416 0.28724 -0.91861 219 219 222
-0.06687 0.27859 -0.91936 221 221 221
-0.06957 0.26994 -0.92010 220 219 220
-0.03972 0.24996 -0.86953 236 230 217
-0.05048 0.24420 -0.87282 237 239 238
-0.00249 0.27744 -0.94309 176 152 133
-0.01888 0.24923 -0.87647 72 76 78
0.00521 0.26262 -0.91471 112 120 181
-0.00480 0.24151 -0.86578 86 49 141
0.00256 0.23802 -0.86136 187 182 139
0.01608 0.24054 -0.87221 186 150 97
0.02819 0.24159 -0.87935 229 228 206
0.03538 0.23786 -0.87435 252 254 237
0.05049 0.23113 -0.86620 253 254 254
0.05992 0.22951 -0.86659 241 246 235
0.06541 0.21812 -0.86475 169 127 102
0.09130 0.23745 -0.89622 180 164 155
0.10157 0.23638 -0.89812 135 93 162
0.10716 0.22479 -0.89624 174 162 173
0.13824 0.23795 -0.91636 172 149 171
0.17402 0.25834 -0.97424 223 231 234
0.17982 0.24632 -0.97230 252 254 254
0.18560 0.25787 -0.97797 250 253 253
0.19141 0.24582 -0.97601 254 254 254
0.21030 0.25805 -0.98839 254 254 248
0.24735 0.27812 -1.04610 250 224 210
0.26304 0.28050 -1.05754 201 136 159
0.27293 0.27817 -1.05660 214 201 219
0.28624 0.27850 -1.06271 246 251 254
0.29230 0.26593 -1.06068 253 254 254
0.74044 0.32080 -1.33727 254 251 207
0.69454 0.23909 -1.14496 234 203 170
0.72572 0.24773 -1.17599 223 170 120
0.73265 0.24279 -1.16832 167 135 148
0.73201 0.23376 -1.14887 215 230 231
0.74643 0.12181 -0.91682 96 131 196
0.75146 0.11687 -0.90837 97 129 181
0.75987 0.11354 -0.90470 91 119 161
0.75480 0.10401 -0.88240 80 103 140
0.77109 0.10433 -0.88969 64 83 112
0.81422 0.09532 -0.88809 29 30 50
0.82026 0.08278 -0.88606 38 23 57
0.86075 0.08064 -0.87581 40 43 64
0.84877 0.07422 -0.87947 33 19 30
0.85778 0.07116 -0.87663 36 22 30
0.87349 0.07913 -0.87777 40 44 64
0.88023 0.07512 -0.87199 44 48 63
0.93097 0.04888 -0.83686 50 42 54
0.92802 0.03945 -0.83767 76 85 74
0.93295 0.04317 -0.82554 44 36 41
0.93121 0.03611 -0.80982 41 31 41
0.93710 0.03197 -0.80343 42 31 43
0.93999 0.02675 -0.79349 44 35 43
0.94121 0.02095 -0.78166 47 38 49
0.94098 0.01467 -0.76824 50 49 53
0.94473 0.00989 -0.75959 55 51 53
0.94850 0.00515 -0.75105 57 45 47
0.95434 -0.00697 -0.74909 58 57 54
0.95381 0.00099 -0.74437 53 48 48
0.95964 -0.01111 -0.74241 54 54 62
0.96861 -0.00582 -0.73592 62 59 63
0.96575 -0.01495 -0.73671 55 56 63
0.98266 -0.01284 -0.72670 66 64 74
0.99417 -0.00667 -0.72318 66 63 70
0.98648 -0.01743 -0.71852 60 60 68
0.99796 -0.01127 -0.71501 60 66 68
0.98519 -0.02369 -0.70467 51 60 68
0.99661 -0.01757 -0.70118 58 66 68
0.98369 -0.02997 -0.69072 47 59 69
0.99505 -0.02388 -0.68725 58 65 71
0.98565 -0.03505 -0.68074 46 59 72
0.99697 -0.02898 -0.67728 59 63 68
0.98951 -0.03946 -0.67292 45 55 73
1.00080 -0.03341 -0.66946 54 60 62
1.00100 -0.04138 -0.67351 41 52 68
1.01231 -0.03532 -0.67005 49 57 65
1.00951 -0.04428 -0.67082 36 46 58
1.03490 -0.04181 -0.68638 39 42 57
1.03773 -0.03278 -0.68561 46 57 69
1.04632 -0.03570 -0.68290 41 56 75
1.04985 -0.04273 -0.69051 32 42 73
1.06169 -0.04465 -0.69124 28 52 91
1.06714 -0.04857 -0.68514 42 73 120
1.08004 -0.05018 -0.68694 79 120 144
1.08988 -0.05829 -0.67372 133 176 202
1.09565 -0.07026 -0.67178 117 202 253
1.09852 -0.06120 -0.67105 134 199 237
1.10429 -0.07317 -0.66911 108 205 253
1.11247 -0.06254 -0.67387 120 206 249
1.11826 -0.07455 -0.67192 109 204 253
1.19452 -0.08242 -0.66498 122 216 254
1.21580 -0.08195 -0.67464 103 175 242
1.22166 -0.09410 -0.67267 105 169 227
1.22729 -0.08417 -0.67457 100 164 222
1.42704 -0.07555 -0.77412 234 206 155
1.45996 -0.07284 -0.79325 227 200 162
1.48396 -0.07243 -0.80388 225 195 160
1.53781 -0.07041 -0.83007 221 193 162
1.55028 -0.07296 -0.82972 203 179 164
1.55666 -0.07696 -0.82382 187 168 159
1.56854 -0.07965 -0.82292 186 172 166
1.57589 -0.08341 -0.81792 188 170 162
1.57183 -0.09516 -0.79131 164 155 184
1.57686 -0.09937 -0.78440 178 158 170
1.55594 -0.10934 -0.75471 192 170 175
1.57819 -0.10966 -0.76308 212 191 173
1.58263 -0.11913 -0.74476 251 237 219
-0.69401 0.58785 -1.34359 254 254 254
-0.68801 0.57541 -1.34157 254 254 254
-0.64102 0.48306 -1.14098 253 224 190
-0.63542 0.47144 -1.13910 253 160 71
-0.55324 0.46846 -1.14591 253 175 90
-0.56447 0.46244 -1.14935 254 166 69
-0.55228 0.44215 -1.08994 252 192 139
-0.41853 0.37945 -1.01080 254 253 245
-0.42938 0.37364 -1.01411 254 254 254
-0.42122 0.37087 -1.01153 254 254 254
-0.41306 0.36810 -1.00896 254 254 254
-0.40195 0.37445 -1.00692 254 254 251
-0.40464 0.36586 -1.00766 254 254 254
-0.39180 0.37569 -1.01376 254 252 223
-0.37502 0.38992 -1.05114 253 228 141
-0.36467 0.39101 -1.05776 254 230 148
-0.35765 0.38561 -1.04908 254 245 159
-0.34335 0.39396 -1.07286 254 217 119
-0.33350 0.39371 -1.07638 254 177 44
-0.32624 0.38868 -1.06860 254 154 36
-0.31547 0.38996 -1.07579 253 132 19
-0.29954 0.38248 -1.06633 245 105 49
-0.27505 0.40675 -1.12841 249 193 178
-0.25660 0.42008 -1.16457 253 247 246
-0.23486 0.42074 -1.17494 244 235 237
-0.22119 0.42535 -1.19046 230 189 200
-0.20703 0.43049 -1.20730 238 224 230
-0.19477 0.43246 -1.21658 249 253 254
-0.18505 0.43043 -1.21623 253 250 238
-0.16598 0.44231 -1.24953 198 155 166
-0.13211 0.45854 -1.29826 85 30 22
-0.12326 0.45464 -1.29355 69 45 45
-0.11699 0.44162 -1.29144 65 51 44
-0.09991 0.28410 -0.93792 127 33 50
-0.11087 0.27823 -0.94127 113 42 50
-0.10263 0.27543 -0.93867 128 38 46
-0.08970 0.28358 -0.94100 131 51 90
-0.07518 0.28790 -0.95624 171 149 179
-0.07321 0.27790 -0.93564 212 217 225
-0.06767 0.26639 -0.93377 223 219 223
-0.04170 0.24216 -0.87207 242 238 235
-0.03088 0.24221 -0.87666 232 219 207
-0.00436 0.25819 -0.92180 157 140 128
-0.00700 0.24438 -0.89113 106 102 88
-0.00062 0.23979 -0.88394 182 152 165
0.00487 0.22841 -0.88210 253 254 254
0.00962 0.23903 -0.88654 243 254 226
0.01512 0.22763 -0.88469 252 253 253
0.01880 0.23721 -0.88642 254 252 216
0.02604 0.23350 -0.88145 254 251 249
0.03345 0.22997 -0.87694 250 249 251
0.04102 0.22661 -0.87287 230 245 249
0.04843 0.22311 -0.86844 236 246 244
0.07449 0.23667 -0.90823 204 189 186
0.09065 0.23058 -0.90183 192 182 183
0.09912 0.22787 -0.89953 155 162 188
0.12278 0.22826 -0.91011 176 168 187
0.16154 0.25133 -0.97549 210 196 205
0.16893 0.24735 -0.97003 242 243 244
0.20932 0.25042 -0.99324 254 254 254
0.20644 0.24123 -0.99403 253 254 254
0.22645 0.25422 -1.00846 252 242 215
0.26294 0.27333 -1.06442 209 168 122
0.27226 0.27051 -1.06222 213 199 192
0.28050 0.26684 -1.05777 242 245 249
0.61800 0.31495 -1.29993 253 254 252
0.61122 0.32903 -1.30222 254 254 254
0.60789 0.31839 -1.30313 254 254 254
0.62133 0.32559 -1.29902 254 254 254
0.63145 0.32215 -1.29583 254 254 254
0.63914 0.31848 -1.31622 254 254 252
0.65268 0.32574 -1.31208 254 254 253
0.69794 0.22388 -1.13783 238 238 129
0.70443 0.21040 -1.13565 178 177 135
0.71281 0.22342 -1.14297 169 171 133
0.72591 0.19672 -1.09120 244 216 207
0.70253 0.12972 -0.93806 87 119 185
0.71456 0.13617 -0.93438 87 122 181
0.70464 0.12327 -0.92512 93 125 190
0.71662 0.12969 -0.92145 90 124 187
0.71664 0.12165 -0.92658 96 126 193
0.72685 0.11914 -0.92542 101 130 199
0.73457 0.11545 -0.92069 101 135 203
0.74145 0.11137 -0.91480 105 139 206
0.74604 0.10626 -0.90574 108 138 204
0.75285 0.10220 -0.89986 103 131 195
0.75887 0.08970 -0.89783 112 150 209
0.75738 0.09713 -0.89086 95 118 177
0.76339 0.08466 -0.88884 112 150 201
0.78145 0.09378 -0.89362 80 101 148
0.78267 0.08730 -0.88022 69 83 124
0.76477 0.07251 -0.84118 60 67 96
0.87538 0.07162 -0.88486 40 26 31
0.88108 0.06717 -0.87769 48 35 31
0.88930 0.06377 -0.87379 55 45 38
0.89833 0.06070 -0.87094 56 52 53
0.92332 0.04413 -0.84576 67 76 65
0.91139 0.03774 -0.84941 45 47 44
0.93458 0.03550 -0.83191 82 87 76
0.93443 0.02906 -0.81806 86 88 79
0.93685 0.02364 -0.80744 90 91 81
0.93867 0.01804 -0.79619 93 94 80
0.94149 0.01285 -0.78624 92 95 81
0.94672 0.00857 -0.77922 87 91 76
0.94837 0.00303 -0.76804 79 83 70
0.95424 -0.00916 -0.76607 46 52 49
0.94337 -0.00481 -0.74920 68 67 59
0.94921 -0.01691 -0.74724 47 49 46
0.96411 -0.02141 -0.72219 56 55 60
0.97034 -0.02515 -0.71675 56 46 58
0.96962 -0.03120 -0.70348 52 38 43
0.96594 -0.03818 -0.68703 40 34 42
0.97249 -0.04172 -0.68215 38 33 49
0.97943 -0.04512 -0.67772 38 34 53
0.98852 -0.04782 -0.67568 35 33 70
0.99954 -0.04991 -0.67574 33 38 81
1.01917 -0.04929 -0.68517 34 52 102
1.02981 -0.05156 -0.68471 50 70 118
1.04333 -0.05294 -0.68732 63 97 144
1.05770 -0.05408 -0.69079 71 120 167
1.05762 -0.05967 -0.67879 81 148 203
1.06338 -0.07162 -0.67686 120 206 251
1.06869 -0.06184 -0.67871 102 179 222
1.07327 -0.06596 -0.67177 123 201 240
1.08239 -0.06871 -0.66963 124 202 246
1.17940 -0.08958 -0.66494 120 219 254
1.17074 -0.08663 -0.66767 120 217 254
1.16789 -0.09575 -0.66846 132 232 254
1.18830 -0.09246 -0.66244 125 223 254
1.20391 -0.09355 -0.66654 114 186 245
1.22993 -0.09719 -0.66946 130 200 214
1.31745 -0.09576 -0.70860 244 229 181
1.35181 -0.09243 -0.72989 246 232 204
1.35787 -0.10502 -0.72785 254 251 234
1.37746 -0.09139 -0.74271 244 232 211
1.43801 -0.08727 -0.77648 249 235 192
1.46544 -0.08605 -0.79041 249 229 190
1.49093 -0.08537 -0.80237 245 222 194
1.49725 -0.09847 -0.80025 241 216 197
1.52571 -0.08257 -0.82270 243 219 193
1.53209 -0.09581 -0.82056 234 213 199
1.54987 -0.08237 -0.83309 242 223 196
1.56418 -0.08452 -0.83438 245 229 197
1.57086 -0.08845 -0.82873 247 237 211
1.57475 -0.09300 -0.82059 251 232 193
1.56591 -0.10039 -0.80110 182 136 138
1.54745 -0.10986 -0.77322 216 223 212
1.48301 -0.12937 -0.70486 249 250 229
1.48911 -0.14203 -0.70281 252 253 252
1.48869 -0.13321 -0.69898 254 253 234
1.49478 -0.14585 -0.69693 254 254 253
-0.71336 0.53463 -1.24294 205 201 224
-0.72479 0.52850 -1.24643 76 78 101
-0.71619 0.52558 -1.24372 166 174 197
-0.69970 0.56194 -1.30762 250 254 254
-0.69379 0.54967 -1.30563 254 254 254
-0.64949 0.48896 -1.17106 254 238 203
-0.64383 0.47722 -1.16915 252 180 86
-0.55703 0.45634 -1.13928 254 168 79
-0.56823 0.45034 -1.14271 254 161 44
-0.55137 0.44461 -1.13738 254 169 80
-0.55143 0.44461 -1.11631 253 169 97
-0.55084 0.41807 -1.05924 252 198 138
-0.54586 0.40577 -1.03477 254 245 210
-0.53754 0.40363 -1.03364 254 253 254
-0.52676 0.40941 -1.03035 254 254 254
-0.52943 0.40088 -1.03108 254 254 254
-0.39477 0.36652 -1.01320 254 254 243
-0.40566 0.36069 -1.01653 254 254 254
-0.39747 0.35790 -1.01394 254 254 253
-0.38928 0.35512 -1.01135 254 254 249
-0.38297 0.37086 -1.02751 254 248 211
-0.37346 0.37051 -1.03073 254 247 211
-0.33764 0.38231 -1.07118 254 169 32
-0.33151 0.37530 -1.05860 254 145 23
-0.32141 0.37545 -1.06315 251 120 10
-0.31064 0.37669 -1.07033 252 128 13
-0.30024 0.37715 -1.07567 253 152 41
-0.28600 0.38398 -1.09636 253 197 134
-0.26084 0.40860 -1.16002 253 238 228
-0.24931 0.41008 -1.16805 253 252 254
-0.23879 0.40979 -1.17182 248 234 218
-0.22036 0.42191 -1.20569 202 128 126
-0.21678 0.41048 -1.18251 208 171 184
-0.19256 0.43089 -1.23669 233 224 240
-0.18395 0.42706 -1.23201 246 240 248
-0.17267 0.42720 -1.23704 228 205 208
-0.15715 0.43345 -1.25701 157 82 79
-0.13203 0.45324 -1.31025 89 23 24
-0.12311 0.44937 -1.30560 65 40 41
-0.09447 0.27252 -0.93581 128 42 59
-0.10543 0.26665 -0.93916 125 44 39
-0.08468 0.27147 -0.93763 150 104 120
-0.07287 0.27263 -0.94506 207 213 217
-0.05797 0.24190 -0.88495 229 230 234
-0.06342 0.25321 -0.88679 224 223 228
-0.06609 0.24466 -0.88752 224 225 228
-0.06876 0.23612 -0.88825 223 225 227
-0.05530 0.25045 -0.88422 229 230 234
-0.05247 0.23638 -0.87534 242 244 246
-0.04704 0.22511 -0.87351 250 251 252
-0.04316 0.23489 -0.87601 248 248 249
-0.03772 0.22360 -0.87418 252 252 253
-0.03299 0.23425 -0.87888 250 249 248
-0.02753 0.22293 -0.87705 253 254 254
-0.02338 0.23299 -0.88017 253 248 228
-0.01791 0.22165 -0.87834 252 253 254
-0.01014 0.23531 -0.89073 254 249 206
-0.00158 0.23290 -0.88909 253 252 236
0.02360 0.22512 -0.88283 253 253 253
0.03190 0.22243 -0.88048 214 232 229
0.05222 0.23090 -0.90728 167 140 172
0.05860 0.22632 -0.90005 175 155 193
0.06834 0.22482 -0.90089 173 170 204
0.07480 0.22035 -0.89393 175 164 143
0.09033 0.22396 -0.90822 172 200 216
0.09613 0.21890 -0.89971 168 167 182
0.10791 0.21906 -0.90498 190 156 165
0.13452 0.23186 -0.94375 234 235 229
0.14721 0.23252 -0.95048 251 251 243
0.16314 0.23581 -0.96423 242 248 251
0.17896 0.23887 -0.97746 240 246 251
0.19482 0.24183 -0.99047 248 252 253
0.22282 0.24438 -1.00768 254 254 244
0.25694 0.26145 -1.05879 233 216 199
0.26990 0.26150 -1.06432 205 140 172
0.27912 0.25859 -1.06189 224 203 224
0.29666 0.26204 -1.07668 248 253 254
0.30873 0.26851 -1.07299 254 254 254
0.30574 0.25896 -1.07381 254 254 254
0.30275 0.24940 -1.07463 254 254 254
0.38234 0.27582 -1.14223 235 250 254
0.37605 0.28887 -1.14434 254 254 254
0.37296 0.27901 -1.14519 254 254 254
0.38542 0.28569 -1.14138 253 254 254
0.39480 0.28250 -1.13842 252 254 254
0.39391 0.27420 -1.14358 210 244 253
0.40639 0.28089 -1.13976 251 254 254
0.40083 0.26925 -1.13578 202 243 253
0.41329 0.27593 -1.13197 252 254 254
0.40828 0.26471 -1.12910 211 245 253
0.42072 0.27138 -1.12529 253 254 254
0.41698 0.26107 -1.12487 233 250 254
0.42942 0.26773 -1.12106 253 254 254
0.42698 0.25833 -1.12314 236 251 253
0.43943 0.26500 -1.11933 253 254 254
0.46006 0.26163 -1.14410 219 251 254
0.47263 0.26837 -1.14025 253 254 254
0.52097 0.28292 -1.21550 232 252 254
0.53393 0.28986 -1.21154 253 254 254
0.55314 0.29425 -1.25341 235 252 254
0.56630 0.30130 -1.24939 253 254 254
0.57398 0.29795 -1.27012 233 252 254
0.59538 0.30187 -1.28753 239 252 244
0.65586 0.20942 -1.11322 229 251 98
0.66658 0.20681 -1.11207 222 241 85
0.68212 0.20681 -1.11857 205 221 107
0.69761 0.19830 -1.10666 193 194 210
0.71553 0.18291 -1.08093 211 188 158
0.69888 0.11987 -0.93788 91 137 196
0.70146 0.11369 -0.92562 98 145 198
0.70999 0.11040 -0.92208 102 146 196
0.71680 0.10630 -0.91608 110 149 203
0.72432 0.10255 -0.91113 107 149 212
0.72831 0.09718 -0.90121 113 155 216
0.73715 0.09408 -0.89821 115 155 216
0.74406 0.09011 -0.89252 110 155 217
0.78141 0.08561 -0.89842 109 145 194
0.80229 0.08774 -0.91174 104 139 183
0.80916 0.08370 -0.90590 102 135 170
0.81631 0.07981 -0.90048 104 129 161
0.83065 0.07898 -0.90470 102 116 149
0.84272 0.08544 -0.90101 32 16 39
0.86116 0.07796 -0.91524 95 99 120
0.88167 0.07266 -0.91237 83 76 87
0.88781 0.05992 -0.91031 102 100 152
0.88455 0.06701 -0.90138 80 74 77
0.88508 0.06046 -0.88747 74 70 67
0.88670 0.05442 -0.87510 66 61 42
0.89598 0.05144 -0.87254 57 50 43
0.90799 0.05787 -0.86887 53 51 59
0.90501 0.04837 -0.86969 49 43 53
0.91273 0.03179 -0.83713 43 50 51
0.90979 0.02238 -0.83793 32 48 60
0.91873 0.01934 -0.83511 32 47 53
0.91618 0.02668 -0.82755 42 53 51
0.92216 0.01427 -0.82554 34 49 55
0.92002 0.02176 -0.81853 48 60 59
0.92598 0.00939 -0.81652 34 48 60
0.92630 0.01778 -0.81255 53 63 65
0.93225 0.00542 -0.81055 32 44 57
0.92849 0.01232 -0.80168 53 61 61
0.93443 0.00000 -0.79968 33 43 58
0.93368 0.00799 -0.79450 51 61 62
0.93961 -0.00430 -0.79251 32 44 60
0.93527 -0.00373 -0.76987 46 57 60
0.93442 -0.01008 -0.75580 46 51 60
0.95128 -0.02802 -0.72413 41 52 57
0.94266 -0.02508 -0.72685 44 48 64
0.95625 -0.03217 -0.71724 50 57 51
0.96287 -0.03576 -0.71226 56 63 71
0.96824 -0.03975 -0.70589 64 70 94
0.97292 -0.04394 -0.69879 70 76 100
0.98680 -0.04513 -0.70203 78 87 126
0.99256 -0.05709 -0.70009 111 149 206
0.99462 -0.04830 -0.69846 87 107 135
1.00038 -0.06025 -0.69653 113 149 209
1.00802 -0.04969 -0.70107 90 117 150
1.01939 -0.05174 -0.70138 91 132 166
1.00832 -0.06081 -0.67718 95 153 192
1.02351 -0.06165 -0.68171 106 172 208
1.03775 -0.06283 -0.68513 114 183 224
1.04748 -0.06540 -0.68364 124 197 237
1.05597 -0.06835 -0.68082 123 207 247
1.07065 -0.07493 -0.67276 120 208 252
1.07984 -0.07766 -0.67069 122 212 253
1.09065 -0.07994 -0.67030 123 218 254
1.09924 -0.08286 -0.66759 126 219 254
1.17336 -0.09955 -0.66254 129 233 254
1.18332 -0.10214 -0.66111 131 233 254
1.19534 -0.10419 -0.66170 121 203 244
1.20905 -0.10583 -0.66390 108 159 219
1.21714 -0.10894 -0.66057 133 189 206
1.23355 -0.10991 -0.66533 169 168 135
1.24636 -0.11184 -0.66652 215 211 183
1.25222 -0.12400 -0.66455 251 242 216
1.30133 -0.10845 -0.69682 251 246 216
1.33141 -0.10624 -0.71415 253 249 228
1.43407 -0.09725 -0.77648 253 245 219
1.44029 -0.11015 -0.77439 250 235 205
1.46260 -0.09583 -0.79147 251 235 206
1.46887 -0.10884 -0.78936 248 226 200
1.49682 -0.09316 -0.81153 246 223 197
1.55752 -0.09541 -0.83205 235 215 199
1.54480 -0.10223 -0.83594 235 210 195
1.55437 -0.10548 -0.83292 231 208 194
1.55258 -0.10194 -0.81588 236 222 209
1.55658 -0.10641 -0.80791 243 226 205
1.52615 -0.11849 -0.76911 206 173 173
1.51150 -0.12694 -0.74476 206 194 192
1.47190 -0.14070 -0.69848 239 245 243
-0.70496 0.53848 -1.27656 238 249 254
-0.71654 0.53228 -1.28010 154 155 170
-0.65402 0.47216 -1.15382 253 229 178
-0.64840 0.46050 -1.15194 253 179 85
-0.56164 0.44155 -1.12638 254 167 70
-0.57278 0.43558 -1.12979 254 156 41
-0.55602 0.42988 -1.12449 254 174 73
-0.54959 0.42149 -1.08784 253 178 88
-0.55231 0.41279 -1.08859 254 178 74
-0.54725 0.40105 -1.04435 253 206 131
-0.53774 0.40226 -1.05102 253 239 200
-0.53063 0.39649 -1.04147 254 253 254
-0.51980 0.40229 -1.03816 254 254 254
-0.52248 0.39372 -1.03890 254 254 254
-0.37628 0.36161 -1.03099 254 254 249
-0.38727 0.35572 -1.03435 254 254 254
-0.37900 0.35291 -1.03174 254 254 254
-0.37074 0.35010 -1.02913 254 254 253
-0.36709 0.36056 -1.03261 254 254 243
-0.33493 0.36529 -1.05652 253 144 18
-0.32508 0.36501 -1.06009 253 147 32
-0.31302 0.36850 -1.07281 254 170 55
-0.30734 0.35672 -1.07090 254 188 80
-0.29957 0.37414 -1.09078 254 186 75
-0.28813 0.37612 -1.09993 254 192 115
-0.27225 0.38527 -1.12657 250 184 158
-0.25447 0.39712 -1.15989 241 207 213
-0.24175 0.40040 -1.17243 234 200 204
-0.22312 0.41278 -1.20727 201 99 96
-0.21612 0.40667 -1.19693 204 133 153
-0.19526 0.42176 -1.23862 222 201 226
-0.18599 0.41892 -1.23636 239 236 245
-0.17356 0.42073 -1.24558 247 225 216
-0.15659 0.42899 -1.27074 177 98 92
-0.10133 0.25911 -0.92449 127 37 43
-0.11223 0.25327 -0.92783 121 46 40
-0.08072 0.27031 -0.95760 136 71 97
-0.07434 0.26530 -0.94941 194 192 209
-0.07174 0.25620 -0.93070 221 221 225
-0.06078 0.26208 -0.92735 222 221 225
-0.06349 0.25340 -0.92810 221 221 224
-0.06621 0.24471 -0.92884 222 222 223
-0.05728 0.23691 -0.89485 226 228 233
-0.06812 0.23110 -0.89816 224 224 227
-0.05996 0.22833 -0.89558 225 227 230
-0.05147 0.23169 -0.88596 239 240 245
-0.00454 0.22401 -0.88914 250 252 253
0.00528 0.22281 -0.89069 235 247 249
0.01596 0.22239 -0.89431 205 220 243
0.02218 0.21770 -0.88674 224 232 225
0.03663 0.22074 -0.89946 100 114 186
0.04902 0.22174 -0.90690 141 146 155
0.06942 0.22996 -0.93343 137 72 104
0.06225 0.21306 -0.89363 160 149 172
