ply
format ascii 1.0
element face 0
property list uchar int vertex_indices
element vertex 1334
property float x
property float y
property float z
property uchar diffuse_red
property uchar diffuse_green
property uchar diffuse_blue
end_header
1.98917 -1.50752 0.09042 132 118 77
1.98636 -1.52655 0.09336 122 108 88
1.99849 -1.51742 0.09715 153 142 83
1.99568 -1.53647 0.10009 109 93 81
2.00824 -1.52741 0.10370 149 136 104
2.00542 -1.54649 0.10665 99 84 84
2.01258 -1.53660 0.11292 138 120 107
2.00977 -1.55568 0.11587 98 77 82
2.02906 -1.54766 0.11626 115 98 92
2.02623 -1.56681 0.11921 100 79 74
2.04206 -1.55824 0.12134 99 84 75
2.03922 -1.57743 0.12430 99 79 76
2.06136 -1.56986 0.12346 97 79 79
2.05852 -1.58914 0.12644 97 80 76
2.96863 -2.04612 0.12993 85 69 52
2.98432 -2.05975 0.13721 77 48 52
3.01723 -2.10736 0.17779 62 36 26
3.01378 -2.13074 0.18140 55 24 21
3.06095 -2.14800 0.20163 50 24 23
3.07032 -2.13590 0.20910 46 27 18
3.07774 -2.16219 0.20890 50 37 15
3.10346 -2.17873 0.21312 81 66 41
3.09886 -2.18748 0.22794 135 115 84
3.09537 -2.21110 0.23158 192 168 116
3.08943 -2.19492 0.24435 179 161 111
3.08596 -2.21845 0.24798 196 171 121
2.92062 -2.23523 0.41462 127 117 150
2.91327 -2.24242 0.42925 162 173 178
2.91410 -2.25189 0.44127 172 175 170
2.91299 -2.26078 0.45387 128 120 119
2.91298 -2.26996 0.46608 103 122 143
2.92767 -2.28341 0.47382 156 183 210
2.78937 -2.33940 0.64386 226 223 216
2.85351 -2.36837 0.63806 177 150 142
2.86272 -2.38005 0.64723 79 47 56
2.85953 -2.40163 0.65056 59 49 57
2.74542 -2.40998 0.76810 78 77 90
2.73194 -2.41060 0.75168 80 77 72
2.84236 -2.45951 0.76699 150 160 180
2.93276 -2.51610 0.77978 186 189 192
3.00649 -2.55031 0.77432 168 162 160
0.61453 -0.03292 -0.94051 121 118 156
0.60455 -0.03337 -0.95266 53 55 102
0.61447 -0.04226 -0.92800 93 101 123
0.60495 -0.05608 -0.90292 61 64 85
0.61076 -0.06254 -0.89836 61 58 94
0.60850 -0.07781 -0.89600 67 67 93
0.62002 -0.06741 -0.89833 66 65 96
0.61776 -0.08272 -0.89597 71 75 88
0.62107 -0.19272 -0.73191 80 79 96
0.62328 -0.17780 -0.73421 74 74 104
0.61139 -0.19316 -0.74369 63 61 85
0.61887 -0.20764 -0.72960 75 72 89
0.61976 -0.20198 -0.71863 78 83 97
0.62811 -0.20737 -0.71728 74 68 79
0.64085 -0.21109 -0.72122 64 59 84
0.64110 -0.21971 -0.70989 78 75 81
0.64036 -0.22870 -0.69739 84 94 102
0.65333 -0.23244 -0.70146 75 75 90
0.66028 -0.23851 -0.69821 61 56 70
0.65806 -0.25353 -0.69589 56 59 69
0.66960 -0.26109 -0.67461 62 51 73
0.67181 -0.24608 -0.67693 54 53 72
0.66584 -0.25381 -0.68170 53 48 53
0.67557 -0.25336 -0.66984 53 50 71
0.67383 -0.26820 -0.66809 65 53 65
0.67162 -0.28320 -0.66577 69 71 88
0.67754 -0.27549 -0.66094 53 49 56
0.67533 -0.29050 -0.65863 65 55 78
0.67934 -0.28346 -0.65157 61 55 74
0.67713 -0.29845 -0.64926 65 65 83
0.69259 -0.29605 -0.64404 52 51 85
0.69640 -0.30333 -0.63699 56 41 73
0.70276 -0.30976 -0.63286 60 47 71
0.70906 -0.31622 -0.62864 65 41 50
0.71818 -0.32179 -0.62758 72 49 59
0.71989 -0.32979 -0.61810 93 75 104
0.71787 -0.33896 -0.60446 132 108 115
0.72776 -0.34434 -0.60419 161 155 152
0.73823 -0.34959 -0.60450 164 173 177
0.74740 -0.35530 -0.60330 152 168 174
0.75698 -0.36092 -0.60250 134 142 159
0.76759 -0.36628 -0.60277 105 104 149
0.76403 -0.37586 -0.58750 74 65 118
0.78077 -0.37949 -0.59435 60 42 80
0.79015 -0.38533 -0.59311 57 26 54
0.79572 -0.39228 -0.58773 74 31 56
0.80099 -0.39934 -0.58200 111 73 95
0.79640 -0.40911 -0.56576 159 120 97
0.79861 -0.41698 -0.55681 207 167 122
0.79226 -0.42713 -0.53883 241 213 194
0.79001 -0.44235 -0.53648 254 254 253
0.79577 -0.43459 -0.53133 253 245 225
0.79353 -0.44982 -0.52898 254 254 254
0.81006 -0.43926 -0.53509 254 253 233
0.80781 -0.45456 -0.53272 254 254 254
0.82096 -0.44488 -0.53520 254 254 248
0.81869 -0.46022 -0.53283 254 254 254
1.08681 -0.97362 -0.01564 251 249 225
1.07688 -0.97408 -0.02772 254 254 254
1.08433 -0.98113 -0.00388 233 217 200
1.07171 -0.98872 0.01505 206 191 194
1.09040 -0.99596 0.01165 213 222 227
1.09207 -1.00337 0.02037 239 249 250
1.10196 -1.00292 0.03241 254 254 254
1.09589 -1.01076 0.02757 252 254 254
1.08837 -1.03282 0.06224 254 254 254
1.09060 -1.01769 0.05990 254 254 254
1.08458 -1.02548 0.05510 254 254 254
1.09439 -1.02503 0.06704 254 254 254
1.08844 -1.04012 0.07193 249 254 250
1.09341 -1.04746 0.07825 234 242 232
1.12461 -1.06256 0.07659 163 132 170
1.12236 -1.07781 0.07894 89 75 82
1.12649 -1.06992 0.08509 114 76 122
1.12424 -1.08516 0.08744 97 84 71
1.13317 -1.07738 0.09038 78 55 86
1.13092 -1.09264 0.09274 99 87 69
1.14276 -1.08494 0.09377 83 66 72
1.14050 -1.10023 0.09613 99 88 74
1.15299 -1.09255 0.09677 95 79 80
1.18339 -1.11559 0.10626 99 88 69
1.19201 -1.12328 0.11050 93 87 54
1.20023 -1.13098 0.11502 81 80 48
1.20949 -1.13875 0.11891 67 61 40
1.22269 -1.14675 0.12036 43 39 23
1.22038 -1.16233 0.12277 13 6 5
1.24061 -1.16243 0.12876 17 9 16
1.23830 -1.17807 0.13117 9 8 5
1.95764 -1.47113 0.03951 35 35 25
1.96045 -1.45210 0.03658 29 30 20
1.95287 -1.46190 0.03053 32 29 32
1.94529 -1.47170 0.02449 36 28 28
1.95962 -1.47998 0.04994 50 42 48
1.96280 -1.48898 0.05972 81 63 65
1.95999 -1.50799 0.06266 101 86 76
1.96876 -1.49838 0.06809 104 85 67
1.96595 -1.51739 0.07102 103 86 75
1.97237 -1.50743 0.07764 117 107 67
1.96957 -1.52644 0.08058 99 86 76
1.97965 -1.51702 0.08535 124 112 85
1.97684 -1.53604 0.08829 97 85 66
2.96269 -2.03903 0.09476 91 75 60
2.96614 -2.01568 0.09116 93 77 62
2.95684 -2.02770 0.08374 92 76 62
2.97199 -2.02701 0.10218 95 77 67
2.96898 -2.05046 0.10562 87 71 52
2.97970 -2.06295 0.11479 80 62 50
2.99924 -2.07759 0.12066 72 48 48
3.00311 -2.08848 0.13248 64 43 40
3.01832 -2.08778 0.15100 67 43 43
3.00464 -2.09878 0.14517 60 39 39
3.02227 -2.11306 0.15188 59 34 39
3.01880 -2.13654 0.15551 49 20 21
3.03383 -2.12587 0.16089 56 30 24
3.03036 -2.14938 0.16452 51 21 25
3.03880 -2.14695 0.18554 57 25 25
3.04152 -2.15753 0.19775 70 51 31
3.00629 -2.15828 0.22337 99 89 43
3.02165 -2.17204 0.23100 147 125 85
3.01821 -2.19533 0.23460 180 158 116
3.02617 -2.18299 0.24245 178 158 115
2.90847 -2.24584 0.40853 143 137 152
2.90128 -2.25302 0.42314 167 180 182
2.89799 -2.27533 0.42658 169 172 177
2.90546 -2.26343 0.43412 172 176 172
2.90949 -2.27380 0.44513 162 156 140
2.89696 -2.27930 0.46122 103 99 90
2.91491 -2.29373 0.46793 109 137 161
2.92861 -2.30695 0.47598 146 176 198
2.90348 -2.30857 0.49570 193 212 230
2.90177 -2.31712 0.50831 215 225 228
2.91611 -2.31646 0.52577 224 226 231
2.90731 -2.32785 0.51875 223 227 230
2.81111 -2.35996 0.62882 223 223 215
2.88472 -2.40103 0.63215 78 40 47
2.88151 -2.42277 0.63551 62 51 59
2.77721 -2.43425 0.75160 80 76 92
2.84064 -2.47274 0.75862 156 169 183
2.83750 -2.49399 0.76190 167 176 187
2.87995 -2.49476 0.76053 170 179 192
2.87679 -2.51618 0.76383 169 176 188
2.94441 -2.53427 0.76819 174 175 188
3.09146 -2.60333 0.75755 103 83 89
0.58859 -0.05040 -0.91861 60 63 96
0.57871 -0.05085 -0.93064 63 62 86
0.58253 -0.05824 -0.92345 67 66 85
0.60344 -0.05252 -0.92627 75 74 94
0.60235 -0.06228 -0.91243 79 72 86
0.60660 -0.06950 -0.90577 76 68 92
0.60434 -0.08479 -0.90341 66 63 101
0.60091 -0.20613 -0.71894 68 65 91
0.59500 -0.21376 -0.72365 71 68 85
0.59872 -0.22094 -0.71665 64 60 82
0.60932 -0.22011 -0.70617 85 85 94
0.61522 -0.22646 -0.70184 98 105 126
0.61197 -0.23634 -0.68633 92 109 116
0.62773 -0.23893 -0.69400 84 96 122
0.63429 -0.24508 -0.69041 68 64 92
0.63972 -0.25168 -0.68541 58 55 80
0.63751 -0.26659 -0.68311 60 63 74
0.64667 -0.26634 -0.67071 62 65 72
0.63852 -0.27785 -0.64955 94 98 104
0.64223 -0.28504 -0.64255 88 98 100
0.68286 -0.30506 -0.64447 74 60 83
0.68904 -0.31153 -0.64019 74 46 81
0.68986 -0.32830 -0.61832 126 114 100
0.69631 -0.33470 -0.61432 158 157 152
0.70754 -0.33959 -0.61571 170 181 175
0.71310 -0.34633 -0.61062 164 174 181
0.72312 -0.35169 -0.61053 141 157 166
0.73717 -0.35586 -0.61487 111 114 156
0.74003 -0.36351 -0.60666 74 70 124
0.75123 -0.36866 -0.60768 59 40 77
0.76173 -0.37407 -0.60785 57 21 52
0.76829 -0.38068 -0.60365 72 24 52
0.77457 -0.38740 -0.59910 102 62 94
0.78707 -0.39237 -0.60129 151 113 113
0.77669 -0.40380 -0.57865 202 164 141
0.77192 -0.41358 -0.56219 239 214 202
0.76967 -0.42879 -0.55984 254 254 254
0.76213 -0.42466 -0.54046 252 246 220
0.75990 -0.43977 -0.53813 254 254 254
0.76419 -0.43245 -0.53148 254 253 227
0.76196 -0.44756 -0.52915 254 254 254
0.76771 -0.43985 -0.52407 254 254 247
0.76548 -0.45495 -0.52174 254 254 254
1.06572 -0.98171 -0.00962 254 254 249
1.05585 -0.98216 -0.02164 254 254 254
1.05966 -0.98954 -0.01446 254 254 254
1.07248 -0.98905 -0.00457 253 246 230
1.07511 -0.99645 0.00347 215 204 183
1.07549 -1.00385 0.01310 179 169 128
1.07856 -1.01123 0.02080 205 211 196
1.08514 -1.01860 0.02602 242 249 251
1.09501 -1.01815 0.03803 254 254 254
1.08363 -1.02596 0.03694 253 254 254
1.07896 -1.03327 0.05001 246 253 245
1.07673 -1.04840 0.05234 132 91 134
1.07327 -1.04051 0.06373 227 232 215
1.10327 -1.04816 0.05276 196 175 193
1.10847 -1.05557 0.05900 148 108 159
1.10622 -1.07081 0.06136 89 74 79
1.15660 -1.10809 0.09527 94 90 69
1.14663 -1.10855 0.08313 89 85 50
1.16583 -1.11576 0.09900 88 88 60
1.17658 -1.12352 0.10178 79 78 46
1.18849 -1.13136 0.10387 64 58 24
1.19649 -1.13907 0.10853 36 34 24
1.19420 -1.15458 0.11093 10 8 12
1.20671 -1.14692 0.11181 16 12 23
1.20441 -1.16246 0.11421 11 8 13
1.21463 -1.15467 0.11659 14 7 17
1.21233 -1.17025 0.11899 13 7 10
1.96104 -1.48245 0.02775 40 36 25
1.94865 -1.48302 0.01267 33 29 29
1.95827 -1.49065 0.04067 76 81 58
1.95962 -1.49940 0.05142 96 91 69
1.95682 -1.51843 0.05436 97 82 75
2.93325 -2.02643 0.06863 89 77 63
2.93669 -2.00312 0.06504 93 77 61
2.92741 -2.01512 0.05763 92 78 62
2.94253 -2.01443 0.07604 92 77 65
2.94597 -2.03935 0.07694 86 71 60
2.95874 -2.05232 0.08526 82 60 47
2.97074 -2.06513 0.09393 76 55 51
2.97353 -2.07575 0.10616 70 53 50
2.99962 -2.09203 0.10952 63 42 44
3.01682 -2.10622 0.11635 57 34 34
3.02572 -2.11840 0.12635 51 26 26
3.02224 -2.14198 0.12999 44 11 13
3.02531 -2.12825 0.13983 49 19 26
3.02183 -2.15180 0.14346 46 16 18
3.02404 -2.15764 0.18004 55 26 32
3.00883 -2.15834 0.16153 49 19 26
2.98848 -2.15826 0.20600 87 80 32
2.97601 -2.16474 0.22348 146 135 82
2.98178 -2.17595 0.23441 174 152 115
2.99678 -2.19931 0.25506 192 162 121
2.98276 -2.20518 0.27282 199 175 122
2.98854 -2.21636 0.28370 207 178 129
2.97936 -2.22822 0.27638 211 182 136
2.90879 -2.24144 0.37362 193 193 191
2.89187 -2.24591 0.39154 160 160 178
2.89352 -2.25562 0.40337 151 150 156
2.89176 -2.26432 0.41626 165 176 184
2.88847 -2.28662 0.41970 172 175 184
2.90039 -2.28521 0.43811 168 168 168
2.90211 -2.29488 0.44983 153 148 128
2.88717 -2.29956 0.46665 96 94 110
2.89447 -2.31084 0.47658 72 98 138
2.92174 -2.32817 0.48050 129 165 192
2.88692 -2.32666 0.50309 178 204 225
2.88768 -2.33591 0.51492 205 218 233
2.90199 -2.33525 0.53234 224 225 231
2.88047 -2.34267 0.52906 217 220 231
2.89474 -2.34202 0.54643 226 228 233
2.88598 -2.35334 0.53945 220 224 230
2.86219 -2.39017 0.60554 211 211 201
2.84411 -2.39309 0.62223 126 96 120
2.89869 -2.41959 0.61911 72 40 50
2.81593 -2.45266 0.72184 79 72 80
2.81906 -2.43141 0.71856 75 72 67
2.81060 -2.44235 0.71181 76 68 70
2.80214 -2.45329 0.70506 78 66 66
2.80727 -2.45818 0.73536 85 84 102
2.83330 -2.47559 0.74025 127 140 151
2.85294 -2.49086 0.74681 159 171 180
2.84979 -2.51221 0.75010 163 172 181
2.96894 -2.55711 0.75348 153 152 163
0.58204 -0.19294 -0.74232 85 115 118
0.57670 -0.20382 -0.72390 78 97 107
0.58560 -0.20886 -0.72349 70 70 81
0.58342 -0.22364 -0.72121 74 82 84
0.59134 -0.23247 -0.69591 53 54 83
0.59770 -0.23859 -0.69224 62 65 100
0.60485 -0.24443 -0.68951 74 88 115
0.60792 -0.25184 -0.68176 82 86 109
0.60573 -0.26662 -0.67947 97 93 124
0.61668 -0.25712 -0.68093 75 64 93
0.62297 -0.26335 -0.67706 67 59 85
0.62078 -0.27819 -0.67477 70 68 82
0.63430 -0.27634 -0.66773 59 61 75
0.63832 -0.28344 -0.66106 70 67 92
0.64284 -0.29037 -0.65500 73 75 101
0.65063 -0.29617 -0.65279 73 57 86
0.65577 -0.30291 -0.64740 79 53 71
0.66473 -0.30836 -0.64649 76 71 85
0.66793 -0.31580 -0.63879 123 114 141
0.67010 -0.32357 -0.62992 156 159 151
0.67745 -0.32963 -0.62704 171 184 178
0.68430 -0.33588 -0.62354 165 180 171
0.69218 -0.34183 -0.62119 142 159 173
0.69870 -0.34823 -0.61725 110 111 163
0.70342 -0.35523 -0.61124 75 65 122
0.71641 -0.35968 -0.61455 42 37 70
0.72550 -0.36539 -0.61337 45 18 50
0.73389 -0.37136 -0.61136 63 19 40
0.75240 -0.37436 -0.62056 100 57 54
0.74973 -0.38367 -0.60616 149 104 100
0.75896 -0.38949 -0.60493 204 153 116
0.74281 -0.40258 -0.57583 241 205 195
0.74058 -0.41771 -0.57349 254 254 253
0.74433 -0.41056 -0.56621 253 245 224
0.74210 -0.42567 -0.56387 254 254 254
0.74909 -0.41762 -0.56013 254 253 233
0.74686 -0.43274 -0.55780 254 254 254
0.75147 -0.42534 -0.55147 254 254 248
0.74924 -0.44045 -0.54914 253 254 254
1.06021 -0.99694 -0.00491 254 254 251
1.05036 -0.99739 -0.01691 254 254 254
1.06671 -1.00430 0.00032 252 246 229
1.06434 -1.01169 0.01193 214 207 171
1.06631 -1.03370 0.04006 210 217 217
1.08526 -1.04118 0.03657 183 155 191
1.09865 -1.05603 0.04692 90 59 90
1.10128 -1.06340 0.05493 80 59 85
1.09903 -1.07863 0.05729 96 87 74
1.14921 -1.11596 0.09123 76 75 32
1.16754 -1.12401 0.08895 58 52 30
1.17671 -1.13175 0.09277 31 25 31
1.17442 -1.14722 0.09516 11 8 19
1.18306 -1.13937 0.09847 14 11 28
1.18077 -1.15486 0.10086 11 10 10
1.19003 -1.14704 0.10379 13 9 17
1.18774 -1.16255 0.10618 11 10 5
1.96872 -1.49444 0.01366 35 29 35
1.95628 -1.49501 -0.00148 34 33 26
1.96108 -1.50432 0.00757 30 29 32
1.97158 -1.50347 0.02373 50 44 60
1.95820 -1.51010 0.04219 87 83 59
1.95538 -1.52916 0.04514 96 80 71
2.94252 -2.03282 0.04045 88 75 56
2.94598 -2.00938 0.03683 93 76 67
2.93665 -2.02145 0.02938 93 77 64
2.92679 -2.03909 0.06010 81 63 53
2.94036 -2.05225 0.06807 71 46 47
2.97042 -2.06940 0.06961 61 31 37
2.98559 -2.08305 0.07709 58 35 45
2.98540 -2.09298 0.09056 55 34 40
3.00761 -2.10842 0.09541 50 22 31
3.00413 -2.13202 0.09905 39 7 7
3.02490 -2.12271 0.10223 47 15 19
3.02141 -2.14637 0.10588 40 9 5
3.03610 -2.13551 0.11141 44 12 13
3.03261 -2.15920 0.11507 43 12 11
2.99325 -2.16412 0.18042 57 25 35
2.95338 -2.16342 0.20797 86 80 31
2.93562 -2.16838 0.22731 136 126 77
2.96258 -2.18519 0.23061 165 150 123
2.97199 -2.19736 0.24023 176 156 120
2.95741 -2.20304 0.25825 196 170 139
2.93958 -2.20773 0.27729 206 179 133
2.93621 -2.23059 0.28082 216 189 150
2.92191 -2.22181 0.30881 216 181 137
2.91022 -2.22795 0.32541 185 153 140
2.89684 -2.23354 0.34248 179 174 178
2.89682 -2.24286 0.35499 198 206 216
2.88254 -2.25730 0.38457 158 150 178
2.88304 -2.26666 0.39678 147 150 164
2.88388 -2.27610 0.40885 166 173 187
2.88059 -2.29841 0.41229 179 180 189
2.89392 -2.29740 0.43027 172 176 186
2.88504 -2.30889 0.42319 176 180 196
2.89777 -2.30770 0.44134 173 169 165
2.87501 -2.30996 0.46064 128 109 89
2.89035 -2.32368 0.46809 50 46 66
2.88144 -2.33002 0.48297 53 77 101
2.90221 -2.34545 0.48883 88 122 169
2.88753 -2.34994 0.50534 142 174 216
2.86326 -2.35135 0.52458 183 206 233
2.86483 -2.36076 0.53609 204 214 232
2.87905 -2.36011 0.55340 222 223 232
2.87032 -2.37139 0.54644 213 218 232
2.87110 -2.39824 0.58190 218 219 223
2.85693 -2.39888 0.56465 214 218 226
2.90628 -2.41848 0.58394 202 195 182
2.92280 -2.43276 0.59129 103 80 103
2.90257 -2.43498 0.60873 68 42 44
2.90673 -2.44517 0.61944 68 52 54
2.92095 -2.44452 0.63675 62 56 61
2.91222 -2.45581 0.62979 67 55 50
2.83409 -2.47273 0.70833 76 68 78
2.82022 -2.47337 0.69144 80 68 54
2.81109 -2.47332 0.72555 94 95 113
2.84808 -2.49462 0.72770 137 147 161
2.84493 -2.51602 0.73101 160 165 176
2.85378 -2.50512 0.73772 160 170 179
2.85062 -2.52652 0.74103 158 164 172
2.93827 -2.56056 0.75176 144 139 153
2.92416 -2.56120 0.73459 157 159 168
2.92961 -2.57175 0.74486 161 156 166
2.93506 -2.58230 0.75512 163 155 153
3.02409 -2.59981 0.74312 128 110 113
3.02082 -2.62195 0.74654 161 153 145
0.56174 -0.21509 -0.71706 65 63 88
0.55958 -0.22976 -0.71479 59 57 74
0.56369 -0.22291 -0.70794 68 66 83
0.57047 -0.23735 -0.69341 75 62 86
0.57168 -0.24542 -0.68341 68 43 70
0.58008 -0.25070 -0.68237 62 44 65
0.59005 -0.25542 -0.68321 63 60 92
0.59655 -0.26151 -0.67971 84 78 98
0.61109 -0.27318 -0.67451 81 79 94
0.60891 -0.28797 -0.67223 86 64 92
0.62375 -0.28565 -0.66687 62 43 73
0.62156 -0.30048 -0.66458 136 119 127
0.62856 -0.29246 -0.66118 68 37 78
0.63322 -0.29932 -0.65530 82 65 99
0.63355 -0.30770 -0.64426 113 92 114
0.65150 -0.31852 -0.64266 172 183 176
0.65690 -0.32519 -0.63759 164 188 195
0.66394 -0.33133 -0.63441 152 169 179
0.67264 -0.33696 -0.63312 118 120 172
0.68912 -0.34012 -0.64076 76 68 132
0.68355 -0.35039 -0.62291 39 38 81
0.69239 -0.35607 -0.62165 39 14 50
0.69958 -0.36230 -0.61846 59 16 35
0.71040 -0.36745 -0.61934 81 45 47
0.72591 -0.37124 -0.62545 142 102 110
0.72220 -0.38084 -0.60984 196 147 127
0.71469 -0.39150 -0.59007 238 206 187
0.71247 -0.40655 -0.58774 253 254 254
0.72406 -0.39718 -0.58919 253 246 221
0.72183 -0.41227 -0.58686 252 254 254
0.72880 -0.40423 -0.58312 254 254 226
0.73258 -0.41156 -0.57600 254 254 247
0.74478 -0.45822 -0.52199 248 253 254
0.74101 -0.45093 -0.52909 251 254 254
0.74668 -0.46598 -0.51291 250 253 254
0.75641 -0.46554 -0.50105 254 254 254
0.75044 -0.47326 -0.50582 253 254 254
1.05222 -1.00477 -0.00832 254 254 254
1.05756 -1.01213 -0.00227 249 253 245
1.05880 -1.01950 0.00675 231 234 207
1.05769 -1.02684 0.01743 152 149 163
1.05099 -1.03410 0.03205 109 102 143
1.08535 -1.04174 0.01751 89 79 104
1.08608 -1.04910 0.02689 73 56 85
1.09088 -1.05651 0.03341 80 61 78
1.08862 -1.07177 0.03576 98 86 74
1.09409 -1.06390 0.04103 90 77 56
1.09184 -1.07915 0.04339 98 87 69
1.14737 -1.11673 0.07366 47 47 32
1.14965 -1.10132 0.07128 95 88 62
1.14351 -1.10926 0.06638 70 70 28
1.13738 -1.11719 0.06149 22 20 28
1.15737 -1.12447 0.07685 26 24 34
1.15509 -1.13991 0.07923 11 10 16
1.16284 -1.13203 0.08308 13 10 29
1.16056 -1.14749 0.08546 11 10 12
1.17074 -1.13972 0.08772 11 6 21
1.16846 -1.15520 0.09011 10 8 11
1.97766 -1.51536 0.01045 35 34 51
1.96518 -1.51593 -0.00475 35 30 22
1.95493 -1.52056 0.03389 82 76 52
1.95211 -1.53965 0.03683 96 81 72
2.93048 -2.03426 0.02065 89 73 58
2.93394 -2.01080 0.01703 92 76 65
2.92460 -2.02288 0.00957 90 73 64
2.92924 -2.04395 0.03459 80 63 48
2.93998 -2.05647 0.04369 67 33 40
2.95338 -2.06966 0.05177 54 15 29
2.94991 -2.09315 0.05540 43 4 11
2.96529 -2.08252 0.06048 46 11 24
2.96181 -2.10604 0.06411 41 5 12
2.98469 -2.09726 0.06630 45 16 28
2.98121 -2.12084 0.06994 37 7 15
2.98476 -2.10725 0.07970 42 15 26
2.98129 -2.13081 0.08333 37 7 8
3.00195 -2.12151 0.08647 40 9 16
2.99846 -2.14512 0.09012 37 9 7
2.97826 -2.16485 0.16194 51 18 24
2.97241 -2.15353 0.15092 45 16 22
2.96312 -2.16554 0.14351 41 15 24
2.95584 -2.16871 0.18333 67 33 31
2.92236 -2.16950 0.20858 85 76 24
2.91465 -2.17703 0.22429 107 92 49
2.89684 -2.18177 0.24353 133 120 93
2.91830 -2.19712 0.24869 140 128 98
2.91784 -2.20651 0.26166 170 157 141
2.89615 -2.20998 0.28201 202 182 146
2.89654 -2.22890 0.30720 222 186 144
2.86833 -2.23027 0.32942 165 121 117
2.88145 -2.24330 0.33749 140 141 167
2.88787 -2.25444 0.34785 186 210 238
2.89376 -2.26542 0.35838 209 219 225
2.87243 -2.26845 0.37786 151 139 172
2.87438 -2.27822 0.38961 138 142 169
2.87359 -2.28716 0.40222 169 178 191
2.87029 -2.30947 0.40566 185 188 195
2.89265 -2.32032 0.43308 177 180 184
2.87817 -2.32098 0.41546 179 184 194
2.88377 -2.33181 0.42599 179 181 188
2.90558 -2.33338 0.44133 170 159 136
2.86822 -2.33103 0.46514 105 87 68
2.88226 -2.34439 0.47299 53 50 62
2.88348 -2.35380 0.48477 33 42 84
2.88918 -2.36459 0.49518 54 80 138
2.88146 -2.37115 0.50959 98 138 189
2.86733 -2.37561 0.52581 150 178 221
2.86198 -2.38280 0.53936 193 209 233
2.87620 -2.38215 0.55668 216 219 229
2.86747 -2.39344 0.54971 211 217 227
2.87579 -2.41385 0.57117 217 219 220
2.86157 -2.41450 0.55386 214 219 227
2.90953 -2.43375 0.57359 185 172 161
2.91355 -2.44395 0.58442 102 67 59
2.90598 -2.45030 0.59843 76 52 57
2.91427 -2.46190 0.60805 79 61 65
2.90932 -2.46905 0.62126 77 61 59
2.92355 -2.46840 0.63859 68 58 50
2.91482 -2.47969 0.63162 72 59 58
2.84585 -2.49076 0.69635 75 64 70
2.83191 -2.49140 0.67938 83 70 44
2.80508 -2.48511 0.71818 102 105 121
2.83586 -2.50434 0.72183 143 152 168
2.83271 -2.52572 0.72513 162 164 176
0.55933 -0.23843 -0.70291 72 67 71
0.54983 -0.23886 -0.71447 70 61 71
0.56035 -0.24656 -0.69267 107 98 107
0.56294 -0.25407 -0.68442 136 115 144
0.57218 -0.25903 -0.68448 95 101 115
0.57002 -0.27369 -0.68221 78 57 83
0.58059 -0.26436 -0.68342 69 67 80
0.58551 -0.27102 -0.67802 69 58 72
0.59301 -0.27675 -0.67577 76 62 81
0.60181 -0.28203 -0.67506 82 60 84
0.61189 -0.29540 -0.66437 104 79 110
0.60971 -0.31019 -0.66209 174 185 189
0.62159 -0.30895 -0.65315 168 167 166
0.61940 -0.32375 -0.65087 109 112 167
0.63079 -0.31425 -0.65273 182 198 186
0.63585 -0.32099 -0.64732 172 181 185
0.65074 -0.32445 -0.65352 135 148 181
0.64978 -0.33325 -0.64093 91 88 153
0.66223 -0.34610 -0.63269 44 12 68
0.66817 -0.35264 -0.62818 54 9 43
0.67648 -0.35846 -0.62640 81 40 49
0.68514 -0.36420 -0.62497 140 98 102
0.69092 -0.37087 -0.62019 196 148 107
0.70558 -0.37486 -0.62551 241 199 183
0.70335 -0.38997 -0.62317 254 254 253
0.70262 -0.38421 -0.61072 253 245 223
0.70040 -0.39927 -0.60840 254 254 254
0.70804 -0.39103 -0.60547 254 254 231
0.71089 -0.39861 -0.59731 254 254 249
0.72657 -0.41933 -0.58080 250 254 254
0.72990 -0.42678 -0.57316 248 253 254
0.73516 -0.43370 -0.56766 245 248 252
0.73544 -0.44196 -0.55671 242 244 253
0.73461 -0.45050 -0.54458 236 237 253
0.73432 -0.45885 -0.53309 224 234 250
0.71921 -0.47096 -0.50569 199 223 244
0.72567 -0.47749 -0.50159 220 235 246
0.72430 -0.48599 -0.48912 245 250 252
0.73395 -0.48555 -0.47738 254 254 254
0.72803 -0.49321 -0.48210 253 254 254
0.72211 -0.50086 -0.48682 252 253 254
1.01316 -0.99804 -0.00866 254 254 254
1.01537 -0.98302 -0.01098 254 254 254
1.00939 -0.99076 -0.01576 254 254 254
1.01914 -0.99031 -0.00389 254 254 254
1.03162 -1.00527 -0.01240 244 253 246
1.03115 -1.01260 -0.00214 227 234 221
1.01733 -1.01989 0.01779 197 181 201
1.04072 -1.02725 0.01064 151 120 154
1.03849 -1.04235 0.01297 85 72 65
1.06724 -1.03475 0.00139 99 79 101
1.06500 -1.04999 0.00375 79 76 54
1.07440 -1.04218 0.00620 76 68 83
1.07215 -1.05744 0.00855 79 80 65
1.08004 -1.04961 0.01211 80 73 75
1.07779 -1.06488 0.01446 87 85 71
1.08154 -1.05698 0.02096 89 79 71
1.09487 -1.08652 0.05113 91 87 61
1.10476 -1.08607 0.06317 96 88 74
1.09869 -1.09392 0.05832 81 78 53
1.09262 -1.10177 0.05348 36 31 32
1.14716 -1.12492 0.06478 19 11 21
1.13714 -1.12538 0.05258 12 9 17
1.14101 -1.13287 0.05987 13 11 10
1.14488 -1.14036 0.06716 14 11 4
1.15194 -1.13245 0.07146 15 9 17
1.14966 -1.14790 0.07384 11 12 5
1.98114 -1.52694 -0.00153 35 28 28
1.96862 -1.52752 -0.01678 35 29 18
1.95688 -1.53185 0.02282 82 75 65
1.95405 -1.55100 0.02578 96 81 67
2.91942 -2.03593 0.00041 85 68 57
2.92289 -2.01245 -0.00322 91 75 67
2.91354 -2.02454 -0.01068 89 72 61
2.90419 -2.03663 -0.01813 85 67 55
2.91007 -2.04802 -0.00705 82 64 50
2.92071 -2.04623 0.01337 82 65 49
2.92429 -2.05706 0.02537 72 52 39
2.93607 -2.06986 0.03406 57 16 32
2.93261 -2.09333 0.03768 43 4 11
2.95138 -2.08355 0.04137 46 4 17
2.94790 -2.10707 0.04500 41 4 6
2.97223 -2.17773 0.15331 51 16 24
2.95708 -2.17842 0.13486 35 11 19
2.93238 -2.17684 0.18122 72 45 23
2.91298 -2.18126 0.20136 87 73 26
2.88757 -2.18394 0.22354 96 79 44
2.88421 -2.20675 0.22706 97 77 46
2.88762 -2.19345 0.23635 102 86 50
2.87858 -2.20043 0.25237 102 88 55
2.86392 -2.20578 0.27031 126 117 96
2.86489 -2.21543 0.28262 165 154 129
2.86764 -2.22555 0.29429 195 176 158
2.87140 -2.23596 0.30559 216 186 152
2.86380 -2.24309 0.32078 178 125 88
2.86696 -2.25328 0.33223 93 63 78
2.86768 -2.26275 0.34448 121 137 177
2.86697 -2.27177 0.35719 162 174 201
2.86751 -2.28114 0.36944 131 120 164
2.86344 -2.28911 0.38318 122 129 170
2.86445 -2.29857 0.39522 169 186 194
2.88966 -2.34273 0.43643 179 179 174
2.89641 -2.35391 0.44660 157 146 126
2.87158 -2.35523 0.46652 94 75 68
2.87545 -2.36545 0.47749 66 60 70
2.87238 -2.37347 0.49056 45 52 75
2.87729 -2.38399 0.50119 29 49 85
2.87822 -2.39324 0.51299 52 72 146
2.85783 -2.39557 0.53104 135 163 210
2.86483 -2.40671 0.54097 197 212 226
2.86159 -2.42867 0.54436 211 217 224
2.87763 -2.42861 0.56119 218 219 215
2.91474 -2.44974 0.56262 171 150 147
2.91124 -2.45746 0.57560 110 71 69
2.90798 -2.47954 0.57901 100 82 85
2.91948 -2.46908 0.58527 95 83 86
2.91622 -2.49118 0.58868 94 87 80
2.92043 -2.47825 0.59696 94 88 78
2.91717 -2.50033 0.60037 98 91 78
2.90576 -2.48210 0.61288 91 77 72
2.90252 -2.50407 0.61627 101 93 84
2.89662 -2.48776 0.62719 85 67 75
2.91083 -2.48711 0.64448 72 60 57
2.88122 -2.49120 0.64309 83 65 69
2.89536 -2.49056 0.66030 76 64 54
2.86770 -2.49521 0.65838 83 66 58
2.86449 -2.51691 0.66173 86 69 62
2.86004 -2.50978 0.68365 78 67 63
2.81880 -2.50385 0.70576 112 119 125
2.81662 -2.51155 0.71775 149 158 169
2.81348 -2.53288 0.72104 170 167 173
0.52230 -0.21577 -0.72543 67 65 73
0.52445 -0.20122 -0.72767 67 63 86
0.51866 -0.20871 -0.73229 61 58 75
0.51286 -0.21620 -0.73691 68 61 80
0.52015 -0.23031 -0.72318 85 87 92
0.53231 -0.22022 -0.72679 82 84 97
0.53433 -0.22796 -0.71779 83 90 111
0.54150 -0.23363 -0.71541 78 75 91
0.54838 -0.24797 -0.70107 73 67 78
0.54257 -0.25549 -0.70571 66 55 69
0.54623 -0.26257 -0.69882 72 50 75
0.55324 -0.25459 -0.69569 86 91 102
0.55691 -0.26168 -0.68879 113 116 138
0.56017 -0.26892 -0.68140 110 102 134
0.57763 -0.27934 -0.68017 76 53 83
0.58459 -0.28527 -0.67729 88 77 102
0.58242 -0.29997 -0.67502 181 199 198
0.58649 -0.29305 -0.66815 132 115 129
0.59507 -0.29843 -0.66721 166 161 156
0.60454 -0.30353 -0.66729 180 189 182
0.61569 -0.31657 -0.65786 147 162 180
0.60980 -0.32419 -0.66256 48 39 77
0.62790 -0.32932 -0.64960 74 63 134
0.64172 -0.33316 -0.65461 44 25 82
0.64200 -0.34153 -0.64348 45 9 44
0.64841 -0.34788 -0.63961 78 18 44
0.65467 -0.35430 -0.63554 132 83 99
0.66831 -0.35841 -0.64004 188 127 100
0.67010 -0.36630 -0.63068 240 199 151
0.68031 -0.37158 -0.63107 254 248 222
0.67810 -0.38660 -0.62875 254 254 254
0.68391 -0.37892 -0.62379 254 253 225
0.68169 -0.39394 -0.62147 254 254 254
0.68789 -0.38615 -0.61694 254 254 247
0.68567 -0.40117 -0.61462 254 254 254
0.70131 -0.40740 -0.59805 252 252 253
0.70830 -0.41378 -0.59457 244 245 253
0.71307 -0.42082 -0.58857 226 238 251
0.71682 -0.42813 -0.58143 210 231 246
0.70665 -0.43924 -0.55888 186 222 238
0.69567 -0.45046 -0.53557 173 196 228
0.69525 -0.45877 -0.52401 164 167 232
0.73416 -0.45680 -0.55541 146 127 223
0.71053 -0.47932 -0.50745 82 88 189
0.69443 -0.49147 -0.47911 156 165 210
0.71325 -0.49491 -0.48835 231 238 247
0.99032 -0.99858 -0.01073 240 252 242
0.99253 -0.98364 -0.01304 254 254 254
0.98658 -0.99133 -0.01779 253 254 254
0.98281 -1.01310 0.01447 184 153 197
0.98780 -1.02030 0.02055 133 99 138
0.98560 -1.03516 0.02284 89 75 70
1.04775 -1.02778 -0.01360 90 67 97
1.04551 -1.04298 -0.01125 91 79 75
1.05607 -1.03519 -0.00970 82 67 85
1.05382 -1.05042 -0.00735 89 79 68
1.08217 -1.07230 0.02128 92 86 67
1.08576 -1.07970 0.02866 88 85 67
1.08350 -1.09497 0.03101 32 26 27
1.08794 -1.08706 0.03702 79 73 53
1.08569 -1.10232 0.03937 19 14 25
1.99907 -1.54083 -0.02124 35 26 21
1.98644 -1.54140 -0.03661 31 27 19
1.96679 -1.54445 0.00750 82 77 69
1.96395 -1.56370 0.01047 97 82 69
2.91844 -2.06001 0.00301 79 61 41
2.90320 -2.06070 -0.01554 81 61 52
2.92252 -2.07096 0.01484 69 45 32
2.93220 -2.08329 0.02438 54 11 28
2.92874 -2.10679 0.02801 39 6 7
2.95331 -2.18717 0.14950 50 17 24
2.92490 -2.18920 0.17324 72 51 18
2.91958 -2.19739 0.18825 85 67 29
2.91618 -2.22044 0.19181 89 73 33
2.90590 -2.20322 0.20626 92 76 40
2.90251 -2.22617 0.20980 93 75 43
2.86991 -2.21222 0.24503 103 80 48
2.86087 -2.22391 0.23782 102 81 46
2.86656 -2.23492 0.24854 112 89 48
2.85262 -2.21677 0.26395 109 92 54
2.84963 -2.22527 0.27767 124 107 79
2.85109 -2.23500 0.28978 144 130 124
2.85335 -2.24495 0.30159 174 153 137
2.85345 -2.25426 0.31412 184 147 112
2.86168 -2.26591 0.32384 118 74 67
2.86015 -2.27471 0.33688 101 71 84
2.86410 -2.28510 0.34804 114 92 116
2.85893 -2.29276 0.36223 92 73 125
2.85659 -2.30122 0.37542 77 85 146
2.85672 -2.31040 0.38775 137 162 178
2.86312 -2.32147 0.39802 166 180 202
2.86900 -2.33238 0.40846 168 181 198
2.87680 -2.34389 0.41829 173 180 188
2.88211 -2.35463 0.42892 172 174 181
2.88941 -2.36600 0.43892 166 163 164
2.89394 -2.37649 0.44979 132 116 116
2.86303 -2.37571 0.47156 83 72 67
2.85976 -2.39785 0.47498 62 65 69
2.86560 -2.38550 0.48292 65 68 66
2.87101 -2.39619 0.49340 62 54 51
2.86678 -2.40375 0.50677 29 29 77
2.85205 -2.40784 0.52319 101 128 177
2.85709 -2.41835 0.53370 185 206 224
2.87151 -2.44079 0.55345 213 212 202
2.91183 -2.46311 0.55390 164 136 119
2.91100 -2.47171 0.56617 116 85 75
2.87777 -2.50424 0.63476 100 90 73
2.86908 -2.51547 0.62783 102 92 74
2.86581 -2.50874 0.64969 94 80 67
2.85583 -2.52245 0.67564 85 80 79
2.81336 -2.51594 0.69818 122 129 133
2.79031 -2.51617 0.71552 157 161 169
2.78718 -2.53740 0.71880 176 173 178
0.51134 -0.22538 -0.72330 69 67 79
0.50556 -0.23285 -0.72791 65 63 72
0.52261 -0.23785 -0.71478 89 95 103
0.52046 -0.25238 -0.71253 69 62 85
0.53067 -0.24314 -0.71361 86 80 91
0.52852 -0.25771 -0.71136 74 59 74
0.53530 -0.24982 -0.70798 74 67 75
0.53315 -0.26440 -0.70573 78 62 88
0.54707 -0.27073 -0.68836 76 60 86
0.55597 -0.27583 -0.68808 83 65 104
0.56185 -0.28210 -0.68395 118 91 107
0.56290 -0.29017 -0.67377 153 146 145
0.57697 -0.29348 -0.67978 177 183 188
0.57480 -0.30817 -0.67751 100 104 159
0.59001 -0.30572 -0.67287 166 186 194
0.59940 -0.31087 -0.67289 130 136 171
0.60307 -0.31806 -0.66587 85 78 147
0.61754 -0.33001 -0.66043 43 7 43
0.61940 -0.33783 -0.65120 61 8 53
0.63563 -0.34089 -0.65916 112 64 99
0.63772 -0.34866 -0.65017 161 112 102
0.64202 -0.35570 -0.64380 218 177 129
0.65346 -0.36048 -0.64585 249 238 219
0.65125 -0.37544 -0.64354 254 254 254
0.66044 -0.36673 -0.64258 254 252 223
0.65823 -0.38171 -0.64027 254 254 254
0.66691 -0.37315 -0.63868 254 254 238
0.66470 -0.38815 -0.63636 254 254 254
0.67343 -0.37959 -0.63480 254 254 254
0.67121 -0.39461 -0.63248 254 254 254
0.68607 -0.40943 -0.60369 254 254 253
0.67634 -0.40988 -0.61554 254 254 254
0.68890 -0.41698 -0.59556 223 226 243
0.65681 -0.43433 -0.54801 173 139 230
0.66823 -0.45569 -0.52752 53 61 147
0.67610 -0.46173 -0.52518 30 36 116
0.68307 -0.46805 -0.52181 24 29 106
0.68538 -0.47558 -0.51330 23 32 107
0.68944 -0.48266 -0.50671 27 35 109
0.69236 -0.49003 -0.49887 11 20 116
0.69580 -0.49727 -0.49161 132 139 192
0.69921 -0.50451 -0.48432 227 233 245
0.70137 -0.51205 -0.47569 252 252 253
0.71095 -0.51161 -0.46402 254 254 254
0.70507 -0.51921 -0.46871 254 254 254
0.69919 -0.52682 -0.47341 254 253 252
0.94668 -0.97765 -0.02623 254 254 254
0.94886 -0.96285 -0.02851 254 254 254
0.94297 -0.97047 -0.03321 254 254 254
0.95257 -0.97003 -0.02152 254 254 254
0.95628 -0.97721 -0.01454 254 254 254
0.94726 -0.98487 -0.01685 247 254 254
0.95684 -0.98443 -0.00518 254 254 254
0.95096 -0.99204 -0.00987 233 247 246
0.95301 -0.99922 -0.00165 211 197 212
0.96538 -1.00635 -0.00120 172 139 169
1.00695 -1.01350 -0.02251 116 89 108
1.00472 -1.02856 -0.02019 90 76 73
1.02005 -1.02083 -0.02234 87 64 97
1.01782 -1.03594 -0.02001 91 81 71
1.02839 -1.02818 -0.01858 86 69 78
1.02615 -1.04333 -0.01624 92 83 72
1.07509 -1.07281 0.00719 79 78 55
1.06517 -1.07327 -0.00488 66 65 37
1.06900 -1.08069 0.00234 57 48 42
1.07283 -1.08810 0.00956 38 28 34
1.07972 -1.08025 0.01384 71 72 37
1.07746 -1.09555 0.01620 21 16 18
1.09350 -1.08796 0.01403 53 50 27
1.09123 -1.10332 0.01640 16 12 12
2.01687 -1.55486 -0.04105 32 29 22
2.00416 -1.55544 -0.05653 26 30 9
1.96782 -1.55575 -0.00321 83 79 68
1.96497 -1.57504 -0.00023 98 83 70
2.92232 -2.07533 -0.00994 79 58 41
2.90703 -2.07603 -0.02855 80 60 51
2.93595 -2.08867 -0.00199 67 40 23
2.94017 -2.09970 0.00984 51 7 19
2.93669 -2.12330 0.01348 42 9 5
2.94945 -2.19089 0.12681 35 9 16
2.95290 -2.16753 0.12320 34 11 9
2.94360 -2.17956 0.11578 31 7 8
2.93430 -2.19158 0.10836 32 8 10
2.96377 -2.20452 0.13464 52 23 24
2.93089 -2.20527 0.16020 74 53 18
2.92747 -2.22846 0.16378 83 64 32
2.92880 -2.21434 0.17409 85 64 28
2.92538 -2.23749 0.17766 87 73 35
2.83934 -2.23649 0.27099 119 93 58
2.82472 -2.23716 0.25319 110 87 48
2.83037 -2.24809 0.26383 117 90 48
2.83601 -2.25902 0.27446 122 95 46
2.84269 -2.24675 0.28243 121 100 63
2.84569 -2.25691 0.29399 131 107 82
2.84727 -2.26663 0.30602 151 122 114
2.85100 -2.27698 0.31729 161 135 112
2.85222 -2.28656 0.32941 166 134 92
2.84890 -2.30901 0.33287 156 148 99
2.85661 -2.29708 0.34042 145 115 61
2.85614 -2.30613 0.35306 104 77 62
2.85463 -2.31483 0.36601 53 35 89
2.84959 -2.32242 0.38009 95 94 118
2.84658 -2.33059 0.39343 111 115 153
2.84330 -2.35286 0.39687 96 71 81
2.84614 -2.33952 0.40590 118 129 169
2.86726 -2.35518 0.41140 143 150 175
2.87355 -2.36623 0.42172 152 160 184
2.88004 -2.37734 0.43198 154 162 183
2.90010 -2.39279 0.43799 147 144 129
2.86219 -2.38967 0.46206 99 83 57
2.86432 -2.40827 0.48573 85 77 71
2.83924 -2.41781 0.51743 128 148 163
2.85796 -2.43285 0.52387 182 200 215
2.86299 -2.44336 0.53441 205 213 217
2.87052 -2.45472 0.54422 201 201 192
2.90672 -2.47577 0.54580 155 133 116
2.90357 -2.48357 0.55874 125 102 79
2.90472 -2.49281 0.57043 108 93 74
2.90180 -2.50062 0.58323 88 80 72
2.89576 -2.50732 0.59684 85 77 66
2.88347 -2.51180 0.61210 93 84 73
2.88023 -2.53371 0.61549 105 92 81
2.85919 -2.52064 0.64225 100 92 68
2.85543 -2.52792 0.65495 84 70 75
2.82277 -2.52487 0.67519 101 102 122
2.77739 -2.51710 0.69852 139 147 157
2.77192 -2.52352 0.71132 167 167 174
2.71875 -2.52904 0.75853 181 178 185
2.72182 -2.50820 0.75531 165 159 166
2.71353 -2.51893 0.74869 172 169 176
2.72705 -2.51831 0.76515 160 150 160
2.73227 -2.52842 0.77498 175 171 181
2.65604 -2.52217 0.79601 195 190 186
2.66932 -2.52156 0.81218 187 183 189
2.66117 -2.53210 0.80568 192 183 181
2.64838 -2.53533 0.81961 189 187 195
0.50965 -0.23970 -0.72166 62 65 74
0.50024 -0.24013 -0.73312 67 61 78
0.51574 -0.24576 -0.71799 69 71 94
0.53801 -0.27101 -0.70039 110 83 110
0.53220 -0.27852 -0.70503 177 185 180
0.53586 -0.28559 -0.69814 169 184 181
0.54426 -0.27711 -0.69679 143 128 126
0.54210 -0.29171 -0.69454 148 160 183
0.54169 -0.28652 -0.68203 170 170 168
0.54920 -0.29215 -0.68002 181 194 184
0.55965 -0.29675 -0.68164 171 186 186
0.57212 -0.30068 -0.68570 147 153 192
0.56995 -0.31538 -0.68343 43 7 42
0.58366 -0.31348 -0.67697 53 53 109
0.58335 -0.32202 -0.66509 38 16 78
0.59844 -0.32523 -0.67211 44 3 37
0.60134 -0.33268 -0.66413 72 30 39
0.61105 -0.33784 -0.66443 138 86 84
0.61029 -0.34652 -0.65204 200 139 99
0.62605 -0.34975 -0.65952 245 221 211
0.62385 -0.36463 -0.65723 254 254 254
0.63287 -0.35598 -0.65619 254 251 223
0.63067 -0.37088 -0.65389 254 254 254
0.63965 -0.36224 -0.65278 254 254 231
0.63745 -0.37716 -0.65047 254 254 254
0.64626 -0.36857 -0.64913 254 254 254
0.64406 -0.38352 -0.64682 254 254 254
0.66832 -0.42053 -0.59497 254 253 249
0.65864 -0.42097 -0.60675 254 254 254
0.64530 -0.43531 -0.55744 161 170 198
0.64030 -0.44488 -0.54064 50 30 99
0.64505 -0.45170 -0.53492 24 32 116
0.65296 -0.45767 -0.53275 39 44 111
0.65079 -0.47237 -0.53048 65 69 96
0.66869 -0.46974 -0.52818 63 58 95
0.66282 -0.47734 -0.53287 69 66 95
0.66651 -0.48450 -0.52590 67 66 90
0.67658 -0.47582 -0.52585 66 63 88
0.67440 -0.49061 -0.52357 62 69 89
0.68042 -0.48296 -0.51902 65 68 87
0.68403 -0.49016 -0.51193 66 66 87
0.68640 -0.49766 -0.50348 25 38 103
0.68322 -0.51454 -0.47809 227 232 244
0.68715 -0.52162 -0.47140 251 250 247
0.68498 -0.53632 -0.46913 254 254 253
0.92616 -0.97105 -0.03927 254 254 254
0.92833 -0.95630 -0.04154 254 254 254
0.92246 -0.96389 -0.04623 254 254 254
0.93203 -0.96345 -0.03458 254 254 254
0.93264 -0.97816 -0.03447 244 252 247
0.93872 -0.98529 -0.02933 228 234 225
0.95100 -0.99238 -0.02894 196 181 211
0.94641 -0.99964 -0.01559 152 123 165
0.94423 -1.01442 -0.01331 92 75 74
0.99469 -1.01395 -0.03253 89 69 96
0.99247 -1.02899 -0.03020 96 81 75
1.01121 -1.02128 -0.03501 90 68 75
1.00898 -1.03640 -0.03267 95 83 80
1.04667 -1.05091 -0.02139 91 84 70
1.04442 -1.06616 -0.01903 63 58 34
1.05184 -1.05833 -0.01518 83 81 55
1.06174 -1.05788 -0.00313 84 76 57
1.04959 -1.07359 -0.01282 43 39 31
2.02645 -1.56774 -0.05659 36 33 23
2.01367 -1.56833 -0.07215 37 28 10
1.96896 -1.56712 -0.01404 84 79 70
1.96610 -1.58646 -0.01105 99 83 73
2.93015 -2.09173 -0.02460 77 55 43
2.91480 -2.09243 -0.04329 78 58 54
2.94983 -2.10665 -0.01913 65 34 19
2.95353 -2.11759 -0.00701 51 10 10
2.95003 -2.14131 -0.00335 41 9 4
2.97196 -2.21160 0.10720 38 10 17
2.95670 -2.21229 0.08862 33 11 14
2.96591 -2.21972 0.12285 58 35 24
2.95971 -2.22776 0.13848 75 57 23
2.95626 -2.25116 0.14209 83 63 38
2.83681 -2.26852 0.28681 124 96 59
2.82221 -2.26918 0.26904 120 94 51
2.82785 -2.28010 0.27966 124 95 55
2.83349 -2.29102 0.29028 127 95 55
2.84205 -2.27932 0.29757 126 98 75
2.84441 -2.28925 0.30933 129 107 92
2.84464 -2.29853 0.32180 145 126 95
2.84262 -2.31626 0.34750 163 134 79
2.84469 -2.32603 0.35925 101 65 45
2.83826 -2.33315 0.37381 132 116 82
2.83923 -2.34253 0.38586 122 96 73
2.84454 -2.36229 0.40879 103 76 85
2.82674 -2.36564 0.42679 105 96 130
2.82347 -2.38777 0.43021 95 64 93
2.88101 -2.40105 0.43408 136 141 146
2.84466 -2.39827 0.45773 121 117 107
2.85472 -2.41048 0.46678 79 79 69
2.82733 -2.41039 0.48733 126 137 114
2.83169 -2.42068 0.49806 131 125 119
2.82997 -2.42893 0.51061 143 150 163
2.84918 -2.44417 0.51689 167 180 195
2.84593 -2.46619 0.52028 187 192 199
2.85833 -2.45608 0.52621 190 197 198
2.86835 -2.46830 0.53529 185 183 170
2.89849 -2.48740 0.53858 155 134 121
2.89898 -2.49642 0.55050 134 113 82
2.89893 -2.50523 0.56255 112 99 77
2.88755 -2.51008 0.57776 71 65 63
2.88301 -2.51726 0.59096 70 67 65
2.87642 -2.52367 0.60468 91 85 69
2.87318 -2.54560 0.60806 107 92 69
2.85578 -2.53370 0.63392 100 90 63
2.85367 -2.54155 0.64622 75 64 55
2.84939 -2.54859 0.65905 91 96 108
2.76560 -2.52684 0.69265 133 143 158
2.75472 -2.53124 0.70686 151 156 174
2.73743 -2.53324 0.72264 156 158 180
2.73087 -2.53909 0.73556 165 163 180
2.69884 -2.53548 0.75482 183 183 193
2.65502 -2.52733 0.77680 204 213 220
2.65199 -2.54787 0.77997 207 204 215
2.64139 -2.53028 0.79111 210 215 219
2.63837 -2.55072 0.79426 215 212 218
2.63285 -2.54302 0.81491 195 191 198
0.50173 -0.24803 -0.72346 63 45 66
0.50669 -0.25454 -0.71834 78 66 82
0.50926 -0.26199 -0.71012 96 92 100
0.52200 -0.26549 -0.71505 136 127 128
0.52124 -0.27424 -0.70250 166 166 158
0.54951 -0.29742 -0.69238 110 111 168
0.54368 -0.30496 -0.69703 47 15 57
0.54735 -0.31206 -0.69012 55 12 65
0.55557 -0.30366 -0.68849 67 66 121
0.55341 -0.31831 -0.68623 95 57 83
0.56513 -0.30866 -0.68894 51 27 86
0.56296 -0.32335 -0.68667 154 107 81
0.57171 -0.32319 -0.67409 65 15 52
0.58560 -0.32679 -0.67977 120 70 98
0.59014 -0.33367 -0.67384 179 125 97
0.59758 -0.33958 -0.67143 237 202 152
0.60875 -0.34428 -0.67354 253 249 218
0.60656 -0.35913 -0.67125 254 254 254
0.61405 -0.35096 -0.66844 254 254 221
0.61186 -0.36583 -0.66614 254 254 254
0.61945 -0.35764 -0.66343 254 254 251
0.61725 -0.37251 -0.66114 254 254 254
0.65320 -0.43081 -0.58915 254 252 244
0.64356 -0.43125 -0.60088 254 254 254
0.64120 -0.44240 -0.56413 163 163 177
0.63877 -0.45124 -0.55021 68 43 69
0.63935 -0.45921 -0.53975 58 66 86
0.63719 -0.47388 -0.53749 64 72 99
0.64218 -0.46655 -0.53187 63 71 94
0.64002 -0.48122 -0.52960 68 74 102
0.66482 -0.50107 -0.50195 63 64 85
0.65529 -0.50151 -0.51356 60 67 84
0.66846 -0.50821 -0.49496 24 36 96
0.66629 -0.52291 -0.49269 142 150 187
0.66692 -0.52458 -0.47141 230 233 244
0.66476 -0.53921 -0.46915 252 253 252
0.67126 -0.53152 -0.46523 252 251 249
0.66910 -0.54616 -0.46297 254 254 254
0.89974 -0.96462 -0.04745 252 254 253
0.90190 -0.94995 -0.04971 254 254 254
0.89606 -0.95750 -0.05437 254 254 254
0.90558 -0.95707 -0.04279 254 254 254
0.91057 -0.97160 -0.04617 240 251 239
0.91320 -0.97876 -0.03839 220 219 199
0.92834 -0.98574 -0.04040 186 159 194
0.93724 -0.99286 -0.03745 139 115 133
0.93505 -1.00767 -0.03516 94 79 89
0.96415 -0.99989 -0.04838 101 84 127
0.96194 -1.01485 -0.04607 95 82 82
1.03541 -1.05135 -0.03241 91 84 60
1.03159 -1.04395 -0.03961 97 85 70
1.04492 -1.05884 -0.02943 80 76 48
1.04267 -1.07411 -0.02707 33 20 35
2.16043 -1.36486 -0.46235 14 7 12
2.16357 -1.34358 -0.46563 8 9 3
2.15510 -1.35454 -0.47239 11 8 5
2.16890 -1.35390 -0.45558 9 9 5
2.17424 -1.36423 -0.44554 9 9 8
2.16576 -1.37518 -0.45230 13 6 13
1.75181 -1.50171 0.03660 25 25 23
1.75451 -1.48343 0.03378 13 15 10
1.74724 -1.49284 0.02798 14 14 16
1.76367 -1.50116 0.05104 30 33 31
1.75639 -1.51057 0.04523 32 30 32
1.74912 -1.51998 0.03942 34 32 39
2.03045 -1.57983 -0.06923 45 36 21
2.01762 -1.58041 -0.08485 39 27 16
1.97527 -1.57941 -0.02769 86 80 70
1.97240 -1.59883 -0.02469 96 82 72
2.94841 -2.11086 -0.04374 73 51 51
2.93297 -2.11157 -0.06254 76 58 55
2.97734 -2.12823 -0.04207 59 24 23
2.97496 -2.13770 -0.02731 48 12 6
2.97143 -2.16159 -0.02362 34 6 5
2.97110 -2.23585 0.10984 62 44 30
2.96734 -2.24456 0.12462 76 58 33
2.96387 -2.26806 0.12824 84 61 41
2.83626 -2.30107 0.30191 124 97 66
2.82168 -2.30174 0.28415 126 97 55
2.82731 -2.31265 0.29476 124 98 61
2.83295 -2.32356 0.30538 125 98 59
2.83440 -2.30970 0.31512 124 98 68
2.83109 -2.33214 0.31858 126 98 56
2.83867 -2.32017 0.32618 129 109 82
2.83500 -2.32818 0.33994 138 112 78
2.83170 -2.35058 0.34340 75 71 37
2.82284 -2.33352 0.35651 91 80 47
2.81941 -2.34151 0.37006 150 149 102
2.82085 -2.35100 0.38194 189 165 113
2.82299 -2.36069 0.39356 189 153 87
2.82400 -2.37001 0.40553 164 124 49
2.83214 -2.38161 0.41517 123 86 60
2.84896 -2.40501 0.43432 101 74 87
2.83706 -2.41006 0.45031 103 88 102
2.83760 -2.41914 0.46233 98 98 108
2.81259 -2.42853 0.49425 130 145 142
2.83021 -2.44325 0.50092 157 172 187
2.84185 -2.45599 0.50946 177 190 200
2.86081 -2.48007 0.52792 192 191 189
2.85723 -2.48764 0.54099 188 180 163
2.87377 -2.50214 0.54820 160 141 94
2.87749 -2.51222 0.55914 121 87 42
2.87451 -2.51993 0.57196 62 34 29
2.88229 -2.53141 0.58172 60 54 53
2.86313 -2.53334 0.59898 92 87 64
2.84487 -2.54410 0.62762 98 85 54
2.83739 -2.54998 0.64137 70 65 60
2.83159 -2.55642 0.65461 84 93 105
2.80267 -2.55438 0.67388 112 121 139
2.79817 -2.56117 0.68659 117 119 146
2.75553 -2.55383 0.70911 128 129 167
2.71291 -2.54632 0.73136 162 160 185
2.68135 -2.54274 0.75055 185 183 195
2.65732 -2.54183 0.76766 200 202 211
2.65428 -2.56242 0.77083 206 206 218
2.58598 -2.53872 0.81785 219 220 219
2.57291 -2.53932 0.80193 210 209 219
2.58300 -2.55887 0.82096 206 205 217
2.57750 -2.54332 0.83060 211 210 208
0.46998 -0.23214 -0.74005 78 72 87
0.46637 -0.22515 -0.74685 78 79 93
0.47572 -0.22472 -0.73547 77 78 87
0.47933 -0.23171 -0.72867 76 80 91
0.47697 -0.23773 -0.73777 80 66 78
0.48633 -0.23730 -0.72637 73 77 90
0.47484 -0.25216 -0.73554 165 156 147
0.48407 -0.24332 -0.73558 82 70 77
0.49127 -0.24889 -0.73349 92 81 94
0.48913 -0.26337 -0.73126 183 192 193
0.48534 -0.25973 -0.71406 125 107 128
0.48321 -0.27414 -0.71183 168 177 187
0.48713 -0.26744 -0.70486 162 156 152
0.50583 -0.26854 -0.71778 184 191 179
0.50408 -0.27766 -0.70392 183 198 184
0.51412 -0.28223 -0.70539 163 176 177
0.51988 -0.28848 -0.70126 128 134 170
0.52699 -0.29424 -0.69886 84 81 133
0.53464 -0.29984 -0.69708 51 43 76
0.53248 -0.31443 -0.69483 135 90 99
0.57008 -0.32929 -0.68402 213 169 113
0.56422 -0.33687 -0.68870 253 252 222
0.56790 -0.34401 -0.68175 254 253 251
0.58095 -0.33398 -0.68598 245 230 210
0.57877 -0.34875 -0.68370 254 254 253
0.58643 -0.34054 -0.68121 252 248 218
0.58425 -0.35533 -0.67893 254 254 253
0.59304 -0.34674 -0.67780 253 252 235
0.59086 -0.36155 -0.67552 254 254 254
0.60156 -0.35234 -0.67669 254 254 254
0.59937 -0.36719 -0.67440 254 254 254
0.62430 -0.44490 -0.56729 254 252 244
0.61477 -0.44533 -0.57889 254 254 254
0.62432 -0.46115 -0.54502 69 46 77
0.62476 -0.46911 -0.53444 59 67 93
0.62260 -0.48372 -0.53218 65 68 95
0.64455 -0.52013 -0.47972 23 31 88
0.65037 -0.53461 -0.46436 232 238 245
0.86319 -0.95138 -0.05693 253 254 254
0.86534 -0.93684 -0.05918 254 254 254
0.85955 -0.94432 -0.06380 254 254 254
0.86898 -0.94389 -0.05231 254 254 254
0.87263 -0.95095 -0.04545 254 254 254
0.87111 -0.95833 -0.05352 247 254 253
0.88100 -0.96526 -0.05163 234 245 244
0.89033 -0.97224 -0.04926 211 196 217
0.88817 -0.98688 -0.04700 100 77 113
0.90851 -0.97911 -0.05386 173 142 187
0.92676 -0.98608 -0.05839 117 98 125
0.92457 -1.00091 -0.05610 97 82 89
0.94242 -0.99316 -0.06076 104 79 122
0.94022 -1.00806 -0.05845 99 86 85
0.95519 -1.00033 -0.06077 97 77 93
0.95298 -1.01529 -0.05846 102 87 82
1.02542 -1.05180 -0.04437 85 78 57
1.01553 -1.05225 -0.05640 73 64 52
1.01935 -1.05964 -0.04921 65 49 52
1.02317 -1.06703 -0.04201 57 41 49
1.05360 -1.06701 -0.04525 50 41 47
1.05134 -1.08237 -0.04288 24 13 28
2.14662 -1.36549 -0.47915 19 10 18
2.14977 -1.34421 -0.48244 9 9 4
2.14129 -1.35517 -0.48920 11 8 8
2.13282 -1.36612 -0.49596 10 8 4
2.14691 -1.37531 -0.46591 34 24 33
2.14848 -1.38523 -0.45352 32 20 32
2.16225 -1.38460 -0.43675 9 6 11
2.14957 -1.39507 -0.44085 22 10 24
2.16333 -1.39445 -0.42411 9 7 7
2.13883 -1.40361 -0.42086 15 7 12
2.15252 -1.40298 -0.40419 9 8 5
2.14412 -1.41385 -0.41090 9 7 5
1.76274 -1.50577 0.00942 15 14 15
1.76546 -1.48736 0.00657 10 9 8
1.75813 -1.49684 0.00073 10 7 8
1.75080 -1.50631 -0.00512 9 9 10
1.76003 -1.52417 0.01226 25 28 27
2.03251 -1.59166 -0.08090 46 37 24
2.01964 -1.59225 -0.09656 38 29 16
1.98054 -1.59162 -0.04087 87 80 70
1.97767 -1.61112 -0.03786 97 82 68
2.97392 -2.13202 -0.06609 69 48 53
3.00105 -2.14909 -0.06361 53 15 26
2.99749 -2.17321 -0.05989 34 4 7
2.99982 -2.15891 -0.04920 40 7 8
2.99626 -2.18298 -0.04548 30 5 5
2.96724 -2.24953 0.10023 60 43 33
2.97110 -2.26038 0.11214 75 55 41
2.96762 -2.28394 0.11578 83 58 40
2.81323 -2.33570 0.33724 124 96 54
2.79875 -2.33636 0.31961 125 99 58
2.80512 -2.35124 0.36482 100 102 77
2.81088 -2.36209 0.37525 144 135 118
2.81370 -2.37199 0.38665 175 157 125
2.82415 -2.38434 0.39553 193 170 114
2.82311 -2.39298 0.40818 197 168 99
2.81972 -2.40082 0.42155 191 154 84
2.80683 -2.40549 0.43790 170 124 50
2.83508 -2.42372 0.44111 132 86 54
2.83304 -2.44082 0.46614 100 65 76
2.82026 -2.44536 0.48223 92 82 98
2.79657 -2.44611 0.50153 101 113 144
2.81191 -2.46009 0.50887 132 155 177
2.84195 -2.47917 0.51186 161 178 197
2.85411 -2.49215 0.52029 177 192 208
2.86032 -2.50310 0.53051 188 196 200
2.86175 -2.51237 0.54213 191 189 171
2.85892 -2.52013 0.55495 155 135 112
2.84371 -2.52346 0.57126 95 60 48
2.85671 -2.53677 0.57947 83 69 62
2.85422 -2.54455 0.59207 103 97 69
2.84009 -2.54811 0.60785 104 94 66
2.84186 -2.55734 0.61916 90 76 58
2.83445 -2.56322 0.63293 76 75 66
2.83441 -2.57175 0.64466 92 104 94
2.78353 -2.56152 0.66989 95 103 96
2.77279 -2.56594 0.68423 70 67 89
2.74080 -2.56238 0.70403 83 74 110
2.71701 -2.56174 0.72151 152 153 170
2.68327 -2.55724 0.74137 192 192 194
2.67873 -2.56364 0.75364 200 197 204
0.44689 -0.22986 -0.74443 79 65 89
0.44901 -0.21553 -0.74664 75 78 91
0.44330 -0.22291 -0.75119 74 72 92
0.45260 -0.22248 -0.73988 77 80 93
0.45487 -0.23498 -0.74361 83 70 90
0.46166 -0.24062 -0.74114 95 81 101
0.46527 -0.24760 -0.73436 130 110 124
0.47611 -0.26010 -0.72560 183 188 180
0.47398 -0.27452 -0.72338 100 103 157
0.50094 -0.27567 -0.72355 138 141 186
0.51040 -0.28048 -0.72431 96 90 155
0.50874 -0.28956 -0.71053 58 49 100
0.51727 -0.29478 -0.71000 52 21 73
0.51512 -0.30934 -0.70775 180 123 105
0.51912 -0.30251 -0.70081 52 13 50
0.52784 -0.30771 -0.70045 74 41 49
0.53615 -0.32151 -0.68795 194 142 124
0.53981 -0.32858 -0.68106 236 207 197
0.55965 -0.33003 -0.69455 248 243 209
0.55748 -0.34475 -0.69228 254 254 252
0.60287 -0.45678 -0.55386 254 251 244
0.59342 -0.45721 -0.56537 254 254 254
0.58475 -0.46981 -0.52180 137 122 176
0.60561 -0.47215 -0.53485 64 42 74
0.60617 -0.48002 -0.52445 59 64 93
0.60403 -0.49454 -0.52221 64 68 85
0.62164 -0.52382 -0.47626 59 62 78
0.61225 -0.52425 -0.48769 67 69 81
0.62544 -0.53080 -0.46961 23 30 84
0.84207 -0.94501 -0.06867 252 254 253
0.84421 -0.93052 -0.07090 254 254 254
0.83844 -0.93798 -0.07551 254 254 254
0.84784 -0.93755 -0.06406 254 254 254
0.84702 -0.95200 -0.06290 243 251 243
0.85423 -0.95895 -0.05897 228 233 222
