ply
format ascii 1.0
element face 0
property list uchar int vertex_indices
element vertex 1326
property float x
property float y
property float z
property uchar diffuse_red
property uchar diffuse_green
property uchar diffuse_blue
end_header
3.27589 -2.02915 0.44632 182 179 175
3.28135 -2.00620 0.44429 182 181 179
3.27275 -2.01723 0.43503 181 180 178
3.26414 -2.02826 0.42578 181 177 179
3.28450 -2.01812 0.45558 183 183 175
3.28765 -2.03005 0.46686 158 159 161
3.21794 -2.01832 0.46742 146 142 158
3.22954 -2.01920 0.48768 149 155 157
3.21538 -2.02796 0.47945 146 152 170
3.13538 -2.01873 0.51486 165 178 191
3.10758 -2.01847 0.53039 148 152 171
3.05305 -2.00779 0.54971 123 117 138
3.02980 -2.00893 0.56420 99 93 109
3.00295 -2.01855 0.59002 99 94 96
2.97660 -2.01814 0.60457 124 124 130
2.97153 -2.03943 0.60646 180 177 172
2.94827 -2.01682 0.61925 166 166 159
2.94325 -2.03795 0.62112 176 177 173
2.94765 -2.02640 0.63010 180 178 174
2.94263 -2.04750 0.63197 173 173 175
2.97557 -2.06709 0.65884 171 172 171
2.98696 -2.08157 0.66824 165 164 168
2.97154 -2.08509 0.68087 125 126 134
2.96651 -2.10625 0.68274 56 43 36
2.91511 -2.07160 0.69819 76 71 77
2.93281 -2.08859 0.70676 73 75 87
2.92783 -2.10952 0.70861 92 91 102
2.93914 -2.11059 0.72728 77 79 79
2.93129 -2.12065 0.71884 101 96 97
2.93416 -2.13152 0.72913 96 93 97
2.94876 -2.35287 0.98751 64 48 80
2.93820 -2.35207 0.96905 84 75 83
2.94102 -2.36279 0.97920 32 27 46
2.94385 -2.37350 0.98934 52 66 82
2.95638 -2.36588 0.99744 42 44 71
2.95146 -2.38654 0.99927 112 122 131
0.96353 0.25803 -0.76130 114 146 225
0.96101 0.24989 -0.75090 102 129 205
0.96631 0.24392 -0.74740 56 89 165
0.99372 0.24392 -0.76317 31 44 108
1.00249 0.23876 -0.76256 21 28 88
1.00724 0.23249 -0.75840 22 19 67
1.00401 0.21893 -0.75720 19 10 27
1.01340 0.22657 -0.75545 19 17 53
1.01984 0.22069 -0.75269 14 15 40
1.02868 0.20783 -0.74365 16 10 28
1.02543 0.19418 -0.74244 50 51 56
1.03441 0.20169 -0.74022 29 12 47
1.03645 0.19463 -0.73363 35 27 57
1.03320 0.18096 -0.73242 33 27 55
1.04847 0.18998 -0.73544 50 44 57
1.03521 0.17172 -0.70775 11 7 17
1.03631 0.16446 -0.70042 18 9 16
1.03307 0.15084 -0.69921 109 113 136
1.04758 0.15953 -0.70148 29 36 33
1.17962 0.17370 -0.79305 144 152 144
1.19783 0.16973 -0.79917 130 130 166
1.22496 0.15951 -0.80355 99 117 152
1.23130 0.15278 -0.79981 105 111 182
1.24906 0.14837 -0.80519 123 162 207
1.26004 0.14248 -0.80504 143 182 225
1.26719 0.13578 -0.80179 144 183 230
1.27480 0.12913 -0.79887 147 175 238
1.27841 0.12168 -0.79277 137 169 230
1.28504 0.11479 -0.78901 93 143 217
1.28161 0.10600 -0.77738 73 134 227
1.28484 0.09846 -0.77097 81 134 226
1.28840 0.08285 -0.75587 107 150 229
1.29040 0.07509 -0.74849 144 173 217
1.29506 0.06778 -0.74314 179 190 206
1.28832 0.05856 -0.72914 169 176 164
1.30803 0.05370 -0.73514 123 116 101
1.28832 0.04243 -0.71143 123 143 156
1.30845 0.03754 -0.71764 178 199 206
1.31612 0.03695 -0.70424 249 249 243
1.31050 0.02976 -0.71027 225 235 237
1.58677 -0.01690 -0.81803 120 105 177
1.57477 -0.02715 -0.79987 158 165 193
1.58877 -0.03430 -0.80007 235 240 236
1.59212 -0.05152 -0.78308 254 253 243
1.58739 -0.06081 -0.77017 248 234 222
1.57714 -0.07062 -0.75349 221 177 184
1.56078 -0.08096 -0.73271 222 207 210
1.56465 -0.08923 -0.72585 207 206 200
1.54619 -0.09961 -0.70383 177 140 168
1.54968 -0.10786 -0.69677 199 151 151
1.55991 -0.11554 -0.69423 229 209 168
1.55991 -0.12412 -0.68480 228 207 143
1.56315 -0.13243 -0.67754 222 205 154
1.56827 -0.14060 -0.67151 233 216 177
1.57226 -0.14887 -0.66473 246 211 183
1.58519 -0.15651 -0.66378 231 188 178
1.60914 -0.16345 -0.66994 194 147 139
1.60605 -0.17231 -0.65843 172 125 98
1.60860 -0.18078 -0.65060 170 134 119
1.60592 -0.18957 -0.63940 183 161 157
1.59317 -0.19890 -0.62181 220 205 191
1.60118 -0.20702 -0.61750 248 242 230
1.61181 -0.22362 -0.60538 249 242 238
1.60570 -0.23146 -0.61195 247 233 227
1.65963 -0.30785 -0.54039 248 251 248
1.66354 -0.29140 -0.54185 253 251 247
1.65737 -0.29930 -0.54848 254 254 253
1.65571 -0.32429 -0.53894 202 188 186
1.65412 -0.31651 -0.52771 225 226 222
1.65038 -0.32510 -0.51612 198 172 184
1.65269 -0.33360 -0.50811 217 177 190
1.64533 -0.34217 -0.49447 236 229 196
1.66647 -0.35058 -0.49739 182 134 101
1.73371 -0.35909 -0.52675 99 32 12
1.73954 -0.36782 -0.52052 79 41 35
1.73016 -0.37649 -0.50560 73 63 55
1.21330 -0.69881 0.14593 42 39 39
1.20647 -0.69829 0.13399 51 42 39
1.20830 -0.70522 0.14055 44 39 38
1.24540 -0.71676 0.14717 117 119 100
1.24725 -0.72377 0.15380 123 112 95
1.23361 -0.72847 0.16681 58 44 33
1.23042 -0.74187 0.16800 27 25 18
1.23333 -0.73511 0.17427 25 23 14
1.23014 -0.74851 0.17545 32 31 22
1.78917 -1.03625 0.18511 14 12 17
1.78093 -1.03562 0.17071 14 9 7
1.78314 -1.04398 0.17863 11 8 7
1.79932 -1.04641 0.19043 17 21 30
1.80703 -1.05605 0.19658 25 32 42
1.80639 -1.06378 0.20544 35 37 53
1.81582 -1.07386 0.21109 43 49 62
1.80135 -1.07832 0.22431 63 75 83
1.79595 -1.08486 0.23461 83 95 98
1.79199 -1.09172 0.24441 88 78 70
1.78458 -1.09769 0.25524 69 39 37
1.78078 -1.11367 0.25666 45 20 27
1.88475 -1.14618 0.25085 116 110 131
1.87225 -1.15098 0.26331 185 202 209
1.88613 -1.17045 0.27671 205 200 196
1.90055 -1.18218 0.28129 209 217 237
1.88644 -1.18642 0.29407 242 251 254
1.88869 -1.19495 0.30214 254 254 254
2.44331 -1.47263 0.28793 249 254 254
2.44786 -1.45349 0.28624 254 254 254
2.44068 -1.46269 0.27852 253 254 254
2.45049 -1.46344 0.29565 254 254 254
2.45604 -1.48566 0.29491 244 248 250
2.47782 -1.50152 0.29980 225 218 237
2.46557 -1.50693 0.31279 193 184 215
2.44819 -1.51065 0.32688 159 138 185
2.49042 -1.54225 0.33729 222 227 241
2.51635 -1.55973 0.34156 241 251 253
2.53828 -1.57603 0.34684 230 229 245
2.58993 -1.60208 0.34573 192 190 224
2.59184 -1.61210 0.35563 157 158 177
2.69753 -1.65633 0.34338 104 89 78
2.72772 -1.67598 0.34759 43 17 25
2.74595 -1.69177 0.35443 71 57 73
2.73636 -1.69825 0.36707 141 127 139
2.74271 -1.71008 0.37641 190 191 186
2.73784 -1.73056 0.37823 181 158 157
2.74286 -1.71981 0.38701 182 166 180
2.75138 -1.73241 0.39595 189 177 186
2.74650 -1.75291 0.39777 228 210 178
2.76796 -1.74784 0.40335 208 197 187
2.78493 -1.76346 0.41075 211 188 186
2.79550 -1.76427 0.42922 178 172 179
2.82419 -1.78700 0.41400 190 173 175
2.83486 -1.78781 0.43263 175 176 180
2.82705 -1.79782 0.42424 175 168 171
3.19361 -2.02325 0.46087 128 110 141
3.20314 -2.03740 0.47094 127 134 174
3.19474 -2.04477 0.48386 149 167 187
3.15430 -2.03982 0.50169 135 141 148
3.07385 -2.01924 0.52540 106 110 113
3.05824 -2.02340 0.53895 92 91 102
3.03052 -2.02275 0.55419 95 85 100
3.00509 -2.02285 0.56894 104 101 108
2.94941 -2.01089 0.58784 141 143 143
2.94437 -2.03209 0.58972 175 178 174
2.96074 -2.02524 0.59709 172 174 167
2.95569 -2.04649 0.59898 174 175 171
2.95514 -2.06238 0.64110 170 170 171
2.95807 -2.07338 0.65150 166 164 167
2.97206 -2.08893 0.66053 137 137 131
2.89397 -2.06646 0.68080 66 70 57
2.88902 -2.08727 0.68264 91 84 85
0.93747 0.25312 -0.75608 98 127 201
0.97393 0.25592 -0.78038 83 115 185
0.97599 0.24899 -0.77396 64 86 154
0.99189 0.24583 -0.77975 32 56 107
1.00792 0.24261 -0.78553 22 22 57
1.00468 0.22900 -0.78432 12 11 34
1.01770 0.23764 -0.78575 16 19 49
1.02060 0.23081 -0.77993 18 14 35
1.02074 0.20812 -0.75505 33 27 48
1.02077 0.20057 -0.74676 37 41 45
1.03000 0.18774 -0.73802 37 40 42
1.04359 0.17587 -0.73287 25 15 59
1.15838 0.16329 -0.78585 110 138 163
1.15496 0.14894 -0.78458 54 63 76
1.22144 0.15287 -0.81109 93 134 158
1.22578 0.14572 -0.80574 92 114 181
1.22921 0.13836 -0.79965 76 100 174
1.23585 0.13163 -0.79612 72 77 163
1.25597 0.12752 -0.80330 64 68 152
1.28782 0.12555 -0.81967 67 83 156
1.29419 0.11855 -0.81568 63 74 163
1.30273 0.11194 -0.81337 48 71 166
1.30903 0.10487 -0.80927 44 83 173
1.31309 0.09737 -0.80338 61 97 180
1.28587 0.07621 -0.76426 148 178 211
1.28537 0.06801 -0.75495 172 192 210
1.28757 0.06028 -0.74772 182 196 210
1.28390 0.05159 -0.73603 182 190 193
1.28053 0.04298 -0.72459 159 168 147
1.28197 0.02713 -0.70800 102 124 136
1.31944 0.02476 -0.72719 152 177 187
1.32715 0.02417 -0.71371 248 250 250
1.32427 0.01734 -0.72185 207 220 231
1.33199 0.01675 -0.70836 253 254 251
1.34069 0.01158 -0.72507 242 247 247
1.34845 0.01099 -0.71150 254 254 250
1.35622 0.00561 -0.72753 251 250 242
1.37431 -0.00010 -0.73178 250 241 233
1.54492 -0.03777 -0.78965 172 176 185
1.57557 -0.04300 -0.80174 240 242 239
1.57694 -0.05162 -0.79305 253 251 244
1.57919 -0.06015 -0.78498 251 252 242
1.57205 -0.06964 -0.77038 246 242 221
1.54944 -0.08064 -0.74513 197 175 171
1.54468 -0.08974 -0.73235 179 162 173
1.52759 -0.09995 -0.71116 171 134 134
1.53449 -0.10787 -0.70647 193 152 160
1.54295 -0.11567 -0.70281 232 223 210
1.53912 -0.13179 -0.70138 252 248 236
1.53241 -0.12513 -0.68627 251 250 227
1.53082 -0.13377 -0.67584 237 233 201
1.55709 -0.14020 -0.68406 223 208 166
1.56640 -0.14806 -0.68083 230 196 174
1.56784 -0.15653 -0.67235 239 190 197
1.57191 -0.16482 -0.66560 238 190 199
1.57565 -0.17314 -0.65862 228 199 178
1.58024 -0.18141 -0.65219 221 204 160
1.58402 -0.18975 -0.64522 206 183 143
1.58798 -0.19809 -0.63835 196 173 144
1.58411 -0.21434 -0.63691 207 187 171
1.58224 -0.20696 -0.62524 215 203 186
1.59327 -0.21493 -0.62290 241 236 230
1.60052 -0.22313 -0.61810 247 238 233
1.62632 -0.29915 -0.54950 249 253 253
1.63021 -0.28283 -0.55094 254 254 251
1.62409 -0.29067 -0.55752 254 254 254
1.63244 -0.29131 -0.54292 254 254 252
1.63371 -0.30753 -0.54458 241 239 241
1.62037 -0.31626 -0.52721 226 208 211
1.63609 -0.33304 -0.51789 220 199 205
1.64033 -0.34151 -0.51104 245 232 228
1.63644 -0.35784 -0.50960 254 254 252
1.63825 -0.35001 -0.50048 251 248 238
1.64481 -0.35848 -0.49498 237 216 186
1.68697 -0.36706 -0.51009 195 146 92
1.73404 -0.38461 -0.51817 81 44 25
1.67714 -0.41821 -0.44810 101 94 65
1.67098 -0.42610 -0.45472 104 108 109
1.21038 -0.71219 0.14700 64 57 47
1.20355 -0.71167 0.13507 47 39 34
1.24560 -0.72402 0.13951 118 120 99
1.24745 -0.73104 0.14616 126 115 96
1.23586 -0.73602 0.15839 60 47 33
1.43743 -0.88137 0.20096 25 17 9
1.44085 -0.86700 0.19969 19 15 10
1.43546 -0.87390 0.19389 20 16 10
1.44282 -0.87446 0.20675 21 18 10
1.44479 -0.88193 0.21382 24 18 11
1.78755 -1.05285 0.18581 12 10 13
1.77930 -1.05222 0.17140 13 10 6
1.78151 -1.06059 0.17932 13 9 6
1.78371 -1.06895 0.18724 12 8 7
1.79512 -1.06246 0.19198 16 12 20
1.79128 -1.07859 0.19340 13 8 8
1.79217 -1.06963 0.20158 18 13 24
1.78834 -1.08573 0.20301 13 8 8
1.77492 -1.07338 0.21575 20 15 26
1.77112 -1.08938 0.21717 16 9 10
1.76079 -1.07778 0.22882 25 21 35
1.73812 -1.08003 0.24448 30 29 46
1.73609 -1.08720 0.25355 38 26 38
1.73234 -1.10296 0.25495 34 18 25
1.75289 -1.09901 0.25677 42 21 30
1.88051 -1.17053 0.26117 153 159 173
1.87659 -1.18699 0.26263 113 104 143
1.88631 -1.18001 0.26822 189 190 219
1.88239 -1.19649 0.26968 114 117 157
1.88177 -1.19470 0.28702 223 233 251
1.88449 -1.20336 0.29497 249 254 254
1.89290 -1.20400 0.30967 254 254 254
1.88674 -1.21190 0.30304 254 254 254
2.38271 -1.44746 0.27350 249 253 254
2.38721 -1.42857 0.27182 254 254 254
2.38012 -1.43765 0.26421 253 254 254
2.38980 -1.43838 0.28111 254 254 254
2.42177 -1.46833 0.27372 243 248 250
2.42685 -1.47899 0.28250 221 226 239
2.46969 -1.50131 0.28211 202 199 221
2.45327 -1.50542 0.29618 171 148 185
2.47356 -1.52092 0.30143 143 102 155
2.46543 -1.53670 0.32352 177 183 213
2.44256 -1.53851 0.33882 214 224 241
2.49421 -1.56427 0.33710 191 190 218
2.52292 -1.58280 0.34077 143 143 185
2.61958 -1.63322 0.33997 63 47 89
2.70616 -1.67149 0.33168 33 28 41
2.72266 -1.68668 0.33879 67 50 60
2.72616 -1.69754 0.34870 143 131 135
2.72129 -1.71801 0.35051 189 181 173
2.72257 -1.70600 0.36009 188 183 179
2.71771 -1.72643 0.36190 189 171 159
2.73146 -1.71870 0.36889 190 181 181
2.73921 -1.74070 0.38858 205 193 187
2.75909 -1.76700 0.40594 229 207 171
2.80232 -1.79202 0.40830 194 167 157
2.79739 -1.81277 0.41014 133 105 85
2.77759 -1.79295 0.42372 162 141 134
2.78815 -1.79375 0.44216 173 172 175
2.78042 -1.80366 0.43385 163 155 151
2.77269 -1.81356 0.42554 146 127 104
3.27386 -2.05693 0.42526 183 178 162
3.26206 -2.05603 0.40465 173 174 179
3.17308 -2.04003 0.46534 101 86 125
3.15218 -2.04252 0.48023 107 118 138
3.09327 -2.03021 0.50099 101 103 114
3.08510 -2.03732 0.51356 93 92 97
3.06215 -2.03860 0.52833 100 90 98
3.04447 -2.04183 0.54217 113 113 130
3.00949 -2.03811 0.55844 153 160 157
3.00436 -2.05968 0.56035 174 176 172
2.97308 -2.03365 0.57473 173 179 176
2.96800 -2.05502 0.57662 172 177 169
2.94097 -2.06019 0.62262 169 169 168
2.93807 -2.04921 0.61223 171 173 170
2.93014 -2.05937 0.60370 167 169 168
2.95213 -2.07456 0.63193 163 164 164
2.95731 -2.08650 0.64205 146 143 131
2.95227 -2.10770 0.64393 83 69 76
2.88868 -2.06788 0.66151 88 79 66
2.88373 -2.08871 0.66335 108 111 102
2.89024 -2.07816 0.67191 64 57 66
2.88529 -2.09898 0.67375 115 118 105
2.72064 -2.22547 0.93269 54 51 58
2.72532 -2.20583 0.93095 62 61 66
2.71795 -2.21526 0.92303 53 57 60
2.71058 -2.22470 0.91511 49 55 66
2.72334 -2.23567 0.94234 68 65 75
2.71597 -2.24511 0.93443 69 78 79
2.94187 -2.36747 0.96013 63 46 52
2.94679 -2.34678 0.95830 117 125 123
2.93904 -2.35672 0.94996 102 103 89
2.93128 -2.36666 0.94162 85 73 76
2.94159 -2.37671 0.97046 54 43 72
2.94442 -2.38745 0.98062 87 92 104
0.93320 0.30644 -0.82758 127 165 241
0.93637 0.31977 -0.82876 133 168 245
0.93137 0.31337 -0.83414 129 168 245
0.93819 0.31285 -0.82221 131 168 243
0.94002 0.30592 -0.81566 129 167 241
0.94378 0.30218 -0.82912 124 159 240
0.95064 0.30166 -0.81715 128 162 241
0.93679 0.29258 -0.81442 120 158 238
0.94439 0.28737 -0.81316 116 153 229
0.94334 0.25722 -0.77932 71 99 170
0.93730 0.24810 -0.76572 53 67 135
0.99177 0.25579 -0.80625 33 43 97
0.99271 0.24848 -0.79875 17 19 68
0.98948 0.23490 -0.79754 10 9 26
0.99217 0.24078 -0.78994 13 11 48
0.98894 0.22721 -0.78874 9 8 30
1.00574 0.23685 -0.79361 12 10 38
1.01717 0.22468 -0.78693 29 23 27
1.03241 0.21337 -0.78344 39 56 55
1.02345 0.20352 -0.76730 49 53 61
1.01659 0.19425 -0.75306 31 31 36
1.02215 0.18807 -0.74951 24 20 44
1.02789 0.18190 -0.74610 15 24 41
1.02463 0.16822 -0.74488 29 30 58
1.04288 0.17789 -0.75050 28 37 63
1.27266 0.13288 -0.83616 5 5 41
1.26909 0.11788 -0.83483 18 16 23
1.25781 0.12182 -0.81523 6 6 40
1.25427 0.10692 -0.81391 17 16 23
1.25788 0.11370 -0.80633 6 7 43
1.25434 0.09881 -0.80501 14 17 22
1.25884 0.10576 -0.79815 5 5 45
1.25530 0.09088 -0.79683 16 16 21
1.25668 0.09726 -0.78751 7 8 44
1.25314 0.08241 -0.78619 16 17 26
1.26220 0.09017 -0.78295 8 9 46
1.25866 0.07530 -0.78163 16 16 28
1.24764 0.07148 -0.75378 4 19 73
1.26262 0.06602 -0.75658 41 55 109
1.22163 0.05110 -0.71601 84 97 160
1.26672 0.05060 -0.74201 114 137 189
1.27232 0.04347 -0.73744 141 161 189
1.27035 0.03511 -0.72708 150 165 177
1.25861 0.01730 -0.70054 80 95 123
1.24524 0.00735 -0.68172 51 74 134
1.25779 0.00127 -0.68240 108 127 187
1.30551 0.00011 -0.70921 190 210 233
1.33707 -0.00358 -0.72372 232 239 235
1.35678 -0.00907 -0.72928 241 235 226
1.38469 -0.01358 -0.74073 243 228 217
1.49667 -0.03321 -0.78501 214 198 174
1.51580 -0.04819 -0.77977 196 194 179
1.54921 -0.05312 -0.79400 237 244 236
1.54993 -0.06174 -0.78492 242 243 232
1.52722 -0.07280 -0.75937 232 223 220
1.54637 -0.07948 -0.76329 209 194 196
1.50403 -0.09227 -0.72427 172 137 129
1.50963 -0.10025 -0.71877 151 105 125
1.53523 -0.10642 -0.72705 195 161 162
1.53943 -0.11462 -0.72048 239 230 212
1.51172 -0.14251 -0.67344 252 248 231
1.50574 -0.15017 -0.67987 249 241 230
1.50792 -0.15846 -0.67203 250 243 232
1.50517 -0.15146 -0.65973 253 245 219
1.50139 -0.16736 -0.65832 251 246 234
1.51373 -0.15925 -0.65618 248 231 217
1.52031 -0.16722 -0.65127 243 222 223
1.51651 -0.18318 -0.64986 252 249 240
1.52539 -0.17532 -0.64534 248 231 226
1.52159 -0.19129 -0.64393 252 250 244
1.53553 -0.18311 -0.64273 252 244 229
1.53172 -0.19913 -0.64131 253 251 244
1.54100 -0.19123 -0.63700 253 250 229
1.55161 -0.19908 -0.63460 253 243 210
1.56556 -0.20679 -0.63430 226 205 175
1.57113 -0.22352 -0.61915 220 207 201
1.59016 -0.23115 -0.62195 239 228 223
1.58533 -0.23990 -0.60946 249 241 236
1.58147 -0.25612 -0.60803 254 254 253
1.59024 -0.29066 -0.55642 252 254 253
1.59409 -0.27449 -0.55786 254 254 253
1.58802 -0.28226 -0.56437 254 254 254
1.59630 -0.28289 -0.54990 254 254 253
1.59880 -0.29892 -0.55235 245 248 243
1.59494 -0.31513 -0.55092 202 195 167
1.61017 -0.30717 -0.54996 226 225 210
1.61798 -0.32402 -0.53599 213 182 189
1.63199 -0.33237 -0.53505 226 219 208
1.62810 -0.34871 -0.53360 254 254 253
1.63284 -0.34087 -0.52618 248 240 241
1.62895 -0.35721 -0.52473 254 254 254
1.63016 -0.34937 -0.51523 254 254 250
1.62628 -0.36568 -0.51378 254 254 254
1.63249 -0.36632 -0.49794 254 250 239
1.62638 -0.37415 -0.50451 254 254 253
1.63574 -0.37479 -0.49051 247 236 200
1.62593 -0.38316 -0.47551 221 200 144
1.67565 -0.39212 -0.49491 187 151 95
1.73119 -0.41012 -0.50776 81 44 31
1.69531 -0.41809 -0.47786 93 60 85
1.68273 -0.44337 -0.44260 81 60 38
1.69116 -0.44402 -0.42787 77 66 54
1.68279 -0.45186 -0.43328 78 63 55
1.69121 -0.45250 -0.41856 77 65 53
1.68504 -0.46041 -0.42519 76 64 52
1.21941 -0.72066 0.13564 65 58 39
1.21254 -0.72013 0.12363 49 43 34
1.23853 -0.73021 0.13491 118 121 101
1.24038 -0.73723 0.14156 128 118 99
1.24112 -0.74408 0.14866 63 50 33
1.23760 -0.75024 0.15753 26 24 18
1.23944 -0.75724 0.16416 25 25 24
1.23439 -0.76372 0.15872 26 26 17
1.41380 -0.87763 0.19417 24 15 10
1.41719 -0.86334 0.19291 16 17 9
1.41184 -0.87021 0.18715 15 13 11
1.42913 -0.88770 0.19625 41 41 27
1.42716 -0.89437 0.20475 56 59 49
1.45338 -0.90675 0.20296 36 20 9
1.46079 -0.90731 0.21591 25 20 13
1.45536 -0.91427 0.21007 27 19 11
1.44994 -0.92122 0.20424 24 19 13
1.90164 -1.20965 0.27285 169 181 202
1.88026 -1.21178 0.28779 227 238 250
1.87461 -1.21814 0.29812 244 250 254
1.88301 -1.21878 0.31279 254 254 254
1.86772 -1.22412 0.30876 250 253 254
1.87609 -1.22475 0.32338 254 254 254
1.86996 -1.23261 0.31679 254 254 254
2.32859 -1.43333 0.26800 243 246 249
2.33303 -1.41468 0.26635 254 254 254
2.32604 -1.42364 0.25883 250 253 253
2.31904 -1.43260 0.25130 228 233 239
2.37208 -1.45546 0.26678 220 226 237
2.38293 -1.46779 0.27399 202 202 219
2.43041 -1.49148 0.27214 167 145 192
2.44152 -1.50407 0.27947 151 116 187
2.45110 -1.51622 0.28722 139 116 168
2.44946 -1.53400 0.30777 175 172 204
2.43474 -1.54747 0.33128 139 144 179
2.44023 -1.55832 0.34001 106 100 150
2.46990 -1.57714 0.34327 72 78 104
2.65351 -1.65662 0.32277 30 23 31
2.67238 -1.67251 0.32917 23 21 48
2.72051 -1.69838 0.32935 108 102 118
2.70376 -1.70235 0.34359 177 174 172
2.69890 -1.72274 0.34540 190 180 167
2.71731 -1.73593 0.37260 205 184 155
2.71903 -1.74616 0.38286 232 212 190
2.72344 -1.75733 0.39257 230 210 178
2.71858 -1.77774 0.39438 123 82 69
2.73412 -1.77074 0.40106 198 174 133
2.72925 -1.79120 0.40287 83 55 54
2.71117 -1.77214 0.41612 134 92 87
2.70633 -1.79247 0.41792 127 113 84
3.30568 -2.08336 0.40909 180 178 158
3.29378 -2.08245 0.38829 171 173 173
3.18249 -2.04715 0.44171 149 118 87
3.18901 -2.06020 0.45225 81 51 57
3.15787 -2.05871 0.46893 71 75 88
3.11314 -2.05176 0.48760 91 89 99
3.08823 -2.05234 0.50291 101 97 101
3.07986 -2.05931 0.51551 136 134 136
3.07463 -2.08130 0.51746 175 175 174
3.04109 -2.05417 0.53267 168 170 166
3.03590 -2.07595 0.53460 175 173 170
2.99834 -2.04725 0.55021 177 178 170
2.99321 -2.06880 0.55212 173 173 167
2.94739 -2.07624 0.61214 163 162 165
2.93327 -2.08023 0.62485 134 129 136
2.89235 -2.07302 0.64098 89 68 89
2.88738 -2.09392 0.64284 109 114 99
2.79125 -2.18031 0.81871 102 103 108
2.79605 -2.16014 0.81693 93 93 99
2.78849 -2.16983 0.80880 96 96 101
2.79882 -2.17062 0.82684 98 100 105
2.80158 -2.18110 0.83676 103 107 110
2.79395 -2.19076 0.82864 109 111 116
2.80428 -2.19154 0.84668 111 112 119
2.79671 -2.20123 0.83855 117 119 123
2.93219 -2.37648 0.95190 64 48 51
2.92160 -2.37567 0.93340 68 68 63
2.92443 -2.38641 0.94356 71 78 61
2.92727 -2.39715 0.95373 86 89 83
2.92326 -2.38150 0.96268 66 63 82
2.91784 -2.38818 0.97324 111 117 125
2.92066 -2.39887 0.98335 129 133 141
2.91294 -2.40875 0.97506 131 132 143
0.91655 0.30393 -0.83032 123 159 241
0.92911 0.29284 -0.82555 112 144 215
0.91586 0.28142 -0.80506 99 128 201
0.92667 0.27720 -0.80684 79 107 178
0.94541 0.27523 -0.81583 57 84 152
0.94747 0.26086 -0.80119 40 58 114
0.98847 0.26493 -0.83009 24 33 82
0.98277 0.25575 -0.81656 14 18 55
0.97954 0.24218 -0.81536 8 10 24
1.01311 0.22598 -0.80177 19 13 29
1.00609 0.22652 -0.81403 7 8 25
1.00797 0.21940 -0.80729 8 8 29
1.01200 0.18783 -0.75901 11 7 24
1.01741 0.18160 -0.75535 16 12 33
1.02497 0.17585 -0.75351 20 22 43
1.05077 0.16671 -0.75878 30 31 62
1.04559 0.16007 -0.76435 37 28 47
1.04748 0.15288 -0.75755 29 23 48
1.06931 0.16331 -0.76606 26 28 58
1.06599 0.14938 -0.76482 23 21 41
1.09295 0.16095 -0.77752 18 23 54
1.08961 0.14689 -0.77627 17 20 25
1.22581 0.02983 -0.71190 73 98 141
1.24740 0.02528 -0.71973 99 133 157
1.23555 0.01551 -0.70190 92 100 131
1.23830 0.00801 -0.69526 67 86 129
1.23589 -0.00025 -0.68471 39 59 127
1.24746 -0.00649 -0.68471 15 66 139
1.26406 -0.01209 -0.68841 85 134 192
1.27455 -0.01861 -0.68746 156 195 215
1.30524 -0.02250 -0.70143 175 194 200
1.35136 -0.02456 -0.72660 196 200 195
1.46636 -0.03525 -0.78325 201 203 187
1.49008 -0.04956 -0.78159 150 129 137
1.48705 -0.05845 -0.76997 188 187 189
1.48373 -0.06735 -0.75818 198 203 207
1.49049 -0.07515 -0.75359 192 197 184
1.50918 -0.08177 -0.75740 189 153 165
1.50225 -0.09102 -0.74307 178 120 171
1.50529 -0.09926 -0.73579 187 140 137
1.50499 -0.10781 -0.72617 189 150 112
1.50118 -0.12382 -0.72475 204 189 151
1.50437 -0.11638 -0.71635 214 202 171
1.51029 -0.13286 -0.70168 248 242 232
1.50319 -0.17564 -0.65025 252 247 238
1.49505 -0.17502 -0.66447 249 239 231
1.49723 -0.18328 -0.65665 250 242 234
1.49940 -0.19153 -0.64884 250 245 238
1.53543 -0.20737 -0.63442 252 243 227
1.55113 -0.21499 -0.63535 235 218 196
1.56308 -0.22288 -0.63376 215 193 174
1.55788 -0.23162 -0.62102 218 202 193
1.57603 -0.23931 -0.62334 240 233 227
1.57217 -0.25552 -0.62190 253 252 248
1.57372 -0.24791 -0.61247 252 250 247
1.56987 -0.26410 -0.61104 254 254 254
1.56193 -0.29053 -0.55842 251 252 247
1.56575 -0.27447 -0.55984 254 254 254
1.55972 -0.28219 -0.56631 254 254 254
1.56425 -0.29887 -0.55060 242 228 215
1.57836 -0.30698 -0.55004 221 200 178
1.60614 -0.32344 -0.54842 217 198 183
1.61610 -0.33180 -0.54511 236 225 219
1.61222 -0.34811 -0.54367 254 254 254
1.61771 -0.34028 -0.53672 251 252 245
1.61383 -0.35658 -0.53528 254 254 254
1.62488 -0.38258 -0.49430 254 254 247
1.61655 -0.38195 -0.50887 254 254 254
1.61878 -0.39041 -0.50086 254 254 254
1.62101 -0.39886 -0.49286 254 254 253
1.62514 -0.39102 -0.48515 254 251 233
1.62721 -0.39947 -0.47706 249 238 201
1.60574 -0.40752 -0.45539 223 206 147
1.65756 -0.41687 -0.47591 191 156 110
1.67929 -0.42584 -0.47895 150 113 79
1.67621 -0.43428 -0.46780 98 83 74
1.66870 -0.44257 -0.45418 115 100 84
1.67510 -0.45124 -0.44842 91 70 62
1.67889 -0.45985 -0.44118 77 57 30
1.67497 -0.47631 -0.43972 76 58 25
1.67925 -0.46833 -0.43204 74 61 41
1.68768 -0.46897 -0.41731 76 64 51
1.68151 -0.47688 -0.42394 75 63 49
1.21385 -0.72702 0.13046 65 58 39
1.20698 -0.72650 0.11845 55 44 37
1.24079 -0.73782 0.12634 118 116 101
1.24265 -0.74486 0.13300 130 119 99
1.24560 -0.75207 0.13920 64 53 33
1.24286 -0.75838 0.14779 25 25 15
1.23965 -0.77191 0.14899 34 31 24
1.39321 -0.87447 0.18642 27 20 22
1.39660 -0.86026 0.18516 16 16 16
1.39127 -0.86709 0.17943 17 13 15
1.41394 -0.88558 0.18635 50 61 54
1.41214 -0.89226 0.19479 87 97 82
1.41655 -0.90019 0.20091 90 88 74
1.44906 -0.91393 0.19672 34 18 7
1.44561 -0.92840 0.19801 24 21 18
1.76607 -1.09731 0.21041 28 16 8
1.76388 -1.08899 0.20253 22 14 5
1.80017 -1.19150 0.29406 146 142 153
1.84501 -1.21948 0.29824 207 203 212
1.84033 -1.24157 0.32542 249 252 254
1.84863 -1.24221 0.33993 254 254 254
1.84255 -1.25000 0.33339 253 254 254
2.27397 -1.42780 0.27283 205 200 213
2.26454 -1.42708 0.25636 180 152 191
2.38559 -1.47990 0.26389 152 118 180
2.42805 -1.50218 0.26321 139 102 171
2.41495 -1.50720 0.27654 166 134 199
2.40972 -1.51463 0.28785 168 169 198
2.42086 -1.52725 0.29515 179 165 200
2.43236 -1.54912 0.31244 124 109 144
2.41672 -1.55309 0.32613 79 79 106
2.42431 -1.56462 0.33434 68 75 102
2.46370 -1.58672 0.33528 58 64 68
2.64139 -1.67430 0.32617 17 28 46
2.69179 -1.70104 0.32568 111 128 140
2.70943 -1.71673 0.33250 168 169 174
2.71461 -1.73784 0.35271 209 189 157
2.70694 -1.74767 0.34446 227 207 165
2.71139 -1.74635 0.36401 233 213 178
2.71115 -1.75588 0.37468 230 208 177
2.71518 -1.76692 0.38447 188 162 132
2.71032 -1.78734 0.38627 77 51 53
3.37958 -2.09293 0.34878 156 160 168
3.38522 -2.06922 0.34668 153 148 148
3.37633 -2.08061 0.33712 132 116 111
3.36744 -2.09201 0.32756 128 118 106
3.39173 -2.09386 0.37000 171 173 175
3.38283 -2.10525 0.36044 167 172 171
3.34586 -2.11325 0.39127 177 177 166
3.33383 -2.11233 0.37025 169 172 169
3.33705 -2.12454 0.38180 174 173 169
3.17272 -2.06804 0.44444 104 69 75
3.14946 -2.06949 0.45988 90 76 85
3.10617 -2.06295 0.47843 110 110 127
3.10089 -2.08515 0.48040 175 178 171
3.10213 -2.07169 0.49048 148 155 155
3.09686 -2.09385 0.49244 175 174 176
3.06810 -2.06848 0.50719 174 177 170
3.06287 -2.09045 0.50914 172 171 173
2.97396 -2.09081 0.58787 164 163 165
2.97905 -2.06941 0.58598 170 173 168
2.97102 -2.07969 0.57735 168 169 167
2.90003 -2.07985 0.61978 72 51 70
2.89503 -2.10085 0.62164 106 111 104
2.89763 -2.08855 0.63081 78 66 78
2.89264 -2.10952 0.63266 118 118 110
2.79809 -2.19656 0.80925 109 107 109
2.79660 -2.20512 0.81959 115 117 120
2.79817 -2.21508 0.82963 121 126 129
2.80095 -2.22558 0.83957 101 106 115
2.90414 -2.39512 0.96526 119 128 137
2.89925 -2.41567 0.96708 132 134 144
0.89091 0.29121 -0.81622 105 133 206
0.91396 0.29083 -0.82967 89 115 189
0.91409 0.28343 -0.82157 75 100 166
0.91439 0.27609 -0.81364 61 87 138
0.94900 0.27129 -0.82915 35 38 81
0.94580 0.25784 -0.82796 15 9 38
0.97535 0.27131 -0.84505 29 28 66
0.97212 0.25772 -0.84384 10 9 32
0.97803 0.26448 -0.83911 20 21 55
0.97479 0.25088 -0.83790 9 7 27
0.97923 0.25723 -0.83182 13 12 42
0.97600 0.24364 -0.83061 9 7 20
0.98011 0.24990 -0.82424 9 10 28
0.97687 0.23631 -0.82303 9 8 22
1.02329 0.21571 -0.81244 14 11 29
1.01623 0.21625 -0.82478 9 10 25
1.01812 0.20909 -0.81800 7 8 25
1.02001 0.20193 -0.81122 7 8 21
1.01376 0.17539 -0.76213 11 8 28
1.00676 0.17592 -0.77436 8 6 14
1.02486 0.17045 -0.76335 20 17 41
1.03921 0.16621 -0.76730 45 37 44
1.15134 0.01973 -0.67287 10 10 17
1.14405 0.02028 -0.68560 19 17 25
1.18399 0.00935 -0.68105 25 57 105
1.21457 0.00615 -0.69593 34 79 145
1.22565 -0.00008 -0.69570 50 102 171
1.22217 -0.01470 -0.69441 60 122 197
1.22822 -0.00759 -0.68895 57 112 172
1.23536 -0.01447 -0.68564 35 95 159
1.25151 -0.02014 -0.68909 23 85 153
1.27290 -0.02521 -0.69636 40 95 170
1.27745 -0.03259 -0.69094 62 80 133
1.41952 -0.04770 -0.75974 129 95 109
1.43742 -0.05403 -0.76352 122 63 71
1.43463 -0.06276 -0.75219 128 84 102
1.47585 -0.06669 -0.77265 156 111 142
1.49545 -0.08171 -0.76785 151 134 141
1.46254 -0.09351 -0.73499 179 164 161
1.47652 -0.10061 -0.73557 221 205 190
1.48624 -0.10817 -0.73306 241 225 183
1.48427 -0.11682 -0.72231 221 209 167
1.49724 -0.14112 -0.70326 233 225 216
1.49534 -0.14972 -0.69261 244 233 226
1.48971 -0.15858 -0.67943 247 236 227
1.49189 -0.16683 -0.67162 249 237 229
1.52243 -0.20701 -0.64559 251 248 239
1.52024 -0.19870 -0.65346 251 249 242
1.52022 -0.21555 -0.63481 244 234 219
1.51642 -0.23153 -0.63340 230 208 193
1.52223 -0.22386 -0.62684 229 212 194
1.52262 -0.23225 -0.61781 224 204 185
1.53797 -0.23997 -0.61851 236 220 206
1.54717 -0.28169 -0.57794 249 253 253
1.54497 -0.27336 -0.58582 254 254 254
1.55318 -0.27398 -0.57147 254 254 254
1.53571 -0.29036 -0.56145 243 238 245
1.54011 -0.29860 -0.55500 235 208 225
1.55463 -0.30665 -0.55483 228 176 187
1.58243 -0.31457 -0.56281 223 184 167
1.57818 -0.32306 -0.55087 226 222 199
1.57434 -0.33921 -0.54944 254 254 253
1.57478 -0.33151 -0.53949 248 244 237
1.57095 -0.34762 -0.53806 254 254 254
1.58974 -0.33978 -0.53934 254 254 248
1.58589 -0.35597 -0.53790 254 254 254
1.60771 -0.40706 -0.47579 254 254 247
1.59942 -0.40643 -0.49028 254 254 254
1.60164 -0.41484 -0.48232 254 254 254
1.60386 -0.42325 -0.47436 254 254 253
1.59104 -0.42341 -0.44770 250 241 212
1.59597 -0.43182 -0.44136 228 214 169
1.63086 -0.44110 -0.45210 196 176 138
1.62188 -0.44920 -0.43774 182 161 117
1.67063 -0.45921 -0.45602 137 104 38
1.67205 -0.46773 -0.44745 92 71 10
1.67287 -0.48468 -0.42921 76 61 52
1.68129 -0.48532 -0.41449 75 61 49
1.67512 -0.49322 -0.42112 77 62 51
1.66895 -0.50113 -0.42775 76 57 42
1.22065 -0.73528 0.11993 63 56 42
1.21375 -0.73475 0.10787 56 45 36
1.22827 -0.74318 0.12407 116 117 99
1.23012 -0.75019 0.13072 131 120 97
1.25857 -0.76150 0.12609 65 50 36
1.24992 -0.76687 0.13723 28 24 21
1.24669 -0.78046 0.13843 27 26 19
1.37811 -0.87239 0.17671 22 19 22
1.38148 -0.85821 0.17546 18 17 14
1.37617 -0.86502 0.16975 19 16 15
1.37086 -0.87183 0.16403 17 16 11
1.39312 -0.88234 0.17869 64 59 49
1.40239 -0.89122 0.18292 100 112 99
1.40435 -0.89864 0.18994 101 105 91
1.41826 -0.90853 0.19250 88 74 63
1.44166 -0.92047 0.19162 32 13 8
1.43822 -0.93493 0.19290 25 21 17
1.77377 -1.10841 0.19948 40 26 13
1.82764 -1.23968 0.31216 211 207 212
1.82379 -1.25587 0.31359 206 192 193
1.81547 -1.24392 0.32417 228 223 229
1.81164 -1.26003 0.32559 215 206 209
1.83781 -1.25818 0.32648 243 241 246
1.84612 -1.25881 0.34099 254 254 254
1.84004 -1.26660 0.33446 247 250 254
2.25701 -1.43355 0.26804 158 115 173
2.24761 -1.43283 0.25162 151 114 163
2.25012 -1.44237 0.26064 177 135 194
2.34477 -1.47848 0.26488 174 139 196
2.36317 -1.49322 0.27011 178 172 201
2.39561 -1.52156 0.28190 154 153 174
2.40184 -1.54164 0.30035 120 120 147
2.40128 -1.55049 0.31047 107 105 126
2.39378 -1.55702 0.32221 86 83 96
2.57422 -1.65420 0.32102 21 12 27
2.59858 -1.67191 0.32594 17 30 34
2.68754 -1.71200 0.31671 105 118 127
2.70731 -1.72849 0.32304 162 157 155
2.69256 -1.73299 0.33690 200 185 165
2.70464 -1.75648 0.35559 223 201 174
2.68679 -1.75972 0.36991 172 148 131
2.68196 -1.78005 0.37171 68 51 68
2.69326 -1.77160 0.37915 109 74 73
2.68842 -1.79194 0.38096 79 72 69
3.42089 -2.12335 0.33003 146 157 164
3.39716 -2.12550 0.34670 163 170 170
3.39149 -2.14933 0.34881 165 171 169
3.30832 -2.13520 0.41088 171 163 152
3.30278 -2.15851 0.41294 174 173 170
3.13124 -2.08683 0.46399 175 179 165
3.12592 -2.10920 0.46597 169 172 169
2.99269 -2.10222 0.56438 166 166 163
2.99781 -2.08066 0.56247 169 174 167
2.98973 -2.09102 0.55378 166 170 169
2.92577 -2.09425 0.59584 68 53 74
2.92073 -2.11543 0.59772 106 108 97
2.91867 -2.10106 0.60764 65 62 62
2.91365 -2.12219 0.60952 119 119 112
2.90724 -2.40104 0.94609 104 111 112
2.90442 -2.39033 0.93596 75 70 91
2.89668 -2.40023 0.92765 80 75 81
2.90234 -2.42165 0.94792 131 133 135
2.90485 -2.40916 0.95651 126 132 140
2.89995 -2.42975 0.95834 134 135 140
0.87538 0.32593 -0.86049 129 166 247
0.87851 0.33907 -0.86165 137 172 253
0.87358 0.33275 -0.86695 133 168 248
0.88031 0.33224 -0.85519 135 172 251
0.87565 0.30383 -0.83618 109 139 213
0.90879 0.30678 -0.85962 95 124 199
0.90445 0.29797 -0.84722 81 112 178
0.91820 0.29471 -0.85198 68 92 142
0.92372 0.28140 -0.84061 48 54 94
0.94644 0.28061 -0.85356 41 50 64
0.97089 0.28017 -0.86795 31 38 48
0.96765 0.26655 -0.86675 12 8 25
0.97689 0.27428 -0.86508 21 18 47
0.97364 0.26064 -0.86387 10 8 27
1.01467 0.17024 -0.77289 8 6 21
1.00765 0.17078 -0.78515 9 5 15
1.00953 0.16366 -0.77841 8 4 17
1.03009 0.16627 -0.77788 16 13 46
1.05526 0.16445 -0.79117 57 51 63
1.05195 0.15052 -0.78994 38 44 45
1.05619 0.15699 -0.78348 50 38 48
1.15899 -0.00052 -0.67167 34 32 73
1.20217 -0.00187 -0.69644 46 88 153
1.19871 -0.01639 -0.69515 81 128 197
1.21538 -0.00779 -0.69792 54 112 189
1.23412 -0.02882 -0.68605 60 111 180
1.26129 -0.03314 -0.69780 46 95 157
1.25777 -0.04795 -0.69649 42 109 177
1.25593 -0.04970 -0.67620 134 161 173
1.25242 -0.06446 -0.67489 112 153 186
1.28126 -0.05453 -0.68626 168 166 145
1.41334 -0.05526 -0.76582 146 96 91
1.41779 -0.06313 -0.75981 148 119 98
1.45338 -0.06763 -0.77649 171 149 130
1.41048 -0.08064 -0.73599 192 170 158
1.43269 -0.09506 -0.73354 219 197 170
1.44592 -0.10215 -0.73374 221 203 181
1.44217 -0.11792 -0.73234 202 182 171
1.45811 -0.10941 -0.73312 219 204 192
1.45434 -0.12523 -0.73172 201 182 169
1.46616 -0.11710 -0.72950 221 206 194
1.46239 -0.13296 -0.72810 201 185 171
1.47402 -0.12485 -0.72571 225 208 192
1.47023 -0.14074 -0.72430 206 186 168
1.47473 -0.13322 -0.71687 201 186 164
1.47096 -0.14911 -0.71546 197 179 148
1.47055 -0.15039 -0.69532 202 185 160
1.46625 -0.15910 -0.68306 217 202 194
1.46325 -0.16768 -0.67174 230 216 212
1.46799 -0.17569 -0.66575 238 227 223
1.47298 -0.18371 -0.65991 242 234 228
1.47928 -0.19166 -0.65495 247 241 230
1.48796 -0.19949 -0.65155 249 244 233
1.49830 -0.20728 -0.64923 249 242 232
1.50163 -0.21548 -0.64217 244 234 224
1.50282 -0.22380 -0.63368 235 218 204
1.51921 -0.23980 -0.62594 236 217 202
1.54802 -0.27238 -0.60741 249 253 251
1.50748 -0.29025 -0.56295 227 221 211
1.51788 -0.29829 -0.56038 214 194 202
1.53831 -0.30619 -0.56407 222 183 212
1.54377 -0.31444 -0.55826 235 199 216
1.54183 -0.32281 -0.54781 247 228 224
1.53803 -0.33879 -0.54639 254 254 254
1.54698 -0.33108 -0.54179 253 253 244
1.54317 -0.34708 -0.54037 254 254 254
1.58256 -0.43107 -0.45274 254 254 249
1.57433 -0.43044 -0.46711 254 254 254
1.57654 -0.43878 -0.45921 254 254 254
1.57874 -0.44712 -0.45132 254 254 254
1.57504 -0.43913 -0.43924 254 252 240
1.57124 -0.45513 -0.43782 254 254 252
1.56048 -0.44692 -0.42175 252 246 225
1.61577 -0.46533 -0.43502 217 195 120
1.66984 -0.48427 -0.44695 96 77 15
1.66519 -0.49252 -0.43500 79 51 30
1.21970 -0.74239 0.11271 63 56 42
1.21279 -0.74187 0.10063 60 47 38
1.23098 -0.75090 0.11526 116 120 97
1.23284 -0.75794 0.12193 132 121 97
1.25857 -0.76890 0.11840 66 51 36
1.25574 -0.77522 0.12712 28 24 19
1.25249 -0.78888 0.12833 31 30 17
1.36932 -0.87850 0.17235 20 24 26
1.36208 -0.87795 0.15969 16 17 10
1.38453 -0.88853 0.17420 69 81 65
1.39704 -0.89808 0.17716 98 111 101
1.40041 -0.90579 0.18365 96 90 80
1.41448 -0.91576 0.18612 74 58 56
1.45388 -0.93117 0.17921 30 14 9
1.45041 -0.94573 0.18049 27 20 15
1.77464 -1.11005 0.18206 48 31 22
1.76638 -1.10942 0.16763 63 42 36
1.78146 -1.11959 0.18847 52 35 27
1.77762 -1.13574 0.18990 74 59 56
2.22978 -1.44474 0.27565 188 180 211
2.33238 -1.49475 0.26858 176 174 183
2.32535 -1.50375 0.26102 133 115 152
2.35949 -1.52132 0.28150 128 112 165
2.38162 -1.53749 0.28593 155 155 186
2.40263 -1.55338 0.29074 158 152 166
2.36812 -1.55101 0.30912 112 102 116
2.38200 -1.56457 0.31569 59 58 70
2.59464 -1.69214 0.32752 114 112 113
2.58989 -1.71209 0.32929 201 191 169
2.65669 -1.72329 0.32426 184 172 155
2.68577 -1.74310 0.32849 217 201 165
2.68909 -1.75388 0.33841 212 190 151
2.59037 -1.72816 0.37000 160 129 110
2.67579 -1.76827 0.36243 79 54 62
2.67096 -1.78857 0.36423 61 56 63
3.49600 -2.15559 0.29214 101 84 106
3.50181 -2.13116 0.28997 135 119 83
3.49265 -2.14290 0.28013 133 121 93
3.48349 -2.15463 0.27028 129 113 97
3.48923 -2.16441 0.30602 107 119 144
3.43581 -2.15525 0.32839 147 158 172
3.01698 -2.11597 0.53975 164 163 168
3.02215 -2.09424 0.53783 169 171 167
3.01400 -2.10468 0.52907 166 167 166
2.99917 -2.11862 0.55353 148 139 146
2.99402 -2.14025 0.55545 93 80 85
2.95976 -2.12204 0.58130 78 69 69
2.95467 -2.14344 0.58319 118 117 102
2.76409 -2.24397 0.83534 187 168 134
2.77438 -2.24476 0.85331 60 30 23
2.76685 -2.25441 0.84522 145 113 70
2.90280 -2.41257 0.93759 117 125 125
2.89789 -2.43320 0.93942 132 134 132
0.84471 0.32595 -0.85698 130 166 246
0.84780 0.33896 -0.85813 136 174 250
0.84292 0.33271 -0.86337 132 164 247
0.84958 0.33220 -0.85174 134 172 249
0.85304 0.32134 -0.85699 127 164 242
0.85459 0.30714 -0.84219 107 140 217
0.87214 0.30535 -0.85101 88 117 187
0.87669 0.29939 -0.84720 71 96 154
0.89877 0.29138 -0.85190 54 67 116
0.91243 0.28807 -0.85663 50 65 94
0.92892 0.28552 -0.86395 43 46 68
0.95153 0.28467 -0.87692 32 27 52
0.94830 0.27112 -0.87572 10 10 31
0.96319 0.28049 -0.87946 22 18 37
0.95995 0.26688 -0.87825 9 8 27
0.97575 0.27650 -0.88276 15 13 25
0.97249 0.26282 -0.88154 11 7 28
1.03520 0.16201 -0.79238 10 5 36
1.02811 0.16255 -0.80478 7 5 13
1.03001 0.15536 -0.79797 9 5 21
1.04689 0.15704 -0.79406 30 24 55
1.06619 0.14600 -0.79369 36 32 46
1.06094 0.13927 -0.79934 32 31 59
1.07337 0.14545 -0.78116 25 22 36
1.06811 0.13872 -0.78680 29 25 36
1.06286 0.13199 -0.79245 29 26 42
1.13651 -0.00991 -0.66407 25 17 49
1.12925 -0.00935 -0.67675 24 22 33
1.17609 -0.01183 -0.68629 58 89 142
1.20135 -0.02384 -0.68851 70 134 207
1.19109 -0.03304 -0.67200 68 141 225
1.19312 -0.04054 -0.66493 71 149 222
1.24374 -0.04180 -0.69468 57 132 197
1.46463 -0.15800 -0.70171 190 161 123
1.45652 -0.15738 -0.71588 203 183 169
1.46086 -0.17384 -0.70031 207 186 165
1.46327 -0.16648 -0.69147 190 154 144
1.45951 -0.18230 -0.69007 191 173 157
1.44361 -0.17620 -0.66860 196 178 175
1.43988 -0.19189 -0.66721 183 163 153
1.44227 -0.18458 -0.65849 204 195 193
1.44635 -0.19260 -0.65211 213 206 206
1.44262 -0.20827 -0.65072 199 168 172
1.45817 -0.20017 -0.65098 225 213 212
1.47378 -0.20758 -0.65236 233 216 212
1.47549 -0.21582 -0.64428 233 213 205
1.46934 -0.22445 -0.63093 227 207 201
1.47096 -0.23267 -0.62282 226 206 199
1.49219 -0.24001 -0.62773 232 215 202
1.50203 -0.24794 -0.62499 237 226 215
1.51193 -0.30592 -0.56679 218 199 193
1.50153 -0.31438 -0.55101 237 226 228
1.49777 -0.33020 -0.54961 254 254 254
1.51018 -0.32251 -0.54732 251 251 248
1.50641 -0.33836 -0.54591 254 254 254
1.52425 -0.33061 -0.54699 254 254 251
1.52046 -0.34653 -0.54558 254 254 254
1.52083 -0.46958 -0.39080 252 247 221
1.52650 -0.47788 -0.38508 229 217 177
1.65380 -0.50857 -0.42937 89 61 49
1.66220 -0.50921 -0.41470 74 62 52
1.64767 -0.51663 -0.41666 84 51 27
1.65604 -0.51726 -0.40203 75 62 50
1.63739 -0.52440 -0.40171 75 53 32
1.64572 -0.52504 -0.38715 73 62 49
1.62592 -0.53203 -0.38619 67 60 49
1.63421 -0.53266 -0.37170 72 60 47
1.62814 -0.54045 -0.37823 72 62 50
1.21714 -0.74928 0.10617 63 56 48
1.21022 -0.74875 0.09407 59 48 42
1.22794 -0.75774 0.10891 117 120 99
1.22980 -0.76479 0.11558 134 121 97
1.25950 -0.77648 0.11028 71 55 36
1.25323 -0.78223 0.12050 30 26 18
1.24998 -0.79590 0.12171 35 33 22
1.35868 -0.88422 0.16873 20 23 31
1.35145 -0.88367 0.15609 14 17 13
1.37911 -0.89535 0.16850 71 74 72
1.39092 -0.90479 0.17169 91 97 76
1.39108 -0.91183 0.17940 83 77 61
1.41181 -0.92323 0.17930 52 40 43
1.40839 -0.93760 0.18058 27 18 17
1.67124 -1.03999 0.14917 47 42 41
1.67927 -1.04060 0.16320 38 32 19
1.67339 -1.04813 0.15688 55 46 34
1.66751 -1.05567 0.15056 74 63 48
2.20343 -1.43869 0.26388 214 214 223
2.20094 -1.42927 0.25496 185 184 194
2.19414 -1.43799 0.24765 207 203 230
2.19662 -1.44741 0.25657 173 170 203
2.21565 -1.45120 0.27023 197 186 198
2.26750 -1.47639 0.26626 168 134 190
2.32633 -1.51298 0.27064 136 145 173
2.30471 -1.51482 0.28598 187 196 213
2.32522 -1.53039 0.29063 191 189 196
2.36980 -1.55403 0.28942 126 96 134
2.35656 -1.55858 0.30261 62 61 81
2.38896 -1.57839 0.30465 33 31 37
2.38444 -1.59739 0.30634 10 4 7
2.40126 -1.59155 0.31167 18 6 9
2.45871 -1.62930 0.31818 11 4 10
2.43460 -1.63912 0.34391 73 75 57
2.43004 -1.65829 0.34561 185 170 139
2.57553 -1.72571 0.35323 146 113 102
2.66321 -1.76669 0.34473 82 50 42
2.65526 -1.77333 0.35699 31 19 24
2.65044 -1.79357 0.35878 64 59 53
3.49273 -2.16958 0.28117 55 34 71
3.49430 -2.18159 0.29353 62 77 97
3.47883 -2.18700 0.30904 129 143 150
3.43533 -2.18137 0.32956 161 170 168
3.43863 -2.19390 0.34141 168 170 167
3.42959 -2.20548 0.33170 167 170 167
3.03024 -2.12522 0.51650 163 164 158
3.03544 -2.10336 0.51456 168 169 167
3.02725 -2.11387 0.50575 166 167 161
3.01905 -2.12437 0.49693 161 162 159
3.01234 -2.13793 0.54160 116 105 100
2.75915 -2.24571 0.81687 148 144 199
2.75436 -2.26583 0.81865 27 34 83
2.76897 -2.26867 0.83628 172 172 179
2.77928 -2.26945 0.85430 95 72 18
2.76418 -2.28881 0.83807 38 51 82
2.88103 -2.40620 0.91984 102 96 102
2.88593 -2.38562 0.91802 90 88 83
2.87821 -2.39551 0.90973 88 75 95
2.87050 -2.40540 0.90143 67 56 100
2.87332 -2.41608 0.91155 107 116 118
2.90165 -2.42578 0.92887 126 132 127
2.89673 -2.44644 0.93070 131 133 135
0.82980 0.32373 -0.86045 124 158 235
0.83288 0.33668 -0.86160 134 168 247
0.82803 0.33045 -0.86682 128 166 244
0.82317 0.32423 -0.87204 106 135 215
0.82821 0.31589 -0.85076 114 148 222
0.82368 0.30713 -0.83822 102 136 213
0.84379 0.30632 -0.84981 91 123 196
0.87454 0.30134 -0.86341 60 77 132
0.88484 0.29713 -0.86514 51 60 103
0.88946 0.29112 -0.86134 47 55 83
0.91366 0.29103 -0.87629 38 44 59
0.94220 0.29209 -0.89521 28 27 42
0.93898 0.27853 -0.89401 11 8 22
0.95448 0.28051 -0.88999 12 10 34
1.04608 0.15134 -0.80350 18 12 39
1.03894 0.15189 -0.81597 8 8 19
1.05300 0.14521 -0.80100 27 31 49
1.04968 0.13124 -0.79976 26 24 53
1.12280 -0.01794 -0.66321 14 14 43
1.11556 -0.01739 -0.67584 20 17 35
1.16488 -0.01957 -0.68756 96 127 155
1.16258 -0.02762 -0.67719 167 198 230
1.15917 -0.04196 -0.67592 167 197 250
1.16366 -0.03519 -0.66946 137 189 240
1.16697 -0.04246 -0.66345 87 156 241
1.16356 -0.05680 -0.66218 78 165 253
1.17183 -0.04954 -0.65861 77 161 247
1.16841 -0.06389 -0.65734 81 172 254
1.17857 -0.05639 -0.65519 78 165 243
1.23885 -0.08035 -0.66606 128 178 203
1.43953 -0.20019 -0.65778 189 163 162
1.43150 -0.19957 -0.67181 217 199 171
1.43365 -0.20772 -0.66410 214 193 170
1.43580 -0.21586 -0.65639 205 183 162
1.43051 -0.21718 -0.63329 203 167 172
1.45549 -0.28995 -0.56801 210 169 179
1.46182 -0.31431 -0.54489 250 247 237
1.45596 -0.32182 -0.55119 254 254 253
1.45810 -0.32993 -0.54351 254 254 254
1.47874 -0.32222 -0.54663 254 254 249
1.47500 -0.33793 -0.54524 254 254 254
1.50727 -0.47679 -0.39271 254 254 251
1.49926 -0.47618 -0.40671 253 253 250
1.50141 -0.48431 -0.39902 254 253 254
1.50355 -0.49243 -0.39132 254 254 253
1.50637 -0.48478 -0.38328 253 249 238
1.50266 -0.50040 -0.38189 254 252 246
1.51192 -0.49306 -0.37753 238 230 203
1.50820 -0.50870 -0.37615 247 245 207
1.66429 -0.51735 -0.44532 172 130 56
1.63115 -0.53221 -0.40820 110 80 64
1.61649 -0.53960 -0.39087 73 44 28
1.61151 -0.54753 -0.37897 73 44 30
1.61977 -0.54816 -0.36453 75 62 49
1.59416 -0.56274 -0.35129 72 63 51
1.60236 -0.56337 -0.33696 72 60 51
1.59636 -0.57106 -0.34341 75 62 51
1.21535 -0.75630 0.09927 60 55 49
1.20842 -0.75577 0.08716 58 51 45
1.22796 -0.76510 0.10120 116 118 101
1.22983 -0.77216 0.10788 135 123 98
1.25866 -0.78380 0.10288 72 58 35
1.25134 -0.78935 0.11360 30 28 14
1.24808 -0.80304 0.11481 31 30 27
1.35236 -0.89080 0.16344 24 29 25
1.34513 -0.89025 0.15081 19 18 15
1.37727 -0.90291 0.16140 67 73 35
1.38877 -0.91232 0.16470 76 71 29
1.39190 -0.92000 0.17128 48 42 29
1.38849 -0.93430 0.17254 26 17 21
1.40728 -0.93032 0.17318 33 20 27
1.40386 -0.94470 0.17445 24 18 18
1.62601 -1.02310 0.14019 30 22 32
1.62969 -1.00760 0.13882 26 19 14
1.62388 -1.01505 0.13257 26 18 20
1.65384 -1.04479 0.14697 75 66 54
1.64798 -1.05230 0.14068 90 82 68
1.65012 -1.06042 0.14836 88 77 66
2.21978 -1.46344 0.25997 149 124 167
2.21044 -1.46273 0.24363 158 150 201
2.24321 -1.47966 0.26341 154 127 179
2.24750 -1.48978 0.27198 181 176 196
2.25170 -1.49987 0.28058 212 218 221
2.27429 -1.51604 0.28448 185 188 203
2.32314 -1.54102 0.28185 115 89 136
2.37484 -1.58515 0.29870 13 6 10
2.40098 -1.61206 0.31234 11 4 11
2.38587 -1.62477 0.33585 95 87 70
2.38135 -1.64374 0.33753 191 177 129
2.53334 -1.71343 0.34261 127 93 102
2.52866 -1.73312 0.34435 80 67 52
2.65159 -1.77498 0.33742 65 45 36
2.64767 -1.78306 0.34883 33 18 23
2.64285 -1.80329 0.35062 76 70 53
3.48064 -2.16879 0.25920 109 92 73
3.48645 -2.14433 0.25703 86 77 70
3.46811 -2.16783 0.23732 105 97 54
3.48513 -2.18194 0.27100 47 33 56
3.48793 -2.19443 0.28314 62 74 87
3.46933 -2.19855 0.29929 124 139 146
3.44953 -2.20210 0.31554 158 167 168
3.44376 -2.22633 0.31769 165 168 165
3.04060 -2.14347 0.50474 159 158 152
3.01905 -2.14457 0.51937 137 132 120
3.00091 -2.14699 0.53334 107 96 81
2.98918 -2.15203 0.54623 96 89 74
2.99214 -2.16328 0.55688 108 112 98
2.83918 -2.27832 0.77978 69 62 61
2.83428 -2.29891 0.78161 43 41 42
0.81003 0.31259 -0.85083 98 128 204
0.80345 0.31309 -0.86234 75 86 153
0.81627 0.30737 -0.84895 89 114 180
0.84268 0.30862 -0.86694 72 91 146
0.86245 0.30757 -0.87820 60 78 121
0.85891 0.29906 -0.86651 52 69 91
0.88154 0.29873 -0.88037 40 52 64
0.90289 0.29786 -0.89282 27 30 53
0.89970 0.28449 -0.89164 9 11 27
0.92057 0.29575 -0.90159 18 18 39
0.91737 0.28227 -0.90039 10 9 26
0.92524 0.28960 -0.89768 15 14 29
0.93852 0.28599 -0.90202 11 10 25
0.96246 0.27013 -0.89943 14 8 34
0.95921 0.25645 -0.89822 37 54 68
1.04342 0.14522 -0.81137 12 9 34
1.03627 0.14576 -0.82385 7 9 23
1.03818 0.13851 -0.81699 11 10 30
1.05055 0.13911 -0.80906 20 19 45
1.04722 0.12513 -0.80782 23 21 43
1.10368 -0.02670 -0.65801 31 15 48
1.12468 -0.03133 -0.66607 51 91 172
1.12131 -0.04548 -0.66481 151 186 247
1.15144 -0.03530 -0.67848 130 163 235
1.15711 -0.04993 -0.66576 101 160 247
1.15174 -0.05681 -0.67153 90 167 251
1.15370 -0.06425 -0.66449 83 172 253
1.16666 -0.07180 -0.64744 85 176 249
1.15932 -0.07124 -0.66027 84 176 254
1.16129 -0.07869 -0.65322 85 183 254
1.23757 -0.07907 -0.68393 56 130 209
1.42689 -0.23278 -0.63197 193 172 146
1.42318 -0.24837 -0.63059 238 217 190
1.43195 -0.24075 -0.62629 198 176 159
1.42824 -0.25636 -0.62490 244 225 203
1.44606 -0.30569 -0.56291 251 246 235
1.44235 -0.32129 -0.56153 254 254 251
1.43958 -0.31394 -0.54965 254 254 247
1.43588 -0.32949 -0.54828 254 254 252
1.51075 -0.51685 -0.36868 237 211 124
1.50274 -0.51624 -0.38268 253 253 246
1.50488 -0.52437 -0.37499 252 247 208
1.61486 -0.53110 -0.41829 205 162 116
1.60371 -0.55517 -0.38450 137 96 23
1.58999 -0.56241 -0.36783 82 47 20
1.58486 -0.57019 -0.35594 73 42 28
1.57808 -0.57780 -0.34321 69 55 41
1.58624 -0.57843 -0.32894 74 59 53
1.57447 -0.58562 -0.33225 71 58 54
1.58262 -0.58624 -0.31801 72 57 51
1.57665 -0.59389 -0.32442 74 60 55
1.21364 -0.76336 0.09232 58 57 47
1.20670 -0.76283 0.08019 61 53 44
1.23222 -0.77320 0.09158 113 118 102
1.23409 -0.78028 0.09829 135 124 103
1.25883 -0.79133 0.09502 71 61 38
1.24908 -0.79644 0.10683 28 29 18
1.24582 -0.81014 0.10805 35 31 29
1.34673 -0.89751 0.15788 26 24 21
1.33950 -0.89696 0.14525 22 21 15
1.34144 -0.90430 0.15219 25 21 18
1.34337 -0.91163 0.15913 26 22 19
1.35454 -0.90609 0.16251 42 38 19
1.35118 -0.92024 0.16376 26 19 16
1.36440 -0.91513 0.16637 39 30 16
1.36102 -0.92932 0.16763 26 18 14
1.37545 -0.92447 0.16981 28 21 15
1.37206 -0.93871 0.17108 25 18 16
1.58677 -1.01522 0.13791 34 20 30
1.59042 -0.99990 0.13656 24 20 13
1.58467 -1.00726 0.13038 25 23 14
1.57892 -1.01463 0.12420 29 26 23
1.58312 -1.03055 0.13927 71 67 49
1.58773 -1.02292 0.14587 50 43 41
1.58409 -1.03824 0.14723 92 89 78
1.71720 -1.27497 0.34486 106 81 76
1.72093 -1.25929 0.34347 205 189 167
1.70917 -1.27436 0.33083 95 67 69
1.72308 -1.26744 0.35118 169 148 137
1.71132 -1.28251 0.33854 72 57 41
1.72523 -1.27558 0.35890 127 110 119
1.74110 -1.28992 0.34646 78 67 87
1.74919 -1.29054 0.36060 174 172 185
1.74326 -1.29813 0.35423 138 146 181
2.19223 -1.46553 0.25819 177 173 208
2.22583 -1.48507 0.25881 215 214 222
2.24686 -1.50065 0.26292 237 241 234
2.25825 -1.51315 0.26965 191 191 204
2.25386 -1.53160 0.27129 24 3 52
2.27931 -1.52890 0.27394 91 68 126
2.27490 -1.54745 0.27558 8 3 23
2.28156 -1.53844 0.28313 34 20 66
2.27715 -1.55698 0.28478 6 4 6
2.35422 -1.59855 0.30433 15 10 11
2.37300 -1.61399 0.30969 56 34 40
2.41219 -1.63665 0.31026 117 99 90
3.46432 -2.17778 0.25076 81 70 41
3.47226 -2.19225 0.26187 41 37 38
3.47816 -2.20595 0.27339 70 81 93
3.47953 -2.21787 0.28580 124 137 146
3.45432 -2.21924 0.30317 158 164 167
3.44854 -2.24354 0.30533 165 167 166
3.04982 -2.15117 0.48175 156 157 152
3.05507 -2.12911 0.47980 164 165 163
3.04679 -2.13971 0.47090 161 161 159
3.03729 -2.15609 0.49510 155 153 142
2.99626 -2.14888 0.51288 128 120 108
2.99733 -2.15937 0.52387 103 89 92
0.83872 0.31737 -0.88952 71 84 142
0.83203 0.31788 -0.90122 62 73 101
0.84878 0.31326 -0.89133 68 80 120
0.86650 0.31154 -0.90067 57 65 87
0.87547 0.30693 -0.90124 37 43 63
