ply
format ascii 1.0
element face 0
property list uchar int vertex_indices
element vertex 1347
property float x
property float y
property float z
property uchar diffuse_red
property uchar diffuse_green
property uchar diffuse_blue
end_header
2.48266 -1.08303 -1.01244 27 26 12
2.46762 -1.08157 -1.03287 43 37 29
1.92327 -1.56525 -0.02413 27 24 16
1.91106 -1.56406 -0.04071 13 13 6
1.96059 -1.57498 -0.04211 64 59 47
1.97802 -1.58543 -0.04375 89 82 75
1.99040 -1.58663 -0.02693 93 85 69
1.98207 -1.59624 -0.03454 93 83 73
1.97373 -1.60585 -0.04215 93 81 75
2.42507 -1.87591 -0.06017 91 80 73
2.42980 -1.85335 -0.06194 95 83 77
2.42060 -1.86396 -0.07034 96 84 76
2.43808 -1.88838 -0.05605 78 71 61
2.44892 -1.90076 -0.05034 57 51 52
2.46673 -1.91365 -0.04948 56 42 54
2.48291 -1.92652 -0.04738 68 58 55
2.47812 -1.94932 -0.04559 79 70 64
2.94627 -2.17958 -0.11934 56 45 36
2.93103 -2.17810 -0.14004 62 50 46
2.95548 -2.19342 -0.11068 40 20 24
2.87961 -2.29473 0.06445 23 8 16
2.86479 -2.29329 0.04432 10 4 8
2.89447 -2.30924 0.06946 42 32 23
2.89681 -2.32181 0.08201 61 51 30
2.89915 -2.33436 0.09455 73 58 40
2.90306 -2.34716 0.10615 81 64 51
2.71495 -2.37366 0.28325 111 94 75
2.71982 -2.35045 0.28143 113 95 70
2.71035 -2.36137 0.27278 112 92 74
2.70087 -2.37229 0.26413 105 91 84
2.71733 -2.38554 0.29499 83 71 83
2.72999 -2.41076 0.31397 46 56 112
2.72512 -2.43398 0.31580 45 60 161
2.72587 -2.42138 0.32934 47 62 144
2.72101 -2.44455 0.33116 30 50 155
2.71948 -2.43151 0.34592 33 48 149
2.71463 -2.45461 0.34773 23 45 149
2.69100 -2.45963 0.40032 56 72 101
2.67714 -2.45828 0.38149 26 43 135
2.68286 -2.51344 0.46826 109 91 58
2.66911 -2.51210 0.44957 85 67 53
2.67810 -2.53612 0.47004 120 105 65
2.67123 -2.52190 0.48701 121 106 67
2.66649 -2.54448 0.48878 124 105 77
2.66571 -2.53163 0.50245 127 109 85
2.64410 -2.53767 0.52622 137 122 105
2.62298 -2.54367 0.54957 151 137 126
2.61081 -2.55161 0.56815 174 161 145
2.60860 -2.56178 0.58151 200 183 154
2.61039 -2.57287 0.59280 213 196 155
2.61477 -2.58456 0.60277 216 196 149
2.67994 -2.66467 0.64359 201 171 117
2.66641 -2.66335 0.62522 210 183 128
2.69183 -2.67841 0.65004 191 155 92
2.68515 -2.68734 0.66546 175 133 57
2.67151 -2.69436 0.68415 151 111 35
2.64533 -2.69794 0.70867 122 86 26
2.61484 -2.70019 0.73503 93 59 23
2.56118 -2.70613 0.78370 61 35 32
2.54875 -2.71286 0.80110 60 37 36
2.54218 -2.72113 0.81570 60 46 54
2.53206 -2.72835 0.83185 81 73 79
1.53640 -2.63989 1.50751 219 196 135
1.53022 -2.64701 1.50187 199 184 160
1.53322 -2.65503 1.50870 207 189 154
1.50980 -2.65793 1.54892 111 84 23
1.51280 -2.66585 1.55564 78 45 14
1.48652 -2.66299 1.57288 53 26 6
1.49548 -2.66386 1.58505 20 18 18
2.24697 -3.13674 1.52165 38 17 22
2.25085 -3.11829 1.52020 29 17 11
2.23578 -3.13565 1.50644 65 67 51
2.25450 -3.12806 1.52852 27 19 11
2.23944 -3.14542 1.51477 61 60 35
2.25816 -3.13783 1.53685 25 21 13
1.04757 -1.00009 -0.00724 252 254 252
1.05092 -0.98410 -0.00849 254 254 254
1.04440 -0.99162 -0.01445 254 254 254
1.05538 -1.00723 -0.00521 236 248 228
1.04034 -1.02087 0.02229 195 197 167
1.03991 -1.03029 0.03344 119 105 141
1.03658 -1.04616 0.03469 79 67 82
1.07287 -1.03050 0.00770 71 67 113
1.07933 -1.03813 0.01137 65 51 86
1.07595 -1.05423 0.01264 89 81 82
1.08451 -1.04612 0.01647 81 63 85
1.08112 -1.06224 0.01773 93 84 76
1.08896 -1.05433 0.02237 87 78 78
1.08557 -1.07045 0.02364 96 85 78
1.92127 -1.57454 -0.03673 17 16 11
1.90904 -1.57335 -0.05334 16 16 10
1.96204 -1.58431 -0.05764 50 48 43
1.97370 -1.59495 -0.05463 85 77 72
1.96941 -1.61540 -0.05302 91 80 70
2.39764 -1.86212 -0.08220 92 85 71
2.40236 -1.83962 -0.08397 95 85 74
2.39318 -1.85021 -0.09235 96 85 71
2.40682 -1.85154 -0.07382 94 84 79
2.40678 -1.87431 -0.07543 87 76 63
2.40805 -1.88604 -0.06296 76 64 56
2.43484 -1.91109 -0.05535 43 28 43
2.47186 -1.93712 -0.05465 68 60 55
2.46707 -1.95991 -0.05286 81 70 66
2.92932 -2.19055 -0.12440 56 43 37
2.91410 -2.18907 -0.14507 61 48 47
2.93714 -2.20421 -0.11490 42 22 25
2.93187 -2.22931 -0.11293 28 9 22
2.94663 -2.21810 -0.10644 23 7 10
2.96187 -2.21959 -0.08573 23 5 3
2.95161 -2.23141 -0.09510 24 5 7
2.94136 -2.24323 -0.10446 32 10 26
2.87471 -2.30702 0.05225 18 7 16
2.85988 -2.30558 0.03210 10 4 6
2.89072 -2.32176 0.05655 36 29 23
2.89776 -2.33511 0.06631 55 49 29
2.90031 -2.34772 0.07877 68 57 40
2.90510 -2.36070 0.08988 78 63 52
2.87222 -2.36720 0.12326 86 72 58
2.88696 -2.36864 0.14329 97 83 59
2.87704 -2.38008 0.13423 94 79 65
2.69933 -2.38345 0.27815 85 79 94
2.69447 -2.40662 0.27997 24 36 125
2.70051 -2.39508 0.29057 47 49 111
2.70600 -2.40752 0.30050 34 42 127
2.71037 -2.41973 0.31108 43 64 142
2.70551 -2.44289 0.31290 29 48 155
2.68014 -2.47006 0.39265 31 52 117
2.66628 -2.46872 0.37382 28 46 145
2.67081 -2.48081 0.38413 29 47 133
2.67209 -2.47953 0.40985 72 81 96
2.67661 -2.49159 0.42012 106 96 69
2.66731 -2.50230 0.41164 86 85 82
2.67213 -2.52379 0.46059 107 92 57
2.65839 -2.52245 0.44191 88 72 49
2.66738 -2.54646 0.46237 117 104 64
2.64317 -2.55007 0.51357 126 105 81
2.62957 -2.54875 0.49510 123 105 75
2.63401 -2.56062 0.50522 126 105 72
2.63846 -2.57249 0.51534 129 103 75
2.62294 -2.55623 0.53657 128 105 93
2.60247 -2.56218 0.55954 136 117 108
2.58645 -2.56906 0.58005 151 137 120
2.57810 -2.57766 0.59650 173 163 135
2.59386 -2.59205 0.60060 192 181 149
2.60721 -2.59335 0.61873 217 191 146
2.67032 -2.67503 0.63553 208 180 125
2.65680 -2.67371 0.61716 214 189 140
2.67856 -2.68784 0.64374 204 173 114
2.68423 -2.69999 0.65320 195 162 99
2.66970 -2.70673 0.67240 184 150 82
2.65810 -2.71417 0.69007 170 137 62
2.58590 -2.70497 0.73641 154 119 46
2.55619 -2.70708 0.76225 133 99 41
2.54848 -2.71513 0.77756 115 87 46
2.52925 -2.71987 0.79816 105 76 48
2.52990 -2.73014 0.80942 90 64 40
1.46952 -2.64568 1.54818 216 196 133
1.46642 -2.66044 1.54934 209 191 154
1.46665 -2.65137 1.55697 215 186 119
1.47140 -2.66657 1.57066 155 118 28
1.01378 -0.99689 -0.00384 251 254 253
1.01711 -0.98105 -0.00508 254 254 254
1.01064 -0.98850 -0.01099 254 254 254
1.02025 -0.98944 0.00207 254 254 254
1.02444 -1.00308 -0.00520 234 249 243
1.02313 -1.01279 0.00701 206 213 206
1.02926 -1.02034 0.01081 154 137 154
1.02593 -1.03622 0.01206 84 70 84
1.04953 -1.02395 -0.00117 85 73 113
1.04617 -1.03996 0.00009 87 76 77
1.05816 -1.03092 -0.00002 74 58 92
1.05479 -1.04696 0.00125 86 77 76
1.07362 -1.04547 0.00442 82 75 74
1.06704 -1.05305 -0.00159 84 79 77
1.07024 -1.06158 0.00568 86 83 77
2.56192 -1.09135 -1.12737 38 30 41
2.54647 -1.08985 -1.14835 45 34 28
2.55152 -1.10333 -1.13686 43 33 30
2.13272 -1.36607 -0.46978 18 17 30
2.13735 -1.34399 -0.47152 11 11 14
2.12834 -1.35438 -0.47975 13 10 20
2.14173 -1.35568 -0.46155 12 10 18
2.14611 -1.36737 -0.45159 14 10 21
2.13027 -1.37834 -0.45372 24 20 33
2.14363 -1.37964 -0.43557 12 10 17
2.13293 -1.39014 -0.44226 20 17 23
2.14629 -1.39145 -0.42411 12 11 10
2.12929 -1.40243 -0.42524 15 14 13
2.14262 -1.40373 -0.40713 12 11 9
2.13365 -1.41406 -0.41532 13 12 10
1.92183 -1.58381 -0.05149 11 13 12
1.90957 -1.58261 -0.06815 20 18 12
1.91358 -1.59332 -0.05903 10 11 10
1.95155 -1.59395 -0.06347 39 40 31
1.97624 -1.60437 -0.07114 79 73 57
2.37139 -1.84846 -0.10489 93 86 84
2.37610 -1.82601 -0.10666 96 85 79
2.36694 -1.83657 -0.11502 96 86 80
2.38055 -1.83790 -0.09653 98 84 76
2.37704 -1.86041 -0.09564 87 82 73
2.38668 -1.87260 -0.08930 79 71 59
2.39085 -1.88449 -0.07894 64 56 44
2.38613 -1.90698 -0.07717 38 23 39
2.40851 -1.90890 -0.06492 36 23 26
2.44295 -1.93465 -0.06271 61 51 55
2.43819 -1.95735 -0.06092 81 71 64
2.46312 -1.94788 -0.06355 75 67 61
2.45833 -1.97068 -0.06176 83 70 63
2.90991 -2.20117 -0.12782 55 43 38
2.89473 -2.19969 -0.14845 56 48 55
2.91910 -2.21498 -0.11925 44 25 28
2.91384 -2.24004 -0.11728 29 8 23
2.88594 -2.32193 0.03016 17 8 12
2.87102 -2.32048 0.00990 12 5 5
2.89635 -2.33585 0.03789 33 27 21
2.90243 -2.34909 0.04828 51 46 28
2.90454 -2.36167 0.06106 64 55 37
2.89431 -2.37210 0.08121 75 60 49
2.85896 -2.37806 0.11619 84 68 57
2.80544 -2.38054 0.16165 91 76 65
2.81997 -2.38196 0.18137 102 86 75
2.81019 -2.39322 0.17245 96 83 76
2.72470 -2.38932 0.23601 81 78 92
2.69154 -2.39466 0.26854 46 54 110
2.68668 -2.41785 0.27036 14 28 125
2.69133 -2.41741 0.29487 22 40 138
2.69109 -2.42871 0.30807 26 48 148
2.66812 -2.49137 0.39843 43 62 114
2.65429 -2.49003 0.37964 33 50 143
2.65881 -2.50210 0.38993 33 52 126
2.66531 -2.53500 0.45083 104 93 52
2.65156 -2.53366 0.43215 87 76 54
2.60568 -2.57551 0.54490 126 105 80
2.59221 -2.57420 0.52660 129 104 71
2.59661 -2.58596 0.53662 128 107 72
2.60101 -2.59772 0.54664 127 108 71
2.57713 -2.57934 0.57202 127 110 81
2.57251 -2.60135 0.57375 124 107 78
2.57271 -2.58885 0.58649 133 119 100
2.56842 -2.59836 0.60083 145 136 118
2.56196 -2.60727 0.61622 166 156 129
2.59417 -2.62586 0.61197 188 173 139
2.60752 -2.62716 0.63011 212 188 135
2.61668 -2.64214 0.61277 204 186 146
2.63010 -2.64344 0.63100 212 186 130
2.62107 -2.65385 0.62275 213 191 147
2.65819 -2.68472 0.62872 214 188 133
2.64909 -2.69521 0.62042 212 194 149
2.65351 -2.70700 0.63047 215 192 139
2.65606 -2.69478 0.64198 211 184 128
2.65087 -2.70399 0.65670 207 178 122
2.64048 -2.71172 0.67387 201 171 114
2.62899 -2.71909 0.69148 193 162 106
2.60308 -2.72237 0.71589 185 157 101
2.55710 -2.71990 0.74963 180 159 110
2.52291 -2.72047 0.77751 178 169 130
2.49488 -2.72259 0.80225 175 169 127
2.50755 -2.74623 0.81936 124 102 41
2.53081 -2.76302 0.82016 97 77 44
2.50063 -2.76413 0.84546 121 108 93
2.51342 -2.76538 0.86284 159 149 138
2.50481 -2.77530 0.85498 161 147 137
2.49620 -2.78522 0.84712 170 153 124
1.45884 -2.66435 1.55986 215 196 142
1.46650 -2.67391 1.56477 216 194 124
1.46340 -2.68864 1.56593 211 193 151
0.98402 -0.99272 -0.00442 251 254 253
0.98732 -0.97700 -0.00565 254 254 254
0.98090 -0.98439 -0.01151 254 254 254
0.99043 -0.98532 0.00144 254 254 254
0.99397 -0.99900 -0.00517 232 245 245
0.98875 -1.00981 0.01148 204 200 216
1.01247 -1.01215 -0.00489 150 130 159
1.00915 -1.02801 -0.00364 85 73 65
1.02764 -1.01711 -0.01136 87 76 88
1.02429 -1.03305 -0.01011 89 80 76
1.03632 -1.02399 -0.01040 79 70 90
1.03297 -1.03997 -0.00915 93 82 81
2.11572 -1.36509 -0.48470 18 14 26
2.12035 -1.34303 -0.48643 10 10 13
2.11134 -1.35341 -0.49465 11 10 12
2.10234 -1.36378 -0.50287 10 11 14
2.10581 -1.37798 -0.46187 34 47 40
2.10120 -1.39995 -0.46014 48 55 66
2.09437 -1.39091 -0.43777 47 59 45
2.10060 -1.40233 -0.42959 42 43 34
2.10640 -1.42570 -0.40731 22 16 18
2.11965 -1.42699 -0.38931 11 11 10
2.11073 -1.43727 -0.39745 14 11 15
1.92905 -1.60381 -0.05936 31 31 20
1.91674 -1.60261 -0.07608 11 13 7
1.97306 -1.61394 -0.08306 73 66 45
1.99522 -1.62461 -0.08857 90 81 66
2.00775 -1.62583 -0.07154 93 82 75
1.99931 -1.63555 -0.07924 94 82 72
1.99088 -1.64527 -0.08694 93 83 72
2.35639 -1.84706 -0.12236 89 79 65
2.36110 -1.82462 -0.12412 97 85 77
2.35194 -1.83518 -0.13248 99 87 77
2.36174 -1.85899 -0.11290 64 62 66
2.35703 -1.88144 -0.11114 31 21 37
2.36749 -1.87095 -0.10373 51 44 50
2.37222 -1.88286 -0.09380 48 34 37
2.37716 -1.89478 -0.08403 35 26 39
2.39914 -1.91949 -0.07320 46 31 33
2.41898 -1.93256 -0.07408 62 52 57
2.41423 -1.95519 -0.07230 82 72 67
2.43313 -1.94529 -0.07077 75 67 62
2.42837 -1.96798 -0.06899 84 72 68
2.89576 -2.21242 -0.13460 50 41 37
2.90129 -2.22574 -0.12368 42 25 25
2.87895 -2.33400 0.01912 16 7 8
2.86402 -2.33254 -0.00116 12 6 4
2.86890 -2.34557 0.00995 14 5 6
2.89354 -2.34864 0.02428 30 24 18
2.89735 -2.36152 0.03607 47 42 26
2.89114 -2.37267 0.05391 62 52 35
2.87973 -2.38284 0.07482 73 58 45
2.87459 -2.40734 0.07674 75 64 51
2.83630 -2.38721 0.11476 82 66 53
2.83122 -2.41142 0.11667 72 64 69
2.79512 -2.39171 0.15305 85 73 64
2.75697 -2.39649 0.18923 78 72 82
2.71313 -2.39996 0.22847 50 54 101
2.70822 -2.42335 0.23031 14 24 113
2.68315 -2.40577 0.25928 20 33 116
2.67828 -2.42896 0.26110 13 24 115
2.66888 -2.44831 0.31980 21 44 148
2.68283 -2.44967 0.33875 26 50 153
2.67344 -2.46049 0.33018 24 48 151
2.66405 -2.47131 0.32161 21 44 146
2.66089 -2.54677 0.43976 101 94 47
2.66170 -2.55794 0.45200 113 102 64
2.66620 -2.56996 0.46223 121 104 77
2.65694 -2.58063 0.45378 119 103 75
2.55776 -2.60824 0.59355 122 107 75
2.54447 -2.60694 0.57550 126 109 74
2.54882 -2.61854 0.58538 127 107 67
2.55316 -2.63014 0.59527 129 107 69
2.55339 -2.61764 0.60790 132 117 82
2.54836 -2.62682 0.62253 148 134 106
2.57262 -2.64351 0.62227 170 154 130
2.61512 -2.66506 0.61296 190 173 150
2.63980 -2.68212 0.61280 205 187 156
2.61612 -2.70745 0.66104 215 189 132
2.60713 -2.71781 0.65282 209 192 145
2.61150 -2.72949 0.66277 214 192 143
2.59336 -2.71167 0.68421 212 185 132
2.58876 -2.73356 0.68593 215 191 146
2.56498 -2.71420 0.70993 208 182 137
2.56042 -2.73589 0.71164 214 195 160
2.53995 -2.71748 0.73384 205 186 149
2.52738 -2.72412 0.75160 208 200 176
2.52231 -2.73282 0.76570 215 212 201
2.52031 -2.74234 0.77829 211 208 188
2.50269 -2.74730 0.79817 190 177 146
2.49823 -2.76852 0.79984 172 149 114
2.46333 -2.74576 0.82804 165 138 91
2.45893 -2.76673 0.82968 175 157 113
2.47413 -2.75883 0.83443 155 129 80
2.46972 -2.77984 0.83608 173 152 117
2.46593 -2.76627 0.84959 162 143 105
2.46154 -2.78721 0.85124 171 152 121
1.41931 -2.61206 1.51306 237 238 207
1.43086 -2.62293 1.51631 235 224 181
1.49244 -2.65202 1.50036 207 187 159
1.47349 -2.65194 1.51550 179 150 140
1.48074 -2.66141 1.52059 168 141 98
1.48925 -2.67136 1.52523 163 148 117
0.95485 -0.97933 -0.01584 254 254 254
0.95813 -0.96371 -0.01707 254 254 254
0.95175 -0.97106 -0.02289 254 254 254
0.96123 -0.97198 -0.01002 254 254 254
0.96433 -0.98026 -0.00296 254 254 254
0.96157 -0.98649 -0.01302 248 253 251
0.96903 -0.99345 -0.01103 230 243 235
0.96837 -1.00289 0.00042 203 194 197
0.98759 -1.00641 -0.01112 147 130 157
0.98428 -1.02218 -0.00988 83 74 65
1.00661 -1.01012 -0.02227 84 76 93
1.00327 -1.02600 -0.02102 85 80 73
1.01385 -1.01735 -0.01978 79 71 87
1.01051 -1.03326 -0.01853 93 82 70
1.07948 -1.07447 -0.00703 77 77 74
1.07627 -1.06589 -0.01434 79 79 83
1.08610 -1.06685 -0.00099 88 86 71
1.07608 -1.09067 -0.00576 60 61 59
1.08480 -1.08252 -0.00204 73 64 68
1.09464 -1.08347 0.01132 85 83 64
1.08802 -1.09110 0.00527 69 61 61
1.08140 -1.09873 -0.00077 62 59 44
2.09949 -1.37608 -0.48634 13 13 25
2.08615 -1.37478 -0.50447 10 11 10
2.09575 -1.38841 -0.46905 28 38 47
2.08241 -1.41332 -0.42943 51 52 54
2.07351 -1.42358 -0.43755 49 52 64
2.07964 -1.43720 -0.39957 36 33 31
2.07487 -1.44929 -0.38171 24 21 30
2.08801 -1.45057 -0.36385 12 10 12
2.06817 -1.46144 -0.36223 16 14 18
2.08127 -1.46272 -0.34443 12 10 10
2.07246 -1.47288 -0.35248 13 11 8
1.92533 -1.61329 -0.07072 23 22 16
1.91300 -1.61209 -0.08746 15 16 11
1.97779 -1.62345 -0.10155 60 56 42
2.00413 -1.63418 -0.11053 86 81 66
1.99977 -1.65495 -0.10890 92 82 73
2.34608 -1.84591 -0.14333 92 79 67
2.35079 -1.82345 -0.14509 97 86 77
2.34162 -1.83401 -0.15346 94 85 70
2.34758 -1.85764 -0.13098 61 51 51
2.35222 -1.86953 -0.12100 31 27 46
2.36311 -1.89343 -0.10221 41 25 32
2.37395 -1.90575 -0.09677 43 34 44
2.38369 -1.91803 -0.09047 56 44 51
2.37896 -1.94056 -0.08870 84 70 60
2.39585 -1.93053 -0.08589 73 60 51
2.39111 -1.95310 -0.08412 84 71 66
2.41347 -1.94350 -0.08521 80 70 64
2.40871 -1.96615 -0.08343 84 71 65
2.87096 -2.19709 -0.16339 48 45 50
2.87620 -2.17211 -0.16536 62 51 52
2.86601 -2.18386 -0.17467 56 48 49
2.88116 -2.18534 -0.15408 59 49 53
2.86572 -2.22207 -0.16143 22 23 54
2.88017 -2.21089 -0.15493 40 38 52
2.87493 -2.23589 -0.15296 27 21 41
2.88264 -2.22379 -0.14201 38 29 36
2.87739 -2.24878 -0.14005 27 19 23
2.88808 -2.23709 -0.13105 34 20 24
2.88284 -2.26208 -0.12909 21 8 9
2.89718 -2.36257 0.00665 26 18 16
2.88216 -2.36111 -0.01375 11 4 6
2.89351 -2.37420 0.02306 44 37 22
2.85861 -2.39238 0.07242 70 56 41
2.85348 -2.41681 0.07434 59 55 63
2.74904 -2.40796 0.17937 55 50 92
2.73467 -2.40656 0.15985 50 47 84
2.73937 -2.41910 0.17054 34 33 104
2.74407 -2.43165 0.18123 20 27 114
2.72047 -2.41418 0.20975 30 32 107
2.71554 -2.43767 0.21160 15 26 116
2.65474 -2.44691 0.30096 17 34 132
2.64079 -2.44556 0.28202 18 29 114
2.64535 -2.45773 0.29239 20 32 120
2.64992 -2.46991 0.30277 18 35 124
2.64501 -2.45616 0.31956 18 40 139
2.64759 -2.54553 0.42079 75 70 63
2.65236 -2.52282 0.41900 75 72 63
2.64309 -2.53351 0.41054 55 56 75
2.63382 -2.54419 0.40207 37 40 92
2.65643 -2.55856 0.42867 94 90 52
2.65952 -2.57027 0.43970 111 101 63
2.65475 -2.59300 0.44149 117 103 68
2.53380 -2.63561 0.61731 129 110 80
2.52059 -2.63433 0.59938 131 109 72
2.52491 -2.64586 0.60920 133 110 71
2.52923 -2.65738 0.61902 132 108 77
2.52030 -2.64249 0.63621 137 117 95
2.51266 -2.65081 0.65204 152 132 115
2.54776 -2.67046 0.64627 168 151 133
2.60887 -2.69730 0.62769 183 169 147
2.61619 -2.70980 0.63620 199 185 151
2.51560 -2.73334 0.74507 213 202 186
2.51523 -2.74335 0.75695 213 201 192
2.47600 -2.75198 0.79877 181 161 139
2.47156 -2.77310 0.80043 163 145 99
1.38533 -2.58219 1.48785 177 154 133
1.38838 -2.56765 1.48671 174 157 135
1.38245 -2.57449 1.48129 171 155 135
1.39127 -2.57535 1.49327 175 153 130
1.39415 -2.58305 1.49983 174 155 134
1.38822 -2.58989 1.49441 190 174 146
1.38882 -2.59677 1.50188 220 218 209
1.38577 -2.61130 1.50302 248 248 246
1.39859 -2.60694 1.50570 245 250 242
1.39553 -2.62151 1.50685 246 245 245
1.42353 -2.62935 1.51136 253 253 239
1.41754 -2.63625 1.50589 246 249 248
1.42045 -2.64402 1.51251 250 252 252
1.43217 -2.63922 1.51576 254 250 231
1.44057 -2.64903 1.52029 248 239 211
1.48846 -2.76107 1.61095 104 73 6
1.49741 -2.76195 1.62312 27 19 12
1.46903 -2.75981 1.62526 60 31 5
1.47791 -2.76067 1.63733 24 29 22
1.47193 -2.76757 1.63187 43 17 7
0.93547 -0.97231 -0.02768 253 254 254
0.93874 -0.95673 -0.02890 254 254 254
0.93238 -0.96406 -0.03471 254 254 254
0.94183 -0.96498 -0.02187 254 254 254
0.94196 -0.97948 -0.02468 246 253 251
0.94847 -0.98669 -0.02166 227 239 233
0.95239 -0.99471 -0.01559 196 181 190
0.96652 -0.99965 -0.02143 140 120 146
0.96322 -1.01537 -0.02020 85 76 68
0.98583 -1.00315 -0.03321 88 77 91
0.98250 -1.01898 -0.03196 86 82 73
0.99234 -1.01054 -0.02998 81 74 89
0.98902 -1.02639 -0.02874 92 85 70
1.06842 -1.07383 -0.01899 69 68 80
1.07182 -1.05764 -0.02026 82 76 70
1.06521 -1.06526 -0.02630 79 73 70
1.06181 -1.08144 -0.02502 61 60 68
1.06502 -1.09002 -0.01772 61 60 67
2.07807 -1.38747 -0.48314 8 11 17
2.06477 -1.38618 -0.50120 10 10 9
2.06912 -1.39779 -0.49131 10 10 17
2.08210 -1.39911 -0.47296 19 22 44
2.06634 -1.41225 -0.44481 38 46 62
2.06177 -1.43404 -0.44310 55 62 71
2.06390 -1.43609 -0.41517 50 51 50
2.05934 -1.45781 -0.41347 49 46 52
2.05623 -1.44837 -0.39465 46 50 44
2.05169 -1.47001 -0.39295 43 43 48
2.04934 -1.46052 -0.37491 39 44 45
2.05184 -1.47204 -0.36361 29 28 28
2.04742 -1.48393 -0.34621 22 17 16
2.06046 -1.48520 -0.32849 10 10 5
2.05168 -1.49531 -0.33651 14 12 8
1.88043 -1.60189 -0.07258 26 25 17
1.88465 -1.58175 -0.07416 30 29 22
1.87643 -1.59122 -0.08166 31 30 28
1.86821 -1.60070 -0.08917 28 31 36
1.92327 -1.62277 -0.08349 14 14 16
1.96770 -1.63317 -0.10785 45 44 37
2.01299 -1.64385 -0.13262 82 79 62
2.00861 -1.66474 -0.13098 91 82 73
2.33493 -1.84471 -0.16372 89 80 57
2.33965 -1.82223 -0.16548 97 86 77
2.33047 -1.83280 -0.17386 92 84 72
2.32576 -1.85528 -0.17209 86 73 55
2.33021 -1.86718 -0.16195 84 69 59
2.33791 -1.85653 -0.15246 85 69 57
2.34283 -1.88008 -0.12919 51 44 52
2.34805 -1.89201 -0.11964 58 47 52
2.35429 -1.90402 -0.11084 67 55 49
2.34958 -1.92647 -0.10907 85 71 60
2.36465 -1.91632 -0.10506 73 64 48
2.35993 -1.93882 -0.10329 87 70 65
2.37772 -1.92887 -0.10124 82 69 57
2.37299 -1.95142 -0.09947 86 70 66
2.82915 -2.16708 -0.19520 56 50 51
2.83438 -2.14220 -0.19715 67 56 54
2.82422 -2.15391 -0.20642 62 53 53
2.83931 -2.15538 -0.18593 63 54 55
2.84424 -2.16855 -0.17470 61 51 48
2.84224 -2.18129 -0.18945 50 45 43
2.83701 -2.20622 -0.18750 28 21 50
2.85225 -2.19515 -0.18160 42 37 47
2.85990 -2.20873 -0.17213 31 30 54
2.89117 -2.37492 -0.00512 21 14 14
2.88167 -2.38551 0.01494 40 32 21
2.62024 -2.47487 0.33284 20 39 135
2.60641 -2.47352 0.31407 19 34 117
2.61093 -2.48559 0.32435 20 35 122
2.63406 -2.47621 0.35162 24 48 152
2.61101 -2.48400 0.35099 22 42 144
2.62478 -2.48534 0.36971 28 48 155
2.61551 -2.49602 0.36124 24 44 152
2.63924 -2.55643 0.41181 57 54 72
2.64960 -2.56983 0.41885 78 78 63
2.66087 -2.58348 0.42543 106 97 63
2.49334 -2.65816 0.64935 132 108 82
2.48027 -2.65689 0.63161 133 108 71
2.48454 -2.66829 0.64132 132 108 75
2.48882 -2.67970 0.65104 129 109 78
2.47822 -2.66433 0.66889 135 114 90
2.46835 -2.67182 0.68567 144 126 113
2.48606 -2.68684 0.68855 158 145 131
2.55503 -2.71619 0.66604 177 167 139
2.55363 -2.72612 0.67870 197 182 147
2.52374 -2.72794 0.70530 211 191 146
2.52048 -2.73720 0.71871 210 189 141
2.51388 -2.74545 0.73369 201 180 140
2.49272 -2.74940 0.75561 192 169 130
2.47368 -2.75383 0.77635 183 156 114
2.45361 -2.75783 0.79744 167 141 99
1.36228 -2.57631 1.48172 174 157 140
1.36531 -2.56185 1.48059 175 158 134
1.35941 -2.56866 1.47520 172 154 133
1.36164 -2.58273 1.48968 195 181 172
1.37898 -2.59555 1.49033 227 224 218
1.37593 -2.61007 1.49147 254 253 252
1.38008 -2.60260 1.49760 249 251 245
1.37704 -2.61711 1.49874 247 245 246
1.44311 -2.66588 1.51927 254 253 232
1.44001 -2.68064 1.52043 254 254 253
1.46198 -2.71329 1.55877 160 139 125
1.44682 -2.71401 1.57203 174 162 158
1.44409 -2.71955 1.58069 189 180 153
1.44204 -2.75157 1.61948 210 184 108
0.91540 -0.96559 -0.03846 253 254 254
0.91866 -0.95006 -0.03968 254 254 254
0.91232 -0.95736 -0.04547 254 254 254
0.92174 -0.95828 -0.03268 254 254 254
0.92213 -0.97264 -0.03583 244 253 250
0.92822 -0.97992 -0.03241 223 234 226
0.93478 -0.98708 -0.02953 190 173 178
0.94376 -0.99352 -0.02947 136 118 136
0.94048 -1.00916 -0.02824 90 80 65
0.96092 -0.99753 -0.03902 94 78 89
0.95762 -1.01327 -0.03779 93 85 77
0.97146 -1.00364 -0.04064 89 76 89
0.96814 -1.01944 -0.03940 95 86 76
1.03262 -1.05158 -0.03557 95 86 80
1.03600 -1.03550 -0.03683 96 84 78
1.02943 -1.04306 -0.04282 94 87 80
1.03918 -1.04401 -0.02958 96 85 79
1.04237 -1.05252 -0.02233 92 85 77
1.04184 -1.05848 -0.03518 87 79 67
1.05162 -1.05943 -0.02190 86 81 66
1.03846 -1.07459 -0.03392 70 61 62
1.05079 -1.06551 -0.03442 79 72 63
1.04740 -1.08166 -0.03315 67 59 58
2.60396 -1.15651 -1.21452 33 29 19
2.58822 -1.15498 -1.23590 41 41 31
2.06195 -1.41028 -0.47086 17 12 38
2.04870 -1.40899 -0.48886 10 9 14
2.05087 -1.42298 -0.44693 35 41 54
2.04533 -1.44695 -0.41449 57 56 60
2.03650 -1.45713 -0.42256 57 59 61
2.04079 -1.46860 -0.41279 53 51 59
2.03227 -1.48278 -0.36204 38 40 38
2.01924 -1.48151 -0.37973 47 46 56
2.02401 -1.49480 -0.34122 36 31 28
2.02000 -1.50653 -0.32427 25 19 15
2.03295 -1.50779 -0.30668 10 10 8
2.02423 -1.51783 -0.31464 14 12 12
1.86899 -1.61141 -0.07736 24 27 28
1.85679 -1.61023 -0.09393 27 33 33
1.86078 -1.62088 -0.08486 25 30 30
1.90793 -1.62160 -0.09775 17 17 18
1.90366 -1.64195 -0.09616 12 11 14
1.92591 -1.63224 -0.10028 11 10 19
1.96123 -1.64286 -0.11718 35 35 34
2.02685 -1.65361 -0.15901 76 72 57
2.32991 -1.87879 -0.14820 84 69 59
2.31630 -1.87747 -0.16670 87 71 63
2.32075 -1.88935 -0.15657 86 72 63
2.32520 -1.90124 -0.14644 85 73 65
2.33457 -1.89069 -0.13823 83 71 60
2.32986 -1.91314 -0.13647 85 72 69
2.33972 -1.90262 -0.12862 85 70 64
2.33500 -1.92508 -0.12686 87 73 71
2.34630 -1.91466 -0.12008 85 73 63
2.34158 -1.93713 -0.11832 87 72 68
2.80130 -2.16402 -0.20697 52 47 48
2.80651 -2.13923 -0.20892 67 55 51
2.79639 -2.15089 -0.21816 60 51 49
2.79610 -2.18882 -0.20503 27 25 51
2.81497 -2.17827 -0.20173 43 41 46
2.82758 -2.19243 -0.19571 34 32 43
2.84952 -2.22045 -0.18131 26 24 64
2.86573 -2.23525 -0.17754 30 36 65
2.87176 -2.24866 -0.16694 32 32 50
2.87640 -2.37350 -0.02569 7 4 5
2.88160 -2.34873 -0.02764 10 5 3
2.87149 -2.36038 -0.03687 7 3 5
2.88481 -2.38724 -0.01669 17 12 13
2.87768 -2.39821 0.00197 33 27 28
2.58533 -2.49112 0.35197 20 34 130
2.57162 -2.48978 0.33334 18 32 117
2.57610 -2.50176 0.34354 18 30 121
2.58394 -2.50180 0.36554 21 38 147
2.59764 -2.50313 0.38414 23 46 153
2.58842 -2.51376 0.37573 21 43 155
2.62107 -2.55407 0.39555 25 33 101
2.62583 -2.53138 0.39377 28 42 119
2.61657 -2.54206 0.38531 24 39 126
2.61630 -2.57676 0.39733 24 21 80
2.63134 -2.56744 0.40258 38 33 78
2.64259 -2.58107 0.40912 54 56 71
2.65723 -2.59556 0.41383 92 85 63
2.66511 -2.60846 0.42230 111 102 64
2.67896 -2.60981 0.44112 121 103 73
2.66964 -2.62056 0.43261 119 103 69
2.66031 -2.63130 0.42409 116 102 68
2.45630 -2.68094 0.67941 129 111 85
2.44337 -2.67968 0.66184 129 111 68
2.44759 -2.69097 0.67146 130 111 72
2.45182 -2.70226 0.68108 131 110 77
2.45783 -2.69148 0.69038 131 114 94
2.45485 -2.70073 0.70361 138 123 103
2.48525 -2.71944 0.70018 158 143 120
2.49631 -2.73273 0.70648 177 163 131
2.49935 -2.74374 0.71676 188 172 131
2.50499 -2.75551 0.72575 194 174 133
2.49176 -2.76171 0.74391 197 176 125
2.46790 -2.76464 0.76708 186 164 101
2.43609 -2.76504 0.79388 161 131 69
2.43168 -2.78603 0.79553 145 116 67
2.41847 -2.76955 0.81370 143 114 69
2.43113 -2.77078 0.83089 168 156 110
2.42261 -2.78059 0.82311 149 126 86
2.41409 -2.79041 0.81534 146 117 82
1.34847 -2.57368 1.47191 174 154 140
1.35150 -2.55925 1.47078 173 154 130
1.34561 -2.56604 1.46540 171 153 132
1.33447 -2.57532 1.48541 200 190 183
1.35126 -2.58791 1.48614 239 233 230
1.34823 -2.60233 1.48728 254 254 254
1.36615 -2.59989 1.48774 253 252 251
1.36311 -2.61437 1.48887 254 254 254
1.43573 -2.76477 1.62175 210 189 143
1.43268 -2.77931 1.62290 202 189 154
1.44504 -2.78165 1.63366 203 172 104
1.45387 -2.78251 1.64565 63 33 14
0.89177 -0.96014 -0.04464 252 254 254
0.89501 -0.94470 -0.04585 254 254 254
0.88870 -0.95196 -0.05161 254 254 254
0.89807 -0.95288 -0.03888 254 254 254
0.89957 -0.96677 -0.04344 241 252 250
0.90366 -0.97463 -0.03769 220 227 227
0.91257 -0.98097 -0.03776 186 159 180
0.92112 -0.98748 -0.03733 131 116 135
0.91785 -1.00304 -0.03611 92 80 76
0.94006 -0.99081 -0.04928 96 81 93
0.93677 -1.00649 -0.04805 96 87 84
0.94810 -0.99760 -0.04809 91 77 86
0.94480 -1.01332 -0.04685 99 90 79
1.02149 -1.05100 -0.04722 85 82 71
1.02487 -1.03494 -0.04848 93 85 76
1.01831 -1.04250 -0.05447 88 87 70
1.01812 -1.06706 -0.04596 69 61 71
1.02975 -1.05815 -0.04580 80 69 78
1.02637 -1.07425 -0.04453 67 60 62
1.03784 -1.06538 -0.04414 73 63 64
1.03446 -1.08152 -0.04287 65 59 57
2.59118 -1.16901 -1.22204 36 35 22
2.57545 -1.16748 -1.24341 42 40 36
2.58059 -1.18121 -1.23171 38 36 37
2.04318 -1.42129 -0.46992 13 8 31
2.02997 -1.42000 -0.48787 10 11 13
2.03429 -1.43154 -0.47804 10 9 21
2.04204 -1.43321 -0.45508 26 22 50
2.03522 -1.44547 -0.43509 51 53 61
2.01490 -1.49334 -0.36232 44 45 47
2.00190 -1.49207 -0.37997 49 50 64
2.00615 -1.50342 -0.37030 49 51 57
2.00550 -1.50535 -0.34047 48 45 35
2.00249 -1.51697 -0.32441 38 34 21
1.90299 -1.63114 -0.10819 19 21 17
1.89064 -1.62994 -0.12497 26 32 31
1.89871 -1.65151 -0.10659 13 15 13
1.95111 -1.65258 -0.12344 29 24 31
2.02506 -1.66351 -0.17253 66 60 50
2.04085 -1.67471 -0.17267 89 82 63
2.05368 -1.67596 -0.15525 95 82 77
2.04504 -1.68591 -0.16313 95 82 71
2.03641 -1.69586 -0.17101 95 83 66
2.75077 -2.14572 -0.21735 56 48 49
2.75593 -2.12111 -0.21928 69 56 54
2.74589 -2.13269 -0.22845 62 52 53
2.76081 -2.13414 -0.20818 64 53 51
2.74560 -2.17033 -0.21542 34 28 42
2.76647 -2.16010 -0.21372 48 42 44
2.78409 -2.17479 -0.21134 37 35 44
2.81579 -2.20393 -0.20388 23 20 55
2.82944 -2.21830 -0.19855 33 30 67
2.85515 -2.23441 -0.20127 50 54 81
2.86889 -2.24894 -0.19583 53 66 72
2.86825 -2.26142 -0.18075 41 41 58
2.86514 -2.27350 -0.16407 27 22 35
2.85079 -2.28383 -0.14005 18 9 12
2.86591 -2.28530 -0.11952 15 4 4
2.85574 -2.29702 -0.12881 12 4 5
2.84556 -2.30875 -0.13809 11 4 12
2.83980 -2.34384 -0.06093 9 3 5
2.84499 -2.31913 -0.06287 14 4 8
2.83490 -2.33075 -0.07208 10 3 8
2.84989 -2.33221 -0.05173 12 4 5
2.85479 -2.34530 -0.04058 8 3 6
2.83950 -2.35603 -0.04647 9 5 13
2.84545 -2.36928 -0.03601 9 7 24
2.86227 -2.38445 -0.03239 10 11 36
2.85956 -2.39619 -0.01644 16 18 49
2.84241 -2.40526 0.00845 25 28 65
2.56865 -2.51107 0.36062 18 32 138
2.55498 -2.50974 0.34205 19 29 118
2.55945 -2.52167 0.35222 19 29 123
2.57366 -2.52313 0.37049 18 39 147
2.58733 -2.52446 0.38906 21 42 143
2.57813 -2.53507 0.38066 20 43 142
2.56893 -2.54567 0.37226 21 39 134
2.59401 -2.54965 0.38438 23 40 128
2.58478 -2.56029 0.37595 25 39 126
2.61330 -2.56510 0.38626 18 30 103
2.60853 -2.58780 0.38804 17 20 77
2.63561 -2.59234 0.39935 31 32 73
2.64647 -2.60595 0.40612 68 66 66
2.65990 -2.62022 0.41152 102 94 61
2.44902 -2.71155 0.69424 129 108 77
2.43612 -2.71029 0.67671 129 109 71
2.44034 -2.72156 0.68631 126 106 71
2.44456 -2.73283 0.69591 125 104 69
2.46275 -2.73562 0.71082 134 115 92
2.47505 -2.74928 0.71644 144 125 105
2.48116 -2.76114 0.72516 160 144 120
2.47375 -2.76898 0.74049 176 162 120
2.45637 -2.77375 0.76058 171 151 95
2.45192 -2.79492 0.76224 143 121 75
2.43228 -2.77636 0.78376 155 128 65
2.42787 -2.79738 0.78541 143 118 69
1.34065 -2.57316 1.45962 178 159 144
1.34369 -2.55872 1.45849 171 154 135
1.33779 -2.56551 1.45311 171 155 132
1.31343 -2.57007 1.47879 201 192 184
1.33495 -2.58434 1.47742 239 238 235
1.33193 -2.59871 1.47855 254 254 254
1.43199 -2.76602 1.60799 182 172 165
1.43108 -2.77215 1.61589 197 186 156
1.43933 -2.78859 1.62816 206 188 155
0.87021 -0.95414 -0.05302 251 254 254
0.87343 -0.93876 -0.05423 254 254 254
0.86716 -0.94599 -0.05996 254 254 254
0.87648 -0.94690 -0.04729 254 254 254
0.87692 -0.96106 -0.05060 240 252 250
0.88345 -0.96807 -0.04792 217 225 230
0.89018 -0.97504 -0.04546 174 155 185
0.89357 -0.98313 -0.03888 122 109 139
0.89033 -0.99858 -0.03766 90 79 77
0.91699 -0.98488 -0.05660 97 74 97
0.91371 -1.00048 -0.05537 97 86 81
0.92692 -0.99101 -0.05782 91 76 87
0.92364 -1.00666 -0.05659 102 88 78
1.00446 -1.04269 -0.06291 84 83 69
1.00782 -1.02665 -0.06416 94 87 70
1.00128 -1.03420 -0.07014 91 87 70
1.01100 -1.03514 -0.05693 92 87 74
1.00109 -1.05872 -0.06165 69 62 72
1.01054 -1.05038 -0.05905 78 72 69
1.00717 -1.06644 -0.05779 70 62 63
1.01823 -1.05767 -0.05703 73 67 61
1.01486 -1.07376 -0.05577 66 61 67
2.59352 -1.19400 -1.22769 25 24 19
2.58807 -1.21999 -1.22565 13 15 13
2.02664 -1.44388 -0.45716 17 13 31
2.01347 -1.44260 -0.47504 8 10 16
2.01778 -1.45409 -0.46525 10 9 17
2.01838 -1.45617 -0.43583 30 38 36
2.01296 -1.46820 -0.41719 39 52 48
2.00571 -1.48027 -0.39697 47 49 56
1.99518 -1.51546 -0.34697 47 51 47
1.98647 -1.52549 -0.35492 49 53 52
1.99284 -1.52703 -0.33148 40 45 35
1.99152 -1.53851 -0.31695 25 20 27
1.81179 -1.59899 -0.09455 15 17 20
1.81597 -1.57906 -0.09612 12 13 14
1.80784 -1.58844 -0.10354 11 11 11
1.79970 -1.59782 -0.11097 9 9 10
1.82387 -1.60017 -0.07813 25 29 29
1.81574 -1.60954 -0.08556 24 27 27
1.95559 -1.66228 -0.14202 18 16 26
1.94303 -1.66105 -0.15908 12 19 13
1.94713 -1.67202 -0.14974 8 14 17
2.02611 -1.67345 -0.18850 51 48 40
2.04528 -1.68475 -0.19149 87 81 54
2.04083 -1.70598 -0.18982 93 84 66
2.70240 -2.12786 -0.22856 60 52 53
2.70752 -2.10343 -0.23048 74 60 59
2.69755 -2.11492 -0.23958 67 56 56
2.68758 -2.12642 -0.24869 59 53 50
2.71237 -2.11637 -0.21945 68 56 57
2.71774 -2.14207 -0.22491 51 46 48
2.71260 -2.16657 -0.22299 32 28 43
2.73161 -2.15616 -0.22016 43 38 45
2.76891 -2.18577 -0.21706 26 23 49
2.78650 -2.20056 -0.21463 26 28 71
2.80913 -2.21612 -0.21556 39 43 82
2.85791 -2.23545 -0.23415 60 68 93
2.86857 -2.24959 -0.22663 76 87 101
2.87523 -2.26319 -0.21637 67 78 81
2.87341 -2.27553 -0.20042 41 38 60
2.86765 -2.28722 -0.18189 23 19 41
2.86238 -2.31234 -0.17991 14 10 29
2.82555 -2.33022 -0.09611 8 6 30
2.81271 -2.34035 -0.07344 10 9 39
2.82076 -2.35393 -0.06437 12 14 44
2.81949 -2.36592 -0.04929 15 19 57
2.80999 -2.37641 -0.02901 16 20 71
2.80711 -2.38800 -0.01303 17 23 89
2.80197 -2.41248 -0.01111 18 31 119
2.80523 -2.39974 0.00226 18 27 101
2.80010 -2.42418 0.00418 18 33 127
2.79087 -2.40911 0.02534 20 31 110
2.78577 -2.43344 0.02725 22 36 137
2.78042 -2.41911 0.04584 22 34 118
2.77534 -2.44334 0.04774 22 34 138
2.60848 -2.57684 0.37528 17 28 103
2.59469 -2.57550 0.35655 30 35 123
2.60371 -2.59956 0.37706 17 21 76
2.63064 -2.60411 0.38843 20 20 67
2.62134 -2.61484 0.37993 20 19 64
2.64058 -2.61753 0.39571 40 42 61
2.65306 -2.63160 0.40162 85 80 56
2.46746 -2.75966 0.70792 123 102 70
2.45450 -2.75840 0.69032 125 105 69
2.45874 -2.76971 0.69996 126 105 71
2.46297 -2.78102 0.70960 131 109 77
2.46223 -2.76814 0.72224 128 110 84
2.45914 -2.77721 0.73546 143 128 85
2.45467 -2.79848 0.73713 138 117 78
2.45691 -2.78651 0.74820 147 129 82
2.45246 -2.80774 0.74987 141 120 78
1.33096 -2.57197 1.44813 178 160 141
1.33399 -2.55754 1.44700 173 155 131
1.32809 -2.56433 1.44162 170 155 130
1.30612 -2.56971 1.46646 210 203 195
1.30312 -2.58398 1.46758 253 254 253
1.32371 -2.58258 1.46665 244 246 239
1.32069 -2.59694 1.46778 254 254 254
1.33399 -2.59288 1.47000 253 254 253
1.33097 -2.60728 1.47113 254 254 254
0.84978 -0.94786 -0.06251 251 254 254
0.85299 -0.93254 -0.06372 254 254 254
0.84674 -0.93975 -0.06942 254 254 254
0.85603 -0.94065 -0.05680 254 254 254
0.85621 -0.95481 -0.05985 237 251 249
0.86137 -0.96223 -0.05557 213 221 225
0.86814 -0.96913 -0.05325 171 156 180
0.87232 -0.97690 -0.04771 120 108 139
0.86909 -0.99230 -0.04650 91 78 78
0.89749 -0.97793 -0.06797 96 73 104
0.89423 -0.99348 -0.06674 97 86 86
0.90576 -0.98452 -0.06729 90 74 92
0.90248 -1.00011 -0.06607 99 91 85
0.97952 -1.02731 -0.08005 94 86 77
0.98287 -1.01134 -0.08131 98 89 80
0.97635 -1.01885 -0.08726 96 90 80
0.98604 -1.01980 -0.07410 98 87 82
0.98921 -1.02825 -0.06689 98 88 81
0.98814 -1.03422 -0.07930 88 79 75
0.98478 -1.05023 -0.07804 72 63 64
0.99722 -1.04105 -0.07905 80 71 71
0.99385 -1.05710 -0.07778 70 62 61
1.00228 -1.04903 -0.07402 74 66 68
0.99891 -1.06509 -0.07275 70 60 70
2.58216 -1.20632 -1.23663 21 21 18
2.57670 -1.23231 -1.23459 10 12 13
2.00483 -1.46663 -0.43951 12 8 17
1.99173 -1.46536 -0.45730 11 9 19
1.99601 -1.47679 -0.44756 11 10 17
2.00030 -1.48822 -0.43782 12 9 20
1.99864 -1.47866 -0.42015 14 9 32
1.98894 -1.49080 -0.39765 23 17 45
1.98524 -1.50255 -0.38074 33 36 52
1.98094 -1.51426 -0.36336 45 49 53
1.98095 -1.53716 -0.33653 45 52 45
1.97939 -1.54863 -0.32178 31 27 34
1.98270 -1.55989 -0.31140 17 9 21
1.99557 -1.56115 -0.29392 10 8 15
1.98691 -1.57113 -0.30183 11 7 14
1.97825 -1.58111 -0.30974 14 6 14
1.80687 -1.60831 -0.10479 12 15 18
1.79477 -1.60713 -0.12122 9 10 11
1.79872 -1.61769 -0.11222 10 13 14
1.81082 -1.61887 -0.09578 22 25 28
1.82292 -1.62005 -0.07935 28 32 32
1.81478 -1.62944 -0.08678 28 31 33
1.80664 -1.63882 -0.09422 22 30 28
2.00285 -1.68331 -0.18401 40 43 36
1.99008 -1.68206 -0.20135 8 11 13
2.04467 -1.69481 -0.20618 81 77 57
2.04020 -1.71610 -0.20451 89 84 69
2.68188 -2.13807 -0.23018 51 47 44
2.67194 -2.14954 -0.23926 45 40 40
2.67677 -2.16244 -0.22826 39 36 37
2.69815 -2.15240 -0.22727 40 37 38
2.73178 -2.18141 -0.22195 36 31 60
2.75720 -2.19718 -0.22514 46 46 79
2.80643 -2.21635 -0.24467 58 66 100
2.80118 -2.24133 -0.24270 87 94 115
2.82374 -2.23131 -0.24190 73 83 108
2.81848 -2.25638 -0.23993 85 92 113
2.84052 -2.24627 -0.23867 83 92 109
2.83524 -2.27141 -0.23669 85 89 113
2.85836 -2.26147 -0.23608 85 91 110
2.86569 -2.27517 -0.22628 72 78 91
2.86792 -2.28811 -0.21303 38 36 58
2.86068 -2.29955 -0.19345 20 17 44
2.80492 -2.34009 -0.09842 12 15 71
2.79974 -2.36477 -0.09648 15 28 115
2.78635 -2.34915 -0.07198 13 21 88
2.78120 -2.37368 -0.07005 18 32 126
2.77867 -2.35996 -0.05277 17 30 102
2.78400 -2.37299 -0.04204 21 32 114
2.76867 -2.39432 -0.00400 22 32 119
2.60477 -2.58888 0.36363 20 25 101
2.60000 -2.61164 0.36542 20 20 75
2.63724 -2.62977 0.38385 21 23 55
2.62337 -2.62841 0.36501 20 20 69
2.62790 -2.64053 0.37533 17 17 62
2.64486 -2.64266 0.39245 61 60 55
2.65681 -2.65667 0.39869 96 90 74
2.46313 -2.79109 0.72126 137 116 77
2.45019 -2.78983 0.70368 129 107 75
2.45442 -2.80113 0.71331 134 115 69
2.45865 -2.81243 0.72294 137 116 68
2.36317 -2.80896 0.82741 154 135 109
2.35065 -2.80774 0.81040 147 120 74
2.37160 -2.79925 0.83510 149 129 106
2.35474 -2.81867 0.81972 157 138 109
2.37569 -2.81018 0.84442 165 152 132
2.35884 -2.82961 0.82903 166 154 139
1.31600 -2.56891 1.43894 174 163 140
1.31902 -2.55451 1.43781 171 154 133
1.31314 -2.56129 1.43245 172 151 128
1.41857 -2.76606 1.58245 252 244 212
0.83105 -0.94108 -0.07390 249 254 253
0.83425 -0.92582 -0.07510 254 254 254
0.82802 -0.93300 -0.08079 254 254 254
0.83728 -0.93390 -0.06821 254 254 254
0.83710 -0.94812 -0.07085 234 248 247
0.84200 -0.95558 -0.06630 210 215 222
0.84816 -0.96263 -0.06332 166 156 183
0.85627 -0.96906 -0.06275 117 111 146
0.85304 -0.98443 -0.06154 93 80 85
0.87728 -0.97130 -0.07821 99 79 109
0.87403 -0.98680 -0.07699 98 86 81
0.88642 -0.97754 -0.07875 91 73 87
0.88316 -0.99308 -0.07753 98 90 79
0.95435 -1.02153 -0.08556 95 88 77
0.95768 -1.00565 -0.08680 98 89 85
0.95120 -1.01312 -0.09272 97 89 86
0.96083 -1.01406 -0.07964 98 90 84
0.96523 -1.02770 -0.08768 87 84 71
0.96189 -1.04364 -0.08643 70 68 63
0.97560 -1.03408 -0.08911 80 75 70
0.97224 -1.05007 -0.08785 70 64 64
0.98389 -1.04111 -0.08800 75 65 68
0.98053 -1.05713 -0.08674 69 63 61
1.97695 -1.50105 -0.40265 13 10 23
1.96397 -1.49978 -0.42029 10 10 12
1.96821 -1.51112 -0.41063 10 11 12
1.97245 -1.52245 -0.40097 8 10 16
1.96962 -1.51292 -0.38239 17 14 31
1.96784 -1.52448 -0.36729 25 32 39
1.96508 -1.53603 -0.35135 36 48 47
1.97138 -1.54720 -0.34365 45 50 55
1.96934 -1.55866 -0.32844 34 32 38
1.97173 -1.56994 -0.31724 19 12 22
1.96728 -1.59114 -0.31557 14 7 9
1.81154 -1.62816 -0.11096 15 22 20
1.79940 -1.62697 -0.12745 11 12 8
1.80734 -1.64816 -0.10939 22 31 26
1.99600 -1.69322 -0.19334 34 32 30
1.98323 -1.69198 -0.21069 13 13 17
2.03269 -1.70479 -0.21133 74 69 54
2.69639 -2.17728 -0.22773 43 44 57
2.74160 -2.19564 -0.24507 60 66 93
2.77601 -2.21278 -0.25457 78 87 111
2.79648 -2.22814 -0.25415 86 95 115
2.85079 -2.29890 -0.21779 41 38 58
2.84691 -2.31082 -0.20045 18 15 45
2.77187 -2.38411 -0.04977 24 33 135
2.75738 -2.39352 -0.02626 31 37 136
2.74667 -2.40350 -0.00530 32 39 128
2.74792 -2.41566 0.00790 22 33 123
2.75272 -2.42848 0.01883 18 34 132
2.74284 -2.43987 0.00981 22 35 128
2.58918 -2.58710 0.34591 30 36 125
2.59395 -2.56435 0.34413 23 33 126
2.58466 -2.57505 0.33565 24 35 132
2.57538 -2.58575 0.32717 26 43 149
2.60319 -2.60147 0.35073 23 24 95
2.59841 -2.62428 0.35252 20 18 71
2.63995 -2.65456 0.38144 38 37 59
2.62605 -2.65321 0.36256 20 18 67
2.65142 -2.66849 0.38793 76 72 65
2.66012 -2.68173 0.39600 105 94 66
2.67406 -2.68309 0.41493 119 102 69
2.66467 -2.69390 0.40637 118 103 68
1.30907 -2.56870 1.42629 171 150 134
1.31209 -2.55430 1.42515 175 155 130
1.30621 -2.56107 1.41978 176 152 130
1.30033 -2.56785 1.41442 173 152 133
1.30969 -2.57553 1.43377 189 192 182
1.27929 -2.57111 1.45475 231 240 240
0.81062 -0.93500 -0.08287 249 254 253
0.81381 -0.91980 -0.08406 254 254 254
0.80760 -0.92695 -0.08973 254 254 254
0.81682 -0.92785 -0.07720 254 254 254
0.81713 -0.94182 -0.08050 234 245 242
0.82209 -0.94922 -0.07611 208 211 214
0.83006 -0.95559 -0.07553 155 148 166
0.84600 -0.95931 -0.08501 108 100 124
0.84278 -0.97469 -0.08380 91 79 77
0.85561 -0.96526 -0.08636 94 75 100
0.85237 -0.98069 -0.08514 99 87 88
0.86556 -0.97115 -0.08806 89 74 96
0.86231 -0.98663 -0.08684 101 90 85
0.94001 -1.02198 -0.09291 86 79 82
0.94334 -1.00614 -0.09416 99 89 82
0.93687 -1.01359 -0.10006 91 89 78
0.93669 -1.03783 -0.09167 72 66 70
0.95143 -1.02796 -0.09580 83 74 73
0.94809 -1.04387 -0.09455 70 66 65
0.96202 -1.03425 -0.09760 76 72 65
0.95867 -1.05021 -0.09634 69 66 63
1.95717 -1.53457 -0.37340 11 10 25
1.94426 -1.53331 -0.39093 7 11 15
1.94848 -1.54458 -0.38133 8 9 20
1.95270 -1.55584 -0.37173 9 9 19
1.95706 -1.54600 -0.35986 17 17 35
1.95859 -1.55733 -0.34784 32 31 41
1.95414 -1.57856 -0.34617 13 13 13
1.96049 -1.56864 -0.33617 29 24 28
1.95604 -1.58985 -0.33451 13 11 12
1.97376 -1.70296 -0.18952 29 22 26
2.01917 -1.71472 -0.21515 64 56 53
2.03301 -1.72615 -0.21372 88 82 73
2.04593 -1.72741 -0.19617 93 85 73
2.03724 -1.73743 -0.20411 94 85 73
2.02854 -1.74745 -0.21204 94 84 69
2.62464 -2.14404 -0.23585 48 44 40
2.62971 -2.11988 -0.23775 62 54 47
2.61985 -2.13124 -0.24675 59 54 40
2.60998 -2.14261 -0.25575 56 52 38
2.62943 -2.15683 -0.22494 41 37 43
2.66626 -2.17383 -0.23694 47 50 48
2.72922 -2.19453 -0.26729 61 74 76
2.74874 -2.20963 -0.26647 73 89 110
2.76585 -2.22449 -0.26385 76 89 109
2.78537 -2.23976 -0.26283 75 84 103
2.80274 -2.25482 -0.26021 76 85 107
2.80771 -2.26809 -0.24890 77 90 108
2.83783 -2.28520 -0.25492 78 89 107
2.83921 -2.29799 -0.24106 73 78 92
2.82766 -2.30870 -0.21841 46 43 56
2.83487 -2.32235 -0.20860 22 11 46
2.82960 -2.34745 -0.20663 47 21 41
2.78312 -2.36302 -0.11572 12 23 78
2.76874 -2.37266 -0.09186 15 22 99
2.76096 -2.38338 -0.07248 20 23 118
2.74270 -2.39209 -0.04634 30 39 144
2.70164 -2.40824 0.00836 58 64 147
2.71009 -2.42167 0.01683 38 46 135
2.59748 -2.60212 0.32723 26 40 129
2.60373 -2.61465 0.33655 23 24 85
2.59893 -2.63751 0.33834 18 20 75
2.63693 -2.66699 0.36933 27 24 56
2.62301 -2.66563 0.35042 18 21 71
2.62756 -2.67779 0.36078 25 20 62
2.64614 -2.68037 0.37708 53 52 54
2.65290 -2.69312 0.38623 93 86 55
2.65910 -2.70574 0.39570 115 103 64
2.67305 -2.70709 0.41465 123 105 71
2.66366 -2.71792 0.40608 123 107 75
1.31417 -2.58606 1.42382 174 173 160
1.31785 -2.59401 1.42999 203 207 212
1.28380 -2.58808 1.45260 221 237 242
1.29684 -2.59941 1.45461 237 247 250
1.30551 -2.60025 1.46640 254 254 254
1.31034 -2.61097 1.45648 249 253 253
1.31906 -2.61181 1.46832 254 254 254
1.31319 -2.61857 1.46297 253 254 254
0.79019 -0.92903 -0.09156 248 253 251
0.79337 -0.91388 -0.09275 254 254 254
0.78718 -0.92101 -0.09840 254 254 254
0.79637 -0.92190 -0.08592 254 254 254
0.79647 -0.93587 -0.08899 232 241 238
0.80200 -0.94301 -0.08542 204 204 210
0.80832 -0.94990 -0.08283 154 150 164
0.82384 -0.95363 -0.09204 112 108 123
0.82063 -0.96894 -0.09084 91 82 81
0.83460 -0.95910 -0.09503 92 80 98
0.84335 -0.96532 -0.09536 83 72 77
0.84011 -0.98073 -0.09415 102 91 81
0.90408 -1.01040 -0.09544 92 86 77
0.90737 -0.99470 -0.09667 99 89 83
0.90097 -1.00208 -0.10252 97 89 81
0.91049 -1.00301 -0.08959 97 90 82
0.91360 -1.01132 -0.08251 94 90 80
0.91482 -1.01641 -0.09776 86 82 74
0.91151 -1.03216 -0.09653 73 64 72
0.92570 -1.02245 -0.10019 81 75 76
0.92238 -1.03826 -0.09895 71 64 67
0.93631 -1.02863 -0.10220 75 67 76
0.93298 -1.04449 -0.10095 69 64 62
1.95114 -1.56728 -0.35686 11 12 14
1.93826 -1.56603 -0.37436 10 9 16
1.94248 -1.57727 -0.36477 8 10 10
1.94669 -1.58852 -0.35519 8 9 10
1.96050 -1.70172 -0.20633 29 22 24
1.95634 -1.69061 -0.21579 28 28 26
1.94779 -1.70048 -0.22360 31 33 27
1.96466 -1.71282 -0.19687 31 18 29
2.00970 -1.72469 -0.22237 56 46 51
2.02816 -1.73626 -0.22493 87 79 71
2.02368 -1.75758 -0.22325 91 79 70
2.60442 -2.15408 -0.23733 42 38 39
2.61993 -2.16825 -0.23421 32 32 43
2.63596 -2.18255 -0.23139 33 45 50
2.67531 -2.20014 -0.24516 38 56 71
2.69730 -2.21550 -0.24633 41 56 87
2.72302 -2.23150 -0.25001 43 54 80
2.74079 -2.24647 -0.24793 42 49 79
2.76119 -2.26191 -0.24761 46 58 94
2.80120 -2.28045 -0.26083 59 78 99
2.82533 -2.29672 -0.26279 69 81 96
2.82645 -2.30945 -0.24874 69 63 78
2.82102 -2.32109 -0.23023 52 40 50
2.81575 -2.34620 -0.22826 66 26 29
2.81618 -2.33276 -0.21220 43 17 47
2.81092 -2.35781 -0.21023 81 27 22
2.77372 -2.38692 -0.11098 22 12 54
2.75196 -2.39507 -0.08225 44 30 105
2.74682 -2.41955 -0.08033 98 108 179
2.69171 -2.39586 -0.02844 65 71 160
2.68903 -2.40720 -0.01270 66 75 173
2.68285 -2.42957 0.01914 53 59 151
2.68575 -2.44187 0.03113 31 39 132
2.70026 -2.44329 0.05084 22 34 129
2.67653 -2.45172 0.05085 26 34 127
2.69099 -2.45313 0.07048 21 32 127
2.66334 -2.46067 0.07299 26 31 124
2.67773 -2.46207 0.09254 18 30 120
2.67012 -2.49680 0.10970 18 28 114
2.68449 -2.49820 0.12921 19 29 117
2.68286 -2.51108 0.11538 20 30 121
2.69726 -2.51248 0.13494 24 34 123
2.68757 -2.52365 0.12609 23 37 129
2.67788 -2.53481 0.11725 26 35 127
2.61258 -2.59681 0.27830 26 43 157
2.61742 -2.57375 0.27649 21 39 135
2.60800 -2.58460 0.26790 24 42 146
2.59859 -2.59544 0.25930 28 45 153
2.60316 -2.60765 0.26971 29 47 161
2.61085 -2.60746 0.29241 32 47 159
2.60775 -2.61775 0.30727 26 35 122
2.60293 -2.64072 0.30907 18 19 75
2.60959 -2.62923 0.31921 20 20 78
2.60477 -2.65218 0.32101 17 20 79
2.64374 -2.69304 0.36458 37 34 52
2.62978 -2.69168 0.34561 20 19 66
2.65318 -2.70654 0.37224 75 67 56
2.65884 -2.71904 0.38203 107 95 59
2.66595 -2.73195 0.39104 121 104 70
2.67994 -2.73331 0.41005 127 106 75
2.67052 -2.74416 0.40145 126 106 71
2.66110 -2.75502 0.39285 123 104 66
1.30042 -2.58339 1.41415 173 153 135
1.29167 -2.58254 1.40226 178 154 129
1.31281 -2.59452 1.41642 178 173 159
1.30977 -2.60900 1.41756 187 193 193
1.32441 -2.60541 1.41910 179 187 194
1.32136 -2.61994 1.42024 186 194 190
1.32677 -2.61291 1.42588 172 185 198
1.32372 -2.62744 1.42702 180 190 193
1.32835 -2.62012 1.43300 195 200 212
1.31653 -2.62882 1.45366 235 246 250
1.32527 -2.62967 1.46554 254 254 254
1.32324 -2.63793 1.45852 249 253 254
1.33200 -2.63878 1.47042 254 254 253
1.33341 -2.64839 1.46194 253 253 251
1.33629 -2.65606 1.46848 238 239 241
0.76339 -0.91644 -0.10227 254 254 254
0.76655 -0.90138 -0.10346 254 254 254
0.76040 -0.90847 -0.10907 254 254 254
0.76953 -0.90936 -0.09666 254 254 254
0.77252 -0.91733 -0.08987 254 254 254
0.77065 -0.92283 -0.10114 247 253 252
0.77674 -0.92969 -0.09842 232 239 239
0.78121 -0.93716 -0.09354 203 199 209
0.78583 -0.94460 -0.08883 152 147 157
0.80848 -0.94569 -0.10760 111 107 119
0.80527 -0.96098 -0.10640 92 84 81
0.81578 -0.95230 -0.10624 94 84 98
0.81256 -0.96762 -0.10504 99 89 82
0.82200 -0.95932 -0.10345 87 77 79
0.81878 -0.97466 -0.10224 98 90 83
0.88054 -1.00456 -0.10176 93 87 79
0.88381 -0.98895 -0.10298 100 90 84
0.87744 -0.99629 -0.10880 96 92 80
0.88691 -0.99722 -0.09594 99 90 83
0.87726 -1.02018 -0.10053 78 66 77
0.88980 -1.01093 -0.10243 88 78 79
0.88651 -1.02660 -0.10120 74 64 76
0.89991 -1.01710 -0.10407 82 72 76
0.89661 -1.03282 -0.10284 71 63 74
0.91019 -1.02328 -0.10588 76 69 73
0.90688 -1.03905 -0.10464 73 62 72
1.97594 -1.72305 -0.22182 45 33 40
2.00177 -1.73470 -0.23092 61 47 57
1.99731 -1.75594 -0.22926 79 68 68
2.02025 -1.74631 -0.23356 84 73 71
2.01578 -1.76764 -0.23188 82 69 68
2.56405 -2.14935 -0.23827 55 50 41
2.56907 -2.12542 -0.24015 67 57 45
2.55930 -2.13668 -0.24907 65 58 47
2.54953 -2.14794 -0.25799 63 56 54
2.58223 -2.16379 -0.23729 39 33 39
2.57719 -2.18781 -0.23540 21 17 44
2.59306 -2.17733 -0.23086 21 17 42
2.58801 -2.20139 -0.22897 8 11 52
2.60557 -2.19113 -0.22560 9 11 52
2.60051 -2.21524 -0.22370 4 10 55
2.62496 -2.20596 -0.22523 4 9 59
2.61988 -2.23015 -0.22333 5 10 53
2.65553 -2.22248 -0.23276 3 8 57
2.65041 -2.24684 -0.23084 7 11 54
2.68453 -2.23893 -0.23897 4 9 59
2.67938 -2.26344 -0.23705 8 13 61
2.71275 -2.25542 -0.24446 5 11 67
2.73686 -2.27143 -0.24688 12 22 79
2.77684 -2.29004 -0.26028 32 47 89
2.79646 -2.30561 -0.25923 49 51 83
2.78100 -2.31557 -0.23373 56 30 61
2.77576 -2.34053 -0.23177 37 16 33
2.78803 -2.32913 -0.22390 56 25 37
2.78279 -2.35411 -0.22194 39 19 21
2.77582 -2.37633 -0.15720 62 16 37
2.76706 -2.38697 -0.13684 52 16 36
2.75159 -2.39629 -0.11209 58 33 68
2.69779 -2.39831 -0.06202 93 85 135
2.68562 -2.41974 -0.02587 72 72 175
2.67946 -2.43034 -0.00785 58 56 167
2.66853 -2.43992 0.01318 49 56 161
2.66352 -2.46383 0.01505 54 69 175
2.66845 -2.45160 0.02709 42 53 161
2.67135 -2.46387 0.03904 40 53 160
2.66448 -2.48569 0.07096 45 55 157
2.65506 -2.49525 0.09063 40 52 151
2.65193 -2.50609 0.10623 32 45 142
2.66549 -2.52056 0.11135 27 38 134
2.61170 -2.62085 0.27777 32 49 152
2.59770 -2.61949 0.25875 33 53 162
2.59423 -2.62751 0.30114 25 30 103
2.58941 -2.65046 0.30294 17 20 81
2.63921 -2.70518 0.35324 29 22 50
2.62522 -2.70382 0.33425 20 20 71
2.62980 -2.71602 0.34465 27 18 56
2.65223 -2.71969 0.35887 56 46 54
2.66294 -2.73361 0.36586 96 81 50
2.67062 -2.74672 0.37458 116 99 63
2.66576 -2.76988 0.37640 120 102 64
1.30227 -2.59302 1.40528 177 154 136
1.29349 -2.59217 1.39336 175 155 133
1.29636 -2.59983 1.39989 176 156 140
1.32125 -2.63310 1.43591 173 186 200
1.31246 -2.63224 1.42396 189 198 191
1.31534 -2.63992 1.43050 189 197 189
1.31821 -2.64759 1.43705 185 192 195
1.30921 -2.64159 1.45663 219 225 239
1.32669 -2.65489 1.45689 232 242 247
1.32468 -2.66065 1.46549 225 239 244
