ply
format ascii 1.0
element face 0
property list uchar int vertex_indices
element vertex 1347
property float x
property float y
property float z
property uchar diffuse_red
property uchar diffuse_green
property uchar diffuse_blue
end_header
1.17965 -2.79313 1.60002 238 243 248
1.18635 -2.79591 1.61397 254 254 254
1.17146 -2.80583 1.61609 244 252 254
1.17815 -2.80860 1.63000 254 254 254
1.16504 -2.81091 1.62459 250 254 254
1.17171 -2.81368 1.63846 254 254 254
1.16496 -2.81933 1.63174 253 254 254
1.18158 -2.93879 1.72165 245 243 235
1.18188 -2.94748 1.72878 178 159 167
1.17501 -2.96164 1.72921 118 111 99
1.15383 -2.93978 1.74066 130 117 95
1.19808 -2.98249 1.74771 136 126 103
1.20484 -2.98528 1.76176 148 134 106
1.19801 -2.99101 1.75495 140 129 108
1.08257 -3.38360 2.16180 160 151 124
1.07609 -3.38091 2.14831 142 129 122
1.07601 -3.38909 2.15526 141 128 122
1.21584 -1.07030 0.10652 250 254 249
1.22277 -1.05602 0.10609 254 254 254
1.21592 -1.06175 0.09926 254 254 254
1.22721 -1.07764 0.10520 228 239 225
1.21894 -1.08705 0.11861 177 168 171
1.22593 -1.09490 0.12061 101 84 110
1.23239 -1.10285 0.12305 71 59 68
1.22541 -1.11722 0.12349 95 86 83
1.24288 -1.11047 0.12254 88 81 76
1.23588 -1.12489 0.12298 95 86 83
1.27750 -1.15089 0.13378 86 84 70
1.27758 -1.14216 0.12636 96 87 78
1.29265 -1.16727 0.13758 26 34 31
1.28553 -1.18196 0.13802 13 10 13
1.29568 -1.17584 0.14282 9 10 26
1.28855 -1.19054 0.14326 13 10 16
1.91762 -1.51903 0.02140 40 26 32
1.90912 -1.51551 0.00373 24 18 15
1.97581 -1.54331 0.00344 91 83 71
1.98445 -1.54689 0.02141 94 83 76
1.97571 -1.55421 0.01270 94 83 76
1.96697 -1.56153 0.00399 95 82 72
2.94179 -2.17408 -0.10268 54 46 29
2.93078 -2.16952 -0.12559 64 52 42
2.96681 -2.19253 -0.10365 34 11 26
2.95548 -2.21588 -0.10294 25 5 8
2.87075 -2.29834 0.04910 19 4 14
2.85991 -2.29386 0.02655 10 3 4
2.89013 -2.31616 0.05132 42 39 13
2.90047 -2.33214 0.05798 62 49 35
2.88930 -2.35516 0.05868 65 53 41
2.75094 -2.39324 0.20833 110 94 74
2.76174 -2.37099 0.20766 108 87 71
2.75106 -2.37993 0.19702 105 85 68
2.74039 -2.38887 0.18639 98 85 61
2.71433 -2.39778 0.23635 57 60 96
2.70363 -2.41983 0.23701 15 22 112
2.69709 -2.40680 0.25536 21 28 118
2.68643 -2.42877 0.25602 16 19 111
2.68848 -2.41785 0.27037 21 25 123
2.67784 -2.43978 0.27103 18 22 114
2.67836 -2.42847 0.28601 16 22 126
2.66775 -2.45034 0.28667 20 27 116
2.67173 -2.43991 0.30004 14 29 133
2.66114 -2.46175 0.30070 21 32 123
2.66526 -2.45135 0.31397 18 39 141
2.65324 -2.46131 0.33032 20 43 146
2.66355 -2.46558 0.35177 24 49 155
2.65312 -2.47432 0.34137 21 45 152
2.63695 -2.54802 0.41424 72 67 81
2.63707 -2.53507 0.40323 42 49 100
2.62668 -2.54377 0.39287 28 39 111
2.64359 -2.56290 0.42240 95 90 73
2.64347 -2.57588 0.43343 110 101 76
2.46837 -2.76278 0.70682 122 105 65
2.45851 -2.75870 0.68629 123 105 64
2.45839 -2.77114 0.69687 122 101 66
2.45828 -2.78359 0.70745 135 111 61
2.46395 -2.77373 0.71897 131 115 74
2.45387 -2.79451 0.71960 133 108 67
2.46874 -2.78788 0.72775 132 113 76
2.45864 -2.80870 0.72838 130 107 74
2.34399 -2.81663 0.83444 139 113 71
2.33442 -2.81267 0.81454 145 120 63
2.34714 -2.82991 0.84356 107 82 44
2.33617 -2.83789 0.85755 71 53 22
2.33922 -2.85114 0.86671 64 59 33
2.33553 -2.86182 0.87816 76 75 53
2.32576 -2.88195 0.87876 135 118 77
2.31782 -2.86707 0.89429 131 118 90
2.30810 -2.88711 0.89489 154 135 106
1.32984 -2.64733 1.36172 185 168 152
1.32275 -2.64440 1.34698 179 158 142
1.32976 -2.65627 1.36932 187 189 185
1.32251 -2.67121 1.36977 187 194 194
1.26979 -2.69992 1.44577 184 189 179
1.26285 -2.69705 1.43133 186 194 193
1.25758 -2.70294 1.45639 166 168 151
1.25113 -2.71736 1.47281 150 160 173
1.23644 -2.71902 1.48392 172 185 190
1.22942 -2.73348 1.48435 185 196 199
1.19038 -2.76521 1.55332 171 184 191
1.18363 -2.76241 1.53929 172 180 183
1.18355 -2.77093 1.54652 168 181 184
1.18347 -2.77944 1.55375 173 183 187
1.18589 -2.77147 1.56157 174 185 194
1.17899 -2.78567 1.56200 176 185 190
1.18604 -2.78009 1.56874 180 189 199
1.17915 -2.79429 1.56917 174 185 193
1.18903 -2.79017 1.57527 185 194 206
1.18730 -2.79782 1.58287 189 200 215
1.18588 -2.80562 1.59039 195 205 219
1.18426 -2.81331 1.59795 200 213 222
1.17988 -2.81953 1.60609 207 219 233
1.16237 -2.81874 1.61700 225 232 244
1.15913 -2.82547 1.62482 238 242 248
1.16581 -2.82824 1.63870 254 254 254
1.15568 -2.83208 1.63267 243 247 251
1.16235 -2.83483 1.64653 254 254 254
1.15356 -2.83938 1.64023 245 252 254
1.16023 -2.84214 1.65408 254 254 254
1.15166 -2.84679 1.64774 248 253 254
1.15832 -2.84954 1.66158 254 254 254
1.15158 -2.85518 1.65487 252 254 254
1.16594 -2.93090 1.70927 252 252 248
1.17279 -2.91679 1.70885 254 254 254
1.16602 -2.92246 1.70210 254 254 254
1.15925 -2.92813 1.69535 254 253 252
1.13054 -2.91902 1.72264 223 213 208
1.13306 -2.92886 1.72927 133 115 112
1.12629 -2.94280 1.72969 108 109 98
1.15955 -2.96111 1.73898 123 108 103
1.19284 -2.98915 1.74063 125 111 102
1.21472 -3.01065 1.74432 128 116 100
1.22154 -3.01347 1.75849 144 132 119
1.24253 -3.03581 1.74717 132 121 102
1.24942 -3.03865 1.76148 147 135 107
1.26800 -3.05974 1.75053 138 130 106
1.27495 -3.06261 1.76497 150 135 108
1.26792 -3.06850 1.75797 144 134 107
1.19755 -1.06875 0.10117 244 250 240
1.19149 -1.08638 0.12008 135 116 126
1.21035 -1.09297 0.11307 66 63 75
1.20341 -1.10726 0.11350 94 85 68
1.22192 -1.10039 0.11162 77 66 79
1.21495 -1.11474 0.11205 95 87 66
1.23055 -1.10815 0.11241 93 85 76
1.22357 -1.12255 0.11285 93 86 80
1.25568 -1.14052 0.12296 91 89 73
1.25576 -1.13183 0.11558 94 87 76
1.28255 -1.16462 0.12538 22 18 29
1.27544 -1.17928 0.12583 13 10 18
1.27305 -1.17404 0.13967 13 7 19
1.26596 -1.18866 0.14011 15 9 19
1.90786 -1.52618 0.01356 22 16 23
1.89937 -1.52266 -0.00410 20 22 23
1.97033 -1.53989 -0.01651 59 56 52
1.97735 -1.55116 -0.01168 88 79 66
1.96848 -1.56943 -0.01113 94 82 70
2.45360 -1.88580 -0.04684 83 73 75
2.46366 -1.86506 -0.04747 94 81 74
2.45371 -1.87340 -0.05738 92 81 80
2.46355 -1.87747 -0.03692 91 80 70
2.46344 -1.88987 -0.02638 87 79 69
2.46627 -1.89989 -0.04340 74 61 72
2.47614 -1.90397 -0.02288 84 75 68
2.46616 -1.91234 -0.03283 75 62 67
2.93086 -2.18344 -0.11389 55 45 28
2.91985 -2.17889 -0.13680 62 53 41
2.94707 -2.20034 -0.11044 39 18 17
2.93576 -2.22364 -0.10974 27 8 17
2.87014 -2.30972 0.03312 15 6 11
2.85927 -2.30523 0.01052 9 5 3
2.85915 -2.31893 0.02216 13 5 9
2.88056 -2.32569 0.03965 36 27 17
2.89635 -2.34290 0.04364 55 45 31
2.73441 -2.40077 0.20041 78 70 77
2.72363 -2.42299 0.20108 14 25 106
2.69933 -2.40557 0.22784 32 32 102
2.68864 -2.42760 0.22851 12 23 116
2.63437 -2.46784 0.32368 20 37 132
2.62408 -2.46358 0.30228 27 31 119
2.62396 -2.47656 0.31331 27 32 122
2.62384 -2.48955 0.32434 23 33 128
2.61644 -2.55386 0.40821 40 47 89
2.60607 -2.56255 0.39788 26 35 93
2.63113 -2.57103 0.41290 70 71 73
2.64584 -2.58830 0.41766 99 93 69
2.65616 -2.59257 0.43913 120 104 77
2.64572 -2.60132 0.42872 112 102 71
2.34965 -2.83046 0.81940 143 114 66
2.34004 -2.82648 0.79943 143 120 57
2.33993 -2.83860 0.80972 141 122 65
2.32608 -2.84582 0.84808 72 46 38
2.31631 -2.86595 0.84868 82 76 31
2.32954 -2.85923 0.85708 74 66 25
2.32975 -2.87140 0.86721 88 73 34
2.31997 -2.89155 0.86782 136 121 74
1.33750 -2.65993 1.35026 183 170 153
1.33038 -2.65699 1.33544 179 158 138
1.33742 -2.66892 1.35789 186 188 183
1.33013 -2.68394 1.35834 187 193 191
1.27246 -2.71038 1.43618 188 194 185
1.26550 -2.70750 1.42169 184 194 193
1.26542 -2.71629 1.42915 186 193 188
1.26223 -2.71433 1.44633 174 178 164
1.25234 -2.71839 1.45634 148 151 150
1.24526 -2.73297 1.45678 138 147 161
1.24809 -2.72510 1.46484 144 152 164
1.23615 -2.72806 1.47529 168 182 190
1.22912 -2.74256 1.47573 181 192 198
1.22779 -2.75006 1.49942 158 171 184
1.23481 -2.73560 1.49899 176 187 186
1.22086 -2.75587 1.49251 147 152 173
1.22771 -2.75870 1.50677 164 180 184
1.18104 -2.80382 1.57595 174 186 195
1.17430 -2.80103 1.56192 168 180 185
1.17422 -2.80954 1.56915 172 183 189
1.17414 -2.81804 1.57638 173 185 189
1.18098 -2.81234 1.58317 175 187 195
1.17408 -2.82656 1.58360 176 186 190
1.17828 -2.82799 1.59818 181 190 204
1.17139 -2.84220 1.59861 177 185 192
1.17452 -2.83452 1.60619 189 197 215
1.16763 -2.84870 1.60662 176 185 192
1.18007 -2.84603 1.61221 195 204 216
1.16902 -2.85711 1.62891 209 221 229
1.14832 -2.86273 1.64746 234 239 243
1.15498 -2.86549 1.66132 254 254 254
1.14751 -2.87073 1.65475 241 246 251
1.15417 -2.87349 1.66860 254 254 254
1.14593 -2.87830 1.66218 244 252 254
1.15259 -2.88106 1.67603 254 254 254
1.15365 -2.93340 1.70352 246 243 233
1.15863 -2.94475 1.70978 173 150 151
1.15178 -2.95886 1.71020 105 91 84
1.12857 -2.93574 1.72222 110 98 75
1.12180 -2.94970 1.72264 103 99 92
1.18934 -2.99685 1.73326 114 102 94
1.18242 -3.01112 1.73369 107 99 92
1.21273 -3.01933 1.73664 117 105 95
1.20574 -3.03372 1.73707 111 101 95
1.24436 -3.04689 1.73880 120 110 95
1.26695 -3.06921 1.74257 127 116 103
1.27589 -3.08344 1.74861 135 129 107
1.28287 -3.08633 1.76313 149 138 110
1.27581 -3.09224 1.75610 143 137 107
1.16907 -1.05993 0.09668 248 254 250
1.17592 -1.04582 0.09625 254 254 254
1.16915 -1.05150 0.08950 254 254 254
1.17469 -1.06774 0.09949 224 232 224
1.16960 -1.07674 0.11049 175 162 169
1.18187 -1.08389 0.10828 101 85 109
1.19036 -1.09150 0.10899 70 53 66
1.18346 -1.10573 0.10942 94 85 76
1.20466 -1.09860 0.10535 86 76 71
1.19773 -1.11289 0.10579 93 88 71
1.23718 -1.13863 0.11725 86 86 63
1.23726 -1.12997 0.10990 93 85 76
1.24769 -1.14643 0.11677 67 67 51
1.26335 -1.16264 0.11991 6 12 28
1.25627 -1.17724 0.12035 11 11 10
1.88934 -1.53290 0.01129 17 16 28
1.88087 -1.52940 -0.00633 24 27 27
1.88077 -1.54008 0.00275 23 19 25
1.93764 -1.54602 -0.01014 46 40 44
1.97583 -1.55889 -0.02497 81 71 59
2.42613 -1.87948 -0.05735 87 78 72
2.43615 -1.85883 -0.05797 93 81 83
2.42625 -1.86713 -0.06784 92 84 82
2.43986 -1.89364 -0.05463 63 55 63
2.45294 -1.90780 -0.05148 52 40 64
2.46318 -1.92166 -0.04668 67 54 60
2.47307 -1.92575 -0.02612 79 66 64
2.46307 -1.93413 -0.03609 79 65 60
2.45307 -1.94250 -0.04605 81 67 61
2.91941 -2.19272 -0.12483 55 47 29
2.90840 -2.18816 -0.14773 60 52 41
2.92749 -2.20814 -0.11726 40 25 19
2.91621 -2.23140 -0.11656 28 9 20
2.87984 -2.33717 0.02363 31 21 19
2.86892 -2.33265 0.00093 11 4 7
2.89212 -2.35367 0.02930 49 44 21
2.89392 -2.36791 0.04010 61 50 38
2.90487 -2.37244 0.06288 74 58 45
2.89380 -2.38173 0.05184 68 54 47
2.88272 -2.39101 0.04080 64 50 42
2.76971 -2.40739 0.15693 81 74 62
2.78060 -2.38493 0.15626 92 79 56
2.76983 -2.39396 0.14552 90 78 64
2.75881 -2.42984 0.15761 17 28 99
2.72405 -2.40977 0.18965 38 37 80
2.71327 -2.43199 0.19032 11 26 117
2.60458 -2.54917 0.38759 26 39 120
2.61506 -2.52756 0.38694 26 42 131
2.60469 -2.53624 0.37661 24 43 142
2.59433 -2.54493 0.36628 22 43 137
2.61720 -2.57873 0.40404 39 48 73
2.63871 -2.59802 0.40584 74 78 63
2.66071 -2.61758 0.40755 101 97 61
2.67109 -2.62188 0.42915 118 103 68
2.66059 -2.63068 0.41868 112 101 65
2.33018 -2.85918 0.83364 85 81 28
2.32038 -2.87938 0.83425 67 57 33
1.34393 -2.67208 1.33906 184 173 154
1.33677 -2.66912 1.32418 179 159 136
1.34384 -2.68110 1.34673 187 189 183
1.33652 -2.69619 1.34719 188 193 194
1.26697 -2.72585 1.43618 180 184 178
1.26000 -2.72297 1.42169 185 192 195
1.25012 -2.72655 1.44810 155 157 162
1.24303 -2.74116 1.44854 143 148 160
1.23975 -2.73904 1.46561 154 171 186
1.22957 -2.75149 1.48296 170 174 183
1.22254 -2.76600 1.48340 146 150 164
1.17230 -2.85978 1.61282 176 185 191
1.16556 -2.85699 1.59880 181 188 189
1.16548 -2.86549 1.60602 179 188 190
1.16541 -2.87399 1.61325 178 187 190
1.16994 -2.87556 1.62772 187 195 212
1.16702 -2.88248 1.63552 194 202 214
1.15793 -2.88594 1.64456 202 212 224
1.15474 -2.89265 1.65237 206 219 231
1.14778 -2.90569 1.66804 232 235 246
1.15446 -2.90845 1.68194 254 254 254
1.14998 -2.91542 1.67477 242 243 251
1.15667 -2.91818 1.68867 254 254 254
1.14655 -2.92192 1.68257 244 249 251
1.14538 -2.92972 1.68993 245 251 244
1.11816 -2.92242 1.70207 213 202 187
1.12687 -2.93587 1.70756 126 106 98
1.12009 -2.94985 1.70798 104 101 90
1.26758 -3.07974 1.73431 116 104 100
1.26060 -3.07686 1.71979 104 96 90
1.27537 -3.09332 1.74053 126 118 105
1.15145 -1.05842 0.09123 240 250 242
1.14195 -1.06788 0.10566 197 206 191
1.16258 -1.07401 0.09683 124 109 109
1.16455 -1.08223 0.10243 66 63 67
1.17608 -1.08949 0.10073 77 73 73
1.16920 -1.10367 0.10115 91 88 81
1.18277 -1.09730 0.10278 90 83 73
1.17587 -1.11151 0.10321 95 87 74
1.21237 -1.12870 0.10919 89 88 77
1.21245 -1.12011 0.10188 93 87 73
1.23640 -1.14394 0.10574 51 51 29
1.22936 -1.15844 0.10618 11 9 23
1.24612 -1.15185 0.10582 19 12 33
1.23906 -1.16640 0.10626 12 11 16
1.92701 -1.55319 -0.01757 31 23 31
1.91843 -1.54964 -0.03542 22 22 19
1.96866 -1.56633 -0.03473 70 63 54
1.97539 -1.57769 -0.02972 92 82 68
1.98409 -1.58129 -0.01162 95 83 80
1.97529 -1.58867 -0.02039 95 82 76
1.96649 -1.59604 -0.02917 94 82 70
2.40785 -1.87435 -0.07286 85 79 72
2.41785 -1.85374 -0.07348 92 85 81
2.40796 -1.86202 -0.08334 91 86 76
2.41690 -1.88787 -0.06760 75 62 53
2.40687 -1.90852 -0.06698 41 22 31
2.42363 -1.90113 -0.06098 47 37 37
2.42705 -1.91399 -0.05245 41 34 43
2.44815 -1.92933 -0.05383 67 56 51
2.43805 -1.95015 -0.05320 82 69 61
2.90406 -2.20127 -0.13374 53 48 29
2.89306 -2.19671 -0.15662 54 50 40
2.91032 -2.21635 -0.12526 41 30 20
2.87766 -2.34837 0.00826 24 15 15
2.86672 -2.34384 -0.01449 8 2 5
2.88406 -2.36362 0.01678 44 40 16
2.87285 -2.38672 0.01748 52 40 35
2.88477 -2.37763 0.02812 58 46 33
2.87355 -2.40073 0.02882 57 46 38
2.83462 -2.40735 0.08721 81 68 53
2.82379 -2.40286 0.06467 61 49 42
2.84558 -2.39817 0.09813 85 71 54
2.82366 -2.41653 0.07628 67 58 67
2.80519 -2.41401 0.11279 82 71 66
2.79418 -2.43670 0.11348 23 29 110
2.77027 -2.41915 0.14083 41 47 81
2.75934 -2.44167 0.14150 14 26 119
2.58303 -2.51589 0.34945 17 32 132
2.59348 -2.49435 0.34880 20 34 135
2.58314 -2.50300 0.33850 20 29 126
2.57281 -2.51166 0.32820 22 27 116
2.57269 -2.52455 0.33915 18 27 114
2.59325 -2.52012 0.37070 21 43 147
2.58550 -2.52950 0.35926 18 37 138
2.57504 -2.55106 0.35991 21 33 121
2.59722 -2.55871 0.37594 25 42 123
2.58685 -2.56740 0.36560 24 35 120
2.60598 -2.57421 0.38307 22 35 94
2.59546 -2.59587 0.38373 21 26 62
2.61606 -2.59014 0.38968 19 34 68
2.62086 -2.60459 0.39860 43 53 64
2.65038 -2.62643 0.39701 83 84 61
2.66263 -2.64326 0.40289 105 100 69
2.67305 -2.64757 0.42455 118 102 66
2.66251 -2.65640 0.41405 115 103 74
2.34090 -2.85079 0.79621 138 113 68
2.34101 -2.83864 0.78589 144 119 69
2.33127 -2.84680 0.77618 144 120 65
2.32534 -2.85702 0.81202 102 80 41
2.31553 -2.87725 0.81263 69 61 37
2.31596 -2.86555 0.82558 60 45 23
2.30617 -2.88573 0.82619 66 66 49
1.34304 -2.68101 1.32996 183 174 157
1.33587 -2.67804 1.31504 179 159 137
1.33570 -2.69613 1.33041 188 190 186
1.34264 -2.68991 1.33773 188 190 186
1.33531 -2.70503 1.33819 188 193 196
1.26538 -2.73439 1.42767 186 190 188
1.25840 -2.73150 1.41315 183 192 195
1.25832 -2.74031 1.42063 187 194 191
1.25142 -2.73646 1.43889 168 171 169
1.23854 -2.74773 1.45713 148 160 175
1.22989 -2.75221 1.46678 173 184 186
1.22284 -2.76675 1.46722 167 176 175
1.22677 -2.75939 1.47495 166 170 172
1.21981 -2.77334 1.49144 163 175 186
1.22668 -2.77618 1.50573 181 191 192
1.21973 -2.78200 1.49880 183 192 194
1.21278 -2.78783 1.49187 183 192 192
1.16305 -2.88976 1.62815 174 184 192
1.15631 -2.88697 1.61415 180 187 189
1.15623 -2.89547 1.62136 179 187 188
1.15615 -2.90396 1.62858 180 185 185
1.15246 -2.89236 1.63753 175 183 191
1.14559 -2.90650 1.63795 179 184 188
1.15103 -2.90006 1.64499 176 185 197
1.14417 -2.91420 1.64542 175 183 189
1.14803 -2.90686 1.65276 182 189 205
1.14436 -2.91326 1.66065 193 197 220
1.14135 -2.92001 1.66839 201 206 223
1.13186 -2.92301 1.67736 206 218 223
1.12582 -2.92795 1.68562 204 214 207
1.13878 -2.94393 1.69031 154 144 131
1.13195 -2.95801 1.69073 100 97 79
1.13263 -2.94879 1.69858 106 97 82
1.12581 -2.96283 1.69901 104 107 88
1.26762 -3.08997 1.72610 109 99 93
1.26062 -3.08708 1.71154 103 95 86
1.26054 -3.09590 1.71904 105 96 86
1.27164 -3.10130 1.73292 118 106 102
1.27291 -3.11097 1.74022 129 120 110
1.27527 -3.12132 1.74734 139 133 113
1.28228 -3.12422 1.76194 152 138 120
1.27519 -3.13016 1.75486 147 137 118
1.26809 -3.13611 1.74779 143 134 116
1.12619 -1.04949 0.08489 247 253 248
1.13296 -1.03553 0.08447 254 254 254
1.12626 -1.04114 0.07779 254 254 254
1.12774 -1.05765 0.09070 218 222 214
1.14749 -1.07216 0.08944 94 78 110
1.15540 -1.07972 0.09040 74 60 68
1.14855 -1.09383 0.09082 94 87 75
1.15994 -1.08768 0.09400 86 81 69
1.15309 -1.10181 0.09443 94 88 87
1.16900 -1.09521 0.09416 92 87 78
1.16212 -1.10939 0.09459 91 88 88
1.20411 -1.12601 0.09610 83 82 66
1.20419 -1.11742 0.08880 93 87 68
1.20866 -1.13421 0.09991 66 65 57
1.21487 -1.14230 0.10248 27 29 24
1.20787 -1.15672 0.10292 13 13 22
1.23024 -1.14970 0.09821 18 9 30
1.22320 -1.16421 0.09865 9 12 16
1.92022 -1.56057 -0.02742 19 17 22
1.91163 -1.55701 -0.04528 24 23 20
1.91153 -1.56785 -0.03608 18 16 14
1.95614 -1.57348 -0.04111 58 55 36
1.97831 -1.58578 -0.04592 86 80 57
1.96938 -1.60419 -0.04536 93 82 67
2.38322 -1.85614 -0.09497 94 85 79
2.39318 -1.83561 -0.09559 96 84 77
2.38333 -1.84386 -0.10541 98 85 80
2.39307 -1.84789 -0.08516 94 85 78
2.38827 -1.86907 -0.08752 82 78 64
2.39756 -1.88258 -0.08249 66 60 52
2.38756 -1.90318 -0.08187 40 20 47
2.40273 -1.89560 -0.07504 54 35 39
2.41500 -1.92202 -0.06116 50 40 37
2.43460 -1.93720 -0.06177 76 63 51
2.42451 -1.95800 -0.06114 84 69 66
2.88989 -2.21001 -0.14323 45 45 28
2.87864 -2.23319 -0.14253 23 16 28
2.89506 -2.22489 -0.13422 36 28 19
2.88380 -2.24810 -0.13352 20 7 17
2.87316 -2.35910 -0.00603 18 8 11
2.86221 -2.35457 -0.02881 6 2 7
2.87824 -2.37410 0.00314 39 33 15
2.80340 -2.42532 0.09757 51 48 88
2.79261 -2.42086 0.07514 40 44 103
2.79249 -2.43446 0.08670 27 32 115
2.79236 -2.44807 0.09826 13 26 127
2.59750 -2.58347 0.37187 23 31 93
2.58722 -2.57922 0.35049 23 35 133
2.62009 -2.61621 0.38402 28 36 65
2.60963 -2.62497 0.37360 17 21 65
2.62805 -2.63168 0.39162 48 58 62
2.65737 -2.65369 0.39013 87 89 61
2.66872 -2.67037 0.39643 108 100 69
2.67918 -2.67470 0.41818 120 102 64
2.66860 -2.68356 0.40764 117 103 66
2.65802 -2.69242 0.39709 114 104 65
2.34554 -2.86445 0.78130 139 112 61
2.33587 -2.86045 0.76119 143 118 67
1.33684 -2.68757 1.32241 185 177 159
1.32950 -2.70270 1.32286 186 191 186
1.24936 -2.74478 1.43053 175 180 170
1.24240 -2.74190 1.41605 186 194 194
1.23593 -2.74698 1.44158 149 153 151
1.22884 -2.76159 1.44203 142 145 149
1.23329 -2.75445 1.44969 141 151 156
1.22729 -2.76023 1.45867 158 174 173
1.22102 -2.77457 1.47505 158 165 168
1.21405 -2.78041 1.46811 167 179 187
1.21397 -2.78910 1.47549 177 190 193
1.13633 -2.91820 1.65416 172 180 195
1.12964 -2.91543 1.64025 179 185 183
1.12957 -2.92386 1.64742 178 186 187
1.12949 -2.93230 1.65458 180 185 181
1.13466 -2.92571 1.66164 172 178 188
1.12908 -2.93095 1.66987 173 183 184
1.13007 -2.93998 1.67681 160 162 158
1.13384 -2.95065 1.68323 121 118 108
1.12700 -2.96473 1.68366 103 99 74
1.27229 -3.11199 1.72458 112 100 93
1.26526 -3.10909 1.70997 104 96 80
1.26518 -3.11795 1.71750 108 99 82
1.27149 -3.12042 1.73222 121 112 104
1.27248 -3.12994 1.73958 132 127 110
1.10440 -1.04029 0.07614 251 254 252
1.11113 -1.02641 0.07573 254 254 254
1.10448 -1.03199 0.06909 254 254 254
1.11106 -1.03471 0.08278 254 254 254
1.11103 -1.04778 0.07789 234 245 232
1.10625 -1.05665 0.08867 192 197 174
1.13147 -1.06206 0.07583 121 107 99
1.12466 -1.07608 0.07625 87 80 69
1.13314 -1.07025 0.08157 68 57 72
1.12634 -1.08428 0.08200 93 85 77
1.14820 -1.07701 0.07688 81 70 80
1.14135 -1.09111 0.07731 94 86 76
1.15442 -1.08478 0.07914 92 83 70
1.14756 -1.09892 0.07957 94 86 78
1.18811 -1.12402 0.08898 74 76 58
1.18116 -1.13833 0.08941 14 10 32
1.19270 -1.13218 0.09269 40 43 40
1.18575 -1.14652 0.09312 15 10 25
1.20141 -1.14002 0.09329 21 16 38
1.19443 -1.15441 0.09372 13 10 19
1.92839 -1.57969 -0.03773 43 35 26
1.91976 -1.57612 -0.05568 22 18 17
1.97667 -1.59363 -0.05930 77 73 55
2.36786 -1.85142 -0.11192 89 81 78
2.37780 -1.83092 -0.11254 98 84 76
2.36797 -1.83916 -0.12234 96 86 80
2.37137 -1.86414 -0.10362 75 66 65
2.36141 -1.88465 -0.10300 38 23 34
2.37660 -1.87710 -0.09630 58 48 42
2.38139 -1.89003 -0.08870 41 29 38
2.39664 -1.91678 -0.07667 51 33 47
2.41108 -1.93118 -0.07448 67 58 50
2.40102 -1.95191 -0.07386 85 71 67
2.42649 -1.94582 -0.07277 82 69 61
2.41639 -1.96663 -0.07215 86 69 71
2.86376 -2.18878 -0.16972 51 46 45
2.87497 -2.16568 -0.17041 66 52 47
2.86389 -2.17496 -0.18146 58 49 49
2.87484 -2.17949 -0.15867 60 50 45
2.85255 -2.21188 -0.16902 30 28 45
2.87229 -2.20422 -0.16258 39 40 39
2.87524 -2.21865 -0.15244 25 28 35
2.86543 -2.36914 -0.01875 13 5 22
2.86707 -2.38337 -0.00788 29 22 35
2.85266 -2.39390 0.01094 40 34 55
2.84707 -2.40640 0.02535 43 41 68
2.83590 -2.42942 0.02604 29 42 112
2.60001 -2.59599 0.35580 22 33 106
2.58970 -2.59172 0.33436 23 43 141
2.61304 -2.61291 0.36108 17 21 65
2.60246 -2.63472 0.36173 19 20 68
2.62393 -2.64238 0.37842 29 32 56
2.61344 -2.65117 0.36797 24 20 52
2.64462 -2.66186 0.38056 65 66 50
2.66697 -2.68197 0.38210 97 94 68
2.36401 -2.88353 0.76124 139 112 67
2.35428 -2.87950 0.74099 140 116 64
2.35416 -2.89178 0.75142 142 116 71
2.31256 -2.87586 0.79028 106 78 47
2.30273 -2.89612 0.79089 120 90 46
2.30054 -2.88331 0.80486 66 41 29
2.30043 -2.89539 0.81513 63 48 35
2.29074 -2.90351 0.80547 110 83 35
1.33079 -2.68511 1.30714 179 158 141
1.33813 -2.66997 1.30668 177 159 135
1.33087 -2.67606 1.29945 178 158 136
1.32361 -2.68214 1.29221 178 158 128
1.33123 -2.69440 1.31467 184 179 165
1.32388 -2.70954 1.31513 186 191 186
1.24405 -2.75153 1.42304 183 188 179
1.23709 -2.74865 1.40855 185 192 190
1.23220 -2.75448 1.43371 164 164 155
1.22581 -2.76885 1.45024 147 159 166
1.22085 -2.77511 1.45895 163 174 178
1.12661 -2.93910 1.66230 180 184 177
1.11993 -2.93633 1.64841 180 185 183
1.12144 -2.94453 1.67046 151 153 138
1.13513 -2.96106 1.67495 122 114 105
1.12827 -2.97518 1.67537 109 106 88
1.27150 -3.13078 1.72396 117 108 97
1.26445 -3.12787 1.70932 107 97 86
1.27120 -3.13953 1.73154 127 120 103
1.27404 -3.15024 1.73862 138 129 112
1.28109 -3.15316 1.75328 150 139 121
1.27396 -3.15913 1.74617 146 137 115
1.26683 -3.16510 1.73907 142 131 112
1.08830 -1.03050 0.06312 254 254 254
1.09501 -1.01667 0.06271 254 254 254
1.08837 -1.02223 0.05610 254 254 254
1.09493 -1.02494 0.06973 254 254 254
1.08692 -1.03893 0.07119 246 253 249
1.09805 -1.04583 0.06926 213 213 214
1.10921 -1.05279 0.06736 148 125 143
1.12008 -1.05986 0.06576 84 73 86
1.13024 -1.06708 0.06477 79 64 69
1.12343 -1.08113 0.06519 95 85 77
1.17547 -1.12174 0.07938 61 61 52
1.16869 -1.11893 0.06529 59 48 49
1.16861 -1.12748 0.07255 22 18 30
1.16853 -1.13602 0.07981 12 10 19
1.92143 -1.58712 -0.04756 25 17 17
1.91279 -1.58354 -0.06552 22 21 19
1.97202 -1.60132 -0.07082 64 63 42
1.99208 -1.61375 -0.07430 90 81 67
2.00089 -1.61739 -0.05598 95 80 73
1.99198 -1.62486 -0.06486 94 81 74
1.98307 -1.63233 -0.07374 94 81 77
2.35497 -1.84701 -0.13026 85 77 71
2.36490 -1.82653 -0.13088 98 84 82
2.35508 -1.83476 -0.14067 97 86 79
2.35910 -1.85979 -0.12236 63 53 55
2.36206 -1.87245 -0.11375 43 29 39
2.36946 -1.89802 -0.09733 42 27 43
2.37784 -1.91149 -0.09181 56 43 55
2.36784 -1.93209 -0.09119 82 72 58
2.38721 -1.92514 -0.08682 70 62 54
2.37719 -1.94580 -0.08620 83 71 62
2.39672 -1.93888 -0.08185 79 71 57
2.38667 -1.95959 -0.08123 85 70 70
2.83029 -2.16632 -0.19194 55 48 50
2.84144 -2.14334 -0.19263 70 54 59
2.83041 -2.15258 -0.20362 63 51 57
2.84131 -2.15709 -0.18095 64 52 51
2.83953 -2.18180 -0.18532 45 42 43
2.82835 -2.20483 -0.18463 26 21 45
2.84817 -2.19722 -0.17834 36 33 39
2.86728 -2.22857 -0.16519 28 28 44
2.87057 -2.24311 -0.15523 25 22 37
2.87486 -2.25787 -0.14577 20 13 22
2.88587 -2.26242 -0.12287 16 4 6
2.87473 -2.27175 -0.13397 15 5 11
2.86359 -2.28109 -0.14507 14 6 15
2.85538 -2.36481 -0.04201 9 4 12
2.86660 -2.34169 -0.04271 10 2 3
2.85551 -2.35098 -0.05376 11 2 3
2.86125 -2.38001 -0.03328 12 8 46
2.84077 -2.38915 -0.01132 19 22 74
2.82473 -2.39920 0.00833 27 34 90
2.81359 -2.42217 0.00902 24 38 122
2.81828 -2.41143 0.02314 29 38 103
2.80715 -2.43436 0.02383 24 40 128
2.60395 -2.60900 0.33900 20 37 110
2.59360 -2.60472 0.31748 27 42 143
2.59336 -2.63082 0.33966 16 19 75
2.61136 -2.62431 0.34676 18 23 71
2.60075 -2.64617 0.34742 17 20 77
2.63502 -2.67098 0.36964 42 37 37
2.62459 -2.66667 0.34796 21 21 65
2.66682 -2.69413 0.36702 76 75 53
2.66982 -2.70836 0.37694 107 94 59
2.68034 -2.71271 0.39880 123 105 71
2.66970 -2.72162 0.38820 118 104 66
2.33244 -2.89559 0.76976 134 108 62
2.32275 -2.89158 0.74963 137 114 81
2.32264 -2.90379 0.76000 132 110 71
2.32253 -2.91601 0.77038 126 106 60
1.33370 -2.69585 1.29675 179 158 140
1.32649 -2.69287 1.28177 178 158 131
1.24232 -2.76006 1.41454 186 191 184
1.23534 -2.75718 1.40002 184 192 189
1.23526 -2.76598 1.40750 186 192 187
1.23435 -2.76493 1.42419 175 175 166
1.22937 -2.77125 1.43298 150 149 146
1.22227 -2.78590 1.43342 137 142 145
1.22420 -2.77744 1.44180 137 143 150
1.21711 -2.79206 1.44224 133 146 157
1.22611 -2.78719 1.44870 141 153 166
1.22100 -2.79337 1.45747 148 163 180
1.21010 -2.79654 1.46773 162 178 190
1.21700 -2.79939 1.48208 183 193 195
1.21002 -2.80524 1.47513 177 192 198
1.12069 -2.94524 1.65540 180 185 177
1.11401 -2.94248 1.64151 179 185 183
1.11405 -2.94979 1.66387 146 144 133
1.13607 -2.97132 1.66668 117 110 106
1.26999 -3.14026 1.71591 115 104 95
1.26294 -3.13734 1.70124 107 97 91
1.26285 -3.14624 1.70880 112 102 93
1.26277 -3.15514 1.71636 121 110 98
1.26905 -3.14862 1.72362 124 115 99
1.26183 -3.16349 1.72407 130 117 107
1.26968 -3.15797 1.73106 134 122 107
1.26246 -3.17284 1.73151 139 127 112
1.08182 -1.03603 0.05639 231 241 222
1.07509 -1.04513 0.06878 183 185 156
1.10935 -1.04925 0.04820 114 102 93
1.11081 -1.05742 0.05407 74 60 72
1.10402 -1.07140 0.05449 93 84 78
1.11322 -1.06550 0.05919 83 74 75
1.10643 -1.07950 0.05961 94 86 80
1.12694 -1.07234 0.05532 93 83 76
1.12011 -1.08641 0.05574 93 86 79
1.91542 -1.59461 -0.05804 12 18 18
1.90678 -1.59103 -0.07601 25 23 26
1.90668 -1.60193 -0.06675 12 16 20
1.94221 -1.60733 -0.06613 48 47 33
1.99705 -1.62220 -0.09210 85 76 73
1.98800 -1.64085 -0.09154 91 82 70
2.33673 -1.84196 -0.14535 93 83 70
2.34665 -1.82152 -0.14596 97 85 78
2.33684 -1.82973 -0.15574 95 85 74
2.32703 -1.83795 -0.16551 91 81 70
2.32681 -1.86240 -0.14473 80 57 62
2.34541 -1.85528 -0.14021 75 57 63
2.34883 -1.86798 -0.13191 55 33 45
2.35123 -1.88057 -0.12297 49 31 41
2.35377 -1.89319 -0.11411 56 44 48
2.34381 -1.91372 -0.11349 84 73 60
2.35887 -1.90619 -0.10673 71 60 52
2.34889 -1.92674 -0.10611 85 72 63
2.36650 -1.91956 -0.10081 80 70 56
2.35650 -1.94016 -0.10019 85 70 64
2.79677 -2.15773 -0.20217 54 47 53
2.80787 -2.13487 -0.20286 68 54 59
2.79690 -2.14405 -0.21379 61 51 57
2.80932 -2.17373 -0.19748 43 40 48
2.81912 -2.18930 -0.19123 29 27 45
2.84583 -2.22200 -0.18242 37 34 62
2.86406 -2.23944 -0.18052 46 53 66
2.87040 -2.25462 -0.17217 34 32 42
2.87184 -2.26884 -0.16119 21 15 30
2.86056 -2.29211 -0.16049 10 6 18
2.83746 -2.33104 -0.08459 9 4 8
2.84866 -2.30796 -0.08529 12 5 9
2.83759 -2.31723 -0.09632 9 4 6
2.84854 -2.32176 -0.07355 9 4 3
2.84841 -2.33557 -0.06182 9 3 3
2.83545 -2.34443 -0.07189 11 6 14
2.83566 -2.35831 -0.06033 15 12 36
2.83494 -2.37197 -0.04830 17 17 65
2.81741 -2.38176 -0.02774 18 21 90
2.80626 -2.40474 -0.02705 24 36 126
2.80132 -2.39176 -0.00800 20 30 109
2.79021 -2.41466 -0.00731 21 35 132
2.79413 -2.40378 0.00719 24 37 122
2.78303 -2.42664 0.00788 19 37 127
2.60142 -2.58082 0.29183 24 41 140
2.61203 -2.55896 0.29118 20 33 120
2.60154 -2.56774 0.28072 23 39 132
2.59105 -2.57653 0.27027 24 41 141
2.60130 -2.59389 0.30295 27 44 149
2.59081 -2.60268 0.29249 32 48 158
2.60418 -2.62098 0.32376 21 31 109
2.59357 -2.64286 0.32442 18 19 78
2.63269 -2.68239 0.35553 31 27 47
2.62225 -2.67807 0.33380 19 22 70
2.62213 -2.69124 0.34499 22 21 51
2.64442 -2.69931 0.36156 54 53 52
2.66079 -2.71779 0.36564 92 82 56
2.66734 -2.73320 0.37404 111 97 62
2.67788 -2.73756 0.39595 123 104 64
2.66722 -2.74649 0.38533 119 103 66
1.34337 -2.70977 1.28417 180 159 141
1.33612 -2.70677 1.26910 178 158 135
1.35749 -2.72550 1.28752 185 180 173
1.35004 -2.74085 1.28798 188 192 187
1.23664 -2.77551 1.41457 182 185 180
1.22966 -2.77262 1.40005 186 193 191
1.22932 -2.78066 1.42405 160 160 155
1.22703 -2.80595 1.44699 135 148 164
1.22007 -2.80307 1.43252 134 144 154
1.21999 -2.81185 1.43998 135 146 158
1.22588 -2.81418 1.45473 143 159 174
1.21460 -2.81711 1.46513 167 184 195
1.22153 -2.81998 1.47954 184 193 194
1.21452 -2.82585 1.47256 182 192 197
1.20751 -2.83172 1.46557 181 192 198
1.11677 -2.95258 1.64809 178 182 175
1.11008 -2.94981 1.63418 177 187 182
1.10782 -2.95575 1.65704 142 137 131
1.13708 -2.98167 1.65835 115 107 101
1.14966 -2.99777 1.66309 112 112 96
1.14273 -3.01205 1.66352 97 89 76
1.15846 -3.01167 1.66863 101 96 83
1.16525 -3.01448 1.68276 93 85 62
1.15838 -3.02023 1.67591 95 86 75
1.15151 -3.02599 1.66906 92 86 78
1.08624 -1.00703 0.01281 249 253 254
1.09297 -0.99315 0.01239 253 254 254
1.08631 -0.99873 0.00575 231 243 249
1.07965 -1.00431 -0.00089 182 181 156
1.09290 -1.00145 0.01945 254 254 254
1.09282 -1.00976 0.02650 254 254 254
1.07796 -1.01644 0.02660 254 254 254
1.07823 -1.02467 0.03335 244 253 245
1.09828 -1.04704 0.03801 79 74 87
1.10197 -1.05494 0.04206 74 71 65
1.09520 -1.06891 0.04248 94 86 78
1.10819 -1.06257 0.04408 85 80 69
1.10140 -1.07657 0.04451 95 85 82
1.91660 -1.61353 -0.06399 34 26 32
1.90793 -1.60994 -0.08202 15 20 11
2.00095 -1.63063 -0.10933 73 68 65
2.33807 -1.87610 -0.14115 79 55 58
2.32834 -1.87207 -0.16137 85 66 65
2.32823 -1.88434 -0.15095 86 67 68
2.32812 -1.89660 -0.14054 85 69 69
2.34067 -1.88872 -0.13236 81 63 57
2.33072 -1.90923 -0.13174 85 72 67
2.34603 -1.90173 -0.12518 84 70 58
2.33607 -1.92227 -0.12456 85 72 70
2.76536 -2.14954 -0.21327 52 46 52
2.77640 -2.12678 -0.21396 66 54 52
2.76549 -2.13593 -0.22484 60 51 54
2.75432 -2.17229 -0.21259 29 25 42
2.77667 -2.16524 -0.20804 42 39 47
2.79022 -2.18144 -0.20398 27 26 50
2.80168 -2.19732 -0.19871 17 17 56
2.81249 -2.21315 -0.19301 31 33 65
2.85233 -2.23474 -0.20303 62 66 88
2.87284 -2.25274 -0.20239 65 71 84
2.86861 -2.26586 -0.18833 36 33 49
2.86705 -2.27950 -0.17572 19 16 35
2.85574 -2.30279 -0.17501 10 6 27
2.84673 -2.31702 -0.12968 9 5 22
2.85798 -2.29383 -0.13038 13 4 7
2.84685 -2.30315 -0.14147 8 3 13
2.85785 -2.30770 -0.11860 10 4 5
2.83921 -2.32928 -0.11402 11 8 38
2.82719 -2.34049 -0.09604 14 13 51
2.81510 -2.35162 -0.07810 16 21 70
2.80393 -2.37465 -0.07740 22 33 124
2.80321 -2.36272 -0.06031 20 27 90
2.79206 -2.38568 -0.05962 26 34 126
2.80255 -2.37633 -0.04837 24 29 109
2.78521 -2.38604 -0.02790 26 33 121
2.70705 -2.47550 0.10291 16 28 122
2.71795 -2.45304 0.10223 15 35 138
2.69640 -2.47109 0.08075 18 22 105
2.71783 -2.46647 0.11365 17 34 139
2.69627 -2.48453 0.09217 19 19 102
2.71770 -2.47991 0.12507 19 32 131
2.69543 -2.48592 0.11993 15 23 109
2.70605 -2.49032 0.14203 20 30 120
2.69531 -2.49932 0.13132 18 24 111
2.60146 -2.61898 0.29870 31 42 139
2.59106 -2.61468 0.27708 36 53 164
2.60799 -2.63411 0.30683 22 27 101
2.59734 -2.65606 0.30749 18 23 80
2.63960 -2.71003 0.34846 37 34 41
2.62911 -2.70569 0.32664 18 24 64
2.62899 -2.71892 0.33788 30 29 47
2.65950 -2.72971 0.35096 72 67 47
2.66920 -2.74620 0.35799 102 91 50
2.67250 -2.76065 0.36783 114 101 64
2.68307 -2.76502 0.38983 122 104 71
2.67238 -2.77398 0.37917 121 102 71
2.66168 -2.78294 0.36851 118 104 70
1.35352 -2.72403 1.27133 180 159 143
1.34623 -2.72101 1.25617 178 157 138
1.36865 -2.74034 1.27436 187 181 174
1.36116 -2.75579 1.27482 188 194 190
1.24531 -2.78938 1.40309 184 190 189
1.23829 -2.78648 1.38849 185 193 191
1.23821 -2.79533 1.39602 184 193 191
1.23707 -2.79408 1.41290 168 171 166
1.22579 -2.79718 1.42350 140 145 144
1.21865 -2.81188 1.42394 131 138 143
1.22717 -2.82441 1.44548 139 151 164
1.22191 -2.83049 1.45434 163 178 189
1.21478 -2.84518 1.45478 181 193 194
1.11214 -2.95952 1.64090 175 178 173
1.10545 -2.95675 1.62698 179 188 184
1.12703 -2.97691 1.64502 137 134 132
1.13741 -2.99168 1.65012 115 107 104
1.13674 -2.99984 1.65748 117 116 99
1.03519 -1.01863 0.04296 218 226 218
1.02871 -1.01595 0.02949 195 198 178
1.06011 -1.03172 0.03619 176 171 167
1.07585 -1.03797 0.03021 107 98 103
1.08581 -1.04503 0.02905 72 62 64
1.07906 -1.05894 0.02947 91 83 69
1.10022 -1.05998 0.03135 89 82 72
1.09351 -1.06560 0.02466 93 85 71
1.09343 -1.07397 0.03178 92 86 79
2.13506 -1.36944 -0.44709 15 5 29
2.14450 -1.34999 -0.44768 10 8 14
2.13517 -1.35780 -0.45698 7 6 17
2.14440 -1.36162 -0.43779 12 5 20
2.14429 -1.37326 -0.42790 13 6 26
2.13370 -1.38108 -0.43631 21 8 37
2.14292 -1.38489 -0.41712 10 7 13
2.13995 -1.39275 -0.43093 13 11 26
2.14919 -1.39657 -0.41171 10 8 13
2.13984 -1.40440 -0.42103 12 8 14
1.90687 -1.62080 -0.07210 18 15 20
1.89820 -1.61722 -0.09012 22 23 18
2.00341 -1.63901 -0.12573 62 60 50
2.02070 -1.65161 -0.12746 87 80 61
2.02965 -1.65531 -0.10885 95 81 72
2.02060 -1.66290 -0.11787 93 82 70
2.01155 -1.67048 -0.12689 90 83 70
2.71321 -2.12415 -0.22381 61 51 56
2.72415 -2.10161 -0.22449 72 61 57
2.71334 -2.11067 -0.23527 68 57 60
2.70252 -2.11972 -0.24604 63 53 51
2.72402 -2.11509 -0.21304 67 55 55
2.72910 -2.14050 -0.22137 52 44 49
2.71812 -2.16312 -0.22069 32 25 38
2.74238 -2.15648 -0.21739 41 36 45
2.76835 -2.18858 -0.20888 22 21 52
2.78547 -2.20554 -0.20680 29 39 76
2.83454 -2.22886 -0.22220 60 70 96
2.82329 -2.25204 -0.22150 86 95 104
2.84017 -2.24387 -0.21357 82 91 105
2.85275 -2.26031 -0.20870 75 82 90
2.86239 -2.27624 -0.20215 40 44 57
2.86090 -2.28991 -0.18956 19 15 34
2.84958 -2.31323 -0.18886 14 7 39
2.85017 -2.31556 -0.16027 10 6 31
2.83531 -2.32627 -0.14061 17 15 50
2.82405 -2.34946 -0.13991 22 30 75
2.82743 -2.33843 -0.12473 17 22 74
2.81176 -2.34880 -0.10479 17 25 90
2.79981 -2.35991 -0.08689 17 29 109
2.76514 -2.39309 -0.03415 32 36 132
2.74779 -2.40261 -0.01372 33 40 133
2.73505 -2.41314 0.00427 33 39 136
2.73493 -2.42670 0.01578 18 34 130
2.68547 -2.49514 0.10883 16 23 98
2.69214 -2.51036 0.11690 18 25 112
2.70279 -2.51477 0.13904 23 29 122
2.69202 -2.52379 0.12831 19 29 125
2.62987 -2.59978 0.23679 24 43 150
2.64061 -2.57766 0.23612 24 38 132
2.62999 -2.58655 0.22554 24 40 137
2.62975 -2.61301 0.24803 29 49 162
2.61914 -2.62190 0.23745 33 53 165
2.61042 -2.63369 0.27928 33 44 133
2.59998 -2.62937 0.25756 35 56 162
2.61176 -2.64731 0.28980 22 27 92
2.60108 -2.66934 0.29047 15 21 81
2.65624 -2.74105 0.33707 53 52 43
2.64568 -2.73668 0.31510 24 26 46
2.67129 -2.75934 0.34174 89 81 44
2.67531 -2.77408 0.35130 107 95 62
1.36608 -2.73953 1.25760 180 159 145
1.35874 -2.73649 1.24233 177 158 141
1.37565 -2.75333 1.26240 189 182 177
1.24938 -2.80995 1.40036 173 180 173
1.24233 -2.80703 1.38570 183 192 190
1.23150 -2.80967 1.41290 147 151 146
1.22434 -2.82444 1.41334 132 137 139
1.22927 -2.82626 1.42848 134 145 151
1.22773 -2.83432 1.43638 151 161 170
1.22896 -2.84384 1.44352 172 182 191
1.22180 -2.85859 1.44397 182 194 193
1.10885 -2.96727 1.63342 170 175 172
1.13329 -2.99047 1.63552 130 134 132
1.14290 -3.00485 1.64078 117 111 110
1.13939 -3.01133 1.64875 119 115 96
1.19771 -3.05554 1.64436 92 84 60
1.19763 -3.06428 1.65179 90 88 69
1.19062 -3.07015 1.64480 91 88 69
1.05364 -1.02077 0.01559 146 154 180
1.04711 -1.01806 0.00199 166 159 146
1.06192 -1.02792 0.01565 115 116 137
1.05521 -1.04175 0.01607 75 81 75
1.07669 -1.04261 0.01740 74 73 64
1.06994 -1.05651 0.01782 90 82 72
1.08279 -1.05018 0.01938 83 77 58
1.07603 -1.06411 0.01980 92 84 73
2.12096 -1.36563 -0.46277 14 16 26
2.13039 -1.34620 -0.46335 8 9 11
2.12107 -1.35401 -0.47264 9 8 14
2.11174 -1.36182 -0.48193 8 9 15
2.11537 -1.37724 -0.44894 43 49 29
2.10595 -1.39664 -0.44836 59 61 72
2.11461 -1.38884 -0.43862 48 52 45
2.11338 -1.40044 -0.42796 35 43 34
2.11683 -1.41208 -0.42063 29 21 25
2.12603 -1.41589 -0.40148 9 9 15
2.11058 -1.42360 -0.40641 17 13 30
2.11977 -1.42740 -0.38730 10 9 15
2.10346 -1.43506 -0.39161 17 9 25
2.11263 -1.43886 -0.37253 13 8 11
1.90619 -1.62875 -0.08615 14 15 20
1.89750 -1.62515 -0.10421 27 26 29
1.89740 -1.63611 -0.09491 16 17 15
1.95130 -1.64321 -0.10646 48 46 41
2.01924 -1.65981 -0.14143 80 76 58
2.69016 -2.13101 -0.22761 55 46 46
2.67950 -2.12660 -0.24977 59 51 44
2.67925 -2.15348 -0.22693 42 29 34
2.70188 -2.14661 -0.22290 44 35 37
2.73073 -2.17905 -0.21635 34 28 54
2.76583 -2.19937 -0.22451 52 51 74
2.75473 -2.22224 -0.22382 82 95 107
2.80942 -2.22156 -0.23721 66 79 95
2.82582 -2.23865 -0.23461 82 93 108
2.84054 -2.26945 -0.21925 77 87 92
2.85601 -2.28661 -0.21594 51 59 69
2.85529 -2.30045 -0.20375 26 15 39
2.84396 -2.32380 -0.20304 23 8 38
2.84125 -2.32540 -0.17260 16 12 45
2.83009 -2.33475 -0.18373 23 14 37
2.82996 -2.34868 -0.17190 34 31 49
2.82627 -2.33605 -0.15282 30 30 58
2.80304 -2.35860 -0.11706 14 25 86
2.79163 -2.36981 -0.09939 13 25 102
2.77510 -2.37976 -0.07909 19 29 119
2.76639 -2.39145 -0.06296 28 30 123
2.73879 -2.39857 -0.03706 49 51 147
2.70689 -2.40448 -0.00910 63 76 170
2.71129 -2.41909 0.00005 76 89 168
2.70138 -2.43017 0.01654 32 46 141
2.71207 -2.43459 0.03878 18 33 127
2.70578 -2.44480 0.02569 22 35 132
2.71649 -2.44922 0.04796 21 32 124
2.69670 -2.45601 0.04169 26 29 129
2.70738 -2.46043 0.06391 18 26 114
2.69229 -2.46837 0.05530 28 31 132
2.68184 -2.47913 0.07190 33 38 133
2.68286 -2.49286 0.08274 36 46 136
2.67010 -2.50291 0.10040 33 39 131
2.67701 -2.51820 0.10832 30 31 125
2.67746 -2.53177 0.11943 24 23 116
2.68156 -2.54635 0.12878 28 25 108
2.69220 -2.55075 0.15091 25 38 133
2.68143 -2.55977 0.14018 28 32 115
2.64948 -2.60426 0.20072 30 43 144
2.66029 -2.58198 0.20005 26 37 125
2.64960 -2.59093 0.18939 29 40 129
2.63867 -2.62653 0.20139 37 54 165
2.63479 -2.61327 0.21890 29 48 156
2.62402 -2.63547 0.21957 38 55 167
2.61282 -2.64650 0.26275 29 42 127
2.61045 -2.65902 0.27501 19 24 88
2.59974 -2.68110 0.27568 15 21 77
2.65436 -2.75288 0.32251 38 37 33
2.64378 -2.74850 0.30050 20 22 52
2.67630 -2.77353 0.32411 77 66 49
2.67686 -2.78718 0.33521 99 90 64
2.68137 -2.80216 0.34459 113 101 65
2.69202 -2.80656 0.36675 122 106 78
2.68125 -2.81559 0.35601 121 105 70
1.37560 -2.75373 1.24472 180 160 145
1.36821 -2.75067 1.22937 176 158 138
1.36804 -2.76929 1.24519 189 186 171
1.37891 -2.76465 1.25154 189 185 176
1.37135 -2.78023 1.25201 174 179 173
1.37869 -2.77390 1.25950 179 188 183
1.38608 -2.77696 1.27487 185 195 192
1.37660 -2.78226 1.26805 176 191 192
1.38399 -2.78532 1.28341 186 195 195
1.37652 -2.79158 1.27597 184 196 199
1.24951 -2.81967 1.39118 172 178 173
1.24244 -2.81674 1.37648 181 190 190
1.23067 -2.81885 1.40406 147 149 147
1.22819 -2.83534 1.41975 138 148 151
1.22919 -2.84476 1.42698 167 177 181
1.22201 -2.85956 1.42742 182 193 196
1.22754 -2.85278 1.43492 181 191 196
1.22037 -2.86757 1.43537 181 193 196
1.10479 -2.96608 1.61891 181 187 183
1.11166 -2.95194 1.61849 178 185 188
1.10487 -2.95762 1.61172 179 185 189
1.09808 -2.96331 1.60496 178 185 188
1.10622 -2.97545 1.62578 163 166 161
1.13913 -3.00387 1.62603 126 126 125
1.14689 -3.01721 1.63168 121 117 113
1.16780 -3.03863 1.63468 112 109 92
1.16077 -3.05311 1.63511 92 82 73
1.19737 -3.06551 1.63603 91 82 58
1.19027 -3.08015 1.63647 93 89 76
1.05722 -1.02496 0.00046 93 85 97
1.05066 -1.02225 -0.01319 85 81 77
1.05058 -1.03052 -0.00615 79 72 69
1.05051 -1.03880 0.00088 80 76 67
1.06054 -1.03280 0.00466 73 70 82
1.05381 -1.04666 0.00508 81 79 72
1.13035 -1.09181 0.00367 67 60 56
1.13725 -1.07758 0.00325 91 85 78
1.13042 -1.08330 -0.00356 81 77 61
1.13709 -1.09460 0.01771 73 67 56
1.13027 -1.10032 0.01090 55 48 51
1.12344 -1.10603 0.00410 42 47 38
2.10574 -1.37343 -0.46778 7 13 25
2.09654 -1.36963 -0.48691 6 11 11
2.10414 -1.38503 -0.45684 53 56 37
2.10009 -1.40819 -0.43437 50 54 56
2.09069 -1.42756 -0.43378 44 42 56
2.09516 -1.41971 -0.42107 54 52 54
2.08577 -1.43906 -0.42048 40 44 48
2.08720 -1.43115 -0.40564 42 51 44
2.07783 -1.45046 -0.40506 41 46 46
2.07819 -1.44252 -0.38950 37 46 34
2.06884 -1.46178 -0.38892 47 48 48
2.07248 -1.45391 -0.37576 36 35 20
2.06172 -1.46513 -0.35847 24 19 15
2.07081 -1.46889 -0.33956 10 7 13
2.05195 -1.47632 -0.34194 16 10 21
2.06101 -1.48007 -0.32308 11 6 12
1.92398 -1.64919 -0.10319 31 24 31
1.91523 -1.64557 -0.12139 20 21 12
2.01202 -1.66756 -0.15169 69 66 56
2.02783 -1.68025 -0.15248 90 81 67
2.03684 -1.68398 -0.13373 90 84 76
2.02772 -1.69161 -0.14282 94 83 72
2.01861 -1.69925 -0.15190 95 82 73
2.66443 -2.13733 -0.22978 48 41 39
2.65369 -2.14633 -0.24049 43 34 40
2.69324 -2.16957 -0.22353 45 35 50
2.73809 -2.19165 -0.23752 61 62 82
2.78969 -2.21532 -0.25506 82 86 102
2.81211 -2.24745 -0.24426 80 94 103
2.81826 -2.26260 -0.23596 81 92 98
2.82836 -2.27860 -0.22981 77 88 95
2.83251 -2.29341 -0.22034 61 67 77
2.84065 -2.30910 -0.21303 32 21 44
2.82933 -2.33244 -0.21233 45 13 31
2.80985 -2.35808 -0.14935 27 22 50
2.79885 -2.35354 -0.17220 66 30 32
2.79873 -2.36740 -0.16043 62 24 25
2.79860 -2.38125 -0.14865 49 13 19
2.79962 -2.36963 -0.13218 15 12 47
2.79263 -2.38186 -0.11679 17 11 64
2.77781 -2.39221 -0.09730 27 18 78
2.74559 -2.39831 -0.06874 61 49 122
2.70682 -2.40262 -0.03692 98 98 184
2.69764 -2.41393 -0.02071 77 77 180
2.69066 -2.42574 -0.00569 55 58 164
2.68446 -2.43770 0.00890 39 52 154
2.67354 -2.46021 0.00958 53 67 170
2.68026 -2.45012 0.02243 38 54 156
2.67181 -2.46143 0.03810 42 60 165
2.66127 -2.47214 0.05479 68 84 183
2.65864 -2.48487 0.06744 68 71 181
2.64731 -2.49526 0.08443 69 79 180
2.64472 -2.50794 0.09700 59 66 173
2.64416 -2.52116 0.10856 51 62 158
2.65036 -2.53625 0.11677 67 67 141
2.64955 -2.54942 0.12847 99 103 127
2.66496 -2.56718 0.13223 63 65 96
2.67559 -2.57158 0.15434 27 37 121
2.66484 -2.58059 0.14363 31 36 104
2.64702 -2.60226 0.17485 30 42 132
2.65785 -2.57993 0.17417 27 39 121
2.64714 -2.58891 0.16350 26 37 117
2.63643 -2.59788 0.15283 27 33 118
2.64028 -2.61365 0.18935 36 49 155
2.62946 -2.63594 0.19003 39 57 170
2.60792 -2.64387 0.23835 36 53 160
2.59743 -2.63953 0.21653 39 56 171
2.59312 -2.65257 0.25644 27 39 121
2.60593 -2.66978 0.26164 18 24 81
2.59520 -2.69189 0.26231 16 22 76
2.65570 -2.76583 0.30645 27 26 40
2.64508 -2.76144 0.28438 16 17 61
2.64496 -2.77483 0.29575 25 20 48
2.66385 -2.78198 0.31414 65 53 50
2.67717 -2.79993 0.31959 89 78 61
2.68005 -2.81440 0.32970 106 95 61
2.68513 -2.82965 0.33887 117 105 62
2.69582 -2.83407 0.36109 125 108 77
2.68501 -2.84313 0.35032 123 109 70
2.67420 -2.85219 0.33954 121 106 64
1.37029 -2.76101 1.23657 178 161 144
1.36291 -2.75795 1.22120 175 158 136
1.37248 -2.79014 1.25954 169 177 180
1.36508 -2.78708 1.24416 181 186 178
1.36500 -2.79640 1.25209 174 178 175
1.36993 -2.79826 1.26824 180 190 196
1.37731 -2.80132 1.28361 187 196 200
1.36984 -2.80758 1.27616 185 195 202
1.24510 -2.82708 1.38326 170 175 173
1.23802 -2.82415 1.36855 182 191 193
1.23064 -2.82850 1.39496 147 151 152
1.22965 -2.83689 1.40276 142 152 153
1.22870 -2.84531 1.41055 152 163 166
1.22150 -2.86014 1.41099 181 190 194
1.22658 -2.85310 1.41865 176 187 191
1.21939 -2.86792 1.41910 183 191 194
1.10104 -2.97360 1.61148 181 187 183
1.09432 -2.97082 1.59751 177 184 189
1.10530 -2.98469 1.61774 158 155 152
1.13999 -3.01433 1.61752 126 124 118
1.14551 -3.02636 1.62365 123 125 110
1.19185 -3.06351 1.62130 103 97 93
1.18474 -3.07816 1.62174 90 84 73
1.14663 -3.26985 1.82812 134 130 121
1.15362 -3.25544 1.82769 154 142 118
1.14671 -3.26123 1.82080 149 139 120
1.15354 -3.26406 1.83502 150 140 121
1.15347 -3.27268 1.84235 149 137 117
1.14287 -3.27588 1.83594 128 128 115
1.14970 -3.27871 1.85014 150 135 118
1.14119 -3.28336 1.84347 137 132 116
1.14802 -3.28619 1.85766 151 136 119
1.14111 -3.29197 1.85078 145 135 116
1.10731 -1.08227 -0.00411 73 66 58
1.11417 -1.06813 -0.00453 90 84 70
1.10739 -1.07382 -0.01129 83 79 62
1.10053 -1.08796 -0.01087 58 50 47
1.10045 -1.09641 -0.00368 51 45 53
1.11378 -1.09004 -0.00230 62 51 54
1.10690 -1.10422 -0.00187 48 47 43
2.09101 -1.38121 -0.47309 7 11 14
2.08182 -1.37741 -0.49219 9 8 9
2.08172 -1.38900 -0.48235 9 8 13
2.09015 -1.39280 -0.46269 24 22 32
2.09124 -1.40439 -0.45372 47 55 70
2.08184 -1.42376 -0.45314 63 69 62
2.08720 -1.41593 -0.44103 51 49 59
2.03153 -1.48364 -0.34314 35 38 46
2.02763 -1.49491 -0.33078 32 31 30
2.02621 -1.50625 -0.32018 26 20 24
2.03524 -1.50999 -0.30141 8 9 13
2.02021 -1.51739 -0.30639 14 11 11
2.02922 -1.52112 -0.28765 9 9 11
2.02011 -1.52876 -0.29673 8 7 10
2.01099 -1.53640 -0.30582 10 9 12
1.92972 -1.65781 -0.12169 17 14 20
1.92083 -1.66526 -0.13055 14 15 10
1.98372 -1.67352 -0.14803 59 56 34
2.02230 -1.68820 -0.16392 90 78 59
2.01307 -1.70722 -0.16335 92 82 72
2.64741 -2.15857 -0.22556 43 34 42
2.63680 -2.15418 -0.24762 37 28 35
2.70004 -2.18199 -0.24439 58 61 68
2.75931 -2.20703 -0.26672 71 85 97
2.77391 -2.22366 -0.26341 73 85 99
2.77942 -2.23857 -0.25488 65 74 98
2.78757 -2.25404 -0.24781 59 67 95
2.80685 -2.27187 -0.24691 64 79 91
2.81524 -2.28754 -0.23985 68 85 84
2.81048 -2.30046 -0.22547 61 64 67
2.81174 -2.31466 -0.21442 46 26 42
2.80046 -2.33789 -0.21372 55 14 27
2.77572 -2.38977 -0.12470 54 21 45
2.74527 -2.39633 -0.09685 64 36 93
2.68964 -2.39662 -0.05583 95 89 153
2.70057 -2.41284 -0.05017 103 108 200
2.68958 -2.43549 -0.04949 48 58 161
2.68408 -2.42234 -0.03008 52 51 163
2.67795 -2.43433 -0.01548 61 72 167
2.67254 -2.44646 -0.00129 81 78 169
2.66134 -2.47053 0.02722 41 73 188
2.64491 -2.47966 0.04695 81 100 213
2.64352 -2.49269 0.05896 104 105 208
2.63954 -2.50502 0.07227 123 128 214
2.63482 -2.51712 0.08594 86 75 187
2.63875 -2.53159 0.09525 80 88 164
2.62792 -2.55392 0.09592 168 168 134
2.63967 -2.54524 0.10608 132 131 147
2.63973 -2.55865 0.11734 170 162 131
2.64649 -2.57398 0.12531 104 90 87
2.64462 -2.58686 0.13754 43 38 94
2.63997 -2.61231 0.16241 32 45 142
2.63601 -2.62453 0.17561 40 56 163
2.62518 -2.64685 0.17628 43 61 169
2.61048 -2.65682 0.22154 37 51 160
2.59995 -2.65247 0.19966 41 61 171
2.59807 -2.66626 0.23860 26 36 116
2.58734 -2.68839 0.23927 19 20 76
2.60948 -2.68312 0.24445 18 23 78
2.59872 -2.70531 0.24512 17 19 75
2.65744 -2.79246 0.30147 53 41 45
2.64679 -2.78805 0.27934 20 17 48
2.67135 -2.81066 0.30662 79 68 46
2.67400 -2.82508 0.31684 97 86 51
2.67827 -2.84008 0.32635 112 100 56
2.66733 -2.86264 0.32703 117 102 55
1.36821 -2.76984 1.22734 179 163 144
1.36081 -2.76678 1.21195 176 157 135
1.37066 -2.78039 1.23444 188 188 174
1.36308 -2.79601 1.23491 188 191 186
1.36372 -2.80514 1.26039 172 180 184
1.35624 -2.81140 1.25294 169 173 173
1.35616 -2.82072 1.26086 168 177 178
1.25472 -2.84184 1.37122 177 185 184
1.24761 -2.83890 1.35642 182 193 194
1.24752 -2.84787 1.36405 183 193 193
1.24744 -2.85685 1.37167 184 194 195
1.24758 -2.84710 1.38090 169 176 175
1.24031 -2.86207 1.38135 185 194 198
1.24698 -2.85579 1.38865 169 180 180
1.23972 -2.87075 1.38910 184 193 195
1.24618 -2.86436 1.39646 173 184 186
1.23892 -2.87932 1.39691 183 192 192
1.09915 -2.98226 1.60362 179 185 182
1.09242 -2.97947 1.58963 177 185 187
1.11635 -3.00127 1.60704 151 147 149
1.14214 -3.02565 1.60869 127 127 118
1.14996 -3.03914 1.61433 119 125 109
1.20931 -3.08455 1.60912 96 89 81
1.20214 -3.09933 1.60956 90 83 79
1.13847 -3.26610 1.81409 143 128 119
1.14547 -3.25169 1.81365 154 139 120
1.13855 -3.25748 1.80676 153 136 127
1.13164 -3.26327 1.79987 148 132 119
1.13653 -3.27340 1.82167 97 94 92
1.12954 -3.28780 1.82210 51 43 43
1.13738 -3.28268 1.82886 69 72 72
1.13876 -3.29233 1.83599 103 106 102
1.13702 -3.29977 1.84353 135 133 119
1.14385 -3.30259 1.85774 149 136 119
1.13694 -3.30838 1.85085 145 137 122
1.13003 -3.31417 1.84397 144 135 117
1.07111 -1.06601 -0.00762 80 78 71
1.07789 -1.05203 -0.00804 83 80 79
1.07118 -1.05765 -0.01472 80 77 77
1.07782 -1.06039 -0.00093 89 82 77
1.07774 -1.06876 0.00617 90 82 71
1.06432 -1.07999 -0.00720 63 60 58
2.07375 -1.40052 -0.46675 8 9 34
2.06458 -1.39673 -0.48581 10 7 10
2.07609 -1.41211 -0.45871 44 49 66
2.07014 -1.43514 -0.43489 55 60 60
2.06276 -1.44654 -0.41983 47 48 57
2.06265 -1.45807 -0.41003 39 41 50
2.05341 -1.46582 -0.41925 47 47 50
2.01266 -1.50235 -0.33575 42 45 52
2.00364 -1.49862 -0.35450 44 42 54
2.00354 -1.50999 -0.34484 42 45 56
2.00344 -1.52136 -0.33518 55 50 56
2.01358 -1.51376 -0.32682 44 53 61
