ply
format ascii 1.0
element face 0
property list uchar int vertex_indices
element vertex 1284
property float x
property float y
property float z
property uchar diffuse_red
property uchar diffuse_green
property uchar diffuse_blue
end_header
0.12212 -0.33782 -0.76032 254 254 244
0.12316 -0.35122 -0.75883 254 254 254
0.20967 -0.46334 -0.60174 254 254 253
0.20866 -0.45026 -0.60319 254 254 254
0.20410 -0.45768 -0.60660 254 254 254
0.19953 -0.46509 -0.61001 254 254 254
0.21068 -0.47642 -0.60029 219 199 201
0.21835 -0.46794 -0.60371 245 238 235
0.22957 -0.47172 -0.61110 200 165 188
0.23059 -0.48490 -0.60964 235 228 217
0.24150 -0.48292 -0.60280 244 244 239
0.24252 -0.49611 -0.60134 254 254 254
0.37536 -0.64671 -0.42372 243 236 232
0.37757 -0.65924 -0.39860 207 185 176
0.40086 -0.66225 -0.42488 235 234 234
0.40187 -0.67529 -0.42344 253 254 254
0.40698 -0.66782 -0.42102 251 253 254
0.40799 -0.68087 -0.41957 254 254 254
0.46180 -0.72442 -0.37129 253 251 247
0.46079 -0.71138 -0.37273 252 252 252
0.45624 -0.71877 -0.37613 252 252 252
0.45169 -0.72616 -0.37953 252 252 252
0.46635 -0.71703 -0.36789 253 252 253
0.46579 -0.73020 -0.36392 232 235 218
0.46387 -0.73645 -0.34711 189 215 197
0.53482 -0.83762 -0.21985 251 250 252
0.53384 -0.82493 -0.22125 251 249 251
0.52941 -0.83212 -0.22456 251 250 252
0.53925 -0.83043 -0.21654 251 249 251
0.54466 -0.83593 -0.21182 251 249 251
0.53866 -0.84312 -0.21290 246 250 249
0.54298 -0.84861 -0.20665 238 241 239
0.55349 -0.85413 -0.20912 224 219 232
0.55218 -0.85958 -0.19500 197 196 206
0.57029 -0.86523 -0.20796 162 162 163
0.59191 -0.87104 -0.22556 132 116 144
0.58620 -0.87640 -0.20537 105 77 117
0.59151 -0.88195 -0.20040 74 58 79
0.61911 -0.89900 -0.20116 85 77 66
0.60911 -0.90072 -0.20932 89 84 71
0.61461 -0.90632 -0.20453 87 83 69
0.62011 -0.91191 -0.19973 86 82 67
0.70101 -0.93533 -0.23554 79 73 58
0.69534 -0.92956 -0.24048 83 81 62
0.71694 -0.94172 -0.24374 69 68 57
0.72493 -0.94768 -0.24167 63 65 51
0.72597 -0.96110 -0.24019 37 33 36
0.73906 -0.95406 -0.24734 54 48 52
0.74010 -0.96755 -0.24585 33 36 44
0.74520 -0.95993 -0.24282 40 40 51
0.74624 -0.97343 -0.24132 32 38 36
2.37475 -1.56919 -1.18271 24 25 35
2.36507 -1.55935 -1.19114 19 22 26
2.35715 -1.57222 -1.19707 33 31 44
2.38734 -1.57968 -1.17693 27 24 28
2.40737 -1.59188 -1.17787 18 13 12
2.42505 -1.58884 -1.16345 7 9 8
2.41709 -1.60176 -1.16940 10 11 8
2.40914 -1.61469 -1.17535 13 12 8
2.21038 -1.61719 -0.84127 13 20 21
2.19424 -1.61996 -0.85443 17 26 42
2.20312 -1.62899 -0.84670 16 25 36
2.22783 -1.62837 -0.84083 9 15 15
2.24401 -1.62558 -0.82763 9 10 7
2.23672 -1.63742 -0.83307 8 11 11
2.22944 -1.64925 -0.83852 9 13 13
2.05104 -1.76105 -0.29096 30 32 33
2.03699 -1.76347 -0.30242 22 24 24
-0.10511 -0.15164 -0.88402 254 253 247
-0.11527 -0.15338 -0.89231 254 254 254
-0.10968 -0.15907 -0.88744 254 254 254
-0.09458 -0.15294 -0.89619 205 224 212
-0.08350 -0.16452 -0.88581 206 224 210
-0.07292 -0.16605 -0.89756 245 253 254
-0.06263 -0.16428 -0.88916 254 254 254
-0.06726 -0.17180 -0.89263 254 254 254
-0.07189 -0.17932 -0.89609 254 254 254
-0.02503 -0.22004 -0.84376 254 251 247
-0.03528 -0.22181 -0.85212 254 254 254
-0.01056 -0.21938 -0.86608 206 197 200
-0.00952 -0.23274 -0.86460 159 152 133
-0.00534 -0.22551 -0.85964 100 87 116
0.00050 -0.23119 -0.85513 67 60 72
0.00258 -0.23948 -0.83931 70 76 86
0.01289 -0.23770 -0.83090 75 78 87
0.00825 -0.24524 -0.83437 75 76 84
0.01212 -0.27104 -0.78134 86 90 88
0.01110 -0.25793 -0.78279 76 73 92
0.00653 -0.26536 -0.78621 79 77 87
0.01825 -0.27637 -0.77804 77 68 70
0.02399 -0.28196 -0.77359 84 53 51
0.02501 -0.29508 -0.77214 221 200 202
0.02989 -0.28746 -0.76958 107 77 76
0.03548 -0.29315 -0.76471 125 107 107
0.07242 -0.31658 -0.76458 237 222 203
0.07345 -0.32983 -0.76312 254 254 253
0.07909 -0.32176 -0.76240 252 248 228
0.08012 -0.33502 -0.76094 254 254 254
0.08755 -0.32599 -0.76496 254 253 233
0.08858 -0.33929 -0.76349 254 254 254
0.09538 -0.33061 -0.76571 254 254 247
0.09641 -0.34395 -0.76423 254 254 254
0.20184 -0.47189 -0.59788 250 251 246
0.19174 -0.47363 -0.60613 253 253 251
0.20285 -0.48493 -0.59644 188 166 172
0.21667 -0.48195 -0.59634 197 160 149
0.23319 -0.49158 -0.59822 253 254 253
0.22860 -0.49903 -0.60165 254 254 254
0.23421 -0.50472 -0.59677 254 254 254
0.36194 -0.64897 -0.42580 254 254 253
0.36094 -0.63606 -0.42723 254 254 254
0.35643 -0.64338 -0.43060 254 254 254
0.35193 -0.65070 -0.43397 254 254 254
0.36816 -0.65446 -0.42229 225 221 228
0.36205 -0.66178 -0.39687 190 164 164
0.36690 -0.66742 -0.39105 211 190 185
0.39131 -0.67034 -0.41951 244 240 238
0.39231 -0.68332 -0.41807 254 254 254
0.45245 -0.73222 -0.36686 252 249 239
0.44239 -0.73395 -0.37507 252 252 252
0.44792 -0.73958 -0.37025 252 252 248
0.45539 -0.73806 -0.35782 228 222 178
0.45521 -0.74411 -0.34381 177 187 134
0.46486 -0.74940 -0.34566 173 192 193
0.46587 -0.76235 -0.34423 253 252 251
0.51538 -0.83385 -0.22648 247 250 251
0.51440 -0.82119 -0.22788 251 249 251
0.50999 -0.82836 -0.23118 252 250 252
0.51980 -0.82668 -0.22318 251 249 251
0.51831 -0.83934 -0.21821 239 246 248
0.52433 -0.84482 -0.21443 230 225 236
0.53278 -0.85030 -0.21411 207 205 210
0.55958 -0.86145 -0.22732 137 120 154
0.56376 -0.86699 -0.22077 111 83 118
0.56958 -0.87254 -0.21652 76 62 74
0.66925 -0.93048 -0.22821 72 73 54
0.70844 -0.94363 -0.25468 56 50 52
0.70948 -0.95705 -0.25319 38 39 45
0.72384 -0.95007 -0.26217 45 43 52
0.72489 -0.96358 -0.26068 36 41 38
0.73059 -0.95599 -0.25842 40 39 43
0.73163 -0.96950 -0.25693 33 39 36
2.37140 -1.58309 -1.19284 36 37 49
2.35377 -1.58613 -1.20722 41 48 53
2.36346 -1.59598 -1.19878 47 52 57
2.38026 -1.59276 -1.18364 34 37 41
2.39797 -1.60447 -1.18249 24 24 19
2.22424 -1.64115 -0.84944 12 21 26
2.20804 -1.64394 -0.86265 16 25 39
2.04594 -1.77710 -0.28431 53 52 41
2.04734 -1.79519 -0.28231 68 59 51
-0.10598 -0.16641 -0.87600 252 248 240
-0.11612 -0.16816 -0.88427 254 254 254
-0.09282 -0.16549 -0.89728 190 207 203
-0.08796 -0.17188 -0.88974 172 206 214
-0.08028 -0.17587 -0.89178 232 247 251
-0.03840 -0.23393 -0.81982 254 254 252
-0.04855 -0.23568 -0.82810 254 254 254
-0.04297 -0.24135 -0.82323 254 254 254
-0.03261 -0.23945 -0.81561 236 237 226
-0.03160 -0.25254 -0.81416 197 184 159
-0.00803 -0.24146 -0.84680 72 56 52
-0.01267 -0.24900 -0.85027 102 78 75
-0.00573 -0.24953 -0.83170 64 69 88
-0.00369 -0.25770 -0.81595 76 78 96
0.00654 -0.25594 -0.80761 78 74 81
0.00015 -0.26460 -0.80573 86 82 93
0.00216 -0.27265 -0.79022 74 72 86
0.00317 -0.28577 -0.78877 162 170 136
0.00732 -0.27861 -0.78408 100 102 96
0.01116 -0.28539 -0.77418 125 118 116
0.01218 -0.29847 -0.77273 244 227 213
0.01938 -0.28942 -0.77692 160 137 140
0.03161 -0.30016 -0.77014 250 240 219
0.02703 -0.30760 -0.77357 254 253 253
0.04179 -0.29841 -0.76184 163 158 164
0.03263 -0.31329 -0.76869 254 254 253
0.06026 -0.31941 -0.76779 254 253 234
0.05002 -0.32117 -0.77615 254 254 254
0.05565 -0.32690 -0.77124 254 254 254
0.06129 -0.33263 -0.76632 254 254 254
0.06766 -0.32416 -0.76767 254 254 250
0.06869 -0.33741 -0.76620 254 254 254
0.19713 -0.47933 -0.60092 231 217 225
0.18703 -0.48107 -0.60917 244 239 235
0.21469 -0.48852 -0.60546 219 207 185
0.21012 -0.49595 -0.60888 241 239 236
0.21976 -0.49437 -0.59944 249 253 246
0.22077 -0.50748 -0.59799 254 254 254
0.35464 -0.65672 -0.42413 254 254 250
0.34466 -0.65844 -0.43227 254 254 254
0.34945 -0.66389 -0.40015 212 206 214
0.35656 -0.66918 -0.39838 168 140 144
0.38304 -0.67819 -0.41632 245 245 242
0.38404 -0.69114 -0.41488 254 254 254
0.45257 -0.74527 -0.36397 253 251 230
0.44251 -0.74700 -0.37218 252 252 252
0.44804 -0.75263 -0.36736 252 252 252
0.45357 -0.75825 -0.36254 252 252 252
0.45508 -0.75111 -0.35426 253 248 218
0.45609 -0.76406 -0.35283 252 252 252
0.49060 -0.82463 -0.23764 249 251 252
0.48962 -0.81202 -0.23903 251 250 251
0.48522 -0.81917 -0.24232 252 251 252
0.49500 -0.81748 -0.23435 251 250 251
0.50037 -0.82295 -0.22966 251 250 251
0.49757 -0.83008 -0.23531 243 250 246
0.50366 -0.83555 -0.23167 237 233 234
0.51141 -0.84102 -0.23042 215 213 227
0.52947 -0.85202 -0.23154 147 130 165
0.54535 -0.85762 -0.24184 121 92 118
0.55798 -0.86876 -0.23472 58 52 76
0.55897 -0.88159 -0.23330 90 84 75
0.56650 -0.87438 -0.23426 71 65 78
0.56749 -0.88724 -0.23284 89 84 73
0.57057 -0.87992 -0.22750 84 77 68
0.57156 -0.89277 -0.22608 86 84 71
0.67507 -0.93857 -0.24539 51 48 45
0.66478 -0.94034 -0.25379 39 38 37
0.67044 -0.94609 -0.24886 39 40 44
0.67610 -0.95185 -0.24393 38 41 40
0.68604 -0.94466 -0.24742 40 40 38
0.68707 -0.95798 -0.24595 36 41 44
2.36978 -1.60505 -1.18722 43 52 57
2.35217 -1.60808 -1.20158 43 53 58
2.36186 -1.61792 -1.19315 44 53 59
2.38012 -1.61505 -1.17938 32 36 34
2.16855 -1.62031 -0.85924 7 14 23
2.16695 -1.59956 -0.86154 7 14 19
2.15971 -1.61132 -0.86695 6 12 12
2.15247 -1.62308 -0.87237 8 11 8
2.16131 -1.63207 -0.86466 8 11 13
2.18421 -1.63105 -0.85745 15 19 34
2.21758 -1.65316 -0.85543 16 26 35
2.21029 -1.66501 -0.86088 15 25 38
2.21920 -1.67406 -0.85312 12 15 21
-0.11330 -0.17625 -0.86975 254 253 251
-0.12340 -0.17799 -0.87799 254 254 254
-0.10226 -0.17716 -0.88394 179 217 238
-0.09337 -0.18004 -0.89041 154 197 228
-0.08808 -0.18603 -0.88438 227 232 240
-0.08706 -0.19921 -0.88292 254 254 254
-0.08219 -0.19151 -0.88041 254 254 254
-0.07198 -0.18976 -0.87207 254 254 254
-0.07658 -0.19722 -0.87551 254 254 254
-0.08117 -0.20469 -0.87895 253 254 254
-0.04186 -0.25021 -0.80440 251 249 238
-0.05195 -0.25195 -0.81263 254 254 254
-0.01455 -0.25989 -0.82235 99 89 111
-0.02502 -0.27636 -0.76889 113 123 152
-0.01950 -0.28197 -0.76408 113 118 143
-0.01850 -0.29491 -0.76265 190 183 192
-0.00294 -0.28042 -0.79210 96 88 120
0.00937 -0.29107 -0.78568 233 232 208
0.01877 -0.30352 -0.77079 251 254 252
0.01420 -0.31095 -0.77420 253 251 252
0.01978 -0.31662 -0.76934 254 249 249
0.19209 -0.48689 -0.60321 191 139 179
0.19310 -0.49992 -0.60177 220 221 205
0.19706 -0.49272 -0.59707 196 174 181
0.21114 -0.50307 -0.59394 254 254 254
0.20658 -0.51048 -0.59734 254 254 254
0.21215 -0.51613 -0.59249 254 254 254
0.34847 -0.66427 -0.42443 254 254 249
0.33850 -0.66599 -0.43256 254 254 254
0.34166 -0.67160 -0.39745 203 193 202
0.34264 -0.68434 -0.39605 155 110 124
0.34969 -0.67676 -0.39740 155 120 129
0.35324 -0.68254 -0.38929 197 192 188
0.37269 -0.68628 -0.40936 244 249 246
0.37368 -0.69917 -0.40793 254 254 254
0.46647 -0.81546 -0.24951 251 250 251
0.46550 -0.80288 -0.25090 251 250 250
0.46111 -0.81001 -0.25418 251 251 251
0.47086 -0.80833 -0.24622 251 250 251
0.47622 -0.81379 -0.24155 251 250 251
0.47373 -0.82088 -0.24771 245 250 249
0.47998 -0.82633 -0.24436 239 241 243
0.49816 -0.83721 -0.24605 191 201 204
0.51048 -0.84269 -0.25159 160 149 155
0.51542 -0.84821 -0.24613 129 101 145
0.52796 -0.85377 -0.25179 79 59 106
0.54925 -0.86500 -0.25728 65 66 75
0.55025 -0.87789 -0.25585 88 86 76
0.55769 -0.87064 -0.25671 81 79 70
0.55869 -0.88356 -0.25528 87 84 76
2.37785 -1.62929 -1.19051 41 43 47
2.36021 -1.63232 -1.20490 45 53 61
2.38478 -1.63848 -1.17952 27 28 21
2.39875 -1.64938 -1.17495 15 12 12
2.41640 -1.64634 -1.16055 6 11 10
2.40845 -1.65925 -1.16649 8 10 10
2.40051 -1.67216 -1.17243 12 10 8
2.19499 -1.65427 -0.86311 11 19 31
2.19661 -1.67513 -0.86080 10 17 19
2.04191 -1.80042 -0.29993 62 56 45
2.04331 -1.81856 -0.29793 73 59 49
-0.11934 -0.18493 -0.86790 253 252 252
-0.12942 -0.18667 -0.87612 254 254 254
-0.10788 -0.18549 -0.88372 166 180 242
-0.10371 -0.19237 -0.87395 138 151 232
-0.09971 -0.19935 -0.86369 225 223 242
-0.09870 -0.21241 -0.86224 253 254 254
-0.05056 -0.26054 -0.79473 250 249 247
-0.04950 -0.26926 -0.77601 224 213 214
-0.04122 -0.27293 -0.77985 194 177 176
-0.03735 -0.27964 -0.77003 203 204 180
-0.03303 -0.28602 -0.76163 188 189 177
-0.03203 -0.29890 -0.76021 233 215 229
-0.02209 -0.28805 -0.77325 172 138 161
-0.02109 -0.30102 -0.77182 253 253 243
-0.00690 -0.29667 -0.77589 238 252 228
-0.01144 -0.30406 -0.77929 248 250 252
0.00048 -0.30119 -0.77641 251 250 248
0.00754 -0.30593 -0.77591 251 247 246
0.00855 -0.31901 -0.77446 250 241 247
0.16393 -0.48729 -0.58756 249 250 246
0.16293 -0.47441 -0.58898 254 254 254
0.15844 -0.48171 -0.59234 254 254 254
0.16492 -0.50017 -0.58613 160 163 158
0.17419 -0.49126 -0.59367 206 199 196
0.17166 -0.49952 -0.57065 167 125 120
0.19632 -0.50630 -0.59173 250 254 253
0.19179 -0.51367 -0.59512 254 254 254
0.19733 -0.51930 -0.59029 254 254 254
0.34115 -0.67196 -0.42262 254 254 247
0.33120 -0.67368 -0.43074 254 254 254
0.33457 -0.67918 -0.39599 198 182 195
0.33556 -0.69189 -0.39458 157 111 127
0.34541 -0.69020 -0.38655 200 195 198
0.36013 -0.69457 -0.39838 245 252 252
0.36112 -0.70737 -0.39696 254 254 254
0.44977 -0.81173 -0.25967 247 251 251
0.44880 -0.79916 -0.26106 251 250 251
0.44441 -0.80628 -0.26434 252 251 251
0.45415 -0.80461 -0.25639 251 250 251
0.45560 -0.81717 -0.25573 241 247 249
0.46173 -0.82260 -0.25225 232 226 235
0.47106 -0.82800 -0.25362 202 211 215
0.47842 -0.83345 -0.25194 165 169 177
0.49518 -0.83887 -0.26438 139 112 160
0.50239 -0.84438 -0.26231 98 65 104
0.50655 -0.84991 -0.25568 56 50 73
0.51775 -0.85547 -0.25946 62 60 84
0.51874 -0.86827 -0.25805 90 87 75
0.52383 -0.86102 -0.25563 82 74 76
0.52482 -0.87383 -0.25421 89 85 72
0.53239 -0.86662 -0.25540 90 82 65
0.53338 -0.87945 -0.25398 87 85 69
0.58857 -0.91700 -0.22210 54 50 51
0.58957 -0.92990 -0.22068 40 40 44
2.36454 -1.64087 -1.19149 48 50 60
2.34693 -1.64390 -1.20586 44 50 56
2.35662 -1.65375 -1.19742 49 52 57
2.37379 -1.65061 -1.18264 37 40 33
2.38761 -1.66149 -1.17798 23 16 16
-0.12511 -0.19337 -0.86691 241 240 242
-0.12410 -0.20636 -0.86548 139 130 182
-0.11090 -0.19159 -0.89261 165 128 202
-0.10530 -0.19728 -0.88773 159 129 206
-0.10659 -0.20868 -0.85904 231 236 244
-0.10559 -0.22169 -0.85760 253 253 254
-0.06299 -0.26397 -0.79530 250 253 251
-0.06399 -0.25106 -0.79673 254 254 254
-0.06850 -0.25838 -0.80010 253 254 254
-0.05743 -0.26954 -0.79066 243 249 238
-0.05643 -0.28245 -0.78923 203 185 150
-0.05246 -0.27550 -0.78421 229 239 215
-0.04778 -0.28165 -0.77685 218 217 167
-0.03783 -0.28426 -0.78578 192 172 116
-0.03683 -0.29723 -0.78434 253 250 235
-0.03716 -0.29308 -0.76610 178 177 177
-0.00381 -0.30842 -0.78060 245 247 248
-0.00280 -0.32148 -0.77916 238 226 230
0.00249 -0.31364 -0.77790 244 244 248
0.14902 -0.49071 -0.58425 252 252 251
0.14803 -0.47790 -0.58566 254 254 254
0.14356 -0.48516 -0.58901 254 254 254
0.16119 -0.49399 -0.59496 225 221 225
0.16219 -0.50689 -0.59354 190 165 179
0.17795 -0.50330 -0.59850 206 196 157
0.18237 -0.50927 -0.59120 248 252 243
0.18338 -0.52222 -0.58977 254 254 254
0.33409 -0.67959 -0.42122 254 254 244
0.32416 -0.68130 -0.42931 254 254 254
0.33508 -0.69240 -0.41980 180 163 188
0.32714 -0.68678 -0.39383 192 177 188
0.34029 -0.69748 -0.38863 204 197 205
0.34984 -0.70250 -0.39130 245 252 254
0.35082 -0.71525 -0.38989 254 254 254
0.43136 -0.80245 -0.28020 248 251 251
0.43038 -0.78986 -0.28160 252 250 251
0.42599 -0.79699 -0.28488 252 251 252
0.43575 -0.79531 -0.27692 252 250 251
0.44111 -0.80077 -0.27225 251 250 251
0.43233 -0.81504 -0.27881 186 203 211
0.43452 -0.80797 -0.27204 244 248 248
0.43994 -0.81341 -0.26748 240 235 239
0.44262 -0.81891 -0.25863 212 220 229
0.45232 -0.82427 -0.26073 176 192 203
0.46968 -0.82958 -0.27456 153 118 156
0.47683 -0.83507 -0.27251 110 78 108
0.49279 -0.84609 -0.27082 56 53 84
0.49378 -0.85885 -0.26941 87 85 78
0.50065 -0.85163 -0.26972 76 69 80
0.50164 -0.86441 -0.26830 86 87 77
0.50654 -0.85717 -0.26562 87 83 72
0.50753 -0.86996 -0.26421 87 88 77
0.51519 -0.86275 -0.26564 88 87 73
0.58033 -0.91881 -0.23270 36 40 40
0.57032 -0.92053 -0.24087 36 41 39
0.57583 -0.92612 -0.23607 31 39 39
0.58133 -0.93172 -0.23127 34 38 43
2.36613 -1.66356 -1.18882 41 44 42
2.34852 -1.66659 -1.20319 47 51 60
2.37754 -1.67384 -1.18195 29 28 17
2.38877 -1.68409 -1.17491 15 13 11
2.40640 -1.68105 -1.16053 7 8 8
2.39847 -1.69395 -1.16646 7 9 8
2.39053 -1.70684 -1.17240 8 8 10
-0.13926 -0.19869 -0.86038 254 254 254
-0.14026 -0.18578 -0.86181 254 254 254
-0.14476 -0.19309 -0.86518 254 254 254
-0.14926 -0.20041 -0.86855 254 254 254
-0.13191 -0.20270 -0.86216 202 208 235
-0.13091 -0.21565 -0.86073 124 114 193
-0.11825 -0.21172 -0.86176 173 173 199
-0.11672 -0.22065 -0.84298 237 252 251
-0.11572 -0.23358 -0.84155 251 252 254
-0.08187 -0.26257 -0.79727 249 250 252
-0.08287 -0.24971 -0.79869 254 254 254
-0.08735 -0.25699 -0.80205 251 253 254
-0.07738 -0.25528 -0.79391 254 254 254
-0.07626 -0.26805 -0.79290 241 246 245
-0.07527 -0.28092 -0.79147 195 209 173
-0.06957 -0.27277 -0.79200 226 243 225
-0.06690 -0.28032 -0.77824 217 224 173
-0.05278 -0.28930 -0.77863 207 189 207
-0.05178 -0.30219 -0.77721 254 254 253
-0.04795 -0.29533 -0.77177 242 218 207
-0.02840 -0.30098 -0.78839 252 253 253
-0.02302 -0.30673 -0.78305 247 247 252
-0.01710 -0.31213 -0.77935 238 236 246
-0.00939 -0.31645 -0.78096 239 234 236
0.13301 -0.49454 -0.57800 254 254 253
0.13202 -0.48180 -0.57941 254 254 254
0.12758 -0.48902 -0.58273 254 254 254
0.12313 -0.49624 -0.58605 254 254 254
0.14154 -0.49900 -0.58052 242 238 235
0.14253 -0.51178 -0.57911 138 115 106
0.15537 -0.50174 -0.59526 171 126 184
0.15637 -0.51462 -0.59383 215 224 213
0.16767 -0.51248 -0.58871 241 236 231
0.16867 -0.52538 -0.58728 254 254 254
0.17370 -0.51791 -0.58514 254 254 254
0.17470 -0.53081 -0.58371 254 254 254
0.32657 -0.68725 -0.41892 254 253 243
0.31667 -0.68896 -0.42700 254 254 254
0.32756 -0.70003 -0.41751 165 150 189
0.32627 -0.69969 -0.38904 153 107 134
0.32185 -0.70686 -0.39234 148 105 139
0.33432 -0.70486 -0.38915 207 198 208
0.34046 -0.71028 -0.38577 246 253 254
0.34145 -0.72297 -0.38436 254 254 254
0.41142 -0.79885 -0.28503 247 250 248
0.41045 -0.78631 -0.28642 252 251 252
0.40607 -0.79341 -0.28969 250 252 251
0.41579 -0.79174 -0.28176 252 251 251
0.41807 -0.80424 -0.28248 241 241 242
0.42386 -0.80967 -0.27852 218 229 236
0.44479 -0.82035 -0.28535 166 142 164
0.45251 -0.82580 -0.28429 122 89 122
0.45735 -0.83130 -0.27870 64 40 70
0.46683 -0.83676 -0.28031 51 48 82
0.46781 -0.84948 -0.27890 92 87 75
0.47432 -0.84227 -0.27879 73 70 79
0.47531 -0.85500 -0.27738 92 88 78
0.48187 -0.84779 -0.27731 89 83 66
0.48286 -0.86054 -0.27590 92 87 77
0.48980 -0.85333 -0.27637 92 85 71
0.49079 -0.86610 -0.27496 89 86 72
0.51578 -0.87556 -0.26361 87 86 72
0.50585 -0.87726 -0.27172 78 83 64
0.52234 -0.88114 -0.26047 82 82 66
0.52333 -0.89396 -0.25905 49 46 58
0.53992 -0.88704 -0.27347 75 79 57
0.55309 -0.89290 -0.27980 65 71 47
0.56316 -0.89116 -0.27158 78 79 64
0.55863 -0.89853 -0.27497 54 55 53
0.55409 -0.90590 -0.27836 34 38 50
2.35252 -1.67497 -1.18948 45 48 56
2.33494 -1.67800 -1.20382 46 49 57
2.34461 -1.68783 -1.19539 43 48 54
2.36866 -1.68648 -1.18701 36 37 28
2.38313 -1.69758 -1.18294 20 17 17
2.38489 -1.72034 -1.18043 12 9 7
-0.14674 -0.20861 -0.85293 254 252 251
-0.15670 -0.21032 -0.86106 254 254 254
-0.13977 -0.21290 -0.85351 165 166 226
-0.12867 -0.22398 -0.84431 198 193 217
-0.12453 -0.23068 -0.83478 244 251 254
-0.10217 -0.26236 -0.79393 248 249 250
-0.10316 -0.24958 -0.79534 240 244 249
-0.10762 -0.25682 -0.79868 250 253 252
-0.09771 -0.25512 -0.79060 249 248 251
-0.09659 -0.26781 -0.78960 236 240 249
-0.09254 -0.27436 -0.78026 215 220 234
-0.08734 -0.28007 -0.77472 205 205 198
-0.07213 -0.28812 -0.77916 207 215 193
-0.06278 -0.29103 -0.78674 243 232 223
-0.05460 -0.29481 -0.79043 254 249 247
-0.05360 -0.30775 -0.78900 247 247 248
-0.04212 -0.30508 -0.78532 250 252 251
-0.03527 -0.30984 -0.78462 240 242 244
-0.02954 -0.31534 -0.78039 229 220 233
-0.02520 -0.32170 -0.77197 228 198 226
-0.01503 -0.32450 -0.78109 236 218 230
-0.01402 -0.33753 -0.77965 254 254 254
-0.00846 -0.32954 -0.77927 250 250 246
-0.00290 -0.33520 -0.77442 254 254 251
-0.00745 -0.34259 -0.77782 254 254 254
0.12507 -0.50295 -0.57304 250 250 247
0.12064 -0.51015 -0.57635 233 232 227
0.13764 -0.50605 -0.58518 198 201 190
0.15804 -0.52140 -0.58025 252 254 253
0.15356 -0.52868 -0.58360 254 254 254
0.15903 -0.53424 -0.57883 254 254 254
0.31805 -0.69501 -0.41472 254 252 243
0.30818 -0.69671 -0.42277 254 254 254
0.32599 -0.71248 -0.38537 210 201 210
0.33247 -0.71785 -0.38264 248 253 254
0.33345 -0.73050 -0.38124 254 254 254
0.38704 -0.78983 -0.29570 248 251 251
0.38608 -0.77733 -0.29708 252 252 252
0.38172 -0.78441 -0.30035 251 252 252
0.39140 -0.78274 -0.29244 252 252 252
0.39673 -0.78816 -0.28780 252 252 252
0.38801 -0.80233 -0.29432 176 179 188
0.39338 -0.79520 -0.29272 243 246 247
0.39962 -0.80059 -0.28956 226 235 238
0.41274 -0.80578 -0.29758 198 212 210
0.41910 -0.81121 -0.29450 169 164 167
0.43387 -0.82206 -0.29156 73 52 100
0.43972 -0.82753 -0.28760 51 48 81
0.44789 -0.83299 -0.28729 68 64 82
0.44887 -0.84566 -0.28588 92 88 81
0.45910 -0.83845 -0.29168 89 81 69
0.46009 -0.85118 -0.29027 91 88 80
0.46663 -0.84396 -0.29022 93 85 76
0.46762 -0.85671 -0.28881 90 86 83
0.50111 -0.87173 -0.27757 82 84 68
0.52004 -0.88305 -0.27997 71 76 55
0.52104 -0.89594 -0.27854 37 37 55
0.53155 -0.88882 -0.28409 62 59 56
0.53256 -0.90177 -0.28266 39 40 54
2.03436 -1.37312 -1.46412 28 28 32
2.05194 -1.37010 -1.44978 21 23 19
2.04403 -1.38295 -1.45569 31 35 34
2.03612 -1.39580 -1.46161 40 42 43
2.35058 -1.69669 -1.18355 40 39 38
2.33302 -1.69971 -1.19788 44 45 54
2.36691 -1.70828 -1.18127 26 23 20
-0.15404 -0.21834 -0.84596 250 244 237
-0.14284 -0.21899 -0.86202 183 137 189
-0.13878 -0.22580 -0.85205 164 120 200
-0.13855 -0.23574 -0.82848 219 217 246
-0.13095 -0.23954 -0.83131 242 245 253
-0.12612 -0.24561 -0.82431 239 242 252
-0.11618 -0.24390 -0.81620 252 254 254
-0.12129 -0.25166 -0.81736 235 241 248
-0.11136 -0.24995 -0.80926 252 253 253
-0.11699 -0.25811 -0.80861 226 235 243
-0.11420 -0.26568 -0.79478 210 233 238
-0.11321 -0.27843 -0.79337 166 128 205
-0.11131 -0.27311 -0.78145 210 205 229
-0.10463 -0.27768 -0.78097 204 170 221
-0.09781 -0.28219 -0.78086 174 175 208
-0.09180 -0.28730 -0.77805 191 206 204
-0.09081 -0.30006 -0.77663 254 254 254
-0.08135 -0.28933 -0.78962 241 248 230
-0.08036 -0.30217 -0.78820 253 254 253
-0.07425 -0.29377 -0.79010 254 252 242
-0.07326 -0.30664 -0.78867 248 250 250
-0.06599 -0.29747 -0.79421 254 254 254
-0.05756 -0.30111 -0.79873 252 253 253
-0.04718 -0.31277 -0.78701 231 225 230
-0.04278 -0.31908 -0.77877 212 188 201
-0.03785 -0.32504 -0.77218 210 168 189
-0.02684 -0.32728 -0.78413 234 208 226
-0.02583 -0.34029 -0.78269 254 254 254
-0.02027 -0.33230 -0.78239 251 253 248
-0.01926 -0.34532 -0.78095 254 254 254
0.11285 -0.50547 -0.57534 253 253 252
0.11187 -0.49280 -0.57674 254 254 254
0.10745 -0.49998 -0.58005 254 254 254
0.10304 -0.50716 -0.58335 254 254 254
0.13146 -0.51387 -0.58443 138 159 160
0.12701 -0.52110 -0.58776 177 150 190
0.13520 -0.51995 -0.57569 196 190 158
0.14342 -0.52459 -0.57747 247 252 245
0.14441 -0.53736 -0.57606 254 254 254
0.30260 -0.70355 -0.39751 254 250 241
0.29282 -0.70523 -0.40548 254 254 254
0.30791 -0.71508 -0.37812 143 113 159
0.31591 -0.72025 -0.37829 216 208 220
0.32241 -0.72559 -0.37568 250 253 254
0.32339 -0.73818 -0.37429 254 254 254
0.36351 -0.78083 -0.30747 250 252 253
0.36254 -0.76836 -0.30885 253 253 253
0.35819 -0.77542 -0.31210 252 253 253
0.36786 -0.77376 -0.30422 252 252 253
0.37317 -0.77916 -0.29959 252 252 252
0.36991 -0.78618 -0.30467 246 248 251
0.37630 -0.79154 -0.30184 232 239 243
0.38646 -0.79677 -0.30526 205 222 223
0.40766 -0.80732 -0.31326 141 108 153
0.40864 -0.81996 -0.31186 84 77 81
0.40783 -0.81293 -0.30002 87 62 112
0.40881 -0.82552 -0.29863 94 89 66
0.42406 -0.82375 -0.29955 63 63 85
0.42504 -0.83639 -0.29815 94 90 81
0.43052 -0.82921 -0.29657 88 79 75
0.43150 -0.84187 -0.29517 92 91 85
0.43774 -0.83468 -0.29478 94 86 77
0.43872 -0.84735 -0.29338 93 91 80
0.44428 -0.84017 -0.29187 92 89 81
0.47816 -0.86230 -0.29196 86 85 79
0.48748 -0.86791 -0.29315 83 85 80
0.49287 -0.87347 -0.28826 75 76 58
0.50200 -0.87912 -0.28905 65 58 59
0.50300 -0.89199 -0.28762 35 38 49
0.51480 -0.88490 -0.29529 49 47 61
0.51580 -0.89784 -0.29386 32 37 47
0.52697 -0.89072 -0.30045 37 40 57
0.52798 -0.90372 -0.29902 32 37 46
1.98270 -1.36192 -1.45903 16 15 29
1.98096 -1.33943 -1.46152 12 11 11
1.97312 -1.35217 -1.46739 10 9 15
1.96527 -1.36492 -1.47325 10 9 14
2.00951 -1.37482 -1.47020 32 37 40
2.01943 -1.38467 -1.46212 40 41 44
2.02118 -1.40729 -1.45961 44 47 61
2.32364 -1.70442 -1.17176 48 43 49
2.30618 -1.70742 -1.18601 47 48 56
2.33105 -1.71359 -1.16138 34 36 29
2.34612 -1.72483 -1.15805 16 12 13
2.36360 -1.72183 -1.14379 7 7 8
2.35573 -1.73461 -1.14967 8 4 9
2.34787 -1.74738 -1.15555 9 5 11
2.07484 -1.86903 -0.38388 55 50 45
2.07628 -1.88762 -0.38183 70 57 55
-0.16760 -0.22324 -0.84054 254 254 254
-0.16858 -0.21049 -0.84195 254 254 254
-0.17303 -0.21771 -0.84527 254 254 254
-0.16234 -0.22892 -0.83514 245 238 224
-0.16136 -0.24166 -0.83373 189 202 197
-0.15231 -0.23053 -0.84723 177 166 144
-0.14685 -0.23609 -0.84246 156 172 169
-0.14491 -0.24454 -0.82504 202 230 241
-0.13920 -0.24986 -0.82123 205 227 241
-0.13447 -0.25596 -0.81397 174 196 230
-0.13389 -0.26528 -0.79230 168 150 205
-0.13377 -0.27484 -0.76929 166 125 169
-0.12978 -0.28132 -0.75991 145 121 163
-0.10915 -0.28496 -0.78402 221 189 240
-0.10816 -0.29768 -0.78261 254 254 254
-0.10298 -0.28993 -0.78180 250 252 240
-0.10199 -0.30267 -0.78039 253 254 253
-0.09497 -0.29363 -0.78560 254 254 243
-0.06382 -0.30960 -0.79655 235 233 239
-0.06077 -0.31680 -0.78394 218 194 213
-0.05458 -0.32194 -0.78133 202 155 190
-0.04760 -0.32660 -0.78117 210 173 207
-0.03925 -0.33046 -0.78513 242 223 227
-0.03825 -0.34342 -0.78369 254 254 254
-0.03280 -0.33552 -0.78314 253 254 248
-0.03180 -0.34850 -0.78171 254 254 254
0.10630 -0.51336 -0.57349 250 247 246
0.10728 -0.52600 -0.57209 170 157 190
0.11545 -0.51759 -0.57783 194 164 215
0.13126 -0.52700 -0.58022 235 233 218
0.13225 -0.53975 -0.57881 254 254 254
0.13661 -0.53255 -0.57530 254 254 254
0.13760 -0.54530 -0.57389 254 254 254
0.28865 -0.71180 -0.38290 254 248 240
0.27896 -0.71347 -0.39081 254 254 254
0.29782 -0.72280 -0.37083 142 132 184
0.29879 -0.73529 -0.36945 232 231 241
0.30722 -0.72781 -0.37367 225 222 231
0.31331 -0.73317 -0.37037 252 254 254
0.31428 -0.74572 -0.36898 254 254 254
0.34590 -0.77724 -0.31543 250 251 251
0.34493 -0.76479 -0.31681 253 253 253
0.34059 -0.77184 -0.32005 252 253 253
0.35024 -0.77018 -0.31219 253 253 253
0.35305 -0.78253 -0.31399 239 245 248
0.35916 -0.78789 -0.31072 212 232 239
0.36727 -0.79318 -0.31084 184 186 211
0.38038 -0.79830 -0.31933 152 113 156
0.38712 -0.80370 -0.31697 97 67 99
0.38307 -0.80943 -0.29661 50 44 71
0.45114 -0.85288 -0.29978 89 88 74
0.44670 -0.86010 -0.30310 72 69 53
0.45213 -0.86562 -0.29837 60 50 66
0.47643 -0.86960 -0.29956 69 67 48
0.47743 -0.88243 -0.29814 35 38 51
0.49020 -0.87534 -0.30761 53 48 55
0.49120 -0.88824 -0.30619 35 38 51
0.49393 -0.88089 -0.30011 38 37 55
0.49493 -0.89377 -0.29868 33 38 42
0.50018 -0.88649 -0.29646 37 35 51
0.50117 -0.89939 -0.29503 31 36 32
1.95515 -1.37101 -1.44232 14 11 27
1.93784 -1.37398 -1.45644 11 8 12
1.97924 -1.38342 -1.45062 30 33 36
1.98098 -1.40587 -1.44814 40 43 51
1.99502 -1.39434 -1.44932 39 43 52
1.99677 -1.41683 -1.44683 46 45 58
2.30110 -1.71318 -1.16394 44 46 49
2.28372 -1.71617 -1.17812 49 53 66
2.31103 -1.72300 -1.15596 35 39 34
2.31959 -1.73243 -1.14670 20 19 16
-0.19293 -0.21811 -0.84032 238 247 252
-0.19391 -0.20545 -0.84172 253 254 254
-0.19833 -0.21262 -0.84503 241 249 253
-0.18852 -0.21093 -0.83702 253 254 254
-0.18312 -0.21642 -0.83232 253 254 254
-0.18481 -0.22113 -0.84607 243 250 252
-0.17995 -0.22714 -0.83920 246 251 253
-0.17405 -0.23222 -0.83632 249 252 253
-0.16869 -0.23777 -0.83140 252 251 245
-0.15343 -0.24511 -0.83811 135 133 130
-0.15073 -0.25290 -0.82340 145 106 129
-0.14530 -0.25842 -0.81867 129 103 152
-0.14437 -0.26749 -0.79798 90 108 167
-0.14311 -0.27620 -0.77869 114 131 193
-0.13383 -0.27866 -0.78766 170 161 206
-0.12625 -0.28250 -0.79053 214 206 219
-0.12527 -0.29520 -0.78912 254 254 254
-0.12204 -0.28889 -0.78168 246 242 240
-0.12106 -0.30157 -0.78028 253 254 254
-0.11503 -0.29322 -0.78243 254 254 253
-0.08979 -0.30352 -0.79803 249 251 251
-0.09975 -0.30523 -0.80615 241 244 243
-0.08431 -0.30909 -0.79326 239 243 242
-0.07872 -0.31458 -0.78886 221 213 216
-0.07370 -0.32044 -0.78264 195 158 172
-0.06711 -0.32529 -0.78143 188 146 157
-0.05823 -0.32871 -0.78739 217 192 198
-0.05723 -0.34163 -0.78596 254 254 254
-0.05125 -0.33339 -0.78723 247 242 243
-0.05025 -0.34633 -0.78580 254 254 254
-0.04491 -0.33849 -0.78500 254 254 251
-0.04390 -0.35144 -0.78356 254 254 254
0.09504 -0.51555 -0.57789 254 253 252
0.09407 -0.50293 -0.57929 254 254 254
0.08967 -0.51008 -0.58258 254 254 254
0.08526 -0.51723 -0.58587 254 254 254
0.10127 -0.52073 -0.57527 243 235 231
0.11514 -0.53069 -0.57332 217 221 221
0.11612 -0.54336 -0.57192 254 254 254
0.12342 -0.53528 -0.57547 251 254 247
0.12440 -0.54799 -0.57407 254 254 254
0.27793 -0.71958 -0.37417 254 243 241
0.26828 -0.72124 -0.38204 254 254 254
0.27359 -0.72664 -0.37741 254 243 228
0.29035 -0.73019 -0.36829 148 131 206
0.30510 -0.74062 -0.36661 254 254 254
0.30074 -0.74771 -0.36987 254 254 254
0.30607 -0.75313 -0.36523 253 254 254
0.32364 -0.76824 -0.32898 251 252 251
0.32268 -0.75582 -0.33035 254 254 254
0.31834 -0.76286 -0.33359 252 254 253
0.32797 -0.76120 -0.32574 254 254 254
0.33327 -0.76659 -0.32112 253 253 253
0.32818 -0.77367 -0.32304 242 247 249
0.33398 -0.77902 -0.31932 220 242 244
0.38141 -0.78809 -0.37380 165 131 148
0.36952 -0.80002 -0.32539 50 40 76
0.37819 -0.80536 -0.32633 52 55 84
0.37916 -0.81795 -0.32494 94 89 82
0.38290 -0.81083 -0.32054 80 75 75
0.38387 -0.82342 -0.31915 94 89 81
0.38779 -0.81630 -0.31507 93 86 70
0.38877 -0.82889 -0.31368 97 89 80
0.39389 -0.82174 -0.31162 94 89 80
0.39487 -0.83433 -0.31023 96 91 83
0.47163 -0.87686 -0.30240 29 33 49
0.46169 -0.87857 -0.31050 35 37 48
0.46716 -0.88413 -0.30574 33 36 44
0.47263 -0.88969 -0.30098 32 34 47
1.93904 -1.38208 -1.43857 15 11 34
1.92178 -1.38505 -1.45265 10 9 8
1.95722 -1.39340 -1.44024 30 38 54
2.28562 -1.72376 -1.16261 47 51 56
2.26829 -1.72674 -1.17675 48 56 69
2.27782 -1.73643 -1.16844 48 55 68
2.28887 -1.73169 -1.14844 40 44 39
2.29311 -1.73988 -1.13527 25 27 19
2.29141 -1.74635 -1.11667 12 9 12
2.30862 -1.74339 -1.10262 4 5 5
2.30088 -1.75597 -1.10842 6 4 6
2.29313 -1.76856 -1.11421 7 5 6
-0.21065 -0.21668 -0.84307 233 225 243
-0.21163 -0.20407 -0.84447 254 254 254
-0.21603 -0.21121 -0.84776 252 254 253
-0.20801 -0.22469 -0.82762 205 196 218
-0.20704 -0.23725 -0.82624 198 205 207
-0.20243 -0.22993 -0.82383 200 203 216
-0.19667 -0.23501 -0.82071 213 220 229
-0.19011 -0.23939 -0.82065 220 221 235
-0.18127 -0.24184 -0.82909 225 234 244
-0.17572 -0.24719 -0.82497 240 250 250
-0.16997 -0.25239 -0.82156 208 213 227
-0.15909 -0.25334 -0.83704 163 145 175
-0.15396 -0.25913 -0.83114 182 157 179
-0.15297 -0.27189 -0.82973 249 252 252
-0.15320 -0.26839 -0.80953 226 215 214
-0.15222 -0.28107 -0.80812 251 247 254
-0.14747 -0.27363 -0.80598 248 240 227
-0.14649 -0.28632 -0.80457 250 248 253
-0.14242 -0.27940 -0.80000 252 251 238
-0.14144 -0.29208 -0.79860 253 254 254
-0.13782 -0.28551 -0.79246 254 254 247
-0.13684 -0.29817 -0.79106 254 254 254
-0.13253 -0.29108 -0.78737 254 254 252
-0.13155 -0.30374 -0.78597 250 252 252
-0.11298 -0.30516 -0.78465 250 252 252
-0.11200 -0.31788 -0.78324 199 166 173
-0.09651 -0.31233 -0.79394 222 213 216
-0.08994 -0.31714 -0.79282 197 162 171
-0.08448 -0.32270 -0.78804 185 133 143
-0.07817 -0.32772 -0.78599 202 161 160
-0.07196 -0.33281 -0.78358 240 218 203
-0.07097 -0.34567 -0.78216 254 254 254
-0.06387 -0.33675 -0.78713 253 253 242
-0.06287 -0.34964 -0.78571 254 254 254
0.08875 -0.52333 -0.57651 251 249 245
0.09948 -0.52703 -0.58496 218 195 204
0.10502 -0.53247 -0.58060 219 186 175
0.11024 -0.53802 -0.57548 247 245 245
0.11122 -0.55068 -0.57408 254 254 254
0.27717 -0.73220 -0.36955 125 105 161
0.28110 -0.73771 -0.36237 148 159 199
0.30779 -0.75881 -0.35402 253 253 253
0.31214 -0.75175 -0.35077 254 254 254
0.31746 -0.75715 -0.34614 254 254 254
0.31110 -0.76435 -0.34576 246 251 251
0.31401 -0.76990 -0.33684 224 244 240
0.33347 -0.78018 -0.34333 173 151 169
0.34175 -0.78546 -0.34387 115 83 137
0.33700 -0.79135 -0.32155 58 44 90
0.34939 -0.79645 -0.32925 53 54 71
0.36056 -0.80167 -0.33467 77 76 71
0.36153 -0.81424 -0.33328 93 92 87
0.37406 -0.81249 -0.33007 96 90 81
0.37503 -0.82509 -0.32868 93 89 84
1.91082 -1.39070 -1.42073 13 10 25
1.89369 -1.39364 -1.43470 10 10 8
1.90311 -1.40322 -1.42649 12 10 19
1.93145 -1.40249 -1.42540 26 29 42
1.94360 -1.41265 -1.42023 38 40 47
1.95307 -1.42228 -1.41198 47 46 46
1.94532 -1.43487 -1.41777 44 47 45
2.26751 -1.74048 -1.14156 48 51 47
2.25028 -1.74344 -1.15561 48 55 69
2.25976 -1.75308 -1.14736 53 54 58
2.26348 -1.74624 -1.12073 37 38 27
2.26226 -1.75275 -1.10266 18 14 12
-0.22092 -0.21884 -0.84904 245 244 246
-0.22190 -0.20623 -0.85044 254 254 254
-0.22629 -0.21337 -0.85372 243 248 252
-0.21995 -0.23144 -0.84765 247 248 244
-0.21586 -0.22459 -0.84313 228 226 234
-0.21272 -0.23211 -0.82958 208 209 209
-0.20107 -0.24215 -0.82395 194 203 211
-0.19566 -0.24755 -0.81948 194 198 208
-0.18739 -0.25049 -0.82588 193 195 211
-0.18208 -0.25602 -0.82094 218 226 236
-0.18110 -0.26864 -0.81954 251 253 253
-0.17664 -0.26144 -0.81646 229 239 244
-0.16927 -0.26528 -0.81913 218 220 224
-0.16429 -0.27111 -0.81290 232 233 232
-0.16331 -0.28376 -0.81150 254 254 254
-0.12402 -0.30770 -0.78862 241 247 244
-0.13386 -0.30940 -0.79665 227 222 220
-0.11247 -0.30889 -0.80485 224 219 217
-0.10424 -0.32181 -0.78633 179 133 146
-0.09541 -0.32507 -0.79287 187 142 154
-0.08815 -0.32944 -0.79404 219 192 187
-0.08049 -0.33360 -0.79641 248 239 224
-0.07949 -0.34648 -0.79499 254 254 254
-0.07505 -0.33921 -0.79147 254 254 246
-0.07405 -0.35209 -0.79004 254 254 254
0.07818 -0.52528 -0.58246 253 253 251
0.07721 -0.51270 -0.58385 254 254 254
0.07282 -0.51983 -0.58713 254 254 254
0.06843 -0.52696 -0.59041 254 254 253
0.08393 -0.53060 -0.57876 239 234 213
0.09010 -0.53580 -0.57606 171 148 111
0.09949 -0.54000 -0.58118 213 198 118
0.10046 -0.55265 -0.57978 254 254 254
0.10476 -0.54552 -0.57620 249 254 253
0.10574 -0.55817 -0.57480 254 254 254
0.25980 -0.73461 -0.36266 254 243 218
0.25454 -0.72927 -0.36724 254 254 254
0.27147 -0.73937 -0.37020 145 129 127
0.27207 -0.74515 -0.35678 165 189 195
0.28629 -0.74977 -0.36891 236 251 252
0.29259 -0.75509 -0.36612 250 254 254
0.29650 -0.76059 -0.35890 232 250 249
0.29715 -0.76630 -0.34574 209 231 219
0.30317 -0.77163 -0.34248 181 169 172
0.31865 -0.78213 -0.34205 69 49 86
0.33710 -0.79258 -0.34666 73 71 83
0.33273 -0.79969 -0.34993 96 92 83
0.33807 -0.80512 -0.34527 95 93 82
0.34161 -0.79805 -0.34052 91 84 73
0.34258 -0.81058 -0.33913 95 94 84
0.35242 -0.80329 -0.34542 95 90 75
0.35339 -0.81588 -0.34402 94 94 85
0.35895 -0.80871 -0.34276 93 92 82
0.38204 -0.83053 -0.32677 89 89 80
0.38856 -0.83599 -0.32399 85 88 65
0.39394 -0.84146 -0.31930 77 79 59
0.38954 -0.84862 -0.32260 38 36 56
1.92661 -1.42334 -1.41541 35 35 42
1.92832 -1.44548 -1.41296 49 49 43
2.24215 -1.75482 -1.11378 45 52 41
2.22508 -1.75775 -1.12772 52 53 68
2.24286 -1.76181 -1.09752 30 24 23
2.24113 -1.76805 -1.07911 14 7 13
2.25810 -1.76513 -1.06526 4 5 6
2.25046 -1.77754 -1.07097 7 4 3
-0.23597 -0.22562 -0.83530 207 214 227
-0.24129 -0.22021 -0.83994 217 211 225
-0.24565 -0.22729 -0.84320 209 209 216
-0.22703 -0.22761 -0.84537 229 234 240
-0.21669 -0.23885 -0.83450 234 235 232
-0.22107 -0.24597 -0.83778 226 229 239
-0.21166 -0.24459 -0.82855 203 205 202
-0.20556 -0.24936 -0.82684 186 191 196
-0.19994 -0.25458 -0.82318 194 205 218
-0.19380 -0.25937 -0.82147 218 220 237
-0.19283 -0.27196 -0.82008 254 253 254
-0.18835 -0.26475 -0.81711 241 240 248
-0.18738 -0.27735 -0.81572 249 248 253
-0.17492 -0.27346 -0.81784 251 252 249
-0.17933 -0.28063 -0.82114 247 247 254
-0.17394 -0.28611 -0.81644 251 252 254
-0.16843 -0.27806 -0.81720 253 253 251
-0.16745 -0.29072 -0.81580 254 254 254
-0.14660 -0.29982 -0.79928 253 253 254
-0.15199 -0.29433 -0.80398 254 254 254
-0.14127 -0.30536 -0.79432 247 250 248
-0.12594 -0.31312 -0.80064 197 169 168
-0.13038 -0.32034 -0.80397 167 124 120
-0.12264 -0.32012 -0.78858 176 134 130
-0.11589 -0.32472 -0.78839 176 128 123
-0.10625 -0.32740 -0.79789 202 163 157
-0.09642 -0.33004 -0.80780 240 220 218
-0.09542 -0.34291 -0.80637 254 254 254
-0.09305 -0.33700 -0.79598 253 253 243
-0.09206 -0.34983 -0.79456 254 254 254
-0.08670 -0.34199 -0.79412 254 254 252
-0.08570 -0.35484 -0.79270 254 254 254
0.07322 -0.53260 -0.58432 252 250 242
0.06348 -0.53428 -0.59227 254 254 254
0.08454 -0.53613 -0.59449 224 188 183
0.08758 -0.54235 -0.58396 197 165 124
0.09269 -0.54790 -0.57863 238 252 214
0.09367 -0.56052 -0.57723 254 254 254
0.24714 -0.73656 -0.36450 254 254 254
0.24619 -0.72425 -0.36586 254 254 254
0.24190 -0.73123 -0.36907 254 254 254
0.26167 -0.74687 -0.36304 200 167 162
0.26615 -0.75229 -0.35696 197 210 210
0.27686 -0.75722 -0.36261 204 235 228
0.28073 -0.76269 -0.35536 186 172 188
0.29519 -0.76745 -0.36775 137 103 138
0.30154 -0.77279 -0.36503 80 61 88
0.30802 -0.77814 -0.36249 53 51 78
0.31332 -0.78356 -0.35779 68 64 84
0.31429 -0.79607 -0.35641 97 90 85
0.31994 -0.78892 -0.35547 91 83 79
0.32091 -0.80144 -0.35408 98 92 86
0.32844 -0.79421 -0.35648 96 91 79
0.32941 -0.80676 -0.35510 98 92 83
0.36228 -0.82126 -0.34546 91 94 86
0.36713 -0.82674 -0.33985 87 92 84
0.37472 -0.83218 -0.33895 82 84 71
0.38367 -0.83764 -0.34030 69 67 62
0.38465 -0.85032 -0.33890 34 39 54
0.39502 -0.84312 -0.34563 51 47 64
0.39600 -0.85586 -0.34422 35 38 49
1.90647 -1.43326 -1.40688 43 48 44
1.90818 -1.45530 -1.40444 46 49 49
2.23201 -1.76657 -1.11722 49 55 56
2.21494 -1.76951 -1.13114 56 54 65
2.22433 -1.77905 -1.12296 52 55 65
2.23371 -1.78859 -1.11478 49 57 62
2.22111 -1.77006 -1.09010 44 52 40
2.22294 -1.77729 -1.07503 31 20 22
2.22167 -1.78355 -1.05716 16 7 10
2.23852 -1.78065 -1.04341 4 4 4
2.23094 -1.79297 -1.04908 7 4 4
-0.24205 -0.23437 -0.83139 198 196 212
-0.25172 -0.23604 -0.83927 193 202 209
-0.24109 -0.24684 -0.83001 175 182 202
-0.23502 -0.23815 -0.83380 205 207 217
-0.22666 -0.24074 -0.84151 221 224 232
-0.21678 -0.25237 -0.82890 230 227 237
-0.21580 -0.26491 -0.82751 254 254 254
-0.21129 -0.25768 -0.82478 244 241 239
-0.21032 -0.27023 -0.82339 254 254 254
-0.20544 -0.26268 -0.82208 252 253 247
-0.20447 -0.27524 -0.82069 254 254 254
-0.19944 -0.26757 -0.81993 254 254 253
-0.19847 -0.28014 -0.81854 254 254 254
-0.16092 -0.29534 -0.81525 254 254 254
-0.15650 -0.28815 -0.81194 254 254 254
-0.15576 -0.30102 -0.80965 248 253 254
-0.15060 -0.30669 -0.80409 234 232 237
-0.14448 -0.31166 -0.80190 208 178 186
-0.13999 -0.31781 -0.79396 175 129 138
-0.12562 -0.32632 -0.79692 188 149 134
-0.11675 -0.32949 -0.80401 222 199 190
-0.11576 -0.34228 -0.80259 254 254 254
-0.11093 -0.33479 -0.80049 248 241 231
-0.10994 -0.34759 -0.79907 254 254 254
-0.10420 -0.33950 -0.80005 254 254 250
-0.10321 -0.35231 -0.79863 254 254 254
0.06859 -0.53980 -0.58697 253 252 250
0.05885 -0.54148 -0.59492 254 254 254
0.06421 -0.54693 -0.59025 254 254 254
0.06957 -0.55237 -0.58558 254 254 254
0.07441 -0.54510 -0.58347 242 239 234
0.07539 -0.55768 -0.58208 254 254 254
0.08110 -0.55015 -0.58209 250 252 225
0.08207 -0.56274 -0.58069 254 254 254
0.08794 -0.55516 -0.58105 254 254 254
0.08891 -0.56777 -0.57965 254 254 254
0.23607 -0.73835 -0.36930 254 254 254
0.23512 -0.72606 -0.37066 254 254 254
0.23084 -0.73302 -0.37386 254 254 254
0.24224 -0.74359 -0.36652 240 252 245
0.24919 -0.74877 -0.36525 205 199 190
0.25626 -0.75396 -0.36416 152 113 106
0.26965 -0.75869 -0.37501 127 97 105
0.27686 -0.76394 -0.37401 85 68 89
0.28251 -0.76931 -0.37002 52 50 82
0.28984 -0.77458 -0.36917 65 64 87
0.29081 -0.78705 -0.36779 94 89 84
0.29732 -0.77986 -0.36854 87 80 78
0.29829 -0.79236 -0.36716 97 90 84
0.30512 -0.78515 -0.36843 93 87 78
0.30609 -0.79767 -0.36705 96 92 81
0.31184 -0.79051 -0.36631 95 89 84
0.33748 -0.81212 -0.35526 92 93 78
0.35069 -0.82298 -0.35028 82 86 68
0.35821 -0.82841 -0.34933 75 72 61
0.36774 -0.83384 -0.35182 61 53 66
0.36873 -0.84651 -0.35042 36 39 42
0.37560 -0.83932 -0.35133 45 40 57
0.37658 -0.85202 -0.34993 33 38 37
0.38544 -0.84482 -0.35418 35 37 55
0.38642 -0.85756 -0.35277 30 38 34
1.88973 -1.43628 -1.42121 42 49 47
1.89144 -1.45832 -1.41877 48 52 56
2.19494 -1.78344 -1.06171 43 55 43
2.17814 -1.78633 -1.07542 49 55 66
2.18738 -1.79572 -1.06737 50 56 54
2.19586 -1.79027 -1.04594 31 24 26
2.20012 -1.79811 -1.03335 15 6 14
2.21685 -1.79523 -1.01970 4 4 8
2.20933 -1.80746 -1.02533 7 3 6
2.03491 -1.92163 -0.43823 37 32 36
2.02042 -1.92412 -0.45005 21 19 30
2.04288 -1.92973 -0.43128 59 50 40
2.04432 -1.94842 -0.42922 65 59 50
-0.24676 -0.24178 -0.83314 183 192 207
-0.23474 -0.25128 -0.82963 192 190 208
-0.22748 -0.25494 -0.83283 229 233 238
-0.22651 -0.26746 -0.83144 254 254 254
-0.22169 -0.25995 -0.83002 250 253 252
-0.22072 -0.27249 -0.82864 254 254 254
-0.17113 -0.29732 -0.82186 246 252 252
-0.17653 -0.29183 -0.82657 253 254 254
-0.16581 -0.30288 -0.81682 235 232 240
-0.16149 -0.30918 -0.80820 210 176 206
-0.16051 -0.32183 -0.80680 160 129 98
-0.15600 -0.31459 -0.80383 176 128 152
-0.15051 -0.32001 -0.79946 161 113 108
-0.14448 -0.32504 -0.79704 167 123 112
-0.13772 -0.32958 -0.79709 199 163 159
-0.12830 -0.33232 -0.80638 242 218 213
-0.12731 -0.34508 -0.80497 254 254 254
-0.12235 -0.33751 -0.80341 254 253 244
-0.12136 -0.35028 -0.80200 254 254 254
0.21313 -0.72965 -0.38030 254 254 254
0.21218 -0.71740 -0.38165 254 254 254
0.20790 -0.72434 -0.38485 254 254 254
0.21740 -0.72271 -0.37710 254 254 254
0.22262 -0.72802 -0.37255 254 254 254
0.21910 -0.73489 -0.37725 244 254 254
0.22484 -0.74015 -0.37370 220 245 243
0.23170 -0.74532 -0.37234 204 193 203
0.25400 -0.75502 -0.38609 84 67 80
0.25834 -0.76047 -0.37964 55 42 52
0.26558 -0.76571 -0.37876 67 61 72
0.26654 -0.77814 -0.37738 90 85 76
0.27253 -0.77099 -0.37727 82 77 73
0.27349 -0.78344 -0.37589 93 88 77
0.27876 -0.77633 -0.37438 88 82 73
0.27972 -0.78879 -0.37300 93 89 77
0.28558 -0.78164 -0.37259 91 87 81
0.31431 -0.80300 -0.36765 93 93 79
0.32073 -0.80840 -0.36493 90 92 80
0.32913 -0.81376 -0.36573 85 87 74
0.33501 -0.81921 -0.36197 75 75 64
0.34322 -0.82462 -0.36232 59 60 59
0.34420 -0.83725 -0.36092 38 43 46
0.35051 -0.83007 -0.36099 43 50 54
0.35149 -0.84272 -0.35960 34 41 46
0.35719 -0.83554 -0.35855 39 46 52
0.35817 -0.84820 -0.35715 32 38 42
0.36397 -0.84102 -0.35626 39 42 50
0.36495 -0.85370 -0.35485 31 36 37
1.89495 -1.43642 -1.48089 36 36 38
1.89668 -1.45872 -1.47843 53 56 55
1.87744 -1.44025 -1.44079 47 51 52
1.87915 -1.46233 -1.43835 52 54 61
2.16356 -1.79480 -1.02854 45 54 40
2.14694 -1.79766 -1.04210 54 58 63
2.16486 -1.80162 -1.01331 31 30 26
2.17976 -1.81272 -1.01068 16 8 17
2.19637 -1.80986 -0.99713 4 4 3
2.18889 -1.82201 -1.00272 6 3 4
-0.27148 -0.23711 -0.83097 161 164 181
-0.27244 -0.22474 -0.83233 162 154 172
-0.27675 -0.23175 -0.83556 158 157 166
-0.28107 -0.23876 -0.83879 176 175 184
-0.26189 -0.23546 -0.82315 192 202 206
-0.26343 -0.23973 -0.83834 194 198 205
-0.25802 -0.24500 -0.83419 212 210 205
-0.25210 -0.24979 -0.83220 188 187 202
-0.24651 -0.25492 -0.82876 194 191 219
-0.24555 -0.26736 -0.82739 246 251 252
-0.23853 -0.25784 -0.83522 229 232 236
-0.23756 -0.27034 -0.83384 251 253 254
-0.23198 -0.26215 -0.83556 250 252 249
-0.18225 -0.30003 -0.82497 231 231 234
-0.18323 -0.28738 -0.82637 254 254 254
-0.18764 -0.29455 -0.82967 241 244 247
-0.19205 -0.30172 -0.83297 175 164 194
-0.17403 -0.30333 -0.83086 208 189 203
-0.17113 -0.31074 -0.81681 177 149 164
-0.16536 -0.31595 -0.81349 157 130 130
-0.15433 -0.32675 -0.80492 187 154 104
-0.14752 -0.33125 -0.80526 225 203 174
-0.13970 -0.33508 -0.80908 250 243 232
-0.13872 -0.34781 -0.80767 254 254 254
-0.13353 -0.34009 -0.80697 254 254 250
-0.13254 -0.35283 -0.80556 254 254 254
0.19459 -0.72640 -0.38482 246 254 254
0.20001 -0.73167 -0.38071 225 247 240
0.21986 -0.73549 -0.40567 206 218 194
0.22724 -0.74065 -0.40527 173 153 165
0.23376 -0.74592 -0.40311 111 78 123
0.23472 -0.75834 -0.40174 86 74 71
0.23930 -0.75128 -0.39897 66 51 94
0.24473 -0.75665 -0.39462 60 50 83
0.24569 -0.76907 -0.39325 78 73 67
0.25612 -0.76736 -0.38696 75 66 60
0.25179 -0.77440 -0.39020 77 73 65
0.25709 -0.77979 -0.38558 85 82 71
0.26244 -0.77268 -0.38430 83 78 68
0.28855 -0.79403 -0.37496 95 90 77
0.29604 -0.79936 -0.37434 91 90 77
0.30341 -0.80471 -0.37343 83 86 67
0.31005 -0.81011 -0.37113 75 75 54
0.31845 -0.81547 -0.37202 61 55 49
0.31942 -0.82805 -0.37062 36 33 40
0.32540 -0.82089 -0.37021 46 41 46
0.32637 -0.83349 -0.36882 38 37 43
0.33205 -0.82633 -0.36783 41 39 46
0.33303 -0.83894 -0.36644 39 39 45
0.33918 -0.83177 -0.36627 42 43 49
0.34016 -0.84441 -0.36487 36 38 42
1.89448 -1.44302 -1.51511 40 47 48
1.87709 -1.44601 -1.52930 43 52 45
1.88665 -1.45573 -1.52096 49 56 53
1.89621 -1.46545 -1.51263 50 57 57
1.87991 -1.44747 -1.47807 47 56 57
1.88163 -1.46971 -1.47561 52 55 57
2.14190 -1.80245 -1.02086 52 59 58
2.12535 -1.80530 -1.03436 55 57 70
2.13445 -1.81455 -1.02643 55 60 69
2.13716 -1.80729 -1.00007 47 57 45
2.13853 -1.81403 -0.98507 36 38 27
2.16463 -1.82873 -0.99289 16 11 5
2.18115 -1.82589 -0.97941 4 4 2
2.17372 -1.83796 -0.98497 6 4 2
-0.27749 -0.24583 -0.82673 160 167 190
-0.28705 -0.24747 -0.83453 211 215 212
-0.26988 -0.24885 -0.83239 187 198 220
-0.26438 -0.25400 -0.82875 221 228 235
-0.25650 -0.25690 -0.83520 237 241 238
-0.24921 -0.26043 -0.83896 242 247 246
-0.23110 -0.27475 -0.83382 247 253 254
-0.24080 -0.27642 -0.84174 246 243 242
-0.22524 -0.27973 -0.83127 247 252 254
-0.21553 -0.27806 -0.82335 254 254 254
-0.21990 -0.28516 -0.82661 252 253 254
-0.21358 -0.28976 -0.82586 251 254 254
-0.20920 -0.28265 -0.82258 254 254 254
-0.21796 -0.29687 -0.82913 216 218 225
-0.20385 -0.28809 -0.81792 254 254 252
-0.20661 -0.29386 -0.82757 239 251 248
-0.20104 -0.29915 -0.82369 206 219 223
-0.18667 -0.30721 -0.82824 160 132 166
-0.18569 -0.31986 -0.82684 157 134 131
-0.18137 -0.31276 -0.82319 154 138 139
-0.17562 -0.31797 -0.81981 161 136 108
-0.17094 -0.32399 -0.81247 163 113 77
-0.16516 -0.32918 -0.80920 186 136 109
-0.15938 -0.33438 -0.80592 232 211 189
-0.15840 -0.34704 -0.80452 254 254 254
-0.15087 -0.33768 -0.81245 251 252 237
-0.14989 -0.35040 -0.81104 254 254 254
-0.14471 -0.34268 -0.81038 254 254 253
-0.14373 -0.35541 -0.80897 254 254 254
0.16732 -0.71243 -0.40152 254 254 254
0.16637 -0.70025 -0.40287 254 254 254
0.16212 -0.70715 -0.40605 254 254 254
0.17157 -0.70553 -0.39835 254 254 254
0.17676 -0.71081 -0.39382 254 254 254
0.17197 -0.71778 -0.39587 247 254 254
0.17815 -0.72294 -0.39340 229 248 239
0.18901 -0.72760 -0.40057 207 220 194
0.19643 -0.73268 -0.40051 179 157 182
0.21598 -0.74246 -0.40978 67 64 77
0.22459 -0.74753 -0.41188 63 60 83
0.22556 -0.75996 -0.41051 91 84 75
0.23047 -0.75287 -0.40843 81 68 79
0.23144 -0.76530 -0.40706 91 83 74
0.24170 -0.76359 -0.40044 83 76 68
0.23736 -0.77064 -0.40368 86 82 70
0.26449 -0.78507 -0.38500 91 88 79
0.27040 -0.79043 -0.38152 89 88 78
0.27690 -0.79578 -0.37914 83 85 67
0.29483 -0.80635 -0.38347 58 54 41
0.29580 -0.81890 -0.38209 29 30 34
0.30081 -0.81177 -0.37999 40 36 39
0.30178 -0.82433 -0.37860 28 34 36
0.30696 -0.81719 -0.37678 34 34 32
0.30793 -0.82976 -0.37539 27 33 39
0.31397 -0.82260 -0.37514 35 34 35
0.31494 -0.83519 -0.37374 31 33 39
2.11608 -1.81490 -0.99285 52 60 67
2.09969 -1.81773 -1.00622 54 58 74
2.10870 -1.82689 -0.99836 54 60 74
2.11772 -1.83606 -0.99051 53 60 63
2.10775 -1.81842 -0.96888 48 57 46
2.10181 -1.82264 -0.94732 36 44 22
2.14910 -1.84437 -0.97476 20 12 13
2.16553 -1.84154 -0.96136 4 4 3
2.15609 -1.85288 -0.96502 8 5 4
2.17250 -1.85005 -0.95163 6 6 4
2.16512 -1.86205 -0.95716 4 6 2
2.06978 -1.97426 -0.49529 42 42 26
-0.28116 -0.25218 -0.83277 227 235 232
-0.29073 -0.25383 -0.84058 199 196 191
-0.27507 -0.25672 -0.83180 232 235 236
-0.27411 -0.26909 -0.83043 194 188 196
-0.26965 -0.26193 -0.82787 214 210 217
-0.26267 -0.26568 -0.83058 211 207 215
-0.25652 -0.27025 -0.82966 223 215 221
-0.24865 -0.27329 -0.83583 234 225 228
-0.23594 -0.28226 -0.83515 228 229 237
-0.24030 -0.28935 -0.83841 222 228 225
-0.23067 -0.28774 -0.83024 222 224 225
-0.22380 -0.29186 -0.83178 231 239 237
-0.22283 -0.30440 -0.83040 136 105 125
