ply
format ascii 1.0
element face 0
property list uchar int vertex_indices
element vertex 1326
property float x
property float y
property float z
property uchar diffuse_red
property uchar diffuse_green
property uchar diffuse_blue
end_header
2.62290 -2.10974 -0.23998 52 43 28
2.62523 -2.08700 -0.24260 62 50 40
2.61729 -2.09878 -0.25058 60 49 32
2.60935 -2.11057 -0.25857 57 48 26
2.75282 -2.19311 -0.24140 40 45 56
2.81698 -2.22597 -0.25414 61 67 82
2.83848 -2.24321 -0.24939 73 80 85
2.88067 -2.28688 -0.22580 69 75 72
2.84839 -2.28387 -0.19982 40 35 35
2.83143 -2.28655 -0.17998 16 9 15
2.82901 -2.31012 -0.17727 8 7 13
2.80893 -2.30507 -0.13201 9 9 15
2.81133 -2.28173 -0.13469 6 4 4
2.80318 -2.29382 -0.14289 6 6 8
2.81708 -2.29298 -0.12381 7 5 2
2.81422 -2.32512 -0.10795 16 20 39
2.81183 -2.34843 -0.10526 24 36 86
2.80802 -2.33163 -0.09270 19 23 56
2.80255 -2.33837 -0.07779 22 26 67
2.78953 -2.34205 -0.06022 26 29 77
2.79500 -2.35308 -0.04939 26 30 84
2.81211 -2.37765 -0.02989 23 28 94
2.80974 -2.40076 -0.02723 27 34 113
2.79302 -2.37866 -0.01048 24 29 100
2.79066 -2.40163 -0.00784 24 35 115
0.17478 -0.06056 -0.92470 162 163 158
0.24199 -0.08887 -0.94742 71 76 89
0.23398 -0.08936 -0.95841 61 59 75
0.24090 -0.09690 -0.93471 71 73 86
0.23952 -0.11032 -0.93317 62 71 78
0.22687 -0.13922 -0.85988 56 58 77
0.22822 -0.12605 -0.86139 47 50 67
0.22362 -0.13288 -0.86602 56 53 66
0.24385 -0.15599 -0.85164 82 77 70
0.25427 -0.16015 -0.85549 102 105 110
0.26702 -0.16367 -0.86249 115 126 126
0.27310 -0.16927 -0.86013 132 142 132
0.27911 -0.18234 -0.84684 130 134 148
0.27798 -0.19006 -0.83456 111 116 126
0.27725 -0.19763 -0.82286 86 84 120
0.27467 -0.20567 -0.80873 61 52 106
0.27842 -0.21193 -0.80320 42 38 78
0.28910 -0.22362 -0.79635 45 40 66
0.29620 -0.22904 -0.79522 81 62 72
0.29839 -0.23574 -0.78755 120 98 73
0.32162 -0.23714 -0.80759 144 125 94
0.30607 -0.24831 -0.77659 154 146 126
0.30470 -0.26164 -0.77506 191 182 174
0.30995 -0.25459 -0.77115 179 160 126
0.30947 -0.26192 -0.76004 207 179 154
0.31128 -0.26867 -0.75195 206 181 144
0.31673 -0.27458 -0.74854 161 148 114
0.32276 -0.28037 -0.74585 132 104 112
0.34294 -0.28304 -0.76114 201 195 199
0.34179 -0.29051 -0.74920 247 252 254
0.34041 -0.30394 -0.74765 254 254 254
0.48921 -0.54844 -0.51441 254 253 249
0.48114 -0.54893 -0.52548 254 254 254
0.48448 -0.55545 -0.51917 254 254 254
0.48782 -0.56198 -0.51286 254 254 254
0.48842 -0.55521 -0.50383 254 251 238
0.48704 -0.56872 -0.50227 254 254 254
0.47986 -0.56904 -0.47559 254 251 234
0.47942 -0.57568 -0.46551 254 252 224
0.47666 -0.58241 -0.45312 228 217 155
0.50461 -0.58778 -0.47187 81 62 67
0.49085 -0.59496 -0.44836 163 149 182
0.50256 -0.60111 -0.45055 241 239 246
0.50118 -0.61455 -0.44901 254 254 254
0.52600 -0.62680 -0.43549 254 253 248
0.51795 -0.62729 -0.44654 254 254 254
0.52538 -0.63338 -0.42532 232 233 211
0.52415 -0.64648 -0.40513 215 196 188
0.52853 -0.65294 -0.39989 236 231 238
0.53158 -0.65942 -0.39338 251 252 254
0.53958 -0.65893 -0.38239 254 254 254
0.53489 -0.66590 -0.38711 254 254 254
0.53020 -0.67286 -0.39183 254 254 254
0.61285 -0.87032 -0.16410 251 251 253
0.61422 -0.85706 -0.16562 251 250 251
0.60959 -0.86393 -0.17028 252 251 252
0.61748 -0.86345 -0.15944 252 250 251
0.61885 -0.87699 -0.16010 241 250 243
0.62766 -0.88397 -0.15832 221 213 208
0.63671 -0.89102 -0.15668 183 161 172
0.65844 -0.89952 -0.16496 125 108 119
0.65706 -0.91299 -0.16341 78 74 60
0.69841 -0.91024 -0.18736 89 80 92
0.69701 -0.92395 -0.18579 86 82 64
0.70944 -0.91776 -0.18692 81 73 73
0.70802 -0.93151 -0.18534 90 86 61
0.74062 -0.95280 -0.16562 87 85 58
0.73721 -0.94612 -0.17208 91 87 63
0.73579 -0.95998 -0.17049 67 65 38
0.75889 -0.96149 -0.17035 79 77 52
0.79047 -0.97212 -0.18490 63 58 45
0.83663 -0.99141 -0.20072 29 23 22
0.83515 -1.00580 -0.19907 13 12 9
2.05376 -1.76013 -0.23998 52 36 46
2.05205 -1.76770 -0.22735 77 72 51
2.04999 -1.78779 -0.22504 83 69 58
2.78554 -2.22039 -0.26637 53 69 71
2.81076 -2.23900 -0.26329 70 81 93
2.83018 -2.25552 -0.25773 73 82 90
2.84525 -2.27046 -0.25035 71 81 88
2.85834 -2.28468 -0.24212 70 81 86
2.87606 -2.30070 -0.23566 66 75 74
2.86429 -2.30544 -0.21760 39 35 38
2.85206 -2.30992 -0.19946 16 10 18
2.84962 -2.33365 -0.19673 15 8 18
2.82175 -2.31637 -0.16129 9 10 20
2.81934 -2.33986 -0.15859 25 24 43
2.80881 -2.32033 -0.14325 15 19 39
2.80641 -2.34371 -0.14055 22 25 43
2.80675 -2.32850 -0.12940 20 27 51
2.79839 -2.33414 -0.11326 21 32 71
2.76715 -2.33942 -0.07592 29 41 94
2.75841 -2.34469 -0.05994 35 43 100
2.75605 -2.36764 -0.05730 36 45 116
2.76400 -2.35573 -0.04922 36 42 106
2.76165 -2.37868 -0.04658 35 42 120
2.76619 -2.36537 -0.03728 30 37 109
2.76384 -2.38830 -0.03465 32 38 120
0.22378 -0.12321 -0.89925 57 68 72
0.23168 -0.12273 -0.88841 60 60 69
0.22026 -0.13186 -0.88326 65 65 73
0.23125 -0.14314 -0.87735 78 77 89
0.23665 -0.14884 -0.87424 94 101 98
0.24495 -0.15365 -0.87519 114 124 99
0.25110 -0.15917 -0.87304 131 138 121
0.26197 -0.16327 -0.87749 135 143 148
0.26379 -0.17017 -0.86919 124 136 144
0.26778 -0.17640 -0.86392 104 122 132
0.26781 -0.18381 -0.85315 83 90 127
0.26392 -0.19230 -0.83703 64 59 96
0.26256 -0.20560 -0.83550 45 44 57
0.26341 -0.19978 -0.82563 48 47 67
0.26205 -0.21305 -0.82410 51 47 53
0.26413 -0.20689 -0.81596 39 36 61
0.26674 -0.21345 -0.80890 42 36 50
0.27134 -0.21947 -0.80453 70 58 52
0.27941 -0.22458 -0.80483 102 89 79
0.28676 -0.22991 -0.80411 123 108 94
0.30057 -0.23363 -0.81195 158 139 113
0.28026 -0.24605 -0.77432 200 186 152
0.28702 -0.25155 -0.77279 219 214 170
0.29055 -0.25787 -0.76697 197 193 164
0.30380 -0.26905 -0.76338 213 190 175
0.30243 -0.28235 -0.76185 226 194 184
0.30191 -0.27666 -0.75048 234 200 171
0.31410 -0.29530 -0.73499 155 130 130
0.32978 -0.29904 -0.74460 232 247 248
0.47176 -0.58933 -0.45755 249 237 196
0.48701 -0.59528 -0.46351 99 100 82
0.46703 -0.60258 -0.43368 175 184 206
0.48982 -0.60833 -0.44717 243 245 250
0.48844 -0.62172 -0.44563 254 254 254
0.51695 -0.63388 -0.43595 254 253 251
0.50891 -0.63437 -0.44697 254 254 254
0.51224 -0.64087 -0.44069 254 254 254
0.52334 -0.64034 -0.43268 242 238 224
0.52324 -0.64688 -0.42304 219 206 154
0.51766 -0.66640 -0.38921 250 252 254
0.51628 -0.67977 -0.38768 254 254 254
0.59227 -0.86349 -0.17341 251 251 253
0.59363 -0.85029 -0.17493 251 250 251
0.58902 -0.85713 -0.17956 252 251 252
0.59688 -0.85665 -0.16878 252 250 251
0.60027 -0.87032 -0.17111 239 250 241
0.60879 -0.87724 -0.16920 218 210 203
0.61376 -0.88382 -0.16440 179 159 171
0.63370 -0.89205 -0.17154 122 104 112
0.63233 -0.90543 -0.17000 80 72 58
0.66773 -0.90197 -0.18973 94 76 88
0.66633 -0.91555 -0.18817 88 80 61
0.68227 -0.90982 -0.19226 82 70 66
0.68087 -0.92347 -0.19069 92 85 63
0.72678 -0.94634 -0.18172 85 87 54
0.72337 -0.93967 -0.18817 89 88 59
0.73470 -0.95361 -0.17872 79 80 44
0.82053 -0.97801 -0.22555 50 45 38
0.81905 -0.99239 -0.22389 24 24 20
0.82974 -0.99218 -0.21373 24 21 20
0.82826 -1.00657 -0.21208 18 19 14
2.04732 -1.76263 -0.25917 30 27 41
2.04939 -1.74247 -0.26149 28 28 27
2.04235 -1.75291 -0.26857 27 28 30
2.03532 -1.76336 -0.27565 27 29 31
2.04611 -1.77036 -0.24673 63 50 42
2.04404 -1.79048 -0.24442 81 66 52
2.04644 -1.77856 -0.23509 79 68 50
2.04438 -1.79866 -0.23278 82 68 54
2.76000 -2.23525 -0.25418 35 48 69
2.81339 -2.26461 -0.26262 37 48 70
2.83744 -2.28299 -0.25891 38 48 74
2.84864 -2.29651 -0.24994 46 62 79
2.87173 -2.31465 -0.24566 52 68 71
2.87383 -2.32472 -0.23300 37 35 43
2.85119 -2.32511 -0.21069 21 11 22
2.84875 -2.34888 -0.20795 36 12 14
2.78614 -2.34455 -0.11988 15 21 50
2.77803 -2.35659 -0.12804 19 8 24
2.77098 -2.34732 -0.10127 15 24 72
2.76147 -2.35230 -0.08487 22 32 90
2.74888 -2.35597 -0.06744 30 41 103
2.73474 -2.39352 0.00090 31 36 120
2.72915 -2.38258 -0.00968 31 37 121
2.74826 -2.39270 0.01946 23 37 116
2.72503 -2.39804 0.01681 29 35 115
2.73850 -2.39721 0.03530 23 38 111
2.73061 -2.40894 0.02736 22 34 109
0.14441 -0.08223 -0.90144 111 91 114
0.13673 -0.08270 -0.91199 163 152 134
0.14309 -0.09514 -0.89995 145 141 145
0.20162 -0.07576 -0.96641 197 178 160
0.20956 -0.07527 -0.95552 119 91 74
0.20025 -0.08909 -0.96488 239 238 193
0.21621 -0.11607 -0.92157 57 58 70
0.20830 -0.11655 -0.93244 50 57 62
0.21157 -0.12296 -0.92624 58 58 62
0.23103 -0.14859 -0.88835 119 128 121
0.23265 -0.15551 -0.87980 123 134 134
0.24316 -0.15965 -0.88393 120 132 126
0.24576 -0.16628 -0.87675 100 113 117
0.24152 -0.17497 -0.85992 77 80 111
0.24934 -0.18001 -0.86013 57 54 94
0.25375 -0.18608 -0.85552 39 45 74
0.25238 -0.19939 -0.85399 42 39 44
0.25575 -0.19286 -0.84755 29 34 64
0.25439 -0.20615 -0.84602 40 42 51
0.25596 -0.20014 -0.83709 33 36 58
0.25460 -0.21341 -0.83557 44 43 55
0.26031 -0.22080 -0.81107 65 61 49
0.26824 -0.22593 -0.81126 125 112 74
0.26875 -0.23304 -0.80134 183 160 125
0.25997 -0.24253 -0.77895 217 193 170
0.27079 -0.24694 -0.78298 229 213 184
0.27379 -0.25337 -0.77649 234 223 199
0.28062 -0.25885 -0.77508 222 207 178
0.28574 -0.26478 -0.77138 179 160 151
0.29316 -0.27018 -0.77068 166 155 159
0.29252 -0.27749 -0.75936 184 161 153
0.27186 -0.29634 -0.71172 242 239 213
0.29076 -0.29917 -0.72591 189 182 144
0.30142 -0.30392 -0.72930 128 104 110
0.31936 -0.30718 -0.74194 219 238 223
0.32538 -0.31304 -0.73920 254 254 254
0.33333 -0.31256 -0.72829 254 254 254
0.32867 -0.31947 -0.73298 254 254 254
0.32401 -0.32639 -0.73767 254 254 254
0.46821 -0.59619 -0.46337 254 245 220
0.46027 -0.59668 -0.47427 254 254 254
0.47218 -0.60259 -0.45784 134 149 140
0.45706 -0.60961 -0.43290 192 210 217
0.47803 -0.61547 -0.44467 245 248 250
0.47666 -0.62881 -0.44314 254 254 254
0.51307 -0.64740 -0.43195 254 252 248
0.50505 -0.64789 -0.44296 254 254 254
0.50837 -0.65438 -0.43668 254 254 254
0.50942 -0.65394 -0.41882 243 242 217
0.51727 -0.66039 -0.41701 232 218 182
0.50204 -0.66689 -0.39272 242 239 228
0.50068 -0.68021 -0.39118 254 254 254
0.50470 -0.67331 -0.38590 252 253 254
0.50334 -0.68662 -0.38437 254 254 254
0.57522 -0.85704 -0.18541 250 252 253
0.57657 -0.84389 -0.18692 251 250 251
0.57198 -0.85070 -0.19154 252 251 252
0.57981 -0.85023 -0.18079 252 250 251
0.58061 -0.86359 -0.18105 239 250 242
0.59459 -0.87103 -0.18373 218 205 207
0.59347 -0.87695 -0.17398 176 156 171
0.60698 -0.88442 -0.17615 122 102 107
0.60562 -0.89770 -0.17462 80 71 66
0.63690 -0.89377 -0.19150 97 77 90
0.63552 -0.90722 -0.18995 88 81 61
0.65420 -0.90185 -0.19647 82 68 62
0.65281 -0.91539 -0.19491 91 85 62
0.74328 -0.95638 -0.20307 65 63 41
0.79226 -0.96938 -0.23158 49 45 37
0.79080 -0.98366 -0.22994 26 24 33
0.80671 -0.97780 -0.23328 37 33 32
0.80524 -0.99214 -0.23163 24 26 28
0.81973 -0.98607 -0.23381 29 27 30
0.81825 -1.00048 -0.23215 22 26 20
2.03482 -1.77131 -0.26352 30 31 41
2.02284 -1.77205 -0.27997 26 27 33
2.03430 -1.77923 -0.25142 68 62 38
2.03223 -1.79933 -0.24911 83 67 53
2.88050 -2.32444 -0.27452 21 30 70
2.87803 -2.34852 -0.27175 19 21 64
2.83238 -2.33328 -0.21489 33 13 20
2.82994 -2.35699 -0.21216 38 17 7
2.79628 -2.35504 -0.14802 33 17 21
2.79052 -2.34378 -0.15891 46 24 21
2.78236 -2.35589 -0.16712 68 23 10
2.77175 -2.36290 -0.11270 15 7 44
2.76294 -2.36813 -0.09650 20 14 61
2.75161 -2.37227 -0.07946 27 24 78
2.74234 -2.37718 -0.06327 35 31 96
2.74799 -2.38822 -0.05259 42 36 110
2.72115 -2.38571 -0.03023 43 37 121
2.70538 -2.38770 -0.01201 42 42 130
2.70305 -2.41032 -0.00941 55 67 151
2.69808 -2.39318 0.00308 48 53 137
2.69459 -2.40021 0.01677 47 50 132
2.69035 -2.40689 0.03065 32 36 120
2.70372 -2.40607 0.04900 18 32 104
2.69588 -2.41770 0.04112 21 28 112
2.73002 -2.45776 0.06662 15 25 113
2.73234 -2.43522 0.06403 19 33 119
2.72447 -2.44690 0.05612 16 26 113
2.73789 -2.44608 0.07454 18 33 124
2.74345 -2.45695 0.08505 15 32 124
2.72771 -2.48031 0.06922 16 15 89
2.73904 -2.47014 0.07598 13 25 109
2.75248 -2.46932 0.09442 13 30 122
2.73673 -2.49270 0.07858 14 17 89
0.14540 -0.08684 -0.91441 118 109 112
0.13769 -0.08731 -0.92500 176 165 141
0.15309 -0.09884 -0.90431 220 221 206
0.14856 -0.10556 -0.90886 180 187 192
0.15176 -0.11181 -0.90282 238 245 228
0.20751 -0.13183 -0.90923 72 74 95
0.20995 -0.13847 -0.90186 106 114 132
0.22055 -0.14990 -0.89547 119 125 130
0.22654 -0.15543 -0.89323 99 103 112
0.22864 -0.16220 -0.88534 77 75 102
0.24452 -0.16471 -0.89722 56 58 79
0.24315 -0.17808 -0.89569 39 40 51
0.24763 -0.17121 -0.89073 35 46 62
0.24626 -0.18458 -0.88919 37 39 45
0.25013 -0.17789 -0.88336 28 33 57
0.24876 -0.19126 -0.88182 37 38 42
0.24597 -0.18652 -0.86660 31 30 54
0.24461 -0.19983 -0.86507 40 37 40
0.24890 -0.19304 -0.85991 41 36 49
0.24753 -0.20634 -0.85838 40 38 38
0.25038 -0.22907 -0.80842 60 60 74
0.25268 -0.23568 -0.80097 167 161 138
0.25043 -0.24345 -0.78736 233 226 191
0.24909 -0.25658 -0.78585 252 254 251
0.25948 -0.24830 -0.78910 251 242 234
0.25783 -0.25587 -0.77636 252 249 236
0.26627 -0.26092 -0.77722 242 232 213
0.27464 -0.26604 -0.77792 230 203 162
0.27597 -0.27998 -0.75873 194 168 146
0.28197 -0.28571 -0.75621 209 178 171
0.27302 -0.29481 -0.73406 237 219 213
0.26946 -0.30262 -0.71910 232 240 227
0.26265 -0.31107 -0.70000 175 161 153
0.29004 -0.31220 -0.72521 135 113 114
0.30900 -0.31528 -0.73928 222 239 214
0.30764 -0.32856 -0.73775 254 254 254
0.31709 -0.32070 -0.73925 254 254 254
0.31573 -0.33402 -0.73772 254 254 254
0.44967 -0.60359 -0.45371 254 250 241
0.44179 -0.60408 -0.46453 254 254 254
0.44000 -0.61039 -0.43425 169 178 201
0.44947 -0.61654 -0.43449 210 205 212
0.46388 -0.62262 -0.43970 248 246 247
0.46252 -0.63589 -0.43817 254 254 254
0.50060 -0.66091 -0.41945 254 254 250
0.49263 -0.66140 -0.43040 254 254 254
0.49593 -0.66785 -0.42415 254 254 254
0.49922 -0.67431 -0.41791 254 254 254
0.49545 -0.66737 -0.40492 254 252 240
0.49408 -0.68070 -0.40338 254 254 254
0.49405 -0.67378 -0.39413 254 253 249
0.49269 -0.68708 -0.39260 254 254 254
0.55833 -0.85064 -0.19737 249 252 253
0.55967 -0.83753 -0.19888 251 250 252
0.55510 -0.84432 -0.20349 252 251 253
0.56290 -0.84384 -0.19277 252 250 252
0.56371 -0.85717 -0.19307 238 250 243
0.57602 -0.86439 -0.19452 215 197 206
0.57875 -0.87069 -0.18794 175 158 166
0.59056 -0.87795 -0.18886 120 101 110
0.60555 -0.88560 -0.19232 99 79 97
0.61961 -0.89322 -0.19491 81 66 66
0.61824 -0.90662 -0.19337 92 85 65
0.69090 -0.93242 -0.20724 89 84 55
0.68752 -0.92579 -0.21366 92 85 60
0.70520 -0.94046 -0.20946 78 77 45
0.72555 -0.94937 -0.21632 63 63 40
0.75351 -0.95940 -0.22900 51 46 39
0.75206 -0.97350 -0.22737 29 26 34
2.02109 -1.77956 -0.26722 39 34 43
2.01329 -1.78506 -0.25149 70 65 40
2.01124 -1.80507 -0.24919 84 67 56
2.81009 -2.34000 -0.21766 31 16 17
2.79602 -2.34085 -0.23697 17 23 57
2.80766 -2.36363 -0.21494 19 22 16
2.78444 -2.36566 -0.15481 69 18 11
2.77937 -2.37249 -0.13980 64 12 16
2.75996 -2.37339 -0.11944 60 14 26
2.73256 -2.37962 -0.08344 66 27 48
2.72329 -2.38445 -0.06725 61 24 70
2.70416 -2.38509 -0.04755 64 38 102
2.70183 -2.40781 -0.04494 73 73 142
2.70481 -2.39395 -0.03517 63 51 128
2.69126 -2.39679 -0.01772 52 55 140
2.68894 -2.41938 -0.01512 42 52 142
2.66825 -2.40397 0.01539 57 60 148
2.66043 -2.41558 0.00753 51 54 147
2.67830 -2.41671 0.02425 44 41 135
2.68570 -2.42832 0.03405 32 28 124
2.69906 -2.42751 0.05238 17 26 112
2.70357 -2.44448 0.04026 25 21 114
2.72818 -2.46363 0.04425 21 17 106
2.74601 -2.47988 0.05065 19 15 99
0.13831 -0.10193 -0.90407 123 115 116
0.13063 -0.10240 -0.91462 172 162 131
0.13381 -0.10862 -0.90860 120 114 102
0.19362 -0.13433 -0.91111 77 81 83
0.19037 -0.12798 -0.91725 70 77 79
0.18577 -0.13481 -0.92188 62 55 70
0.18902 -0.14116 -0.91573 69 67 79
0.20019 -0.13958 -0.90988 70 62 82
0.20084 -0.14680 -0.89988 68 59 91
0.22316 -0.15447 -0.91068 64 55 91
0.22179 -0.16779 -0.90915 53 52 72
0.23541 -0.15807 -0.91751 52 47 74
0.23404 -0.17147 -0.91597 50 50 65
0.23961 -0.16425 -0.91258 41 39 65
0.23824 -0.17765 -0.91103 45 43 59
0.23707 -0.23821 -0.80102 44 51 74
0.22926 -0.23868 -0.81174 44 46 55
0.24808 -0.24250 -0.80560 129 139 147
0.24720 -0.24991 -0.79382 225 240 232
0.25774 -0.26157 -0.78707 240 237 240
0.26186 -0.26771 -0.78211 194 178 200
0.25551 -0.30446 -0.72164 221 218 225
0.26711 -0.30890 -0.72658 175 174 178
0.27623 -0.31395 -0.72818 130 98 121
0.26294 -0.32371 -0.70062 178 152 164
0.29679 -0.32371 -0.73416 240 251 242
0.29544 -0.33694 -0.73264 254 254 254
0.43439 -0.61079 -0.44729 254 253 247
0.42655 -0.61127 -0.45805 254 254 254
0.43247 -0.61728 -0.43583 192 186 211
0.43014 -0.62374 -0.42400 215 177 184
0.44683 -0.62976 -0.43166 246 239 240
0.54302 -0.84441 -0.21055 248 252 253
0.54436 -0.83133 -0.21205 251 250 252
0.53980 -0.83811 -0.21665 252 251 253
0.54759 -0.83763 -0.20595 252 251 253
0.54859 -0.85094 -0.20645 237 248 240
0.56002 -0.85804 -0.20729 213 202 197
0.56333 -0.86439 -0.20122 173 161 170
0.57916 -0.87203 -0.20565 122 94 109
0.57780 -0.88527 -0.20412 81 72 65
0.58918 -0.87912 -0.20512 98 73 87
0.59839 -0.88617 -0.20385 76 65 61
0.59702 -0.89950 -0.20232 93 86 71
0.60818 -0.89332 -0.20301 80 75 69
0.60681 -0.90669 -0.20147 90 87 65
0.61638 -0.90033 -0.20080 89 82 68
0.65859 -0.92372 -0.20815 84 84 55
0.65524 -0.91716 -0.21450 89 86 58
0.68063 -0.93266 -0.21681 80 75 47
0.70161 -0.94157 -0.22446 66 62 41
0.72819 -0.95133 -0.23641 51 49 29
0.72675 -0.96534 -0.23480 29 28 26
0.74198 -0.95949 -0.23804 40 38 29
0.74053 -0.97357 -0.23642 28 28 33
0.75812 -0.96804 -0.24144 32 29 36
0.75667 -0.98220 -0.23981 24 26 31
2.00605 -1.78732 -0.27021 48 40 47
2.00263 -1.79421 -0.25667 71 66 45
2.00058 -1.81420 -0.25437 84 67 60
2.78378 -2.36296 -0.19225 32 24 15
2.79197 -2.35080 -0.18402 55 21 8
2.78145 -2.37096 -0.17815 52 24 22
2.77712 -2.37810 -0.16334 83 40 37
2.77311 -2.38534 -0.14870 104 56 47
2.75034 -2.38476 -0.12699 105 59 52
2.73350 -2.38653 -0.10770 103 55 51
2.73114 -2.40955 -0.10505 60 42 109
2.71442 -2.38726 -0.08770 97 46 66
2.71030 -2.39419 -0.07342 73 34 91
2.69581 -2.39669 -0.05538 72 56 125
2.69348 -2.41941 -0.05276 55 64 147
2.64268 -2.41629 0.02617 53 52 147
2.65262 -2.42896 0.03500 49 47 142
2.67846 -2.44860 0.03834 44 42 134
2.69609 -2.46471 0.04463 48 43 130
2.72255 -2.48477 0.04798 56 46 126
2.74556 -2.50339 0.05262 47 40 113
2.75239 -2.51487 0.06279 37 37 108
2.76590 -2.51405 0.08133 14 18 94
2.75465 -2.52432 0.07447 31 31 104
2.76815 -2.52349 0.09300 13 18 93
2.74884 -2.53012 0.08878 22 21 96
2.76230 -2.52930 0.10726 12 18 90
2.73940 -2.53423 0.10420 15 19 93
2.75281 -2.53342 0.12261 14 19 91
2.74495 -2.54509 0.11470 14 18 93
2.71216 -2.53848 0.13745 15 23 103
2.71996 -2.52692 0.14529 18 23 100
2.72546 -2.53767 0.15569 21 27 109
2.70987 -2.56080 0.14002 24 20 92
2.61844 -2.61434 0.34214 24 38 122
2.61317 -2.60404 0.33217 22 36 135
2.60571 -2.61511 0.32466 24 37 140
2.62590 -2.60326 0.34964 19 34 112
2.63117 -2.61356 0.35961 21 33 89
2.61823 -2.63738 0.37632 48 44 39
2.62567 -2.62635 0.38380 57 53 42
2.63091 -2.63661 0.39372 80 71 43
2.63140 -2.65923 0.39547 88 78 50
2.64409 -2.65845 0.41289 98 84 54
2.63665 -2.66950 0.40541 97 85 51
2.62921 -2.68054 0.39793 95 85 49
0.13266 -0.11640 -0.89593 133 139 140
0.12499 -0.11687 -0.90645 180 165 141
0.13134 -0.12927 -0.89445 162 158 152
0.14301 -0.12004 -0.90092 206 218 212
0.15071 -0.11957 -0.89035 209 198 152
0.14169 -0.13297 -0.89943 225 229 210
0.19416 -0.14689 -0.91240 65 57 73
0.18630 -0.14737 -0.92319 51 50 72
0.18955 -0.15373 -0.91704 49 48 68
0.19280 -0.16009 -0.91088 47 47 63
0.19895 -0.16016 -0.89757 42 39 73
0.19760 -0.17334 -0.89606 51 53 78
0.22256 -0.24759 -0.79186 32 41 59
0.21480 -0.24806 -0.80251 47 48 57
0.21801 -0.25434 -0.79643 45 48 63
0.21836 -0.25577 -0.77555 51 72 99
0.23519 -0.25859 -0.78824 165 185 193
0.24559 -0.26311 -0.79195 231 241 237
0.24273 -0.27093 -0.77752 205 198 200
0.22873 -0.28135 -0.74808 123 109 145
0.23192 -0.28760 -0.74204 132 113 135
0.24643 -0.29123 -0.75119 145 144 143
0.25945 -0.29530 -0.75820 152 150 151
0.25950 -0.30934 -0.73748 129 108 150
0.26373 -0.31543 -0.73272 126 94 107
0.26853 -0.32140 -0.72870 169 121 143
0.26747 -0.32858 -0.71700 237 217 229
0.26613 -0.34164 -0.71549 254 254 254
0.28694 -0.33161 -0.73201 254 254 253
0.28559 -0.34480 -0.73049 254 254 254
0.42136 -0.61785 -0.44313 254 254 250
0.41356 -0.61833 -0.45383 254 254 254
0.41767 -0.62433 -0.42984 217 201 209
0.43238 -0.63676 -0.42618 234 231 232
0.44072 -0.64301 -0.42528 252 254 254
0.44854 -0.64253 -0.41454 254 254 254
0.44396 -0.64934 -0.41915 254 254 254
0.43937 -0.65616 -0.42377 254 254 254
0.47732 -0.73140 -0.33116 249 252 254
0.47867 -0.71832 -0.33266 254 253 254
0.47410 -0.72510 -0.33726 253 254 254
0.48189 -0.72462 -0.32656 254 253 253
0.48511 -0.73093 -0.32046 254 253 253
0.47082 -0.73735 -0.31584 245 251 253
0.47857 -0.73688 -0.30520 254 253 253
0.47177 -0.74353 -0.30765 248 252 254
0.47951 -0.74306 -0.29702 253 253 253
0.47497 -0.74980 -0.30159 253 252 253
0.52500 -0.83796 -0.22125 247 252 252
0.52634 -0.82493 -0.22275 252 250 252
0.52179 -0.83168 -0.22732 252 251 253
0.52956 -0.83121 -0.21667 252 251 253
0.53127 -0.84452 -0.21782 235 243 240
0.53883 -0.85123 -0.21546 211 194 199
0.54698 -0.85801 -0.21359 167 158 159
0.56192 -0.86551 -0.21745 119 102 96
0.56980 -0.87235 -0.21522 98 76 88
0.57929 -0.87939 -0.21430 75 62 58
0.57792 -0.89267 -0.21277 92 85 67
0.59361 -0.89306 -0.20842 91 83 67
0.58896 -0.89997 -0.21310 90 86 64
0.62593 -0.91507 -0.20822 85 85 57
0.64749 -0.92384 -0.21684 75 75 43
0.66916 -0.93273 -0.22537 59 60 40
0.69926 -0.94284 -0.24055 48 47 36
0.69783 -0.95674 -0.23895 25 28 29
0.70986 -0.95050 -0.23983 37 36 35
0.70843 -0.96445 -0.23823 25 28 26
1.99819 -1.79742 -0.27680 51 46 48
1.99613 -1.81745 -0.27450 76 65 54
1.99384 -1.80396 -0.26277 74 65 51
1.99179 -1.82394 -0.26047 84 66 59
2.67925 -2.19279 -0.37378 53 44 42
2.68165 -2.16935 -0.37647 62 53 53
2.67347 -2.18150 -0.38470 59 48 51
2.66529 -2.19365 -0.39293 56 44 47
2.68502 -2.20409 -0.36285 45 39 28
2.67684 -2.21623 -0.37108 38 35 28
2.76902 -2.38134 -0.18471 29 42 49
2.76683 -2.38933 -0.17071 65 75 91
2.78078 -2.40398 -0.16299 95 94 114
2.77898 -2.41210 -0.14918 87 83 113
2.77658 -2.43545 -0.14650 24 35 129
2.74743 -2.40768 -0.12412 70 59 103
2.74505 -2.43083 -0.12146 24 36 132
2.71047 -2.40947 -0.08447 39 37 125
2.70248 -2.42132 -0.09250 25 40 139
2.70812 -2.43234 -0.08184 27 44 148
2.69312 -2.41069 -0.06529 43 55 142
2.69078 -2.43344 -0.06268 37 49 153
2.62824 -2.41659 0.00839 58 67 152
2.62276 -2.40586 -0.00199 41 49 139
2.62595 -2.43885 0.01096 67 72 160
2.62222 -2.42229 0.02286 66 73 159
2.62054 -2.42985 0.03572 64 70 159
2.61906 -2.43747 0.04848 65 79 166
2.62143 -2.44676 0.05986 90 97 178
2.62314 -2.45575 0.07144 119 115 185
2.64342 -2.47303 0.07669 104 102 172
2.73107 -2.53736 0.08411 40 41 128
2.73177 -2.54601 0.09622 28 32 113
2.71524 -2.54678 0.11389 23 22 100
2.70075 -2.54839 0.13078 23 16 88
2.61406 -2.62692 0.33377 23 33 109
2.61349 -2.63436 0.34536 18 21 68
2.61129 -2.65573 0.34781 21 20 39
2.61760 -2.65178 0.36701 41 36 32
2.63631 -2.67642 0.38473 84 76 48
0.20110 -0.26571 -0.76244 42 47 70
0.19343 -0.26618 -0.77296 50 52 60
0.19661 -0.27238 -0.76696 47 49 69
0.21045 -0.27038 -0.76498 91 91 116
0.23894 -0.27043 -0.79372 162 172 179
0.22000 -0.28207 -0.75728 138 129 133
0.22078 -0.28887 -0.74796 92 88 85
0.22495 -0.29487 -0.74327 97 86 102
0.23219 -0.30019 -0.74271 90 89 104
0.23293 -0.31392 -0.72307 47 35 80
0.23893 -0.31954 -0.72080 90 65 87
0.24903 -0.32433 -0.72391 173 156 132
0.25757 -0.32949 -0.72487 238 217 219
0.25623 -0.34254 -0.72337 254 254 254
0.26839 -0.33425 -0.72876 254 254 252
0.26704 -0.34735 -0.72725 254 254 254
0.40785 -0.62486 -0.43836 254 254 254
0.40009 -0.62533 -0.44901 254 254 254
0.40814 -0.63120 -0.42923 241 223 208
0.39966 -0.63767 -0.41104 178 135 113
0.41455 -0.64374 -0.41710 216 226 225
0.42985 -0.64989 -0.42345 249 253 254
0.42850 -0.66299 -0.42194 254 254 254
0.48016 -0.72600 -0.36134 244 241 248
0.47691 -0.71964 -0.36749 246 234 237
0.48476 -0.71916 -0.35671 252 252 253
0.47393 -0.73203 -0.34609 243 235 243
0.47259 -0.74514 -0.34458 217 200 193
0.46610 -0.73794 -0.32939 229 222 224
0.46422 -0.74401 -0.31846 215 221 218
0.46820 -0.75031 -0.31314 229 233 236
0.47157 -0.75659 -0.30723 249 247 251
0.47932 -0.75612 -0.29660 253 253 253
0.47478 -0.76286 -0.30116 253 253 253
0.47024 -0.76960 -0.30573 253 253 253
0.49508 -0.82458 -0.23006 252 251 253
0.49641 -0.81165 -0.23155 252 251 252
0.49189 -0.81835 -0.23609 252 251 252
0.49959 -0.81788 -0.22552 252 250 252
0.50278 -0.82411 -0.21949 252 251 253
0.50289 -0.83120 -0.22812 246 251 249
0.51268 -0.83803 -0.22788 233 238 234
0.52150 -0.84482 -0.22674 207 195 199
0.53047 -0.85165 -0.22567 164 156 157
0.54485 -0.85905 -0.22923 120 94 113
0.54350 -0.87221 -0.22772 83 77 67
0.55852 -0.86645 -0.23208 95 70 79
0.56883 -0.87356 -0.23195 73 65 49
0.56747 -0.88683 -0.23042 92 87 61
0.57775 -0.88056 -0.23057 81 77 63
0.57638 -0.89388 -0.22904 89 88 70
0.58186 -0.88707 -0.22507 90 84 68
0.60954 -0.91453 -0.21230 77 72 51
0.64216 -0.92468 -0.23023 59 59 39
0.66430 -0.93366 -0.23930 44 42 27
0.66289 -0.94740 -0.23772 18 16 21
0.67967 -0.94186 -0.24267 30 27 30
0.67825 -0.95568 -0.24108 24 23 26
2.01098 -1.80641 -0.30592 29 20 41
1.99896 -1.80714 -0.32241 21 22 29
1.98781 -1.80666 -0.28210 55 53 46
1.98576 -1.82667 -0.27980 77 65 52
2.75574 -2.39134 -0.19090 33 51 74
2.75334 -2.41471 -0.18821 17 29 112
2.76001 -2.40198 -0.17943 46 65 112
2.75762 -2.42534 -0.17674 17 31 127
2.75672 -2.40944 -0.16502 53 61 136
2.75433 -2.43275 -0.16234 22 35 132
2.75586 -2.41789 -0.15161 38 45 133
2.75347 -2.44116 -0.14893 27 39 135
2.61452 -2.42552 0.00273 63 73 156
2.61966 -2.44437 0.02551 54 62 158
2.61484 -2.45049 0.03948 59 73 173
2.61045 -2.45676 0.05323 104 110 201
2.61275 -2.46599 0.06461 155 148 217
2.61048 -2.48806 0.06715 156 135 211
2.61830 -2.47668 0.07487 147 134 212
2.65677 -2.50227 0.07394 115 107 197
2.72064 -2.55619 0.08938 80 79 155
2.67243 -2.54227 0.11748 76 68 133
2.67975 -2.56199 0.13936 67 49 76
2.68522 -2.57269 0.14971 32 24 86
2.61042 -2.63216 0.31370 24 37 133
2.61262 -2.61072 0.31124 23 36 145
2.60514 -2.62183 0.30371 25 40 150
2.60972 -2.63955 0.32538 19 25 89
2.60752 -2.66096 0.32784 15 16 54
2.61207 -2.64842 0.33618 17 17 54
2.60988 -2.66982 0.33864 20 19 41
2.62221 -2.66884 0.35624 37 32 27
2.63511 -2.68296 0.36416 59 51 37
2.64892 -2.69757 0.37188 79 69 50
2.65141 -2.70651 0.38263 92 83 51
2.66420 -2.70573 0.40017 101 87 54
2.65670 -2.71686 0.39264 100 88 52
2.64921 -2.72798 0.38510 97 85 52
0.19026 -0.28092 -0.74776 45 47 79
0.18264 -0.28138 -0.75821 55 53 67
0.18580 -0.28755 -0.75225 56 53 72
0.20067 -0.28533 -0.75182 75 62 97
0.20815 -0.29051 -0.75175 73 74 103
0.21755 -0.29527 -0.75426 89 92 95
0.21622 -0.30821 -0.75277 71 52 60
0.21818 -0.30209 -0.74474 94 89 90
0.22317 -0.31484 -0.73084 78 49 69
0.23152 -0.31995 -0.73178 125 87 100
0.24256 -0.32453 -0.73622 198 182 176
0.24122 -0.33754 -0.73473 254 254 254
0.24504 -0.33095 -0.72920 244 248 227
0.24371 -0.34395 -0.72770 254 254 254
0.25380 -0.33609 -0.73048 254 254 251
0.25246 -0.34914 -0.72898 254 254 254
0.39717 -0.63174 -0.43647 254 254 254
0.38943 -0.63221 -0.44709 254 254 254
0.39263 -0.63847 -0.44103 254 254 254
0.39661 -0.63806 -0.42648 252 240 202
0.39597 -0.64436 -0.41644 151 141 89
0.40129 -0.65057 -0.41262 198 225 218
0.47492 -0.72656 -0.37466 247 232 237
0.47627 -0.71335 -0.37618 252 249 235
0.46706 -0.72704 -0.38545 254 254 253
0.47233 -0.73272 -0.36283 234 226 234
0.46133 -0.73852 -0.34294 223 206 214
0.45713 -0.75064 -0.32059 218 215 199
0.46319 -0.75703 -0.31725 232 230 227
0.46185 -0.77004 -0.31576 253 253 252
0.46471 -0.76321 -0.30960 249 247 250
0.46338 -0.77621 -0.30811 253 253 253
0.47622 -0.81818 -0.23945 251 252 252
0.47754 -0.80530 -0.24093 252 251 251
0.47305 -0.81197 -0.24545 252 251 252
0.48071 -0.81151 -0.23493 252 251 251
0.48264 -0.82465 -0.23637 246 250 247
0.48880 -0.83112 -0.23302 232 235 231
0.50686 -0.83868 -0.24023 203 194 200
0.51482 -0.84539 -0.23836 160 151 156
0.52724 -0.85256 -0.24037 120 95 111
0.53779 -0.85960 -0.24066 93 70 74
0.54817 -0.86667 -0.24073 73 64 74
0.54681 -0.87989 -0.23921 92 87 68
0.56379 -0.88039 -0.23627 92 85 59
0.59172 -0.90171 -0.23305 85 84 60
0.59868 -0.90860 -0.22989 76 75 49
0.61103 -0.91619 -0.23121 63 61 44
0.64494 -0.93271 -0.24126 32 28 21
0.64354 -0.94638 -0.23969 18 18 10
0.65721 -0.94048 -0.24223 19 17 15
0.65580 -0.95420 -0.24065 18 20 15
2.21479 -1.60136 -0.84972 12 19 18
2.20925 -1.59053 -0.86020 12 24 25
2.20140 -1.60218 -0.86809 13 29 32
2.22264 -1.58971 -0.84182 8 9 9
2.20694 -1.61301 -0.85761 17 30 30
2.22818 -1.60055 -0.83134 6 7 6
2.22106 -1.61239 -0.83970 9 13 9
2.23445 -1.61157 -0.82132 6 7 6
2.22660 -1.62322 -0.82921 8 9 7
2.01727 -1.82137 -0.31992 28 21 40
2.00521 -1.82211 -0.33648 22 22 30
1.98850 -1.81964 -0.29308 60 55 42
1.98644 -1.83970 -0.29077 77 66 53
2.60657 -2.43695 -0.00501 53 69 158
2.59334 -2.43776 -0.02318 37 50 149
2.59881 -2.44847 -0.01282 43 57 151
2.60429 -2.45918 -0.00246 51 56 150
2.60738 -2.44559 0.00703 56 64 158
2.60510 -2.46780 0.00959 47 49 144
2.61411 -2.45685 0.01693 39 46 151
2.61183 -2.47906 0.01949 29 41 142
2.61514 -2.46556 0.02886 33 47 157
2.60506 -2.46925 0.04466 72 88 189
2.60514 -2.47747 0.05683 141 143 214
2.61628 -2.49886 0.07732 147 129 212
2.61402 -2.52093 0.07986 194 195 202
2.62235 -2.50978 0.08740 168 160 209
2.62789 -2.52047 0.09765 173 159 194
2.64182 -2.53503 0.10511 153 143 168
2.63812 -2.54144 0.11845 151 147 154
2.64352 -2.55206 0.12875 168 163 136
2.64524 -2.56095 0.14024 123 111 95
2.65553 -2.57386 0.14896 43 35 81
2.66867 -2.57306 0.16701 24 28 102
2.66097 -2.58450 0.15926 26 27 95
2.65326 -2.59594 0.15150 31 24 88
2.61023 -2.63913 0.29255 30 42 141
2.61244 -2.61762 0.29007 20 38 147
2.60493 -2.62877 0.28252 24 42 150
2.59742 -2.63991 0.27496 29 46 148
2.61006 -2.64680 0.30414 23 32 112
2.60392 -2.65148 0.31739 17 19 72
2.60172 -2.67290 0.31985 16 18 50
2.62514 -2.68515 0.34587 35 31 31
2.61237 -2.68593 0.32834 21 20 40
2.64085 -2.70073 0.35304 55 47 39
2.66052 -2.71836 0.35920 75 63 48
2.66776 -2.72974 0.36875 88 78 50
2.66554 -2.75133 0.37124 95 83 53
0.14044 -0.15837 -0.89861 58 55 78
0.13273 -0.15884 -0.90919 56 59 79
0.13592 -0.16507 -0.90315 57 61 78
0.13911 -0.17131 -0.89712 58 64 80
0.18445 -0.29478 -0.74004 56 52 70
0.17685 -0.29524 -0.75046 65 61 64
0.17999 -0.30139 -0.74452 64 61 55
0.18314 -0.30754 -0.73857 68 53 51
0.19567 -0.29904 -0.74526 69 61 75
0.21811 -0.31473 -0.74497 95 65 73
0.22664 -0.31981 -0.74619 159 125 135
0.22638 -0.32679 -0.73548 232 212 208
0.22505 -0.33973 -0.73399 254 254 254
0.23555 -0.33178 -0.73748 253 253 243
0.23422 -0.34477 -0.73599 254 254 254
0.26628 -0.44802 -0.59537 250 245 246
0.27389 -0.44756 -0.58492 254 254 254
0.26943 -0.45418 -0.58941 252 254 253
0.38557 -0.64487 -0.42417 254 245 210
0.37788 -0.64534 -0.43473 254 254 254
0.38461 -0.65113 -0.41380 145 166 110
0.39901 -0.66353 -0.41014 245 251 251
0.39768 -0.67647 -0.40865 253 254 254
0.46910 -0.73336 -0.37811 254 251 248
0.46125 -0.73383 -0.38889 254 254 254
0.46450 -0.74019 -0.38274 254 254 253
0.46674 -0.73950 -0.36648 240 234 232
0.46149 -0.74549 -0.35210 226 219 210
0.45975 -0.75157 -0.34120 237 235 221
0.45841 -0.76463 -0.33970 253 253 254
0.45863 -0.75766 -0.33095 250 250 239
0.45729 -0.77068 -0.32945 253 253 253
0.45622 -0.76365 -0.31950 254 253 246
0.45489 -0.77663 -0.31800 253 253 253
0.45942 -0.81198 -0.25051 251 252 251
0.46074 -0.79915 -0.25199 252 252 252
0.45626 -0.80580 -0.25649 253 252 253
0.46390 -0.80533 -0.24600 252 252 252
0.46390 -0.81827 -0.24572 244 249 242
0.47025 -0.82473 -0.24264 230 231 224
0.48065 -0.83155 -0.24316 201 192 197
0.50519 -0.83970 -0.25634 157 148 154
0.51132 -0.84626 -0.25285 116 91 114
0.51615 -0.85272 -0.24818 87 63 78
0.51481 -0.86581 -0.24667 93 86 71
0.52709 -0.85980 -0.24889 73 65 72
0.52574 -0.87294 -0.24738 92 87 75
0.53581 -0.86669 -0.24758 85 78 70
0.53445 -0.87988 -0.24607 89 87 76
0.54238 -0.87340 -0.24434 93 85 73
0.57756 -0.89541 -0.24777 85 84 50
0.57619 -0.90879 -0.24623 50 43 39
0.61092 -0.91766 -0.24895 48 45 40
0.62258 -0.93136 -0.24051 27 23 26
0.62119 -0.94493 -0.23894 23 20 16
2.39700 -1.54212 -1.15997 15 10 12
2.39947 -1.51801 -1.16275 14 11 12
2.38264 -1.54300 -1.17968 24 23 27
2.40541 -1.52963 -1.15150 9 7 8
2.41136 -1.54125 -1.14026 7 6 5
2.40294 -1.55374 -1.14873 10 7 4
2.21971 -1.62576 -0.85173 14 24 22
2.20629 -1.62658 -0.87014 16 29 35
2.21184 -1.63744 -0.85964 15 31 36
2.23030 -1.63797 -0.84442 10 16 16
2.24373 -1.63715 -0.82598 7 7 6
2.23586 -1.64884 -0.83390 6 10 9
2.02180 -1.83583 -0.33309 29 23 39
2.00970 -1.83657 -0.34970 23 23 29
2.00136 -1.83687 -0.31042 63 58 40
1.99929 -1.85705 -0.30810 78 67 58
2.61857 -2.49034 0.02939 31 55 159
2.60534 -2.49115 0.01124 38 44 118
2.59721 -2.48881 0.04916 96 119 183
2.60303 -2.49961 0.05932 149 145 188
2.60897 -2.51048 0.06943 167 161 199
2.62043 -2.53202 0.08982 194 181 172
2.63410 -2.54650 0.09735 167 157 135
2.63035 -2.55285 0.11072 155 152 117
2.63531 -2.56326 0.12117 159 147 103
2.64495 -2.57588 0.13008 124 99 68
2.64149 -2.58230 0.14326 59 38 60
2.63923 -2.60435 0.14580 40 26 85
2.65567 -2.60513 0.16276 23 29 106
2.66337 -2.59370 0.17050 22 30 105
2.66881 -2.60433 0.18079 20 32 111
2.66739 -2.61878 0.17107 20 33 119
2.68055 -2.61797 0.18912 20 34 119
2.67971 -2.63274 0.17922 23 38 131
2.68517 -2.64341 0.18954 25 41 138
2.67744 -2.65487 0.18177 30 46 146
2.61504 -2.65639 0.28140 31 40 126
2.60396 -2.65862 0.29619 22 24 89
2.60175 -2.68012 0.29866 17 16 59
2.60249 -2.66560 0.30814 17 17 64
2.60029 -2.68705 0.31061 18 17 50
2.63808 -2.70659 0.33268 34 29 29
2.62524 -2.70737 0.31506 22 20 41
2.63055 -2.71776 0.32511 33 27 29
2.65380 -2.72226 0.33988 53 45 34
2.67173 -2.73909 0.34654 72 62 40
2.67937 -2.75072 0.35603 85 75 46
2.67715 -2.77241 0.35853 94 81 53
0.10313 -0.14711 -0.89590 88 71 123
0.11074 -0.14665 -0.88546 109 110 103
0.10351 -0.15422 -0.88563 60 55 89
0.11110 -0.15375 -0.87521 77 72 101
0.10665 -0.16036 -0.87969 56 59 81
0.10220 -0.16696 -0.88416 70 70 80
0.15097 -0.28778 -0.73465 54 49 59
0.15227 -0.27518 -0.73610 46 48 54
0.14787 -0.28171 -0.74053 48 47 56
0.15537 -0.28125 -0.73023 50 51 56
0.14968 -0.30038 -0.73320 74 66 71
0.18876 -0.31312 -0.73605 94 59 48
0.19899 -0.31772 -0.73982 126 98 86
0.19940 -0.32450 -0.73008 180 164 161
0.21750 -0.32751 -0.74446 239 221 217
0.21617 -0.34044 -0.74297 254 254 254
0.22398 -0.33305 -0.74289 254 254 250
0.22265 -0.34601 -0.74140 254 254 254
0.24419 -0.44389 -0.59761 252 252 252
0.24549 -0.43119 -0.59907 254 254 254
0.24106 -0.43777 -0.60352 254 254 254
0.23663 -0.44435 -0.60798 254 254 253
0.24368 -0.45699 -0.57739 240 228 225
0.26462 -0.46085 -0.59346 251 254 253
0.27223 -0.46039 -0.58302 254 254 254
0.26777 -0.46701 -0.58750 254 254 254
0.26330 -0.47363 -0.59199 254 254 254
0.37253 -0.65164 -0.41967 254 250 234
0.36487 -0.65211 -0.43018 254 254 254
0.36741 -0.65789 -0.40496 182 201 173
0.37802 -0.66404 -0.40680 200 201 191
0.38604 -0.67023 -0.40587 240 244 243
0.46192 -0.74631 -0.37088 254 253 249
0.45409 -0.74678 -0.38163 254 254 254
0.45733 -0.75312 -0.37550 254 254 254
0.46057 -0.75946 -0.36937 254 254 254
0.45644 -0.75225 -0.35623 254 253 243
0.45509 -0.76534 -0.35472 254 254 254
0.45296 -0.75823 -0.34362 254 254 248
0.45162 -0.77127 -0.34212 253 253 253
0.44575 -0.80605 -0.26431 251 252 252
0.44707 -0.79324 -0.26579 252 252 252
0.44260 -0.79988 -0.27028 253 252 253
0.45023 -0.79941 -0.25981 252 252 252
0.44882 -0.81222 -0.25826 243 248 246
0.45315 -0.81849 -0.25336 227 228 229
0.45413 -0.82448 -0.24539 197 191 192
0.48754 -0.83330 -0.26703 156 144 142
0.49363 -0.83983 -0.26357 117 89 109
0.49705 -0.84613 -0.25768 84 60 75
0.50699 -0.85306 -0.25765 68 61 70
0.50565 -0.86615 -0.25614 92 86 70
0.56970 -0.89591 -0.25879 76 74 48
0.56833 -0.90928 -0.25725 32 23 38
0.60798 -0.91879 -0.26439 33 29 40
0.59990 -0.91929 -0.27548 28 23 35
0.60324 -0.92582 -0.26916 25 25 31
0.60659 -0.93236 -0.26283 19 22 25
0.60510 -0.92453 -0.25276 24 24 33
0.60371 -0.93806 -0.25121 20 24 15
0.60226 -0.93024 -0.24123 23 25 21
0.60088 -0.94373 -0.23968 20 22 17
2.40156 -1.52672 -1.22386 16 17 19
2.41604 -1.52584 -1.20399 20 21 20
2.40755 -1.53844 -1.21253 20 22 23
2.39906 -1.55104 -1.22107 20 23 23
2.39918 -1.55710 -1.17578 23 17 22
2.38478 -1.55798 -1.19554 24 25 31
2.39737 -1.56691 -1.15916 14 10 8
2.41174 -1.56604 -1.13943 8 7 3
2.40332 -1.57854 -1.14791 8 7 4
2.17834 -1.60047 -0.88016 8 15 20
2.18065 -1.57805 -0.88274 8 13 14
2.17282 -1.58967 -0.89061 9 11 14
2.16499 -1.60129 -0.89849 9 8 10
2.17052 -1.61209 -0.88803 9 9 10
2.19834 -1.61509 -0.87909 11 23 29
2.22445 -1.65020 -0.85363 13 25 27
2.21657 -1.66190 -0.86155 11 28 33
2.22213 -1.67278 -0.85103 9 17 20
2.02400 -1.84958 -0.34510 34 24 39
2.01186 -1.85032 -0.36176 24 24 27
2.00566 -1.85127 -0.32342 65 62 42
2.00358 -1.87151 -0.32109 78 66 57
2.61819 -2.50523 0.01896 26 41 111
2.60494 -2.50604 0.00077 55 48 75
2.61042 -2.51676 0.01115 57 46 55
2.59863 -2.50443 0.03819 73 88 121
2.59538 -2.51108 0.05155 144 146 139
2.60121 -2.52189 0.06170 173 175 161
2.60678 -2.53259 0.07195 178 173 156
2.61170 -2.54298 0.08241 160 141 121
2.61564 -2.55291 0.09321 138 123 105
2.61885 -2.56249 0.10424 127 117 99
2.62306 -2.57254 0.11493 123 119 80
2.62834 -2.58309 0.12525 120 104 61
2.63368 -2.59367 0.13556 84 56 60
2.65690 -2.62888 0.16419 28 41 132
2.65463 -2.65096 0.16673 35 50 147
2.66791 -2.64223 0.17273 29 45 142
2.66564 -2.66434 0.17527 32 48 147
2.61459 -2.66334 0.26009 35 47 141
2.61681 -2.64170 0.25760 24 43 151
2.60925 -2.65291 0.25000 32 46 152
2.60170 -2.66413 0.24240 37 49 154
2.60953 -2.66858 0.27323 27 32 110
2.60066 -2.67187 0.28742 20 17 74
2.59845 -2.69338 0.28990 15 16 56
2.65953 -2.74024 0.32862 53 42 28
2.64661 -2.74103 0.31090 32 25 24
2.67478 -2.75578 0.33602 71 61 33
2.68592 -2.76923 0.34459 84 73 44
2.68368 -2.79100 0.34710 94 81 50
0.08054 -0.12384 -0.92629 173 170 159
0.08185 -0.11109 -0.92775 165 134 128
0.07740 -0.11770 -0.93223 182 171 157
0.07295 -0.12431 -0.93671 159 137 159
0.08499 -0.11724 -0.92181 190 159 155
0.08813 -0.12338 -0.91587 211 204 184
0.08156 -0.13076 -0.91694 140 120 152
0.08470 -0.13690 -0.91101 92 72 107
0.09348 -0.14829 -0.90310 34 39 86
0.08589 -0.14875 -0.91352 61 64 71
0.09725 -0.15422 -0.89814 48 50 84
0.09798 -0.16119 -0.88841 61 61 82
0.09667 -0.17393 -0.88694 64 67 81
0.13150 -0.28441 -0.73810 50 47 55
0.13279 -0.27188 -0.73954 46 45 54
0.12841 -0.27837 -0.74394 49 44 48
0.13587 -0.27792 -0.73370 46 46 59
0.13582 -0.29013 -0.73403 57 52 66
0.13454 -0.30267 -0.73259 76 80 78
0.14144 -0.29556 -0.73178 65 58 74
0.17328 -0.31536 -0.73552 87 68 60
0.17015 -0.30924 -0.74145 69 67 52
0.18494 -0.31960 -0.74143 182 155 120
0.19273 -0.32476 -0.74187 243 226 183
0.19141 -0.33758 -0.74040 254 254 254
0.20294 -0.32944 -0.74560 254 253 238
0.20162 -0.34231 -0.74411 254 254 254
0.20963 -0.33491 -0.74440 254 254 250
0.20830 -0.34781 -0.74292 254 254 254
0.23263 -0.45142 -0.59311 248 244 245
0.22458 -0.45896 -0.57326 188 173 214
0.25792 -0.46774 -0.59518 251 253 254
0.25661 -0.48051 -0.59371 254 254 254
0.36328 -0.65833 -0.41912 254 254 250
0.35564 -0.65880 -0.42960 254 254 254
0.35549 -0.67067 -0.39232 189 155 154
0.36971 -0.67685 -0.39800 223 230 233
0.37234 -0.68301 -0.39150 250 253 254
0.37996 -0.68255 -0.38104 254 254 254
0.37550 -0.68918 -0.38553 254 254 254
0.37103 -0.69581 -0.39002 254 254 254
0.43094 -0.80005 -0.27694 251 252 251
0.43225 -0.78727 -0.27841 253 253 253
0.42779 -0.79389 -0.28290 253 253 253
0.43540 -0.79343 -0.27245 252 252 252
0.43346 -0.80617 -0.27039 244 248 243
0.43806 -0.81244 -0.26579 229 229 226
0.43407 -0.81802 -0.25317 195 194 199
0.46841 -0.82681 -0.27616 151 142 159
0.47589 -0.83343 -0.27407 116 86 115
0.48096 -0.83986 -0.26973 83 59 73
0.48845 -0.84652 -0.26757 73 64 67
0.48711 -0.85956 -0.26608 92 88 70
0.49551 -0.85318 -0.26499 85 77 66
0.49417 -0.86624 -0.26349 89 86 71
0.50386 -0.85999 -0.26354 90 85 68
0.50251 -0.87308 -0.26203 86 84 70
2.43050 -1.48469 -1.35420 9 8 7
2.43304 -1.45990 -1.35705 6 4 3
2.42439 -1.47274 -1.36575 7 6 5
2.43915 -1.47184 -1.34549 6 4 3
2.39047 -1.56957 -1.18408 30 27 35
2.39044 -1.57978 -1.16866 20 17 17
2.39483 -1.59103 -1.15634 12 9 7
2.40920 -1.59016 -1.13661 6 6 5
2.40078 -1.60266 -1.14509 7 7 6
2.39235 -1.61517 -1.15356 10 9 9
2.19141 -1.62701 -0.88760 9 13 17
2.17800 -1.62783 -0.90600 7 10 5
2.18355 -1.63868 -0.89551 6 9 7
2.19632 -1.63769 -0.87669 9 20 26
2.21131 -1.65111 -0.87227 10 27 35
2.03045 -1.86488 -0.35942 36 29 40
2.01826 -1.86562 -0.37615 24 25 26
2.01252 -1.86666 -0.33783 67 64 43
2.01044 -1.88699 -0.33549 76 67 55
2.60862 -2.52411 0.02412 82 77 59
2.59540 -2.52492 0.00596 84 67 47
2.59682 -2.52677 0.04057 110 103 65
2.60349 -2.53800 0.05046 109 95 76
2.60951 -2.54893 0.06058 92 80 79
2.61020 -2.55735 0.07253 74 71 74
2.61243 -2.56647 0.08393 63 59 81
2.61433 -2.57543 0.09543 65 64 83
2.61551 -2.58403 0.10714 90 93 68
2.62024 -2.59432 0.11765 118 111 53
2.62634 -2.60526 0.12770 102 81 66
2.63190 -2.61594 0.13794 55 39 100
2.62964 -2.63799 0.14047 43 46 138
2.63825 -2.62701 0.14792 38 44 128
2.63598 -2.64906 0.15046 41 52 148
2.64776 -2.63962 0.15689 37 50 142
2.64549 -2.66170 0.15943 36 51 149
2.61435 -2.67823 0.25030 36 42 129
2.60547 -2.68152 0.26462 26 24 92
2.60326 -2.70313 0.26711 16 14 63
2.60167 -2.68732 0.27737 19 15 68
2.59946 -2.70888 0.27985 16 15 54
2.66745 -2.75946 0.31669 52 41 24
2.65449 -2.76025 0.29890 29 25 29
2.68204 -2.77472 0.32429 70 60 33
2.69020 -2.78667 0.33370 84 72 47
0.06540 -0.13437 -0.91344 70 55 96
0.06410 -0.14703 -0.91199 68 65 67
0.07643 -0.13761 -0.92031 41 40 82
0.07300 -0.14608 -0.90384 50 54 78
0.08275 -0.15708 -0.89759 70 71 69
0.08144 -0.16978 -0.89612 99 118 106
0.08401 -0.16384 -0.88871 80 78 79
0.08464 -0.17079 -0.87888 73 73 82
0.10953 -0.27498 -0.74782 49 44 55
0.11081 -0.26252 -0.74925 45 43 52
0.10646 -0.26898 -0.75363 47 44 55
0.10211 -0.27543 -0.75800 61 53 67
0.11388 -0.26852 -0.74345 47 43 49
0.11695 -0.27452 -0.73764 50 44 45
0.11963 -0.28598 -0.74195 61 52 58
0.12490 -0.29145 -0.73929 65 60 68
0.12965 -0.29707 -0.73585 71 73 77
0.14060 -0.30801 -0.73097 78 71 63
0.13621 -0.31452 -0.73538 63 50 46
0.14808 -0.30755 -0.72070 74 73 64
0.14719 -0.31325 -0.73007 72 62 59
0.15307 -0.31869 -0.72810 60 53 50
0.16659 -0.32245 -0.73682 95 79 81
0.18492 -0.32526 -0.75211 217 206 181
0.19034 -0.33096 -0.74928 254 254 243
0.18902 -0.34379 -0.74780 254 254 254
0.22274 -0.45868 -0.59063 241 231 228
0.22226 -0.46520 -0.58026 141 111 179
0.25023 -0.47474 -0.59564 252 254 254
0.24892 -0.48748 -0.59417 254 254 254
0.35185 -0.66499 -0.41619 254 254 254
0.34424 -0.66546 -0.42662 254 254 254
0.34739 -0.67161 -0.42067 254 254 254
0.35402 -0.67114 -0.40920 252 238 213
0.32461 -0.67714 -0.36880 170 140 127
0.35435 -0.68339 -0.39103 207 220 218
0.36106 -0.68956 -0.38884 247 252 252
0.35975 -0.70231 -0.38737 253 254 254
0.42105 -0.79442 -0.29420 251 253 251
0.42237 -0.78163 -0.29567 253 253 253
0.41790 -0.78825 -0.30016 253 253 253
0.42552 -0.78779 -0.28970 253 253 253
0.42100 -0.80035 -0.28517 245 247 242
0.42342 -0.80645 -0.27853 229 228 225
0.42292 -0.81231 -0.26913 195 194 191
0.44417 -0.81994 -0.28023 151 141 142
0.45754 -0.82701 -0.28379 109 85 107
0.46287 -0.83343 -0.27976 70 55 76
0.46955 -0.83999 -0.27695 74 60 72
0.46822 -0.85297 -0.27546 92 87 70
0.47778 -0.84672 -0.27554 88 78 67
0.47644 -0.85973 -0.27405 91 87 67
0.48398 -0.85328 -0.27222 93 87 66
2.38541 -1.46852 -1.36796 11 11 7
2.38794 -1.44388 -1.37079 8 7 4
2.37934 -1.45665 -1.37944 13 10 6
2.39401 -1.45575 -1.35931 6 6 4
2.40016 -1.48225 -1.36291 15 15 11
2.42574 -1.49838 -1.36577 21 23 15
2.43344 -1.52128 -1.33934 37 40 28
2.43090 -1.54607 -1.33649 44 48 40
2.43271 -1.53168 -1.32283 36 40 32
2.43017 -1.55643 -1.31998 43 47 43
2.39032 -1.53254 -1.27637 35 40 33
2.38781 -1.55696 -1.27356 44 49 47
2.37712 -1.56045 -1.22008 30 32 25
2.37978 -1.57134 -1.20646 28 31 31
2.38578 -1.58301 -1.19519 34 40 41
2.38442 -1.59288 -1.17882 30 33 27
2.38918 -1.60423 -1.16673 20 18 12
2.19014 -1.64981 -0.88569 6 10 15
2.17673 -1.65063 -0.90410 6 9 5
2.18228 -1.66149 -0.89360 6 9 7
2.18783 -1.67234 -0.88310 7 9 12
2.20682 -1.66374 -0.88240 7 16 26
2.20450 -1.68634 -0.87980 7 11 16
2.21521 -1.67542 -0.87368 8 20 33
2.21289 -1.69803 -0.87108 8 10 10
2.03737 -1.88045 -0.37408 44 36 38
2.01704 -1.88132 -0.35110 66 66 40
2.01494 -1.90172 -0.34875 75 66 53
2.60784 -2.53888 0.01381 82 69 51
2.59459 -2.53969 -0.00438 75 62 52
2.61257 -2.54925 0.02446 75 65 45
2.61028 -2.57150 0.02702 34 22 59
2.60806 -2.55526 0.03835 61 50 46
2.60575 -2.56228 0.05142 45 35 58
2.60871 -2.57176 0.06261 29 26 63
2.61038 -2.58062 0.07424 18 19 78
2.60832 -2.58768 0.08710 29 37 89
2.60769 -2.59539 0.09944 75 89 78
2.60543 -2.61744 0.10198 144 142 71
2.61162 -2.60529 0.11022 135 135 66
2.61687 -2.61582 0.12055 129 112 70
2.62360 -2.62707 0.13040 70 54 102
2.62134 -2.64911 0.13293 44 46 139
2.62837 -2.69257 0.22437 37 49 147
2.63061 -2.67074 0.22186 30 46 154
2.62299 -2.68206 0.21420 35 52 154
2.61537 -2.69337 0.20653 35 53 150
2.62080 -2.69655 0.23846 29 32 113
2.60856 -2.69811 0.25386 20 19 77
2.60633 -2.71978 0.25635 15 14 58
2.67743 -2.77985 0.30410 50 43 30
2.68685 -2.79249 0.31317 67 58 34
2.69673 -2.80538 0.32214 81 69 42
2.70365 -2.81674 0.33194 91 79 46
2.71670 -2.81594 0.34985 100 85 54
2.70905 -2.82730 0.34215 98 84 51
2.70140 -2.83865 0.33446 97 83 49
0.06321 -0.13286 -0.93253 135 115 132
0.06451 -0.12016 -0.93399 214 195 175
0.06008 -0.12674 -0.93846 243 238 189
0.05877 -0.13945 -0.93699 189 193 153
0.06190 -0.14557 -0.93107 94 88 65
0.06053 -0.14109 -0.91716 67 53 73
0.05924 -0.15375 -0.91571 66 62 64
0.06643 -0.15341 -0.90481 72 73 70
0.06201 -0.15996 -0.90926 72 74 77
0.06513 -0.16606 -0.90336 68 76 83
0.07070 -0.15910 -0.90077 66 72 76
0.06940 -0.17176 -0.89932 67 72 93
0.07327 -0.16539 -0.89399 76 83 87
0.07549 -0.17893 -0.87583 87 102 89
0.07419 -0.19155 -0.87437 79 85 89
0.08455 -0.18305 -0.87932 64 70 76
0.09210 -0.18259 -0.86897 67 72 84
0.08767 -0.18916 -0.87342 64 67 80
0.08325 -0.19573 -0.87786 62 61 72
0.10914 -0.28721 -0.74769 73 70 77
0.11937 -0.29822 -0.74199 79 76 66
0.12373 -0.30393 -0.73801 72 68 62
0.12937 -0.30935 -0.73586 67 58 56
0.13957 -0.32051 -0.72990 76 48 51
0.14624 -0.32577 -0.72910 91 61 68
0.16444 -0.32853 -0.74449 146 128 152
0.17755 -0.33252 -0.75255 232 222 231
0.17623 -0.34532 -0.75107 254 254 254
0.18317 -0.33817 -0.75003 254 254 254
0.18185 -0.35099 -0.74855 254 254 254
0.21643 -0.46545 -0.59263 224 208 204
0.21314 -0.47229 -0.57870 167 123 138
0.23275 -0.47637 -0.59362 228 236 221
0.23145 -0.48904 -0.59216 254 254 254
0.24354 -0.48160 -0.59730 254 254 254
0.24223 -0.49432 -0.59584 254 254 254
0.34440 -0.67773 -0.40816 254 246 224
0.33682 -0.67819 -0.41856 254 254 254
0.32469 -0.68366 -0.37793 191 177 148
0.34220 -0.68989 -0.38733 208 205 190
0.35071 -0.69608 -0.38711 243 247 244
0.40238 -0.78819 -0.30290 251 253 251
0.40369 -0.77546 -0.30437 254 253 254
0.39924 -0.78206 -0.30884 254 254 254
0.40683 -0.78159 -0.29843 253 253 253
0.40480 -0.79428 -0.29627 245 246 241
0.40495 -0.80019 -0.28745 228 227 225
0.41284 -0.80668 -0.28610 194 191 190
0.42538 -0.81357 -0.28914 153 135 144
0.43352 -0.82016 -0.28791 108 81 104
0.44215 -0.82681 -0.28709 69 55 68
0.44985 -0.83343 -0.28534 75 66 67
0.44852 -0.84634 -0.28386 92 86 69
0.45817 -0.84012 -0.28413 89 79 65
0.45684 -0.85307 -0.28264 90 86 66
0.46428 -0.84664 -0.28082 92 86 67
0.48743 -0.86682 -0.27512 87 86 68
0.49924 -0.87405 -0.27686 77 76 58
0.50247 -0.88037 -0.27074 67 65 52
2.37381 -1.48063 -1.37435 22 25 18
2.42173 -1.51227 -1.37793 35 37 27
2.41918 -1.53711 -1.37507 46 48 42
2.42191 -1.52291 -1.36197 46 45 30
2.41937 -1.54771 -1.35912 47 51 45
2.37270 -1.58421 -1.21592 46 50 47
2.37021 -1.60843 -1.21314 51 56 64
2.37821 -1.59577 -1.20431 47 56 51
2.38111 -1.60667 -1.19089 43 50 41
2.38473 -1.61774 -1.17798 32 33 21
2.39254 -1.62986 -1.16799 18 15 10
2.40694 -1.62898 -1.14822 6 6 9
2.39850 -1.64152 -1.15671 9 6 8
2.04323 -1.88762 -0.40062 24 24 26
2.04536 -1.86696 -0.40299 18 21 26
2.03815 -1.87766 -0.41025 16 22 19
2.03094 -1.88837 -0.41750 16 23 18
2.03407 -1.89248 -0.38337 47 41 42
2.03196 -1.91305 -0.38100 68 64 55
2.02306 -1.89661 -0.36524 67 65 47
