ply
format ascii 1.0
element face 0
property list uchar int vertex_indices
element vertex 1315
property float x
property float y
property float z
property uchar diffuse_red
property uchar diffuse_green
property uchar diffuse_blue
end_header
2.31625 -2.72717 -0.13207 137 107 73
2.30334 -2.74655 -0.13329 181 180 103
2.29708 -2.73198 -0.11352 175 159 70
2.28865 -2.74190 -0.10062 174 162 107
2.32812 -2.77534 -0.11245 90 73 71
2.31273 -2.78191 -0.09591 33 18 53
2.32363 -2.80152 -0.09287 52 53 95
2.34186 -2.82493 -0.09349 71 88 129
2.33998 -2.83829 -0.08382 101 128 170
2.34743 -2.85643 -0.07886 179 203 216
2.34130 -2.86766 -0.06703 134 162 218
2.36353 -2.89358 -0.06938 55 77 197
2.35035 -2.91336 -0.07063 52 71 193
2.35549 -2.90388 -0.05657 47 64 187
2.35780 -2.91958 -0.04890 46 64 171
2.35227 -2.93116 -0.03734 37 53 147
2.35956 -2.93730 -0.01555 36 49 134
2.34933 -2.94411 -0.02707 32 48 138
2.33910 -2.95093 -0.03859 30 47 141
2.52554 -3.19166 -0.02012 56 55 53
2.51784 -3.18518 -0.04313 45 49 99
2.52532 -3.20700 -0.01061 74 82 68
2.53755 -3.22961 -0.00682 108 112 115
2.52022 -3.23502 0.01059 143 153 139
2.57864 -3.38009 0.05123 171 172 156
2.57077 -3.37347 0.02772 165 170 167
2.56760 -3.38744 0.03880 171 175 169
2.56443 -3.40142 0.04988 168 170 163
2.58138 -3.39772 0.05972 168 164 153
2.56715 -3.41908 0.05837 162 165 161
2.58336 -3.41492 0.06857 163 161 159
2.56911 -3.43631 0.06722 161 164 165
2.58444 -3.43161 0.07783 166 169 163
2.57018 -3.45302 0.07649 158 159 156
2.44155 -3.43517 0.19648 157 164 175
2.43390 -3.42874 0.17362 148 155 161
2.39547 -3.42058 0.22516 201 210 213
1.18801 -2.92896 0.91030 164 143 123
1.18276 -2.92455 0.89463 163 144 116
1.18065 -2.93386 0.90202 164 142 114
1.18533 -2.93783 0.91788 149 123 107
1.17727 -2.94250 0.92729 109 103 111
1.16782 -2.95668 0.92639 132 157 176
1.18026 -2.95580 0.93294 125 156 181
1.17665 -2.96392 0.94082 129 147 167
1.16948 -2.96920 0.94988 122 135 159
1.16645 -2.97775 0.95755 121 130 143
1.16225 -2.98534 0.96560 123 133 147
1.16428 -2.99796 0.97161 121 133 156
1.16259 -3.02963 0.99226 117 140 155
1.16307 -3.04108 0.99883 116 137 158
1.16031 -3.04986 1.00642 119 131 160
1.16106 -3.06156 1.01292 113 131 166
1.15907 -3.07098 1.02028 112 135 167
1.15173 -3.07590 1.02926 109 134 173
1.14458 -3.08094 1.03815 114 139 177
1.13696 -3.08553 1.04715 118 146 183
1.11610 -3.07873 1.06002 123 150 192
1.10565 -3.08072 1.06975 134 161 195
1.09003 -3.07817 1.08093 145 170 207
1.07188 -3.07329 1.09275 155 179 220
1.06758 -3.08038 1.10057 165 194 229
1.08328 -3.10503 1.10277 174 203 242
1.08104 -3.11399 1.11004 181 214 250
1.08533 -3.12874 1.11552 192 225 250
1.08548 -3.13987 1.12216 196 227 249
1.08047 -3.15737 1.13690 196 235 250
1.07650 -3.16480 1.14465 197 236 251
1.05129 -3.22972 1.20470 195 222 243
1.04203 -3.24361 1.20382 193 226 250
1.04240 -3.24340 1.22026 186 215 231
1.03317 -3.25726 1.21938 193 222 246
1.03939 -3.25157 1.22768 183 208 221
1.03454 -3.25797 1.23553 177 201 212
1.03107 -3.26567 1.24304 171 193 210
1.02922 -3.27493 1.25019 161 183 210
1.02309 -3.28002 1.25828 168 194 221
1.01388 -3.29383 1.25741 188 220 247
1.01480 -3.28296 1.26682 191 222 240
1.00562 -3.29674 1.26596 188 218 246
1.01081 -3.29008 1.27440 207 233 247
1.00164 -3.30384 1.27354 188 219 246
1.00520 -3.29557 1.28232 212 233 246
0.99605 -3.30931 1.28145 191 221 246
0.99861 -3.30006 1.29042 215 236 247
1.00367 -3.30432 1.30554 245 252 253
0.98948 -3.31377 1.28955 194 223 245
0.99280 -3.30528 1.29833 220 238 248
0.99785 -3.30953 1.31342 248 253 254
0.98711 -3.31058 1.30619 225 241 248
0.99215 -3.31483 1.32127 250 253 254
0.98348 -3.31793 1.31362 229 243 248
0.98343 -3.32888 1.32033 234 246 250
0.98193 -3.33838 1.32733 236 246 246
0.97939 -3.34683 1.33454 225 210 227
0.98002 -3.35853 1.34113 219 190 215
0.97929 -3.36884 1.34800 224 200 213
0.97648 -3.37701 1.35527 217 187 209
0.96840 -3.37969 1.36348 209 155 202
0.97092 -3.39339 1.36977 224 183 212
0.95481 -3.38758 1.37936 218 153 179
0.94982 -3.39336 1.38694 210 145 187
0.94400 -3.39823 1.39465 218 196 225
0.94188 -3.40701 1.40171 220 196 223
0.93476 -3.41043 1.40960 226 196 218
0.91953 -3.40508 1.41877 238 223 232
0.91899 -3.41547 1.42553 237 220 236
0.91463 -3.42174 1.43289 238 224 238
0.90878 -3.42635 1.44046 247 247 250
0.91373 -3.43052 1.45526 252 253 253
0.89941 -3.43804 1.45521 239 234 239
0.90435 -3.44220 1.46997 249 251 252
0.89049 -3.45143 1.45436 226 222 230
0.89657 -3.44587 1.46229 238 232 238
0.90151 -3.45003 1.47705 250 252 252
0.88765 -3.45926 1.46144 229 223 231
0.89357 -3.45352 1.46939 241 235 241
0.89850 -3.45767 1.48414 249 250 249
0.88739 -3.45762 1.47692 243 238 243
0.89231 -3.46176 1.49164 245 244 245
0.88438 -3.46523 1.48400 244 243 247
0.88931 -3.46937 1.49872 242 241 244
0.87837 -3.46946 1.49147 245 247 251
0.88329 -3.47359 1.50616 240 240 241
0.87639 -3.47819 1.49839 249 251 251
0.89564 -3.58901 1.55012 245 246 243
0.89065 -3.58481 1.53520 242 245 248
0.89396 -3.59827 1.55712 231 215 200
0.87060 -3.58200 1.56626 155 112 94
0.86167 -3.59541 1.56542 76 44 34
1.96678 -1.88445 -0.38030 28 27 52
1.96057 -1.87922 -0.39886 22 25 43
1.98794 -1.90211 -0.38695 65 62 49
2.64136 -2.35762 -0.64685 35 33 29
2.64295 -2.37273 -0.63898 17 14 18
2.62923 -2.39332 -0.64028 5 3 5
2.46848 -2.39524 -0.48209 7 7 28
2.46118 -2.38910 -0.50390 5 5 6
2.45824 -2.40206 -0.49362 6 5 16
2.46201 -2.40687 -0.46972 13 15 66
2.45767 -2.41928 -0.45863 19 26 91
2.46496 -2.42541 -0.43685 31 31 83
2.45473 -2.43222 -0.44836 27 31 94
2.44097 -2.46909 -0.41469 91 73 39
2.43370 -2.46297 -0.43644 57 39 53
2.42386 -2.47634 -0.39624 104 87 42
2.40158 -2.48140 -0.37488 120 100 45
2.39148 -2.49128 -0.36059 139 114 59
2.37848 -2.51080 -0.36182 144 113 77
2.38452 -2.50240 -0.34813 128 103 94
2.37669 -2.51313 -0.33519 91 77 128
2.36372 -2.53260 -0.33642 128 111 122
2.36939 -2.52403 -0.32257 79 78 163
2.35699 -2.54670 -0.29864 74 81 182
2.36279 -2.56315 -0.29341 88 112 183
2.33918 -2.58085 -0.26329 64 81 176
2.32628 -2.60021 -0.26451 38 57 166
2.32773 -2.58975 -0.24849 50 63 166
2.31486 -2.60907 -0.24970 45 67 176
2.32673 -2.60324 -0.23948 47 71 179
2.31386 -2.62257 -0.24070 50 68 180
2.32163 -2.61490 -0.22821 53 70 182
2.30876 -2.63422 -0.22943 50 66 178
2.29783 -2.70174 -0.15597 86 71 113
2.29516 -2.71448 -0.14604 95 73 89
2.31703 -2.76738 -0.13189 122 103 74
2.31795 -2.78202 -0.12376 55 34 55
2.31809 -2.79629 -0.11520 58 55 67
2.32591 -2.81446 -0.11060 101 140 140
2.31929 -2.82539 -0.09853 115 121 171
2.32413 -2.84214 -0.09233 91 95 185
2.33210 -2.86056 -0.08770 135 173 216
2.32016 -2.86875 -0.07293 110 139 200
2.30712 -2.88834 -0.07416 50 68 192
2.35040 -2.89890 -0.07945 54 69 186
2.33724 -2.91866 -0.08070 54 76 193
2.34884 -2.92708 -0.06106 48 66 179
2.35092 -2.94272 -0.05327 38 53 156
2.33772 -2.96253 -0.05452 35 48 142
2.50574 -3.19366 -0.02805 59 65 79
2.49806 -3.18719 -0.05101 40 45 118
2.49496 -3.20084 -0.04018 54 72 116
2.49187 -3.21448 -0.02936 57 70 98
2.50792 -3.21037 -0.01969 64 72 77
2.51647 -3.23085 -0.01428 100 104 108
2.50859 -3.24174 -0.00120 136 142 140
2.50126 -3.25292 0.01160 162 168 160
2.49816 -3.26659 0.02244 165 168 155
2.48736 -3.27379 0.01029 167 166 162
2.41590 -3.43255 0.19071 155 168 177
2.40828 -3.42614 0.16794 163 165 147
2.38352 -3.42677 0.21378 191 207 220
2.38385 -3.44244 0.22301 201 219 224
2.39142 -3.44881 0.24563 211 214 220
2.38537 -3.45893 0.23178 208 218 224
2.39295 -3.46530 0.25441 211 214 219
2.38232 -3.47238 0.24245 211 215 223
1.18693 -2.94974 0.90650 153 129 113
1.18167 -2.94531 0.89077 164 143 121
1.17955 -2.95466 0.89819 157 137 126
1.18454 -2.95887 0.91400 123 116 120
1.17504 -2.97313 0.91310 136 156 179
1.18080 -2.97796 0.92866 132 132 150
1.18745 -2.99431 0.93313 123 73 115
1.18895 -3.00661 0.93936 124 97 120
1.18741 -3.01647 0.94661 125 101 116
1.18643 -3.02680 0.95368 122 102 106
1.15975 -3.01615 0.96912 127 140 160
1.15935 -3.02687 0.97595 124 134 145
1.17632 -3.05193 0.97724 121 91 111
1.17396 -3.06113 0.98475 116 74 99
1.16828 -3.06754 0.99332 119 66 105
1.16414 -3.07522 1.00138 118 80 120
1.15904 -3.08208 1.00972 116 107 132
1.14729 -3.08327 1.02009 115 124 162
1.13975 -3.08796 1.02913 121 134 156
1.13648 -3.09626 1.03685 116 121 135
1.14056 -3.11088 1.04237 112 103 115
1.10795 -3.09380 1.05878 118 129 155
1.10585 -3.10299 1.06608 119 137 165
1.10320 -3.11170 1.07354 118 137 172
1.09498 -3.11551 1.08260 118 141 176
1.09421 -3.12585 1.08950 119 143 186
1.07113 -3.12732 1.10935 128 158 197
1.05574 -3.13539 1.12688 142 171 211
1.05305 -3.14388 1.13424 153 184 221
1.06683 -3.16737 1.13718 169 195 234
1.05936 -3.17155 1.14586 178 202 240
1.06350 -3.18637 1.15145 182 210 247
1.06883 -3.20233 1.15676 186 218 246
1.06408 -3.22008 1.17144 193 227 249
1.05477 -3.23405 1.17056 151 180 222
1.06100 -3.22829 1.17895 189 227 251
1.05239 -3.23128 1.18783 191 228 251
1.02512 -3.26056 1.22799 190 221 244
1.01966 -3.26632 1.23597 188 219 243
1.01327 -3.27113 1.24414 188 218 243
1.00409 -3.28492 1.24327 185 220 251
1.00798 -3.27698 1.25203 189 221 245
0.99881 -3.29075 1.25117 184 216 251
0.97447 -3.30969 1.29939 196 224 245
0.96944 -3.30546 1.28435 183 216 247
0.96741 -3.31440 1.29144 183 214 247
0.96539 -3.32333 1.29853 184 214 246
0.97271 -3.31889 1.30642 200 227 246
0.96362 -3.33253 1.30556 184 215 247
0.97175 -3.32892 1.31330 204 230 247
0.97118 -3.33935 1.32010 208 229 243
0.96936 -3.34851 1.32715 205 203 226
0.96893 -3.35911 1.33394 208 202 225
0.96972 -3.37099 1.34050 219 223 230
0.96319 -3.37527 1.34846 214 191 206
0.95344 -3.37615 1.35699 197 124 162
0.94859 -3.38209 1.36458 201 148 168
0.94858 -3.39312 1.37128 197 105 131
0.94683 -3.40232 1.37831 197 106 143
0.93820 -3.40420 1.38653 211 175 198
0.92916 -3.41776 1.38568 200 166 200
0.93636 -3.41328 1.39355 212 164 195
0.93531 -3.42321 1.40044 208 142 189
0.92508 -3.42323 1.40886 213 176 204
0.91903 -3.42772 1.41654 206 152 182
0.90948 -3.42835 1.42476 210 163 192
0.89397 -3.42238 1.43387 228 221 224
0.89240 -3.43161 1.44076 226 213 219
0.89083 -3.44083 1.44765 223 211 223
0.89073 -3.47369 1.46768 223 201 216
0.88478 -3.47805 1.47520 215 172 196
0.88812 -3.49284 1.48144 221 188 215
0.87108 -3.48458 1.49042 239 236 251
0.87600 -3.48872 1.50512 250 251 251
0.86922 -3.49345 1.49733 247 250 252
0.87414 -3.49759 1.51203 250 250 250
0.87050 -3.50592 1.50385 244 243 249
0.87543 -3.51007 1.51857 249 251 251
0.86931 -3.51558 1.51069 242 236 245
0.87423 -3.51972 1.52542 250 250 251
0.87085 -3.52840 1.51721 242 239 244
0.87579 -3.53256 1.53196 248 249 249
0.87484 -3.54410 1.52346 242 242 246
0.87979 -3.54826 1.53825 246 247 248
0.88043 -3.56171 1.52956 242 244 249
0.88092 -3.58463 1.54307 242 244 242
0.87594 -3.58996 1.55039 225 211 194
0.84570 -3.56536 1.56029 153 111 91
1.96971 -1.89350 -0.39777 26 24 50
1.96348 -1.88826 -0.41639 24 25 32
1.96097 -1.89933 -0.40761 29 23 41
1.99023 -1.91108 -0.40408 51 46 54
2.01293 -1.92946 -0.41172 78 70 57
2.01926 -1.93477 -0.39283 85 71 63
2.01039 -1.94068 -0.40281 85 72 67
2.00152 -1.94659 -0.41280 85 72 62
2.63295 -2.35095 -0.66901 46 45 29
2.64665 -2.33039 -0.66771 55 47 45
2.63600 -2.33748 -0.67970 57 47 40
2.63866 -2.36750 -0.66371 27 26 23
2.62493 -2.38810 -0.66500 5 3 6
2.64058 -2.38277 -0.65605 10 7 13
2.62683 -2.40340 -0.65735 4 3 3
2.44723 -2.41195 -0.47853 7 8 42
2.43995 -2.40582 -0.50029 6 5 8
2.44112 -2.42366 -0.46639 12 16 72
2.44021 -2.43737 -0.45733 21 26 87
2.44749 -2.44349 -0.43557 48 43 68
2.43727 -2.45029 -0.44707 36 35 75
2.42893 -2.47516 -0.42511 81 56 34
2.42547 -2.48787 -0.41456 95 70 35
2.38848 -2.48693 -0.38455 116 96 52
2.37197 -2.49415 -0.36653 139 117 66
2.35759 -2.51607 -0.34136 141 113 94
2.34753 -2.52276 -0.35268 145 121 80
2.34538 -2.53878 -0.31751 99 91 154
2.33535 -2.54546 -0.32881 141 123 108
2.34105 -2.55086 -0.30661 62 54 165
2.32882 -2.55951 -0.29127 57 54 162
2.33101 -2.57439 -0.28407 58 60 171
2.28368 -2.67844 -0.18191 59 63 160
2.28654 -2.66583 -0.19192 62 71 177
2.27968 -2.69051 -0.17130 82 62 106
2.27730 -2.70334 -0.16156 91 71 71
2.27433 -2.71590 -0.15150 99 75 49
2.26151 -2.73514 -0.15271 166 188 108
2.27182 -2.74269 -0.13320 167 132 107
2.25899 -2.76194 -0.13441 33 21 67
2.30928 -2.77524 -0.14445 70 51 62
2.30118 -2.78540 -0.13160 65 58 68
2.30204 -2.80003 -0.12345 96 100 124
2.31139 -2.81897 -0.11970 103 98 174
2.29838 -2.83850 -0.12093 132 145 209
2.30929 -2.83218 -0.10997 103 103 198
2.32559 -2.85485 -0.10972 131 164 214
2.31471 -2.86359 -0.09543 118 148 208
2.30165 -2.88318 -0.09666 52 71 195
2.32953 -2.88568 -0.09430 68 82 191
2.31641 -2.90536 -0.09554 59 77 197
2.32641 -2.92740 -0.06645 50 69 183
2.31914 -2.92128 -0.08819 57 76 195
2.33366 -2.94579 -0.06131 42 56 161
2.32048 -2.96556 -0.06255 38 49 145
2.51168 -3.24162 -0.02930 93 95 106
2.49165 -3.24531 -0.01051 130 141 145
2.48799 -3.25864 0.00059 166 172 166
2.47410 -3.27949 -0.00072 157 163 163
2.39379 -3.43215 0.18356 161 162 152
2.38619 -3.42576 0.16086 162 165 154
2.38313 -3.43925 0.17156 162 162 156
2.38007 -3.45274 0.18226 163 169 172
2.38309 -3.44058 0.19751 164 170 178
2.37427 -3.45020 0.21063 164 170 181
2.37199 -3.46416 0.22097 179 184 199
2.39873 -3.49772 0.21919 179 195 223
2.40636 -3.50414 0.24199 212 214 223
2.39565 -3.51127 0.22994 185 211 221
2.38495 -3.51840 0.21788 107 112 129
1.18283 -2.96827 0.90372 136 131 138
1.17755 -2.96383 0.88796 159 140 122
1.17330 -2.98256 0.90282 139 155 175
1.18025 -2.98833 0.91800 135 139 158
1.18189 -3.00073 0.92416 130 88 116
1.17863 -3.00921 0.93198 132 89 97
1.17743 -3.01934 0.93911 131 104 105
1.16789 -3.03367 0.93821 124 86 86
1.17601 -3.02930 0.94632 126 106 108
1.16272 -3.02953 0.95744 132 138 146
1.15322 -3.04379 0.95655 123 41 87
1.17213 -3.04839 0.96109 123 69 102
1.17117 -3.05875 0.96816 122 64 105
1.16008 -3.06067 0.97849 128 111 123
1.15510 -3.06763 0.98682 130 115 130
1.15121 -3.07549 0.99480 127 114 125
1.15506 -3.08989 1.00034 122 97 88
1.15443 -3.10053 1.00730 116 77 96
1.13662 -3.09647 1.01956 128 128 146
1.13992 -3.11043 1.02530 121 98 114
1.12979 -3.11283 1.03512 114 63 69
1.10921 -3.10607 1.04804 125 129 144
1.10219 -3.11099 1.05682 122 137 153
1.10048 -3.12054 1.06402 118 134 155
1.09233 -3.12440 1.07310 118 135 155
1.08997 -3.13335 1.08047 116 134 162
1.08922 -3.14373 1.08738 116 134 161
1.08612 -3.15202 1.09496 117 133 163
1.07426 -3.15240 1.10499 118 131 166
1.07504 -3.16414 1.11146 117 135 169
1.06302 -3.17528 1.12814 119 142 183
1.05373 -3.18923 1.12727 115 134 155
1.06422 -3.18743 1.13451 123 145 186
1.05492 -3.20139 1.13363 116 134 151
1.06879 -3.20272 1.14000 126 151 188
1.06876 -3.22493 1.15347 137 162 199
1.06581 -3.23331 1.16098 146 171 213
1.04258 -3.23362 1.18038 163 190 226
1.03863 -3.24094 1.18808 174 199 236
1.02937 -3.25484 1.18720 126 153 192
1.02805 -3.25296 1.20410 185 215 245
1.02534 -3.26141 1.21146 188 219 245
1.02017 -3.26747 1.21941 186 225 249
1.01402 -3.27255 1.22757 185 226 251
1.00669 -3.27643 1.23598 184 222 250
0.95570 -3.33541 1.31386 183 215 243
0.95068 -3.33119 1.29886 180 212 249
0.94865 -3.34010 1.30593 178 211 245
0.95569 -3.34641 1.32052 182 196 224
0.95670 -3.35848 1.32700 182 178 209
0.95655 -3.36936 1.33372 190 177 205
0.95162 -3.37527 1.34137 190 148 182
0.94608 -3.38050 1.34912 186 136 166
0.94339 -3.38872 1.35632 188 167 173
0.94154 -3.39781 1.36336 187 120 116
0.93978 -3.40701 1.37038 191 121 132
0.92858 -3.40610 1.37909 199 177 204
0.91955 -3.41965 1.37824 183 162 200
0.92360 -3.42283 1.39334 200 159 198
0.91780 -3.42760 1.40102 203 175 198
0.89045 -3.41977 1.41890 194 123 143
0.88153 -3.43316 1.41805 185 113 150
0.88898 -3.42912 1.42577 202 149 175
0.88567 -3.43643 1.43293 204 150 190
0.88454 -3.44615 1.43976 217 212 231
0.88306 -3.45549 1.44663 226 235 240
0.88138 -3.46461 1.45355 228 234 238
0.88136 -3.47560 1.46022 222 212 218
0.87841 -3.48330 1.46732 207 164 176
0.87094 -3.48586 1.47505 196 132 165
0.87081 -3.49673 1.48174 212 174 209
0.87623 -3.51397 1.48770 226 204 218
0.86758 -3.51512 1.49554 214 163 199
0.86610 -3.52447 1.50243 210 170 215
0.86034 -3.52886 1.50986 213 192 222
0.86631 -3.54688 1.51583 213 188 222
0.86212 -3.55310 1.52306 219 206 233
0.86449 -3.56699 1.52952 229 235 244
0.86367 -3.57717 1.53636 232 239 240
0.85390 -3.57676 1.54419 211 204 191
0.83891 -3.57006 1.55253 139 107 88
0.86811 -3.61602 1.55622 72 44 33
0.87309 -3.62021 1.57109 71 66 64
0.86611 -3.62486 1.56323 68 64 61
0.85912 -3.62951 1.55537 61 58 52
1.98507 -1.91799 -0.41639 33 27 51
1.97879 -1.91270 -0.43516 28 24 36
2.01892 -1.93966 -0.43148 74 67 46
2.60984 -2.33918 -0.68200 54 49 31
2.62348 -2.31870 -0.68071 62 51 49
2.61288 -2.32577 -0.69265 62 51 43
2.60228 -2.33283 -0.70458 60 52 38
2.62664 -2.37413 -0.67488 15 12 12
2.61291 -2.39472 -0.67617 4 4 5
2.44111 -2.42033 -0.49249 6 7 21
2.43382 -2.41419 -0.51428 7 7 6
2.43088 -2.42714 -0.50401 8 8 11
2.42795 -2.44009 -0.49374 7 8 23
2.42901 -2.42973 -0.47674 7 9 44
2.42491 -2.44218 -0.46580 12 16 64
2.43048 -2.45845 -0.46060 20 24 68
2.42833 -2.47170 -0.45080 45 37 53
2.42208 -2.48331 -0.43858 72 53 30
2.41630 -2.49509 -0.42665 81 59 26
2.39483 -2.50041 -0.40556 100 80 41
2.36105 -2.50051 -0.37738 126 106 58
2.35390 -2.51149 -0.36479 137 115 72
2.33645 -2.53201 -0.33787 149 125 89
2.32049 -2.55299 -0.31189 121 108 123
2.31049 -2.55965 -0.32315 149 129 84
2.30761 -2.57232 -0.31311 146 123 77
2.31688 -2.56533 -0.30143 98 86 118
2.31352 -2.57777 -0.29111 82 78 132
2.31049 -2.59036 -0.28098 66 72 144
2.30156 -2.60031 -0.26753 59 68 149
2.29054 -2.60926 -0.25295 60 74 160
2.27807 -2.61750 -0.23759 59 68 168
2.27413 -2.62958 -0.22701 56 60 172
2.28121 -2.63553 -0.20586 52 68 183
2.27128 -2.64215 -0.21704 55 59 176
2.26581 -2.66740 -0.19723 74 72 152
2.27860 -2.64821 -0.19602 60 73 184
2.26867 -2.65483 -0.20720 65 68 170
2.25303 -2.68659 -0.19844 85 66 81
2.26652 -2.68166 -0.18920 78 66 107
2.26016 -2.69257 -0.17731 83 62 75
2.26310 -2.70793 -0.17047 77 60 63
2.26301 -2.72187 -0.16197 116 94 81
2.26996 -2.75333 -0.14875 109 91 90
2.28129 -2.78718 -0.13773 84 81 110
2.26837 -2.80657 -0.13895 139 174 218
2.30453 -2.81309 -0.14142 119 132 184
2.29739 -2.82373 -0.12904 120 122 196
2.30004 -2.85366 -0.11316 95 117 207
2.28702 -2.87322 -0.11439 53 73 195
2.29993 -2.86793 -0.10444 55 75 196
2.28689 -2.88750 -0.10567 61 78 197
2.31689 -2.93457 -0.07829 50 69 187
2.30962 -2.92845 -0.10004 62 77 196
2.30668 -2.94137 -0.08979 51 71 192
2.32288 -2.95231 -0.07255 43 58 167
2.45612 -3.20696 -0.02959 41 52 112
2.44849 -3.20054 -0.05240 41 46 109
2.49223 -3.24374 -0.03742 81 94 106
2.49255 -3.25948 -0.02818 122 137 139
2.47168 -3.26251 -0.00897 158 172 169
2.36433 -3.45773 0.19838 163 166 176
2.35371 -3.46480 0.18642 169 173 174
2.36102 -3.47100 0.20916 139 145 150
2.34735 -3.49152 0.20786 156 156 122
1.18045 -2.99938 0.90703 138 133 143
1.17516 -2.99492 0.89121 146 159 179
1.17578 -3.00672 0.91536 135 86 96
1.16846 -3.01190 0.92458 137 121 123
1.16755 -3.02226 0.93160 132 114 122
1.16658 -3.04372 0.94538 134 126 114
1.16268 -3.06280 0.96015 130 106 124
1.15251 -3.06545 0.97022 141 152 154
1.14299 -3.07973 0.96932 144 154 169
1.14767 -3.07252 0.97852 140 149 158
1.13817 -3.08678 0.97762 143 155 163
1.14546 -3.08179 0.98596 138 147 151
1.14398 -3.09168 0.99318 133 136 120
1.14005 -3.09948 1.00116 123 87 95
1.13306 -3.10464 1.01010 127 97 122
1.13153 -3.11446 1.01731 123 85 99
1.11337 -3.10983 1.02963 121 64 59
1.10893 -3.11705 1.03770 129 129 129
1.12212 -3.13976 1.04043 121 100 118
1.11265 -3.15398 1.03954 130 110 112
1.11720 -3.14659 1.04866 121 99 126
1.11586 -3.15658 1.05581 122 103 128
1.10357 -3.15681 1.06618 121 111 135
1.08927 -3.15514 1.07707 123 131 155
1.07882 -3.15682 1.08679 123 138 160
1.07049 -3.16035 1.09587 122 135 158
1.06116 -3.17435 1.09498 121 99 123
1.07487 -3.17541 1.10132 120 133 153
1.06507 -3.17754 1.11076 116 133 154
1.06134 -3.18519 1.11849 115 134 157
1.05203 -3.19916 1.11761 122 134 149
1.05283 -3.21053 1.14089 113 135 154
1.04768 -3.20620 1.12550 123 138 151
1.04560 -3.21535 1.13275 120 138 151
1.04353 -3.22449 1.14001 119 135 152
1.05335 -3.22212 1.14746 114 133 160
1.04404 -3.23610 1.14658 118 133 155
1.05126 -3.23126 1.15473 116 132 169
1.04195 -3.24524 1.15385 115 132 158
1.03728 -3.22915 1.16508 115 135 175
1.02802 -3.24306 1.16421 112 132 163
1.02948 -3.23280 1.17379 119 141 181
1.02024 -3.24667 1.17291 112 131 161
1.01878 -3.23362 1.18319 123 146 189
1.00957 -3.24745 1.18232 109 130 159
0.98981 -3.23866 1.21035 136 166 203
0.98069 -3.25235 1.20949 111 133 168
0.98380 -3.24375 1.21844 146 176 212
0.97469 -3.25742 1.21758 113 136 173
0.98604 -3.25689 1.22452 154 185 220
0.97691 -3.27058 1.22365 114 139 179
0.99449 -3.27619 1.22914 161 193 228
0.99102 -3.28380 1.23663 169 201 240
0.98335 -3.28721 1.24508 174 206 242
0.98841 -3.29146 1.26020 184 215 249
0.97725 -3.29213 1.25313 178 213 240
0.98230 -3.29638 1.26822 182 215 247
0.97095 -3.29682 1.26121 180 219 245
0.97599 -3.30106 1.27628 184 216 247
0.95602 -3.30371 1.27781 182 218 251
0.95240 -3.31100 1.28522 180 216 250
0.95038 -3.31991 1.29229 179 214 250
0.94497 -3.34729 1.31334 175 206 234
0.93591 -3.36089 1.31249 175 215 241
0.93913 -3.35222 1.32118 173 192 221
0.93009 -3.36579 1.32033 174 212 240
0.94024 -3.36439 1.32761 173 181 212
0.92427 -3.38059 1.35070 181 194 209
0.93047 -3.39821 1.35619 179 165 159
0.92545 -3.40389 1.36380 180 154 162
0.92094 -3.41009 1.37131 182 166 202
0.91481 -3.42558 1.38576 188 181 210
0.91086 -3.43233 1.39313 191 178 197
0.88407 -3.41404 1.40439 186 106 116
0.87614 -3.43815 1.42556 189 114 164
0.87953 -3.45290 1.43165 203 199 226
0.87850 -3.46276 1.43846 211 229 246
0.87747 -3.47262 1.44528 213 231 246
0.87599 -3.48199 1.45217 216 232 241
0.87625 -3.49333 1.45881 208 204 206
0.86800 -3.49500 1.46669 188 122 145
0.86634 -3.50415 1.47360 189 118 156
0.86224 -3.51049 1.48085 198 161 185
0.86236 -3.52169 1.48752 187 114 155
0.86420 -3.53491 1.49397 188 128 176
0.85825 -3.53909 1.50145 193 158 201
0.85984 -3.55205 1.50796 190 147 201
0.85387 -3.55617 1.51542 193 168 214
0.85124 -3.56418 1.52245 205 216 237
0.85116 -3.57521 1.52918 210 228 236
0.84119 -3.57448 1.53705 191 191 190
0.82942 -3.57154 1.54507 124 95 89
0.85284 -3.61073 1.54925 64 38 26
0.84389 -3.62417 1.54840 54 54 49
2.00586 -1.93238 -0.44600 21 22 48
1.99953 -1.92705 -0.46494 26 24 34
1.99697 -1.93831 -0.45601 18 21 44
2.01990 -1.94847 -0.44806 62 57 46
2.02863 -1.96312 -0.44655 80 73 55
2.03502 -1.96849 -0.42746 86 70 58
2.02605 -1.97447 -0.43755 83 70 57
2.01709 -1.98044 -0.44764 80 70 60
2.59262 -2.34393 -0.68979 47 47 23
2.60550 -2.36295 -0.68911 25 19 19
2.59182 -2.38348 -0.69041 6 4 8
2.60746 -2.37819 -0.68157 9 6 8
2.59377 -2.39874 -0.68287 5 5 9
2.40776 -2.44624 -0.47310 6 9 39
2.40050 -2.44013 -0.49479 9 9 10
2.39758 -2.45302 -0.48456 7 9 18
2.39465 -2.46591 -0.47434 7 9 40
2.41430 -2.46289 -0.46854 10 12 55
2.40116 -2.48261 -0.46979 10 12 54
2.41253 -2.47627 -0.45899 23 21 56
2.39938 -2.49600 -0.46023 17 15 50
2.40791 -2.48851 -0.44773 38 33 44
2.39477 -2.50823 -0.44898 24 16 44
2.40694 -2.50223 -0.43865 41 32 39
2.40341 -2.51491 -0.42804 64 45 42
2.37321 -2.51648 -0.40178 101 80 48
2.34401 -2.51826 -0.37622 120 104 64
2.32672 -2.52490 -0.35772 141 133 87
2.32282 -2.53715 -0.34706 158 142 93
2.31061 -2.54580 -0.33161 151 124 84
2.28010 -2.57406 -0.28899 144 128 97
2.27301 -2.56810 -0.31015 149 133 65
2.27319 -2.58483 -0.27670 144 137 120
2.26788 -2.59628 -0.26535 149 140 129
2.26945 -2.61084 -0.25788 145 140 135
2.25138 -2.61644 -0.23935 137 135 128
2.23865 -2.63554 -0.24056 155 158 109
2.25070 -2.62995 -0.23063 129 123 121
2.25047 -2.64370 -0.22216 119 109 122
2.25065 -2.65765 -0.21390 93 88 120
2.25325 -2.67277 -0.20695 84 72 97
2.24550 -2.69691 -0.18590 71 60 71
2.23558 -2.70352 -0.19707 45 46 99
2.24891 -2.71250 -0.17936 57 41 62
2.26794 -2.73578 -0.18127 110 97 120
2.26192 -2.74688 -0.16953 125 108 144
2.27727 -2.76858 -0.16932 58 37 87
2.28310 -2.78565 -0.16391 15 36 94
2.28444 -2.80052 -0.15607 107 152 178
2.27941 -2.82641 -0.13624 121 123 199
2.26644 -2.84588 -0.13747 52 66 194
2.26162 -2.83148 -0.11827 75 90 200
2.24871 -2.85086 -0.11949 52 73 195
2.26051 -2.84510 -0.10913 51 74 199
2.24759 -2.86449 -0.11035 55 75 193
2.31051 -2.95797 -0.08299 43 63 175
2.30028 -2.96478 -0.09450 42 63 177
2.29735 -2.97773 -0.08423 38 54 157
2.43196 -3.20613 -0.03517 45 52 97
2.44708 -3.23048 -0.03317 73 82 84
2.48297 -3.26744 -0.04096 104 115 110
2.45918 -3.26866 -0.02029 135 141 135
2.45177 -3.27967 -0.00744 158 166 156
2.45944 -3.28612 0.01548 153 161 161
2.44868 -3.29329 0.00337 158 162 159
2.43792 -3.30046 -0.00875 162 167 163
2.36341 -3.48690 0.19162 167 167 155
2.35581 -3.48051 0.16892 171 172 176
2.35275 -3.49400 0.17962 161 167 168
1.17719 -3.00768 0.89721 146 151 158
1.17189 -3.00322 0.88137 152 164 184
1.16278 -3.00713 0.90896 140 118 117
1.16261 -3.01810 0.91571 134 109 120
1.16381 -3.03021 0.92200 132 95 123
1.16484 -3.04220 0.92838 130 91 102
1.16067 -3.04991 0.93652 140 142 119
1.15645 -3.05756 0.94467 133 78 80
1.15528 -3.06775 0.95180 130 95 85
1.14700 -3.07196 0.96127 144 150 163
1.13779 -3.09763 0.98448 140 155 150
1.13252 -3.09319 0.96874 142 141 154
1.13025 -3.10232 0.99362 130 93 111
1.12536 -3.10926 1.00191 130 90 117
1.12479 -3.11992 1.00882 124 75 98
1.12081 -3.12763 1.01680 126 79 85
1.11133 -3.14186 1.01590 130 107 97
1.10784 -3.12740 1.02754 133 130 139
1.11591 -3.14568 1.03179 126 104 103
1.10644 -3.15991 1.03090 128 119 133
1.10831 -3.16130 1.04759 128 100 107
1.09905 -3.16421 1.05710 120 65 84
1.09733 -3.17383 1.06435 125 109 124
1.09055 -3.17887 1.07308 121 105 132
1.08878 -3.18844 1.08033 119 89 126
1.08037 -3.20311 1.09622 119 101 122
1.06738 -3.20228 1.10662 119 118 132
0.97114 -3.27584 1.23166 117 144 189
0.96610 -3.27160 1.21659 103 124 153
0.96407 -3.28055 1.22369 101 124 155
0.96203 -3.28951 1.23080 99 124 157
0.96294 -3.27862 1.24022 120 150 192
0.96038 -3.28703 1.24743 126 157 193
0.95130 -3.30066 1.24657 104 124 162
0.95295 -3.29051 1.25576 137 167 204
0.94389 -3.30411 1.25490 105 129 167
0.94415 -3.30349 1.27096 153 184 225
0.94345 -3.31373 1.27773 159 194 232
0.93809 -3.31919 1.28551 163 200 239
0.93495 -3.32691 1.29280 171 205 244
0.93351 -3.33639 1.29973 177 211 245
0.93297 -3.34680 1.30646 178 215 243
0.92054 -3.36673 1.32890 176 211 238
0.91756 -3.37456 1.33612 176 210 242
0.91545 -3.38332 1.34317 177 207 237
0.91312 -3.39183 1.35026 179 201 221
0.90411 -3.40535 1.34941 180 214 243
0.90863 -3.39802 1.35775 177 192 215
0.89963 -3.41153 1.35690 177 211 242
0.90767 -3.40801 1.36458 177 185 217
0.89867 -3.42152 1.36372 174 207 238
0.90744 -3.41879 1.37127 177 181 214
0.90522 -3.42742 1.37834 179 192 222
0.90280 -3.43583 1.38544 179 172 190
0.88325 -3.42537 1.39553 177 102 105
0.87531 -3.42758 1.40352 180 122 132
0.87612 -3.43946 1.41000 177 151 178
0.86723 -3.44053 1.41810 176 127 153
0.87423 -3.45935 1.42358 183 148 178
0.86530 -3.47276 1.42273 171 146 184
0.88009 -3.47698 1.42929 186 176 216
0.87659 -3.48410 1.43652 187 192 235
0.87375 -3.49196 1.44364 190 192 231
0.86480 -3.50539 1.44279 172 126 172
0.86472 -3.49273 1.45168 189 162 193
0.85966 -3.49800 1.45910 182 101 143
0.85972 -3.50912 1.46576 181 120 161
0.85034 -3.50936 1.47376 183 168 190
0.85368 -3.52428 1.47996 180 137 164
0.85240 -3.53388 1.48682 184 144 175
0.85070 -3.54297 1.49373 186 152 198
0.84178 -3.55636 1.49289 171 111 180
0.85050 -3.55385 1.50046 183 134 193
0.84944 -3.56373 1.50730 182 151 205
0.83948 -3.56306 1.51525 184 201 233
0.83754 -3.57187 1.52218 185 213 234
0.82790 -3.57146 1.53002 171 179 190
0.82623 -3.58055 1.53690 115 89 93
0.83638 -3.60389 1.54247 60 38 28
0.82746 -3.61727 1.54163 49 54 61
1.04844 -3.94597 1.57096 81 77 78
1.05828 -3.93120 1.57189 82 79 71
1.05063 -3.93629 1.56328 72 69 66
1.05389 -3.95056 1.58724 98 89 86
1.03859 -3.96075 1.57003 82 79 77
1.04392 -3.95276 1.57883 89 84 84
1.04937 -3.95734 1.59511 105 97 92
1.03409 -3.96752 1.57790 89 84 73
2.24011 -1.61924 -0.85328 16 22 19
2.25211 -1.60124 -0.85214 13 13 8
2.23347 -1.61365 -0.87312 16 35 39
2.24943 -1.61303 -0.84279 13 12 7
2.23080 -1.62544 -0.86377 18 33 35
2.24676 -1.62482 -0.83343 12 11 12
2.23188 -1.63000 -0.83985 15 16 21
2.23851 -1.63558 -0.82003 12 11 16
2.22921 -1.64178 -0.83051 14 15 21
2.01271 -1.95494 -0.45929 44 36 48
2.00634 -1.94958 -0.47833 20 23 35
2.04325 -1.97611 -0.47234 72 70 44
2.03163 -1.99355 -0.47344 77 67 59
2.56927 -2.33208 -0.70229 53 54 34
2.58284 -2.31172 -0.70101 65 54 46
2.57230 -2.31874 -0.71288 64 56 45
2.58030 -2.35037 -0.70060 33 30 26
2.56668 -2.37081 -0.70189 8 4 12
2.58311 -2.36584 -0.69366 14 8 17
2.56947 -2.38631 -0.69495 5 4 9
2.38697 -2.51912 -0.43584 50 36 34
2.37971 -2.51301 -0.45754 19 14 58
2.37678 -2.52591 -0.44731 33 24 40
2.35848 -2.52131 -0.41047 84 65 29
2.33759 -2.52651 -0.38970 99 81 54
2.31811 -2.53218 -0.36984 127 124 96
2.31388 -2.54429 -0.35898 154 150 99
2.29706 -2.55092 -0.34079 143 118 72
2.28680 -2.56032 -0.32647 139 120 73
2.26925 -2.58027 -0.29965 151 131 78
2.26281 -2.59124 -0.28762 154 138 96
2.25797 -2.60289 -0.27651 162 149 109
2.25952 -2.61746 -0.26906 155 147 122
2.24542 -2.62484 -0.25271 151 155 112
2.23826 -2.64921 -0.23200 157 152 112
2.23326 -2.66071 -0.22086 125 116 102
2.23494 -2.67538 -0.21345 89 73 80
2.23258 -2.68815 -0.20378 81 68 86
2.23738 -2.71834 -0.18966 63 55 137
2.25227 -2.73965 -0.18942 101 112 178
2.24287 -2.74904 -0.17583 82 73 142
2.25029 -2.76679 -0.17141 44 52 98
2.25879 -2.78517 -0.16754 24 36 115
2.27437 -2.80723 -0.16741 100 136 203
2.27443 -2.82150 -0.15888 96 120 208
2.26146 -2.84098 -0.16011 50 65 190
2.23648 -2.81618 -0.13004 64 73 193
2.22363 -2.83547 -0.13126 55 73 191
2.27749 -2.93785 -0.09146 58 71 184
2.28040 -2.92499 -0.10165 83 82 182
2.38390 -3.14553 -0.05635 27 34 102
2.39747 -3.12517 -0.05507 33 39 116
2.38693 -3.13219 -0.06693 28 35 110
2.39444 -3.13851 -0.04449 29 38 114
2.39141 -3.15185 -0.03390 31 41 116
2.40493 -3.17301 -0.05757 32 37 93
2.41403 -3.19362 -0.05286 45 48 82
2.41685 -3.21059 -0.04503 53 56 74
2.42534 -3.23101 -0.03991 64 69 76
2.45450 -3.26401 -0.04468 89 96 90
2.46165 -3.28388 -0.03875 127 135 127
2.44355 -3.28839 -0.02076 158 163 157
2.42969 -3.30919 -0.02207 161 166 161
1.17649 -3.01811 0.88644 152 164 176
1.17117 -3.01364 0.87055 155 165 183
1.16903 -3.02308 0.87804 156 166 181
1.16689 -3.03252 0.88553 157 167 184
1.16739 -3.02187 0.89638 151 156 161
1.16137 -3.02810 0.90521 150 149 150
1.16589 -3.04299 0.91035 151 143 152
1.16561 -3.05395 0.91719 150 145 150
1.15602 -3.06834 0.91628 155 167 171
1.15778 -3.05864 0.92662 151 163 155
1.14776 -3.06144 0.93676 145 135 124
1.14671 -3.07173 0.94384 130 98 86
1.14453 -3.08107 0.95130 136 104 114
1.13248 -3.08200 0.96203 141 136 153
1.12298 -3.09627 0.96113 148 140 154
1.12882 -3.10119 0.97667 141 139 135
1.12234 -3.10676 0.98550 137 112 117
1.11852 -3.11462 0.99345 139 126 137
1.11523 -3.12292 1.00122 126 68 108
1.11581 -3.13461 1.00776 128 88 95
1.10970 -3.15161 1.02315 122 89 99
1.10022 -3.16584 1.02225 131 106 118
1.10275 -3.16782 1.03877 129 112 115
1.09399 -3.17114 1.04816 118 49 67
1.09421 -3.18254 1.05484 122 94 98
1.08546 -3.18578 1.06418 115 61 89
1.08469 -3.19627 1.07114 119 85 120
1.07307 -3.19680 1.08126 127 124 137
1.06673 -3.20211 1.08982 128 121 133
1.05735 -3.21619 1.08893 131 129 144
1.06149 -3.20842 1.09803 125 117 132
1.05314 -3.21178 1.10711 127 134 150
1.05105 -3.22097 1.11440 127 142 157
1.04379 -3.22580 1.10622 132 146 161
0.94189 -3.32404 1.26858 113 143 183
0.93687 -3.31981 1.25357 99 123 147
0.93348 -3.32635 1.27708 116 148 192
0.92918 -3.33288 1.28463 122 156 199
0.92405 -3.33851 1.29236 129 163 205
0.92456 -3.35003 1.29885 137 170 211
0.91844 -3.35460 1.30677 145 179 219
0.91578 -3.37378 1.32055 164 196 237
0.91359 -3.38246 1.32763 167 202 241
0.90846 -3.38798 1.33529 171 205 238
0.90310 -3.39324 1.34297 178 210 238
0.89379 -3.42722 1.37128 173 206 234
0.88994 -3.43403 1.37862 173 185 203
0.87306 -3.42641 1.38829 175 145 149
0.87953 -3.44458 1.39376 175 158 175
0.87057 -3.45802 1.39292 168 203 238
0.87340 -3.44878 1.40146 172 189 219
0.86755 -3.46427 1.41572 171 148 174
0.86894 -3.48795 1.42880 170 144 196
0.86399 -3.49339 1.43625 171 139 193
0.85358 -3.50359 1.45117 173 124 171
0.84627 -3.50620 1.45892 173 163 204
0.84170 -3.51194 1.46624 172 182 210
0.84594 -3.52794 1.47228 172 151 184
0.84797 -3.54141 1.47867 174 142 186
0.84595 -3.55016 1.48564 173 131 192
0.84250 -3.56835 1.49949 172 141 206
0.83358 -3.58175 1.49865 158 193 244
0.83227 -3.56731 1.50751 169 194 238
0.83189 -3.57798 1.51425 167 200 238
0.82091 -3.57592 1.52228 157 177 197
0.81249 -3.57687 1.52996 107 95 101
0.80365 -3.59013 1.52912 56 45 48
0.82113 -3.59842 1.53563 59 46 43
0.81225 -3.61175 1.53479 47 53 60
1.03533 -3.93187 1.55541 60 59 62
1.04514 -3.91715 1.55633 63 61 55
1.03752 -3.92222 1.54775 55 53 49
1.02990 -3.92730 1.53917 55 54 52
1.02771 -3.93695 1.54682 53 55 56
1.03577 -3.94481 1.56281 70 69 75
1.00409 -3.99142 1.61762 115 102 92
1.01384 -3.97678 1.61854 118 103 90
1.00626 -3.98183 1.61001 110 98 86
1.01167 -3.98638 1.62615 122 105 95
1.00949 -3.99597 1.63376 124 107 102
1.00191 -4.00102 1.62523 120 107 99
2.22269 -1.63622 -0.85040 20 29 36
2.21606 -1.63064 -0.87022 18 34 42
2.21338 -1.64241 -0.86087 21 35 50
2.21071 -1.65419 -0.85153 26 35 49
2.22501 -1.64895 -0.84474 19 27 37
2.23165 -1.65453 -0.82489 12 12 15
2.22671 -1.66159 -0.83859 15 21 30
2.23336 -1.66718 -0.81872 11 9 18
2.22403 -1.67340 -0.82923 12 12 14
2.01373 -1.96385 -0.47605 27 25 41
2.00734 -1.95847 -0.49515 23 24 28
2.03904 -1.98357 -0.48573 62 58 42
2.53071 -2.31497 -0.70482 58 57 46
2.54417 -2.29476 -0.70355 69 58 49
2.53371 -2.30173 -0.71532 67 59 50
2.52325 -2.30870 -0.72709 63 60 48
2.54093 -2.33285 -0.70278 42 39 39
2.55389 -2.35180 -0.70242 20 13 26
2.54033 -2.37215 -0.70370 6 4 7
2.34350 -2.52600 -0.41896 44 32 30
2.33630 -2.51993 -0.44049 17 15 50
2.33339 -2.53273 -0.43034 18 15 36
2.32727 -2.53311 -0.40089 49 37 36
2.31338 -2.54113 -0.38426 84 74 59
2.29638 -2.54772 -0.36585 131 113 72
2.28046 -2.55468 -0.34814 133 107 64
2.27063 -2.56422 -0.33406 129 105 66
2.26025 -2.57346 -0.31968 137 109 69
2.24747 -2.59264 -0.32089 135 114 80
2.25323 -2.58416 -0.30730 143 118 85
2.24047 -2.60332 -0.30850 132 105 74
2.24884 -2.59601 -0.29645 143 120 85
2.23990 -2.60578 -0.28298 137 118 89
2.22716 -2.62489 -0.28419 73 70 116
2.22847 -2.61435 -0.26812 108 100 100
2.21577 -2.63342 -0.26932 66 68 130
2.22909 -2.62845 -0.26018 99 94 98
2.21637 -2.64754 -0.26138 73 76 144
2.23145 -2.64339 -0.25322 111 110 109
2.22301 -2.65327 -0.24011 125 122 131
2.21030 -2.67236 -0.24131 59 65 164
2.21928 -2.66535 -0.22969 107 100 136
2.22164 -2.68035 -0.22269 72 68 132
2.21382 -2.69046 -0.20997 60 69 139
2.21131 -2.70313 -0.20023 41 47 154
2.22174 -2.72215 -0.19768 120 123 209
2.24095 -2.74564 -0.19992 75 79 192
2.22811 -2.76491 -0.20113 91 97 143
2.23523 -2.75684 -0.18833 76 79 135
2.24029 -2.77345 -0.18266 39 44 116
2.23958 -2.78719 -0.17381 32 47 150
2.22672 -2.80650 -0.17502 43 66 184
2.23009 -2.79646 -0.16017 49 81 192
2.21724 -2.81573 -0.16138 44 63 187
2.22721 -2.80908 -0.15014 50 66 192
2.21436 -2.82836 -0.15135 57 69 188
2.24334 -2.91715 -0.09898 110 91 150
2.25632 -2.89768 -0.09775 85 84 186
2.24624 -2.90439 -0.10910 116 91 154
2.25817 -2.93960 -0.09811 69 71 166
2.27094 -2.96106 -0.09609 39 61 176
2.27358 -2.97703 -0.08875 33 53 159
2.28085 -2.98314 -0.06704 37 49 141
2.28439 -2.99760 -0.08558 33 46 138
2.29168 -3.00373 -0.06380 34 44 128
2.30956 -3.02637 -0.08971 33 40 121
2.31691 -3.03256 -0.06776 28 41 121
2.30660 -3.03942 -0.07936 27 37 114
2.29629 -3.04629 -0.09097 23 30 104
2.35183 -3.10990 -0.07551 23 31 104
2.36530 -3.08969 -0.07424 28 39 115
2.35484 -3.09666 -0.08602 26 34 109
2.36229 -3.10293 -0.06374 27 38 114
2.33837 -3.13011 -0.07679 16 17 62
2.36105 -3.13027 -0.07112 23 27 90
2.37057 -3.15091 -0.06683 20 23 73
2.38547 -3.17484 -0.06513 27 27 62
2.39779 -3.19738 -0.06208 43 46 52
2.40045 -3.21425 -0.05421 54 56 55
2.40560 -3.23267 -0.04752 64 63 67
2.41908 -3.25622 -0.04485 74 80 82
2.44555 -3.28785 -0.04837 113 123 130
2.43468 -3.29673 -0.03379 149 155 159
2.42081 -3.31754 -0.03510 164 168 157
1.19603 -3.02254 0.85476 155 157 165
1.20572 -3.00801 0.85568 157 145 135
1.19819 -3.01302 0.84721 155 147 137
1.18634 -3.03708 0.85385 158 167 184
1.16515 -3.04229 0.89288 158 166 173
1.15983 -3.03782 0.87699 161 168 183
1.15769 -3.04726 0.88448 160 168 177
1.15555 -3.05670 0.89197 160 167 176
1.17505 -3.06173 0.89612 158 165 172
1.16541 -3.07621 0.89521 159 166 175
1.17517 -3.07311 0.90285 157 165 173
1.16551 -3.08760 0.90194 158 166 174
1.16105 -3.08382 0.92130 154 162 161
1.15357 -3.08880 0.91288 159 166 177
1.13683 -3.07457 0.93633 150 144 136
1.13397 -3.08333 0.94402 150 137 130
1.12723 -3.08874 0.95300 148 142 153
1.12319 -3.10763 0.96777 147 140 146
1.12246 -3.11820 0.97474 146 145 143
1.11294 -3.13249 0.97384 152 163 165
1.12398 -3.13075 0.98098 147 155 154
1.10677 -3.12686 0.99328 138 112 132
1.11165 -3.14236 0.99844 140 124 125
1.10644 -3.14896 1.00683 137 117 105
1.10390 -3.15791 1.01436 129 86 96
1.09570 -3.17300 1.03039 131 92 99
1.08665 -3.17603 1.03990 123 50 57
1.08835 -3.18878 1.04612 126 99 91
1.08244 -3.19460 1.05464 121 58 72
1.07287 -3.19703 1.06423 125 99 115
1.06345 -3.21116 1.06334 132 108 120
1.06190 -3.19808 1.07419 133 146 151
1.05559 -3.20338 1.08274 134 140 150
1.05013 -3.22060 1.09772 132 140 154
1.04076 -3.23465 1.09683 137 150 163
0.94182 -3.34699 1.26568 95 121 151
0.93271 -3.36065 1.26482 102 123 144
0.93435 -3.35027 1.27400 95 121 154
0.92527 -3.36391 1.27314 101 122 142
0.92367 -3.35013 1.28300 97 123 156
0.91462 -3.36371 1.28214 100 119 146
0.91527 -3.36331 1.29806 105 129 174
0.90623 -3.37687 1.29720 92 117 149
0.91024 -3.36900 1.30574 110 136 181
0.91730 -3.38755 1.31088 116 145 191
0.91082 -3.39168 1.31886 120 151 195
0.90050 -3.40265 1.33422 137 166 204
0.89738 -3.41030 1.34147 147 177 219
0.89056 -3.41391 1.34944 153 185 227
0.88862 -3.42282 1.35644 156 189 228
0.88653 -3.43156 1.36347 159 196 230
0.88232 -3.43797 1.37089 165 198 226
0.87586 -3.44184 1.37871 172 195 215
0.87045 -3.44685 1.38631 172 198 222
0.86433 -3.46205 1.40064 167 203 236
0.86358 -3.47225 1.40740 166 195 222
0.85961 -3.47881 1.41471 166 177 205
0.85067 -3.49222 1.41387 156 191 228
0.85362 -3.48303 1.42234 165 161 198
0.84470 -3.49642 1.42150 159 194 231
0.85117 -3.49128 1.42937 167 157 199
0.84225 -3.50467 1.42853 162 199 231
0.84393 -3.49401 1.43717 167 166 201
0.83504 -3.50736 1.43632 161 200 235
0.83851 -3.49878 1.44464 166 182 216
0.82963 -3.51212 1.44380 159 198 242
0.83135 -3.50150 1.45236 164 195 234
0.82249 -3.51480 1.45152 157 197 243
0.83153 -3.51273 1.45895 160 191 232
0.82266 -3.52605 1.45811 158 196 240
0.82943 -3.52131 1.46589 161 175 214
0.83595 -3.54004 1.47159 163 160 204
0.83800 -3.55358 1.47797 164 151 204
0.83609 -3.56245 1.48492 163 145 199
0.82396 -3.55913 1.49324 162 167 222
0.81508 -3.57246 1.49240 154 194 244
0.82043 -3.57712 1.50704 157 195 240
0.81063 -3.57642 1.51495 147 172 197
0.80584 -3.58169 1.52220 101 93 102
0.79700 -3.59496 1.52137 58 42 51
1.02065 -3.94050 1.55495 63 68 75
1.01783 -3.94932 1.56265 85 86 76
1.01564 -3.95894 1.57029 88 85 75
0.99250 -3.97892 1.60196 96 88 82
1.00223 -3.96432 1.60288 108 94 86
0.99467 -3.96935 1.59437 99 91 84
0.98494 -3.98396 1.59345 80 76 76
0.98277 -3.99352 1.60104 91 84 86
0.98536 -3.98208 1.60992 102 93 86
0.97566 -3.99665 1.60900 99 95 83
2.21594 -1.61835 -0.87747 15 31 35
2.22790 -1.60039 -0.87634 14 26 30
2.20931 -1.61278 -0.89727 11 15 15
2.21700 -1.66773 -0.84881 19 29 43
2.20499 -1.68575 -0.84994 13 17 23
2.21544 -1.67976 -0.84027 13 16 16
2.22209 -1.68535 -0.82040 11 10 19
2.21276 -1.69157 -0.83090 10 12 19
2.20343 -1.69778 -0.84140 11 12 19
2.03282 -1.99045 -0.49781 49 41 46
2.05045 -2.00810 -0.50233 74 65 49
2.05693 -2.01356 -0.48294 81 65 56
2.04783 -2.01962 -0.49319 80 65 57
2.03873 -2.02569 -0.50344 78 64 53
2.50162 -2.31541 -0.70455 48 51 39
2.52261 -2.33707 -0.70955 29 22 32
2.50913 -2.35730 -0.71083 10 9 8
2.53412 -2.35551 -0.70835 12 6 15
2.52059 -2.37582 -0.70963 9 8 8
2.30904 -2.53632 -0.40734 31 23 25
2.30188 -2.53030 -0.42875 11 14 41
2.29899 -2.54302 -0.41866 19 17 32
2.29500 -2.54421 -0.39059 63 48 26
2.27216 -2.54818 -0.36866 87 71 36
2.26542 -2.55908 -0.35636 87 70 46
2.25985 -2.57048 -0.34477 89 74 66
2.24593 -2.57811 -0.32828 119 101 88
2.22271 -2.60901 -0.28988 107 87 90
2.21155 -2.65910 -0.25033 67 76 159
2.20552 -2.68393 -0.23030 62 59 164
2.19639 -2.69336 -0.21683 57 54 163
2.20547 -2.71169 -0.21362 57 61 173
2.20951 -2.72761 -0.20754 146 142 217
2.23145 -2.75252 -0.21141 65 54 164
2.21860 -2.77179 -0.21262 89 92 161
2.22590 -2.77787 -0.19148 55 65 153
2.21306 -2.79715 -0.19269 49 75 182
2.22459 -2.79130 -0.18231 50 69 175
2.21174 -2.81059 -0.18353 48 59 179
2.19840 -2.86232 -0.11735 116 83 143
2.21122 -2.84308 -0.11614 57 70 189
2.20126 -2.84971 -0.12735 86 73 163
2.20836 -2.85569 -0.10614 63 67 183
2.18845 -2.86895 -0.12856 160 131 106
2.20550 -2.86829 -0.09614 87 72 171
2.19966 -2.87714 -0.10955 139 103 121
2.21157 -2.89777 -0.10739 128 117 125
2.22116 -2.91725 -0.10393 102 112 143
2.24920 -2.94699 -0.11012 64 76 148
2.26576 -2.97061 -0.11016 31 43 143
2.27056 -2.98782 -0.10396 24 38 128
2.27743 -3.00626 -0.09880 24 33 112
2.26425 -3.02603 -0.10004 19 21 86
2.29689 -3.03190 -0.10010 25 29 105
2.32914 -3.09481 -0.09003 25 29 100
2.34255 -3.07469 -0.08876 25 37 110
2.33213 -3.08162 -0.10049 23 32 103
2.34298 -3.11780 -0.08811 19 25 88
2.36587 -3.16137 -0.08161 12 12 44
2.35532 -3.16839 -0.09348 9 9 21
2.38123 -3.18566 -0.08021 21 16 41
2.39058 -3.22180 -0.06657 51 54 46
2.39081 -3.23727 -0.05750 58 56 54
2.38805 -3.25093 -0.04695 63 69 60
2.43057 -3.29247 -0.05848 104 112 124
2.42624 -3.30535 -0.04705 138 148 161
2.41236 -3.32617 -0.04837 164 167 152
1.20894 -3.04415 0.83873 156 158 169
1.19918 -3.05880 0.83781 161 170 183
1.16239 -3.10760 0.91660 159 165 169
1.15704 -3.10310 0.90061 163 168 180
1.15488 -3.11260 0.90815 161 169 177
1.15273 -3.12210 0.91568 159 168 177
1.14513 -3.10416 0.92931 159 164 165
1.13553 -3.11857 0.92840 157 167 178
1.13222 -3.10433 0.94047 157 160 169
1.12266 -3.11868 0.93956 154 167 174
1.12575 -3.10998 0.94939 154 158 165
1.11621 -3.12430 0.94849 155 166 177
1.12193 -3.11789 0.95740 153 159 165
1.11239 -3.13220 0.95650 153 168 176
1.12146 -3.12872 0.96429 152 164 166
1.11191 -3.14304 0.96339 153 165 174
1.12213 -3.15185 0.97757 150 153 158
1.11471 -3.15680 0.96920 156 164 169
1.11257 -3.16620 0.97666 156 164 167
1.12278 -3.16373 0.98413 151 155 156
1.11680 -3.16971 0.99283 148 150 144
1.10258 -3.16825 1.00414 146 133 129
1.10195 -3.17896 1.01108 144 134 131
1.08937 -3.17883 1.02178 142 122 122
1.08372 -3.18493 1.03027 137 105 102
1.08290 -3.19542 1.03726 139 130 124
1.06784 -3.19281 1.04859 135 110 107
1.06345 -3.19995 1.05663 133 103 104
1.05345 -3.21303 1.07302 126 97 124
1.04698 -3.21815 1.08163 128 112 140
1.04600 -3.22842 1.08862 135 141 157
1.03663 -3.24249 1.08773 142 154 165
0.90279 -3.38422 1.30455 89 117 149
0.89779 -3.38001 1.28962 101 122 148
0.89578 -3.38889 1.29666 98 122 143
0.89376 -3.39777 1.30370 97 120 142
0.89597 -3.38792 1.31260 89 117 150
0.88697 -3.40144 1.31175 96 118 144
0.88889 -3.39128 1.32068 92 116 153
0.87990 -3.40477 1.31983 94 117 150
0.88901 -3.40243 1.32726 97 119 163
0.88001 -3.41593 1.32641 91 116 152
0.88434 -3.40837 1.33481 102 125 175
0.86936 -3.41394 1.35098 111 138 183
0.87491 -3.43109 1.35650 115 146 190
0.86213 -3.43892 1.37213 130 168 208
0.86341 -3.45138 1.37850 136 171 211
0.86026 -3.45888 1.38569 140 174 218
0.85823 -3.46764 1.39267 144 181 226
0.85551 -3.47561 1.39978 151 188 231
0.85552 -3.48669 1.40641 155 191 229
0.81731 -3.53079 1.46553 156 195 239
0.82250 -3.54801 1.47141 157 193 239
0.81228 -3.58021 1.49944 154 192 238
0.79870 -3.57486 1.50786 145 166 192
0.79549 -3.58203 1.51491 99 86 100
0.78666 -3.59528 1.51407 65 51 64
1.00494 -3.92301 1.53982 52 58 60
1.00711 -3.91343 1.53222 60 59 60
0.99954 -3.91847 1.52369 71 71 79
1.00209 -3.93175 1.54750 65 77 85
0.99442 -3.93438 1.55564 95 102 93
0.99548 -3.94804 1.56292 97 96 101
1.00087 -3.95258 1.57903 86 77 89
0.99313 -3.95739 1.57053 91 88 102
0.99852 -3.96193 1.58664 94 85 91
0.99095 -3.96697 1.57812 96 97 96
0.98623 -3.97325 1.58594 92 90 81
0.97650 -3.98785 1.58502 79 73 73
2.20680 -1.62457 -0.88806 13 19 27
2.20018 -1.61900 -0.90786 11 12 19
2.19750 -1.63077 -0.89852 13 13 21
2.19483 -1.64253 -0.88919 14 14 25
2.20978 -1.63741 -0.88296 16 23 38
2.19780 -1.65540 -0.88409 14 14 31
2.20562 -1.66121 -0.86514 23 26 42
2.19631 -1.66741 -0.87563 14 14 27
2.19363 -1.67920 -0.86628 13 14 26
2.20627 -1.67366 -0.85827 18 24 39
2.19427 -1.69167 -0.85940 13 12 21
2.04750 -2.01607 -0.51675 68 58 37
2.45830 -2.29662 -0.70326 55 58 44
2.47157 -2.27671 -0.70201 70 62 49
2.46126 -2.28357 -0.71361 68 61 49
2.47124 -2.31529 -0.70326 34 33 35
2.45792 -2.33529 -0.70452 12 10 18
2.49265 -2.33709 -0.70869 18 13 21
2.47924 -2.35721 -0.70996 12 12 13
2.28598 -2.55132 -0.40247 31 25 26
2.27884 -2.54531 -0.42382 18 16 42
2.26897 -2.55780 -0.38394 36 31 31
2.25706 -2.56642 -0.36852 33 28 44
2.25161 -2.57786 -0.35698 40 38 64
2.23701 -2.58516 -0.34003 78 75 103
2.22464 -2.59339 -0.32446 106 100 128
2.21938 -2.60479 -0.31310 112 103 138
2.21245 -2.61541 -0.30078 76 68 130
2.20484 -2.62568 -0.28808 54 61 150
2.21408 -2.64385 -0.28519 65 70 164
2.21023 -2.65589 -0.27467 72 78 168
2.20197 -2.66582 -0.26162 60 63 174
2.19223 -2.67499 -0.24774 72 69 188
2.18843 -2.68700 -0.23729 120 116 207
2.21025 -2.71156 -0.24142 139 133 206
2.20072 -2.72082 -0.22767 165 164 212
2.20117 -2.73500 -0.21959 147 145 219
2.21510 -2.75597 -0.21907 76 73 151
2.21342 -2.78324 -0.20131 63 78 177
2.20345 -2.78989 -0.21254 58 79 190
2.20208 -2.81968 -0.16976 54 65 175
2.18926 -2.83893 -0.17098 162 119 113
2.19296 -2.82900 -0.15633 96 82 160
2.20005 -2.83496 -0.13514 69 74 181
2.18015 -2.84821 -0.15754 167 138 73
2.18624 -2.83954 -0.14423 133 96 140
2.18139 -2.85106 -0.13317 150 113 125
2.18341 -2.88038 -0.11739 145 134 88
2.19683 -2.90186 -0.11612 93 107 85
2.21504 -2.92611 -0.11733 51 72 104
2.23608 -2.95209 -0.11995 33 42 116
2.25688 -2.97812 -0.12232 21 27 109
2.26100 -2.99498 -0.11579 18 27 97
2.28018 -3.02042 -0.11713 18 23 87
2.31189 -3.06802 -0.11602 20 24 87
2.31533 -3.08488 -0.10892 20 24 83
2.33121 -3.10902 -0.10818 18 19 66
2.31776 -3.12922 -0.10945 13 12 18
2.34656 -3.13300 -0.10707 11 14 43
2.33303 -3.15330 -0.10835 15 13 19
2.36787 -3.16066 -0.10892 10 10 32
2.36891 -3.19169 -0.09127 20 11 32
2.37806 -3.21245 -0.08676 38 43 31
2.38163 -3.24526 -0.07023 53 53 41
2.37753 -3.25811 -0.05901 87 89 74
2.40017 -3.28751 -0.06096 129 132 136
2.38636 -3.30823 -0.06227 157 163 157
2.41055 -3.30947 -0.05679 148 159 159
2.39669 -3.33027 -0.05810 161 167 155
1.11802 -3.18242 0.98166 155 164 165
1.11057 -3.18738 0.97327 153 166 172
1.10843 -3.19681 0.98075 155 165 170
1.11361 -3.18980 0.98987 155 161 160
1.10403 -3.20418 0.98896 154 165 172
1.10567 -3.19396 0.99920 153 159 159
1.09611 -3.20831 0.99830 153 165 169
1.09810 -3.19841 1.00839 151 157 156
1.08856 -3.21273 1.00748 155 163 169
1.08963 -3.20198 1.01782 149 152 151
1.08012 -3.21626 1.01692 155 161 167
1.08183 -3.20611 1.02702 149 155 156
1.07234 -3.22035 1.02612 154 160 168
1.06008 -3.20849 1.04719 145 135 132
1.05272 -3.21284 1.05614 143 124 128
1.04821 -3.21982 1.06420 139 118 132
1.04528 -3.22828 1.07177 138 131 151
1.03589 -3.24237 1.07089 148 157 169
1.04670 -3.24084 1.07806 141 149 163
1.03730 -3.25496 1.07717 147 157 167
0.87580 -3.42234 1.33387 89 115 148
0.87082 -3.41815 1.31900 98 121 147
0.86882 -3.42699 1.32601 97 121 140
0.86681 -3.43583 1.33302 96 121 140
0.85773 -3.42436 1.35066 86 115 151
0.84880 -3.43777 1.34982 94 119 148
0.84281 -3.41869 1.36013 87 117 157
0.83394 -3.43201 1.35929 92 117 148
0.83577 -3.42174 1.36802 89 119 162
0.82691 -3.43503 1.36719 90 116 147
0.83248 -3.42896 1.37518 93 120 165
0.82363 -3.44225 1.37434 88 115 147
0.83104 -3.43827 1.38198 98 125 170
0.82219 -3.45156 1.38115 86 114 151
0.82942 -3.44739 1.38883 103 131 179
0.82540 -3.45375 1.39610 108 137 188
