ply
format ascii 1.0
element face 0
property list uchar int vertex_indices
element vertex 1343
property float x
property float y
property float z
property uchar diffuse_red
property uchar diffuse_green
property uchar diffuse_blue
end_header
2.48531 -3.44627 0.18905 151 162 162
2.48302 -3.43935 0.16462 154 157 149
2.46281 -3.44682 0.20412 170 178 188
2.42390 -3.43393 0.22421 210 218 228
2.21308 -3.45903 0.37397 222 223 217
2.21090 -3.45244 0.35071 219 222 218
2.18407 -3.45198 0.39005 207 206 186
1.15089 -3.11812 0.92734 155 163 171
1.14924 -3.11312 0.90971 156 169 176
1.14374 -3.12218 0.91723 155 169 177
0.78710 -3.66074 1.40066 88 114 142
0.77456 -3.67374 1.39809 71 73 91
0.84912 -3.96451 1.49053 42 42 62
0.84738 -3.95925 1.47196 44 46 47
0.84159 -3.96879 1.47987 42 44 51
0.84362 -3.97455 1.49847 53 58 75
0.84289 -3.99267 1.50675 67 73 78
0.83336 -4.01536 1.52280 72 76 84
0.82339 -4.01774 1.53040 84 99 99
0.81773 -4.02753 1.53834 95 113 109
0.81201 -4.03723 1.54628 89 91 95
0.80414 -4.04313 1.55401 81 74 85
0.79643 -4.04928 1.56174 73 75 95
0.78836 -4.05477 1.56942 73 73 93
0.78869 -4.07520 1.57800 98 106 105
0.76779 -4.09748 1.60136 71 58 67
0.76008 -4.18480 1.64403 58 63 76
1.09202 -1.02720 0.05517 253 254 251
1.10046 -1.01845 0.05690 254 254 254
1.09569 -1.02116 0.05015 254 254 254
1.08337 -1.03896 0.06594 140 132 140
1.07494 -1.04770 0.06421 94 82 71
1.12326 -1.05575 0.04666 96 81 84
1.11467 -1.06465 0.04490 101 89 77
1.12154 -1.08377 0.05979 90 85 75
1.13018 -1.07481 0.06157 100 89 78
1.12530 -1.07759 0.05466 100 90 77
1.11290 -1.09273 0.05802 33 31 45
1.97490 -1.52734 -0.31644 53 54 65
1.97331 -1.52251 -0.33346 54 53 67
1.96800 -1.53126 -0.32620 58 56 65
1.97803 -1.53888 -0.31357 38 32 42
1.97965 -1.54997 -0.30990 19 11 25
1.98125 -1.55482 -0.29279 11 11 13
1.97432 -1.55876 -0.30261 11 10 14
1.96738 -1.56269 -0.31242 14 10 19
1.92093 -1.67905 -0.21573 19 18 30
1.91932 -1.67418 -0.23292 12 13 13
1.93394 -1.69497 -0.21754 30 29 43
1.92154 -1.70783 -0.22009 33 31 42
1.99360 -1.75166 -0.23286 61 44 65
1.99194 -1.74664 -0.25057 41 33 47
2.01014 -1.76957 -0.23616 83 75 69
1.99735 -1.78284 -0.23879 90 77 66
2.60240 -2.22785 -0.43292 53 46 43
2.60036 -2.22170 -0.45461 62 53 47
2.59710 -2.23966 -0.42435 35 26 34
2.58154 -2.25581 -0.42754 20 8 22
2.55975 -2.36623 -0.34542 13 9 85
2.55770 -2.36004 -0.36730 13 11 36
2.55281 -2.37741 -0.33604 32 31 105
2.53919 -2.39988 -0.31738 34 16 83
2.53007 -2.42470 -0.30072 46 23 37
2.53895 -2.41965 -0.28816 32 16 58
2.52324 -2.43594 -0.29138 28 12 36
2.51511 -2.46137 -0.27511 5 7 68
2.50819 -2.47259 -0.26572 52 49 91
2.53215 -2.50045 -0.26969 124 123 115
2.52134 -2.50967 -0.25857 155 139 137
2.51083 -2.51904 -0.24759 128 113 181
2.50822 -2.53273 -0.24001 93 90 197
2.50435 -2.54575 -0.23187 76 74 179
2.50201 -2.55965 -0.22437 169 163 170
2.49326 -2.56998 -0.21415 234 155 124
2.47739 -2.58644 -0.21740 238 157 131
2.49055 -2.59904 -0.19991 181 142 169
2.47700 -2.60662 -0.18768 79 54 172
2.46476 -2.61491 -0.17602 45 43 176
2.47188 -2.63445 -0.17238 87 84 189
2.47331 -2.65077 -0.16634 159 143 190
2.45734 -2.66732 -0.16962 238 133 108
2.45214 -2.66928 -0.14438 236 150 145
2.43621 -2.68580 -0.14765 215 157 144
2.43502 -2.69012 -0.12411 232 159 140
2.40802 -2.68928 -0.10656 222 190 210
2.39830 -2.69888 -0.09601 147 138 222
2.38248 -2.71528 -0.09925 68 73 204
2.40492 -2.71854 -0.09199 70 75 211
2.38694 -2.72302 -0.07814 78 89 208
2.37768 -2.73286 -0.06779 114 129 194
2.36895 -2.77445 -0.04421 176 147 88
2.36688 -2.76818 -0.06634 174 153 99
2.37631 -2.79498 -0.04030 140 112 84
2.36037 -2.81151 -0.04357 48 29 58
2.35853 -2.81524 -0.01984 34 19 85
2.37661 -2.84306 -0.01993 38 45 116
2.38679 -2.86588 -0.01692 43 50 143
2.37069 -2.88259 -0.02022 48 61 172
2.38471 -2.88069 -0.00920 44 56 159
2.36859 -2.89742 -0.01251 49 58 167
2.54086 -3.15721 0.00553 54 58 96
2.53862 -3.15043 -0.01839 46 52 111
2.53116 -3.16271 -0.00819 48 56 107
2.56715 -3.19367 0.00370 91 97 85
2.58683 -3.22569 0.00434 113 119 118
2.56512 -3.22791 0.01970 139 143 135
2.54775 -3.24592 0.01613 164 164 147
2.55432 -3.23797 0.03117 157 155 145
2.55349 -3.25534 0.03914 158 156 144
2.54760 -3.26902 0.04891 158 154 143
2.55990 -3.29626 0.05241 163 160 147
2.54241 -3.31440 0.04882 178 181 167
2.56692 -3.31975 0.05780 165 167 157
2.54937 -3.33796 0.05420 174 174 162
2.57196 -3.34188 0.06392 169 171 155
2.55435 -3.36015 0.06031 169 172 162
2.56873 -3.35785 0.07290 167 168 137
2.55110 -3.37613 0.06928 160 167 164
2.58228 -3.38669 0.07625 160 163 134
2.56455 -3.40508 0.07261 158 166 166
2.59566 -3.41560 0.07975 159 161 145
2.57783 -3.43409 0.07609 164 169 167
2.59565 -3.43436 0.08778 162 166 155
2.57779 -3.45289 0.08412 163 166 157
2.47259 -3.44963 0.17594 153 159 153
2.47030 -3.44272 0.15153 161 160 156
2.45765 -3.45623 0.18867 170 180 182
2.40713 -3.43379 0.21258 203 221 229
2.40254 -3.44854 0.22193 209 220 228
2.40480 -3.45536 0.24602 213 216 221
2.39503 -3.46091 0.23221 212 221 227
2.40010 -3.48372 0.23860 212 222 230
2.40990 -3.47815 0.25247 212 219 227
2.40237 -3.49057 0.26278 214 217 223
2.20344 -3.46420 0.36069 222 224 215
2.16803 -3.45145 0.37872 207 206 191
2.12562 -3.43222 0.39863 153 147 142
2.10925 -3.44919 0.39527 81 92 99
1.13316 -3.12552 0.92568 153 165 179
1.12767 -3.13455 0.93318 151 161 178
1.10254 -3.18238 0.97032 149 162 166
1.10803 -3.17334 0.96281 150 162 171
1.09444 -3.20386 0.98488 149 162 171
1.08810 -3.21192 0.99253 149 164 172
1.07308 -3.20964 1.00152 147 164 167
1.06506 -3.21560 1.00939 147 163 170
1.05113 -3.22998 1.02478 150 164 168
1.04388 -3.23680 1.03251 149 163 167
1.03993 -3.24762 1.03976 152 163 166
1.03396 -3.25599 1.04729 150 164 168
1.02431 -3.25978 1.05532 149 162 167
1.02595 -3.26473 1.07279 149 157 167
1.01899 -3.26891 1.06276 148 160 170
1.02063 -3.27386 1.08023 150 156 169
1.01355 -3.27789 1.07021 149 160 171
1.00646 -3.28191 1.06019 117 134 159
0.78903 -3.66143 1.38323 91 120 153
0.80158 -3.64841 1.38581 91 123 157
0.79448 -3.65244 1.37576 93 122 157
0.78738 -3.65647 1.36572 94 122 154
0.78352 -3.67035 1.39070 85 106 126
0.84528 -3.99442 1.48840 44 47 57
0.84353 -3.98914 1.46974 42 44 40
0.83771 -3.99872 1.47770 45 45 43
0.83190 -4.00830 1.48565 50 48 53
0.83945 -4.00398 1.49635 50 51 63
0.82607 -4.01786 1.49361 53 55 66
0.83628 -4.01811 1.50450 50 53 72
0.82289 -4.03200 1.50175 56 62 67
0.83116 -4.02892 1.51252 55 62 78
0.82305 -4.03454 1.52030 69 77 81
0.81422 -4.03887 1.52801 76 87 83
0.80086 -4.05273 1.52527 61 62 61
0.80806 -4.04781 1.53593 73 75 78
0.79470 -4.06167 1.53319 58 58 59
0.79978 -4.05302 1.54365 68 62 71
0.78643 -4.06686 1.54091 51 53 52
0.78978 -4.05512 1.55118 60 62 69
0.77646 -4.06893 1.54844 44 52 56
0.78109 -4.05949 1.55881 56 63 70
0.77406 -4.06676 1.56658 70 81 84
0.76765 -4.07513 1.57442 78 87 89
0.75436 -4.08891 1.57169 66 71 68
0.75853 -4.07858 1.58194 72 72 75
0.74527 -4.09234 1.57922 69 68 60
0.75995 -4.14162 1.60797 70 75 82
0.75967 -4.16150 1.61666 77 78 85
0.75980 -4.18225 1.62546 61 61 65
0.74633 -4.19622 1.62269 43 55 44
1.08972 -1.02358 0.04408 254 254 253
1.09815 -1.01484 0.04581 254 254 254
1.09339 -1.01754 0.03907 254 254 254
1.08862 -1.02025 0.03233 254 254 254
1.08941 -1.03042 0.04720 238 236 235
1.08010 -1.03510 0.05541 162 156 162
1.07167 -1.04384 0.05368 89 82 71
1.11696 -1.05108 0.03760 100 89 84
1.10839 -1.05997 0.03584 99 88 83
1.97153 -1.54295 -0.32359 46 45 49
1.96993 -1.53811 -0.34066 57 56 66
1.97390 -1.55431 -0.32034 26 17 37
1.91460 -1.68326 -0.22591 14 14 24
1.91299 -1.67839 -0.24311 13 13 13
1.90763 -1.68722 -0.23578 12 13 18
1.92922 -1.69984 -0.22861 23 22 39
1.97989 -1.75314 -0.23977 47 38 53
1.97824 -1.74813 -0.25744 36 31 42
2.00535 -1.77466 -0.24760 79 74 64
1.99255 -1.78794 -0.25023 88 76 74
2.59197 -2.23209 -0.44459 51 46 45
2.58994 -2.22595 -0.46628 61 55 53
2.58825 -2.24464 -0.43677 35 23 36
2.57269 -2.26078 -0.43997 20 10 19
2.54922 -2.37044 -0.35721 14 11 82
2.54717 -2.36424 -0.37908 10 12 39
2.54342 -2.38218 -0.34835 31 34 103
2.53461 -2.39240 -0.33812 57 52 108
2.52886 -2.40417 -0.32928 46 21 82
2.52437 -2.41661 -0.32099 56 36 53
2.51287 -2.42540 -0.30958 69 46 29
2.51066 -2.43904 -0.30230 46 30 38
2.49716 -2.46159 -0.28370 12 19 97
2.48146 -2.47786 -0.28692 22 33 134
2.48989 -2.47259 -0.27417 26 39 122
2.49390 -2.48968 -0.26957 46 74 147
2.47816 -2.50600 -0.27280 32 37 153
2.48644 -2.50061 -0.25995 51 59 154
2.47071 -2.51693 -0.26317 38 45 160
2.49017 -2.51768 -0.25517 42 46 168
2.48757 -2.53134 -0.24763 38 43 176
2.48304 -2.54396 -0.23924 93 77 183
2.48544 -2.56048 -0.23381 193 150 174
2.46700 -2.56529 -0.21946 237 132 107
2.46685 -2.59571 -0.20642 147 109 185
2.46986 -2.61279 -0.20117 111 87 196
2.46315 -2.62429 -0.19180 151 131 182
2.44725 -2.64078 -0.19506 237 133 98
2.45991 -2.63783 -0.18388 200 151 163
2.45391 -2.64976 -0.17479 228 150 130
2.43799 -2.66627 -0.17806 219 158 124
2.43740 -2.67096 -0.15476 235 146 123
2.42231 -2.69297 -0.13533 174 130 181
2.41010 -2.70112 -0.12371 133 114 211
2.39730 -2.70885 -0.11188 87 84 206
2.37741 -2.72773 -0.09057 81 89 200
2.37441 -2.74151 -0.08271 102 102 177
2.36990 -2.75436 -0.07424 140 130 136
2.35390 -2.77563 -0.05451 167 148 85
2.36260 -2.79706 -0.05120 102 84 70
2.36774 -2.83229 -0.03965 56 61 92
2.37831 -2.85531 -0.03691 62 73 135
2.37929 -2.87212 -0.03041 53 60 158
2.54030 -3.18694 -0.00398 76 84 95
2.53804 -3.18013 -0.02801 53 54 115
2.56798 -3.22477 -0.00637 110 116 113
2.55073 -3.23015 0.00744 144 146 140
2.54016 -3.25833 0.02648 159 155 151
2.52279 -3.27634 0.02291 169 169 166
2.53414 -3.27190 0.03627 157 164 168
2.51676 -3.28992 0.03270 169 171 165
2.53700 -3.29214 0.04297 172 180 174
2.51957 -3.31021 0.03939 169 172 162
2.46492 -3.45705 0.16122 161 167 157
2.46263 -3.45013 0.13679 163 166 162
2.45502 -3.46267 0.14721 159 167 162
2.44741 -3.47521 0.15762 162 169 168
2.44142 -3.45668 0.17674 169 175 170
2.42761 -3.46406 0.18910 175 178 184
2.41669 -3.47377 0.20052 178 171 193
2.39184 -3.47190 0.21631 182 192 222
2.39027 -3.48926 0.22474 183 193 219
2.39158 -3.50909 0.23231 179 198 212
2.38560 -3.52287 0.24215 178 202 218
2.38787 -3.52973 0.26640 214 217 223
2.36805 -3.52683 0.25556 179 202 217
2.37032 -3.53368 0.27974 214 216 224
2.25626 -3.48697 0.31321 193 217 221
2.21648 -3.47086 0.33291 196 218 221
2.20503 -3.47920 0.34410 199 219 213
2.13590 -3.43669 0.37217 180 190 169
2.11947 -3.45373 0.36880 77 67 79
2.21178 -3.52202 0.35781 111 114 109
2.19495 -3.53948 0.35436 80 84 98
1.17457 -3.13806 0.88680 151 168 171
1.18736 -3.12480 0.88942 159 168 174
1.18013 -3.12890 0.87919 160 171 178
1.18180 -3.13395 0.89703 158 168 173
1.15342 -3.12982 0.89741 132 155 159
1.13949 -3.12949 0.90657 122 145 164
1.13652 -3.14141 0.91362 113 131 165
1.12773 -3.14676 0.92176 102 114 160
1.12939 -3.15176 0.93941 148 159 178
1.12301 -3.15672 0.92915 97 111 155
1.12467 -3.16172 0.94680 148 161 175
1.12143 -3.17028 0.93597 97 113 153
1.12309 -3.17529 0.95366 150 162 174
1.11740 -3.18108 0.94325 99 114 150
1.11038 -3.20393 0.95766 99 114 150
1.10415 -3.21221 0.96533 100 119 152
1.09978 -3.22267 0.97270 100 121 155
1.08690 -3.22304 0.98145 99 120 156
1.07605 -3.22573 0.98984 100 121 156
1.07146 -3.23588 0.99722 105 123 160
1.07841 -3.25997 1.00283 109 125 158
1.07138 -3.26725 1.01062 110 128 154
1.05251 -3.27584 1.02687 113 129 157
1.02045 -3.26781 1.04485 115 129 159
1.01671 -3.27893 1.05208 116 131 156
1.01308 -3.30614 1.06607 118 136 160
1.02021 -3.30209 1.07615 148 161 169
1.01473 -3.31111 1.08364 147 162 170
1.00761 -3.31516 1.07356 119 137 163
1.01359 -3.33883 1.07964 121 138 166
1.02075 -3.33477 1.08977 147 162 173
1.01525 -3.34384 1.09730 148 161 171
1.01648 -3.35870 1.08615 123 136 162
1.01815 -3.36372 1.10388 145 160 171
1.00984 -3.36635 1.09385 125 135 162
1.01150 -3.37137 1.11156 141 159 173
1.01116 -3.38435 1.10062 126 137 164
1.01283 -3.38938 1.11839 140 156 173
1.00856 -3.39731 1.10787 126 136 164
1.01022 -3.40235 1.12566 144 156 173
1.00656 -3.41111 1.11507 128 137 163
1.00823 -3.41615 1.13290 143 155 170
0.99587 -3.41347 1.12321 125 137 162
0.99754 -3.41851 1.14099 143 155 168
0.97940 -3.42454 1.13891 124 137 158
0.98106 -3.42956 1.15665 139 155 171
0.96923 -3.42740 1.14692 126 140 161
0.97089 -3.43242 1.16462 136 155 169
0.96027 -3.43184 1.15478 126 141 163
0.96193 -3.43685 1.17246 135 153 169
0.94609 -3.44565 1.17013 126 139 169
0.94774 -3.45065 1.18778 132 151 164
0.93346 -3.46153 1.18531 125 139 161
0.93511 -3.46653 1.20294 131 146 165
0.93148 -3.47547 1.19256 125 137 164
0.93313 -3.48047 1.21022 129 145 164
0.92367 -3.48132 1.20026 123 138 164
0.92532 -3.48632 1.21791 129 143 166
0.91311 -3.50006 1.21528 124 137 162
0.91476 -3.50506 1.23293 125 141 162
0.90122 -3.51692 1.23038 122 139 162
0.90288 -3.52192 1.24802 121 139 161
0.89634 -3.52686 1.23787 121 139 164
0.89799 -3.53186 1.25552 118 138 158
0.89179 -3.53729 1.24535 118 138 161
0.89344 -3.54229 1.26300 114 137 156
0.87290 -3.54390 1.26076 112 135 155
0.87455 -3.54888 1.27835 108 132 155
0.86544 -3.55001 1.26835 108 132 156
0.86708 -3.55499 1.28592 105 130 157
0.85996 -3.55904 1.27584 105 131 159
0.78695 -3.67345 1.37323 91 119 145
0.78531 -3.66848 1.35567 94 123 150
0.77795 -3.67682 1.38067 81 99 114
0.78365 -3.70375 1.38832 68 72 81
0.78530 -3.70874 1.40594 63 62 74
0.77816 -3.71280 1.39584 60 63 67
0.82080 -4.04811 1.51000 62 63 59
0.81904 -4.04281 1.49128 62 66 63
0.81321 -4.05242 1.49926 58 62 51
0.80738 -4.06203 1.50724 56 59 49
0.81070 -4.05024 1.51764 61 62 57
0.79731 -4.06413 1.51489 57 59 57
0.76628 -4.07055 1.55593 52 62 70
0.76454 -4.06530 1.53739 52 56 57
0.75877 -4.07482 1.54530 54 62 58
0.75299 -4.08433 1.55320 62 69 60
0.75591 -4.07173 1.56335 61 72 70
0.74265 -4.08549 1.56063 67 68 63
0.75621 -4.15304 1.59773 60 64 71
0.75446 -4.14774 1.57902 60 58 56
0.74863 -4.15735 1.58700 55 57 60
1.07702 -1.03130 0.04479 184 180 181
1.11183 -1.08218 0.04292 76 77 74
1.13003 -1.10135 0.03880 19 18 37
1.12624 -1.10760 0.04398 18 16 24
1.12131 -1.11040 0.03701 19 16 24
1.96750 -1.54785 -0.33491 51 51 54
1.96533 -1.55770 -0.32929 34 30 43
1.96560 -1.56840 -0.32495 17 11 26
1.96721 -1.57325 -0.30781 12 12 12
1.96026 -1.57720 -0.31764 11 11 13
1.95332 -1.58114 -0.32747 10 10 12
1.92062 -1.70321 -0.23774 19 18 30
1.91900 -1.69831 -0.25504 12 13 16
1.91361 -1.70719 -0.24766 17 14 24
1.94156 -1.72245 -0.24367 30 27 37
1.92905 -1.73542 -0.24623 31 30 43
1.96655 -1.75474 -0.24680 32 33 46
1.95940 -1.75880 -0.25692 31 31 51
2.00300 -1.78075 -0.26029 69 59 65
2.58541 -2.23812 -0.45809 49 47 43
2.58338 -2.23197 -0.47979 60 54 49
2.57952 -2.24967 -0.44925 34 20 34
2.56396 -2.26581 -0.45245 19 12 14
2.53162 -2.37106 -0.36575 10 12 71
2.52957 -2.36488 -0.38757 11 11 40
2.51597 -2.38729 -0.36896 18 19 75
2.52644 -2.38310 -0.35719 15 20 84
2.52099 -2.39499 -0.34850 35 25 73
2.51472 -2.40649 -0.33943 65 41 60
2.50644 -2.41693 -0.32945 93 72 35
2.49415 -2.42527 -0.31767 108 80 28
2.48626 -2.43588 -0.30789 102 71 48
2.48567 -2.45037 -0.30137 41 28 93
2.47002 -2.46660 -0.30458 30 29 122
2.48185 -2.46318 -0.29338 19 26 118
2.47633 -2.49002 -0.27833 26 38 147
2.46063 -2.50630 -0.28155 43 46 155
2.46604 -2.52941 -0.25476 36 43 164
2.46398 -2.52319 -0.27672 41 50 159
2.44777 -2.53427 -0.24043 125 121 174
2.45015 -2.55071 -0.23509 209 133 153
2.44472 -2.56277 -0.22634 241 128 109
2.45498 -2.61447 -0.21137 207 145 148
2.45197 -2.62811 -0.20358 227 139 103
2.43608 -2.64459 -0.20684 212 151 124
2.43739 -2.65041 -0.18436 235 141 107
2.42841 -2.65551 -0.19707 189 147 144
2.42429 -2.67359 -0.16576 179 140 158
2.40840 -2.69007 -0.16902 94 99 193
2.39995 -2.67439 -0.14908 135 115 179
2.38414 -2.69079 -0.15232 94 102 201
2.38379 -2.68004 -0.13583 98 86 197
2.38437 -2.69591 -0.12951 99 100 206
2.38729 -2.71329 -0.12413 88 105 202
2.37144 -2.72973 -0.12738 57 73 177
2.37831 -2.72334 -0.11385 60 80 194
2.36247 -2.73976 -0.11710 80 83 148
2.36276 -2.72923 -0.10091 63 77 181
2.34696 -2.74562 -0.10415 129 113 102
2.35414 -2.73944 -0.09081 98 97 152
2.33835 -2.75582 -0.09405 156 128 69
2.35084 -2.75302 -0.08285 144 126 114
2.34352 -2.76405 -0.07327 169 149 90
2.32881 -2.77031 -0.06075 132 126 75
2.31304 -2.78667 -0.06398 43 35 63
2.33915 -2.79278 -0.05819 55 61 69
2.33627 -2.80675 -0.05035 45 50 85
2.35613 -2.83573 -0.05143 63 78 95
2.37090 -2.86159 -0.05042 78 91 119
2.37494 -2.88047 -0.04515 69 91 190
2.36913 -2.89283 -0.03602 49 65 181
2.35299 -2.90956 -0.03933 41 65 184
2.36141 -2.90391 -0.02616 48 62 176
2.36352 -2.91028 -0.00366 48 54 150
2.35570 -2.91634 -0.01706 46 56 157
2.35781 -2.92272 0.00545 48 49 124
2.34868 -2.92790 -0.00746 44 51 130
2.52109 -3.18563 -0.01430 65 72 109
2.51885 -3.17884 -0.03827 52 50 117
2.53919 -3.21655 -0.01338 98 104 113
2.53748 -3.23320 -0.00519 136 139 142
2.53103 -3.24641 0.00472 161 164 155
2.51369 -3.26439 0.00117 170 175 171
2.52882 -3.26278 0.01313 172 174 163
2.51146 -3.28078 0.00957 171 173 163
2.40355 -3.45797 0.17979 162 165 169
2.40129 -3.45112 0.15561 163 167 164
2.39375 -3.46354 0.16592 164 169 168
2.40390 -3.47691 0.18756 154 155 156
2.44159 -3.52699 0.18342 121 138 135
2.39917 -3.51048 0.20494 102 117 121
2.34229 -3.48143 0.23086 85 91 106
2.32805 -3.48800 0.24320 83 86 120
2.33212 -3.51012 0.24982 94 100 124
2.31822 -3.51694 0.26203 103 102 118
2.29689 -3.53599 0.28441 114 99 148
2.28501 -3.54440 0.29595 120 102 155
2.26457 -3.54524 0.31003 118 99 139
2.20037 -3.50723 0.33708 103 83 92
1.21585 -3.16504 0.85366 162 170 181
1.22884 -3.15157 0.85632 161 168 178
1.22149 -3.15574 0.84593 161 169 181
1.21415 -3.15990 0.83555 164 170 180
1.22319 -3.16087 0.86404 162 169 178
1.20150 -3.16469 0.86315 148 152 170
1.19873 -3.17714 0.87027 100 98 137
1.15306 -3.14155 0.88590 54 67 106
1.15254 -3.15633 0.89250 47 67 112
1.13977 -3.16957 0.88988 38 38 86
1.13946 -3.17235 0.90806 40 45 102
1.12670 -3.18559 0.90544 46 44 79
1.12832 -3.17507 0.91669 40 47 98
1.11559 -3.18827 0.91408 41 40 76
1.12723 -3.18931 0.92344 41 50 100
1.11448 -3.20254 0.92083 37 39 74
1.12288 -3.19982 0.93081 39 49 103
1.11012 -3.21305 0.92819 36 39 79
1.11675 -3.20827 0.93850 39 49 105
1.10399 -3.22150 0.93588 32 34 72
1.09817 -3.23337 0.96158 40 56 108
1.08479 -3.23314 0.97047 40 55 109
1.07536 -3.23754 0.97867 39 54 109
1.07321 -3.26646 0.99234 48 57 112
1.07163 -3.28040 0.99930 49 64 112
1.06738 -3.29112 1.00668 48 61 111
1.06372 -3.30258 1.01399 52 64 113
1.06127 -3.31558 1.02112 52 66 115
1.04395 -3.31004 1.03042 54 71 113
1.02749 -3.30543 1.03952 57 72 112
1.03498 -3.33090 1.04526 58 74 114
1.01480 -3.35365 1.06843 66 85 122
1.02203 -3.37922 1.07439 73 86 123
0.99430 -3.35957 1.08471 77 87 124
0.98582 -3.36474 1.09259 79 87 124
0.97771 -3.40302 1.11422 76 92 128
0.98526 -3.42956 1.12037 77 93 126
0.97919 -3.45463 1.13504 81 96 119
0.96993 -3.45876 1.14301 83 98 128
0.96491 -3.46864 1.15055 84 98 134
0.95223 -3.46799 1.15880 84 97 135
0.94503 -3.47480 1.16652 83 97 132
0.93535 -3.49495 1.18154 86 99 132
0.92973 -3.50394 1.18911 86 102 128
0.91919 -3.52293 1.20422 90 104 127
0.90831 -3.52440 1.21215 91 105 131
0.90012 -3.52966 1.21988 90 108 134
0.89206 -3.53508 1.22758 89 108 140
0.88444 -3.54108 1.23523 88 109 142
0.87008 -3.53721 1.24324 88 109 139
0.86298 -3.54385 1.25082 89 108 137
0.86012 -3.55673 1.25818 89 110 137
0.85330 -3.56377 1.26574 91 113 143
0.85495 -3.56875 1.28332 107 131 162
0.84909 -3.57468 1.27318 97 119 151
0.85074 -3.57967 1.29077 107 130 163
0.84956 -3.59266 1.28047 100 126 158
0.85121 -3.59765 1.29810 105 129 160
0.84363 -3.60106 1.28800 101 127 158
0.84528 -3.60605 1.30563 104 128 157
0.83814 -3.61011 1.29552 103 127 155
0.78434 -3.68468 1.36318 87 115 135
0.77045 -3.68022 1.37062 72 86 97
0.75789 -3.69325 1.36804 45 41 44
1.09938 -1.04058 0.02249 120 119 113
1.09086 -1.04941 0.02075 93 83 74
1.10359 -1.04862 0.02303 86 78 71
1.09504 -1.05749 0.02128 98 88 85
1.10716 -1.07785 0.03290 84 84 79
1.11577 -1.06892 0.03467 101 89 84
1.11090 -1.07169 0.02778 98 90 84
1.11725 -1.08763 0.03019 49 53 62
1.12823 -1.09773 0.02701 22 22 44
1.11951 -1.10677 0.02523 18 17 23
1.97427 -1.53524 -0.36092 49 57 62
1.98654 -1.52252 -0.35840 53 52 53
1.97960 -1.52646 -0.36821 50 57 61
1.98121 -1.53131 -0.35111 54 55 69
1.96760 -1.54358 -0.35291 51 55 62
1.96244 -1.55242 -0.34571 52 53 50
1.95626 -1.56091 -0.33796 38 41 41
1.95834 -1.57223 -0.33461 19 13 29
1.94605 -1.58498 -0.33713 12 11 13
1.93870 -1.72813 -0.25582 25 24 34
1.93706 -1.72318 -0.27328 14 13 21
1.92617 -1.74112 -0.25839 27 30 38
1.98910 -1.78216 -0.26718 54 40 68
1.98742 -1.77710 -0.28501 33 30 49
2.00520 -1.80020 -0.27048 83 73 72
2.00688 -1.80528 -0.25252 91 77 65
1.99960 -1.80942 -0.26282 92 75 67
1.99232 -1.81355 -0.27312 91 73 65
2.58672 -2.24781 -0.47539 49 47 36
2.58468 -2.24165 -0.49715 60 52 44
2.57875 -2.25842 -0.46554 34 20 29
2.56315 -2.27460 -0.46874 20 13 12
2.52220 -2.37580 -0.37800 15 16 66
2.50656 -2.39202 -0.38121 30 26 91
2.51113 -2.39951 -0.36056 43 25 52
2.50228 -2.40453 -0.37308 51 33 64
2.50468 -2.41090 -0.35141 77 55 41
2.48461 -2.42991 -0.32986 117 91 38
2.46898 -2.44612 -0.33306 122 95 54
2.47733 -2.44085 -0.32034 124 94 54
2.47186 -2.45274 -0.31165 64 54 81
2.46422 -2.47836 -0.29572 29 34 139
2.44856 -2.49460 -0.29893 42 47 150
2.46477 -2.49359 -0.28969 35 39 149
2.44908 -2.50986 -0.29291 43 48 154
2.45145 -2.53128 -0.26485 70 66 160
2.44521 -2.54287 -0.25576 168 153 168
2.42535 -2.56184 -0.23436 239 126 78
2.43055 -2.58000 -0.23025 239 147 123
2.43255 -2.59640 -0.22470 236 145 121
2.41676 -2.61277 -0.22794 197 139 143
2.43313 -2.62742 -0.21206 233 143 102
2.40150 -2.65487 -0.17915 139 123 167
2.39943 -2.64863 -0.20118 114 126 188
2.38570 -2.67125 -0.18239 85 95 205
2.36544 -2.69481 -0.13799 79 90 198
2.34968 -2.71116 -0.14123 56 70 183
2.36796 -2.71192 -0.13250 64 80 188
2.35215 -2.72831 -0.13575 73 75 159
2.30860 -2.75239 -0.07539 144 122 71
2.34402 -2.79102 -0.08309 91 76 66
2.34526 -2.82365 -0.07021 48 59 114
2.35580 -2.84663 -0.06768 84 104 146
2.35227 -2.86039 -0.05951 168 183 187
2.34168 -2.86945 -0.04855 147 151 211
2.35624 -2.89546 -0.04745 51 61 183
2.34012 -2.91218 -0.05076 39 65 190
2.34470 -2.92024 -0.02924 45 58 166
2.34736 -2.93846 -0.02339 42 50 139
2.34948 -2.94485 -0.00083 39 50 136
2.34033 -2.95004 -0.01377 33 47 133
2.33119 -2.95524 -0.02670 32 48 140
2.50676 -3.18780 -0.02634 54 57 117
2.50452 -3.18102 -0.05027 45 47 114
2.49706 -3.19331 -0.04007 46 49 121
2.51354 -3.21050 -0.02137 74 86 114
2.52254 -3.23498 -0.01717 104 116 128
2.51438 -3.24690 -0.00665 144 151 160
2.39308 -3.48166 0.17399 172 176 162
2.39081 -3.47480 0.14976 162 163 166
2.37913 -3.48876 0.18640 166 169 142
2.38346 -3.51115 0.19288 155 162 128
2.38350 -3.53005 0.20080 139 137 115
2.33059 -3.52267 0.23346 149 147 126
2.31334 -3.54057 0.22992 171 178 168
2.32092 -3.53315 0.24440 160 161 138
2.27993 -3.53516 0.27294 137 129 136
2.28014 -3.55414 0.28077 133 130 135
2.25492 -3.55072 0.29638 133 130 127
2.23951 -3.55583 0.30895 130 118 108
2.22248 -3.57349 0.30546 156 162 152
1.21370 -3.17495 0.84217 156 159 172
1.19703 -3.17202 0.85221 109 109 134
1.17208 -3.15967 0.86388 46 42 87
1.15923 -3.17300 0.86124 32 37 77
1.15451 -3.15538 0.87395 32 34 82
1.14172 -3.16864 0.87133 38 40 79
1.14717 -3.16252 0.88191 34 36 84
1.10029 -3.23282 0.94314 28 38 81
1.09862 -3.22778 0.92534 38 40 69
1.09307 -3.23692 0.93293 31 38 78
1.08753 -3.24606 0.94052 31 37 77
1.09110 -3.23762 0.95137 30 39 80
1.07836 -3.25084 0.94875 30 37 74
1.07648 -3.25161 0.96712 26 36 81
1.06376 -3.26480 0.96451 34 35 78
1.07152 -3.26141 0.97460 33 34 77
1.05879 -3.27461 0.97199 33 38 80
1.07401 -3.28030 0.98086 33 37 84
1.06124 -3.29355 0.97823 30 39 79
1.06986 -3.29117 0.98823 32 40 86
1.05708 -3.30443 0.98560 30 38 80
1.06078 -3.31199 1.00311 34 41 86
1.04799 -3.32526 1.00049 27 37 79
1.05504 -3.32092 1.01075 31 41 86
1.04225 -3.33419 1.00812 35 32 67
1.03165 -3.32376 1.02775 34 41 83
1.03391 -3.34276 1.03420 30 40 84
1.02352 -3.39463 1.06303 32 42 92
1.02184 -3.38956 1.04513 31 35 68
1.00292 -3.38423 1.07257 32 42 94
0.99404 -3.38897 1.08057 31 40 94
0.98628 -3.39515 1.08841 30 40 94
0.98930 -3.41560 1.09496 32 42 93
0.97654 -3.42883 1.09234 29 23 69
0.98583 -3.44411 1.10929 34 44 90
0.97859 -3.44822 1.09904 30 25 68
0.97302 -3.45739 1.10666 24 30 78
0.98022 -3.45323 1.11691 32 45 88
0.96742 -3.46651 1.11428 22 30 80
0.97579 -3.46394 1.12441 35 46 89
0.96794 -3.47000 1.13226 35 49 91
0.96277 -3.47971 1.13983 38 51 90
0.94996 -3.49299 1.13721 22 34 68
0.95667 -3.48814 1.14750 36 49 89
0.94497 -3.50567 1.16278 39 52 92
0.93842 -3.51345 1.17047 42 52 91
0.93215 -3.52161 1.17814 52 57 95
0.92634 -3.53041 1.18576 54 64 94
0.91356 -3.54367 1.18314 56 66 85
0.91311 -3.54568 1.20112 63 65 97
0.90742 -3.55464 1.20873 56 61 96
0.89803 -3.55820 1.21658 48 56 97
0.88800 -3.56078 1.22444 44 56 98
0.87743 -3.56250 1.23230 46 57 94
0.87315 -3.57341 1.23978 46 59 94
0.87201 -3.58901 1.24710 51 64 99
0.86631 -3.59786 1.25468 60 71 108
0.85428 -3.59722 1.26254 71 84 122
0.84622 -3.60247 1.27019 80 101 135
0.83770 -3.60696 1.27784 86 105 141
0.83004 -3.61272 1.28544 92 114 151
0.83169 -3.61772 1.30306 104 127 155
0.82063 -3.61577 1.29308 100 124 156
0.82228 -3.62076 1.31067 102 127 157
0.81515 -3.62481 1.30058 103 127 154
0.80802 -3.62886 1.29049 100 126 153
0.79132 -3.69346 1.34553 92 123 147
0.80399 -3.68032 1.34813 96 123 152
0.79683 -3.68439 1.33800 95 122 152
0.78967 -3.68846 1.32786 94 123 150
0.78402 -3.69966 1.35307 80 105 120
0.76593 -3.68842 1.36058 60 65 70
0.75335 -3.70147 1.35799 43 40 40
0.85186 -4.07772 1.46610 53 50 60
0.86547 -4.06361 1.46889 51 54 54
0.85008 -4.07235 1.44712 36 32 41
0.85956 -4.07335 1.47698 58 58 63
0.85364 -4.08310 1.48508 63 64 66
0.84595 -4.08747 1.47419 61 61 65
1.03567 -1.02210 0.04688 146 145 154
1.03458 -1.01883 0.03532 174 162 170
1.02738 -1.03069 0.04518 85 81 69
1.09950 -1.07277 0.02463 93 88 71
1.10809 -1.06387 0.02639 99 89 85
1.10324 -1.06662 0.01952 97 89 81
1.12169 -1.09287 0.01794 30 27 51
1.11299 -1.10189 0.01615 20 17 27
1.12333 -1.10054 0.02003 19 16 34
1.11461 -1.10958 0.01824 18 18 22
2.00134 -1.50810 -0.40683 30 37 45
2.01365 -1.49533 -0.40431 50 57 58
2.00669 -1.49929 -0.41416 30 37 43
1.99973 -1.50324 -0.42401 14 14 25
2.00830 -1.50415 -0.39699 51 58 62
2.00295 -1.51297 -0.38966 53 58 64
1.98723 -1.52463 -0.39034 31 37 44
1.97488 -1.53113 -0.37922 31 37 44
1.96743 -1.53921 -0.37078 31 37 43
1.96081 -1.54756 -0.36279 33 36 43
1.95823 -1.55728 -0.35698 38 35 39
1.95446 -1.56660 -0.35052 31 30 34
1.94219 -1.57934 -0.35304 16 12 18
1.95255 -1.57658 -0.34505 19 13 26
1.94026 -1.58933 -0.34757 14 12 14
1.93590 -1.73386 -0.26804 18 21 29
1.93426 -1.72890 -0.28553 12 13 14
1.97869 -1.78497 -0.27579 39 31 60
1.97702 -1.77992 -0.29361 31 30 43
2.00321 -1.80651 -0.28347 75 65 59
2.59439 -2.26052 -0.49587 51 45 30
2.59234 -2.25433 -0.51772 61 49 44
2.58284 -2.26951 -0.48426 36 23 22
2.55835 -2.30115 -0.45438 9 7 22
2.57398 -2.28494 -0.45118 12 7 17
2.56514 -2.28996 -0.46368 13 8 10
2.55630 -2.29498 -0.47618 13 9 8
2.54951 -2.30617 -0.46689 8 6 12
2.56039 -2.30733 -0.43259 9 12 55
2.55200 -2.31257 -0.44530 8 12 52
2.55404 -2.31874 -0.42350 14 13 62
2.54520 -2.32376 -0.43600 13 15 66
2.51789 -2.36847 -0.39875 12 13 53
2.53352 -2.35226 -0.39554 14 16 55
2.52468 -2.35728 -0.40805 10 11 53
2.51584 -2.36230 -0.42055 12 13 69
2.50225 -2.38469 -0.40196 23 23 89
2.51306 -2.38067 -0.39037 26 25 78
2.49742 -2.39689 -0.39358 26 28 99
2.48397 -2.42448 -0.35229 100 83 40
2.46833 -2.44069 -0.35550 107 82 49
2.45773 -2.45492 -0.32174 103 80 69
2.45569 -2.44875 -0.34350 120 92 50
2.44890 -2.45993 -0.33422 126 92 62
2.45537 -2.46849 -0.31446 50 40 118
2.43974 -2.48470 -0.31767 57 52 136
2.45149 -2.48127 -0.30648 38 42 140
2.43585 -2.49749 -0.30969 52 53 150
2.44372 -2.52191 -0.28423 32 44 157
2.44167 -2.51571 -0.30611 39 42 152
2.41775 -2.52239 -0.26637 114 113 163
2.41861 -2.53789 -0.26047 198 147 142
2.40296 -2.55412 -0.26368 216 123 91
2.40340 -2.57450 -0.23484 228 126 87
2.39454 -2.57953 -0.24737 179 131 125
2.39747 -2.63206 -0.20677 121 99 173
2.36885 -2.64562 -0.18164 94 95 194
2.35207 -2.66618 -0.16164 76 93 198
2.33639 -2.68244 -0.16486 47 70 187
2.34795 -2.67907 -0.15345 61 82 194
2.33225 -2.69535 -0.15667 53 72 184
2.34198 -2.69084 -0.14448 54 74 192
2.32628 -2.70712 -0.14770 67 76 168
2.33208 -2.73126 -0.12087 113 97 117
2.33002 -2.72504 -0.14282 89 80 126
2.31681 -2.73715 -0.10802 158 131 83
2.30734 -2.74670 -0.09759 172 146 76
2.33200 -2.79414 -0.09455 58 49 78
2.33004 -2.80873 -0.08712 61 58 99
2.33699 -2.82926 -0.08327 83 106 157
2.33238 -2.84222 -0.07472 115 134 179
2.34820 -2.86889 -0.07434 188 187 210
2.33623 -2.87703 -0.06280 169 167 219
2.34525 -2.89936 -0.05960 52 50 184
2.32913 -2.91607 -0.06291 43 69 193
2.33294 -2.92360 -0.04111 44 61 174
2.32929 -2.93747 -0.03283 40 53 152
2.31316 -2.95421 -0.03614 32 49 147
2.47831 -3.19731 -0.02565 45 56 125
2.47607 -3.19055 -0.04951 41 45 122
2.46863 -3.20280 -0.03933 39 46 129
2.48451 -3.21965 -0.02053 64 76 134
2.50092 -3.24972 -0.01913 118 130 160
2.49136 -3.26057 -0.00810 160 172 172
2.48385 -3.27294 0.00218 164 164 166
2.38370 -3.48761 0.15995 164 170 169
2.38143 -3.48075 0.13572 161 164 157
2.37388 -3.49319 0.14605 154 160 152
2.37382 -3.49810 0.17105 172 181 176
2.35646 -3.51610 0.16748 177 180 163
2.36136 -3.52520 0.19084 168 169 149
2.34096 -3.52665 0.20532 163 167 159
2.32364 -3.54461 0.20177 159 164 153
2.31648 -3.52447 0.22105 162 169 159
2.29925 -3.54234 0.21752 165 173 170
2.29554 -3.54395 0.24343 166 166 157
2.28581 -3.54947 0.22967 165 175 164
2.27834 -3.56179 0.23990 166 174 168
2.27760 -3.56595 0.26482 154 158 151
2.26041 -3.58378 0.26130 156 162 160
2.26937 -3.57759 0.27528 154 161 150
2.25219 -3.59541 0.27175 159 162 152
2.24807 -3.57754 0.28975 156 159 146
2.23095 -3.59529 0.28624 159 160 155
1.21952 -3.17812 0.82238 166 170 178
1.23257 -3.16458 0.82506 163 169 180
1.22519 -3.16877 0.81462 163 169 180
1.21781 -3.17296 0.80418 163 168 181
1.21192 -3.18533 0.83056 143 146 158
1.17317 -3.15768 0.84537 73 70 105
1.16030 -3.17103 0.84273 29 29 62
1.16822 -3.16763 0.85288 31 28 68
1.15535 -3.18098 0.85024 30 40 74
1.02999 -3.35106 1.02350 31 27 65
1.02884 -3.36586 1.03047 31 27 66
1.01626 -3.39875 1.05276 28 33 68
0.99571 -3.38832 1.06238 27 28 74
0.98571 -3.39157 1.07053 26 26 77
0.97692 -3.39635 1.07851 26 25 77
0.98166 -3.41912 1.08480 30 23 75
0.96271 -3.47686 1.12181 18 32 75
0.94990 -3.49015 1.11918 28 29 57
0.95727 -3.48622 1.12941 22 33 71
0.94446 -3.49951 1.12678 26 31 58
0.94501 -3.50301 1.14476 22 33 71
0.93777 -3.50712 1.13452 25 34 64
0.93221 -3.51629 1.14213 31 39 69
0.93966 -3.51248 1.15236 28 37 75
0.92685 -3.52576 1.14973 37 40 70
0.93143 -3.51790 1.16022 34 39 76
0.92524 -3.52616 1.16788 51 53 82
0.92003 -3.53582 1.17546 56 65 85
0.90589 -3.54978 1.19091 62 64 96
0.90138 -3.56045 1.19842 53 48 83
0.88860 -3.57370 1.19580 36 35 69
0.89228 -3.56443 1.20627 36 35 73
0.87953 -3.57766 1.20366 28 33 68
0.88130 -3.56559 1.21423 25 33 72
0.86858 -3.57879 1.21162 29 35 69
0.87172 -3.56874 1.22206 26 33 70
0.85902 -3.58191 1.21945 31 41 73
0.86831 -3.58095 1.22948 27 37 75
0.85559 -3.59414 1.22687 36 45 77
0.86229 -3.58933 1.23707 33 44 85
0.84958 -3.60251 1.23446 39 43 77
0.85793 -3.60018 1.24457 42 47 89
0.85605 -3.61479 1.25195 43 48 93
0.85047 -3.62384 1.25952 44 56 98
0.84231 -3.62897 1.26721 48 58 105
0.83205 -3.63082 1.27497 57 77 127
0.81404 -3.62066 1.28297 83 111 148
0.79224 -3.71049 1.33531 91 118 140
0.79058 -3.70546 1.31757 95 124 148
0.78410 -3.71539 1.34290 73 89 102
0.76000 -3.69438 1.35051 52 53 53
0.74741 -3.70743 1.34793 43 43 42
0.84557 -4.08454 1.45528 46 42 51
0.76235 -4.22039 1.56862 59 54 46
0.77597 -4.20627 1.57141 59 57 55
0.76057 -4.21501 1.54963 73 72 61
0.75644 -4.23014 1.57671 49 45 36
0.75009 -4.28135 1.60242 49 55 44
0.75604 -4.27155 1.59428 41 50 41
0.75783 -4.27696 1.61337 47 51 35
0.75188 -4.28676 1.62152 50 52 52
0.74414 -4.29116 1.61057 52 53 52
1.09683 -1.06899 0.01355 93 90 75
1.10056 -1.06284 0.00844 99 89 84
1.09571 -1.06560 0.00158 99 91 77
1.09705 -1.07615 0.01637 74 75 60
1.11452 -1.08785 0.00928 42 36 45
1.10585 -1.09685 0.00750 20 16 23
1.98177 -1.52907 -0.40100 15 13 26
1.96947 -1.54183 -0.40352 16 10 20
1.96766 -1.53498 -0.38889 17 12 27
1.95539 -1.54771 -0.39141 15 10 23
1.96138 -1.54345 -0.38107 15 12 29
1.94911 -1.55617 -0.38359 12 10 21
1.95551 -1.55205 -0.37349 14 11 29
1.94324 -1.56478 -0.37600 14 10 17
1.95314 -1.56185 -0.36780 19 12 27
1.94086 -1.57458 -0.37032 13 12 16
1.94918 -1.57112 -0.36124 18 13 25
1.93690 -1.58386 -0.36376 13 12 14
1.94114 -1.74282 -0.28446 13 18 21
1.93949 -1.73784 -0.30202 12 12 13
1.93402 -1.74686 -0.29453 12 14 14
1.95012 -1.75767 -0.28444 24 27 29
1.93747 -1.77079 -0.28704 31 29 35
1.96444 -1.78619 -0.28240 32 29 56
1.95723 -1.79028 -0.29260 34 29 50
1.98174 -1.80478 -0.28652 61 50 56
1.99289 -1.82097 -0.28743 85 72 58
1.99458 -1.82607 -0.26943 88 76 66
1.98728 -1.83021 -0.27975 87 76 68
1.97998 -1.83435 -0.29008 87 74 66
2.60640 -2.27535 -0.51861 51 42 31
2.60434 -2.26913 -0.54058 62 48 44
2.59284 -2.28345 -0.50597 36 27 22
2.57712 -2.29977 -0.50920 21 14 17
2.59198 -2.29757 -0.49952 21 14 14
2.57623 -2.31390 -0.50275 12 10 7
2.54135 -2.31670 -0.45694 6 9 39
2.53931 -2.31053 -0.47873 7 5 7
2.53414 -2.32768 -0.44744 9 14 59
2.53618 -2.33386 -0.42565 12 13 59
2.52735 -2.33887 -0.43815 11 15 69
2.49016 -2.42262 -0.37794 67 43 40
2.48812 -2.41643 -0.39979 48 29 69
2.48131 -2.42765 -0.39047 69 40 29
2.47839 -2.43122 -0.36632 96 81 35
2.43591 -2.46773 -0.32209 83 67 104
2.43387 -2.46157 -0.34382 125 93 63
2.42710 -2.47273 -0.33455 120 94 83
2.41887 -2.51799 -0.28956 58 55 153
2.41271 -2.52954 -0.28056 158 148 164
2.39987 -2.53729 -0.26855 209 130 114
2.39398 -2.56406 -0.25341 204 137 92
2.39076 -2.59253 -0.23939 146 105 170
2.38002 -2.60144 -0.22834 101 93 191
2.39588 -2.62612 -0.22895 114 115 199
2.37514 -2.64445 -0.20714 89 104 204
2.33219 -2.66444 -0.16946 54 74 193
2.31656 -2.68066 -0.17267 51 72 181
2.31978 -2.73414 -0.13203 125 104 95
2.31772 -2.72793 -0.15396 98 80 86
2.29520 -2.73403 -0.11526 167 145 92
2.29435 -2.74908 -0.10843 171 144 90
2.30778 -2.77347 -0.10750 107 80 79
2.31774 -2.79577 -0.10506 61 48 90
2.31840 -2.81208 -0.09873 96 106 147
2.32568 -2.83286 -0.09509 107 127 190
2.32266 -2.84688 -0.08720 105 106 189
2.33413 -2.87069 -0.08517 158 175 212
2.31395 -2.87323 -0.07030 120 127 210
2.33658 -2.90484 -0.07267 47 57 186
2.32047 -2.92155 -0.07597 50 71 194
2.33030 -2.93326 -0.05657 45 64 183
2.32117 -2.93844 -0.06949 47 67 188
2.32769 -2.94789 -0.04871 40 57 167
2.44890 -3.20593 -0.02454 34 47 136
2.44667 -3.19919 -0.04832 37 45 122
2.47124 -3.24039 -0.02552 79 97 148
2.48063 -3.26539 -0.02156 131 145 163
2.47266 -3.27741 -0.01112 154 158 165
2.47492 -3.28424 0.01297 162 164 155
2.46515 -3.28978 -0.00085 163 162 153
2.45539 -3.29533 -0.01466 164 168 159
2.35566 -3.49663 0.15995 170 180 173
2.35339 -3.48979 0.13579 163 170 155
2.34587 -3.50220 0.14609 169 176 168
2.33834 -3.51460 0.15639 175 179 169
2.35697 -3.53542 0.17515 182 189 174
2.34713 -3.54101 0.16123 179 191 183
2.33561 -3.53603 0.19002 171 177 167
2.31828 -3.55401 0.18646 168 170 154
1.21189 -3.18204 0.81199 165 170 178
1.21019 -3.17688 0.79379 165 168 181
1.20429 -3.18923 0.82018 131 137 151
1.17573 -3.17287 0.83293 50 53 93
1.16281 -3.18627 0.83028 25 31 61
1.13784 -3.19215 0.86686 53 57 82
1.13617 -3.18707 0.84896 31 40 71
1.12833 -3.19679 0.87530 53 60 89
1.13001 -3.20185 0.89317 62 69 80
1.11552 -3.21008 0.87267 36 38 78
1.11853 -3.20105 0.88377 52 52 80
1.11297 -3.21021 0.89138 50 55 83
1.10574 -3.21432 0.88115 37 40 80
1.03998 -3.32839 0.99038 37 50 84
1.02711 -3.32829 0.99915 49 57 80
1.02598 -3.39203 1.02638 74 79 99
1.02298 -3.40462 1.03366 78 85 99
1.01930 -3.41636 1.04105 76 87 96
1.01978 -3.43360 1.04788 74 82 99
1.01626 -3.44564 1.05529 71 80 102
1.00332 -3.45906 1.05263 89 103 109
0.99805 -3.45484 1.07157 72 69 92
0.98515 -3.46822 1.06892 84 92 100
0.99049 -3.46145 1.07948 63 61 78
0.97691 -3.45986 1.08812 55 55 66
0.96809 -3.46464 1.09614 42 45 67
0.96098 -3.47172 1.10394 32 36 65
0.95547 -3.48098 1.11156 27 31 55
0.91426 -3.54202 1.16509 44 52 76
0.90146 -3.55530 1.16247 31 38 75
0.90925 -3.55199 1.17266 46 54 84
0.89645 -3.56527 1.17003 31 35 75
0.90328 -3.56057 1.18031 48 50 89
0.89048 -3.57385 1.17768 32 34 72
0.89601 -3.56724 1.18805 44 41 75
0.88322 -3.58051 1.18543 31 32 71
0.85676 -3.63085 1.24132 32 36 78
0.85508 -3.62580 1.22348 37 41 69
0.84953 -3.63496 1.23109 30 36 70
0.84397 -3.64412 1.23869 24 32 68
0.84667 -3.63312 1.24916 25 34 74
0.83746 -3.63664 1.25692 24 31 75
0.83155 -3.64518 1.26451 34 48 98
0.80903 -3.62799 1.27279 72 99 139
0.79688 -3.62667 1.28055 98 128 156
0.79853 -3.63164 1.29811 100 127 151
0.79141 -3.63568 1.28804 99 128 153
0.78430 -3.63973 1.27797 101 129 155
0.79201 -3.72578 1.32503 87 111 132
0.77924 -3.73902 1.32241 56 57 75
0.77681 -3.71929 1.33274 66 73 86
0.76410 -3.73247 1.33013 45 39 46
0.85308 -4.07524 1.42831 37 40 42
0.86672 -4.06109 1.43111 38 35 41
0.85900 -4.06547 1.42020 35 38 40
0.86079 -4.07086 1.43922 34 31 41
0.84820 -4.08683 1.43646 43 46 45
0.84511 -4.10159 1.44470 56 58 57
0.83145 -4.11576 1.44189 77 77 76
0.78550 -4.17832 1.51734 61 61 65
0.78305 -4.19450 1.52574 73 75 77
0.76520 -4.24472 1.55880 66 68 53
0.76341 -4.23931 1.53971 69 70 62
0.75746 -4.24911 1.54785 65 72 66
0.76249 -4.26068 1.56728 55 54 44
0.76428 -4.26610 1.58640 43 47 31
0.75653 -4.27050 1.57543 46 47 32
0.74878 -4.27490 1.56447 50 53 43
0.75408 -4.28708 1.58399 43 54 49
0.74632 -4.29149 1.57300 48 56 54
1.09173 -1.07168 0.00683 82 81 68
1.10089 -1.08118 0.00445 46 45 57
1.09226 -1.09013 0.00268 23 18 32
1.10665 -1.08986 0.00406 24 19 38
1.09798 -1.09885 0.00228 20 19 23
1.94981 -1.76451 -0.29812 21 23 21
1.94815 -1.75950 -0.31580 14 12 11
1.97238 -1.80803 -0.29571 48 35 54
1.97070 -1.80296 -0.31361 35 30 44
1.99175 -1.82770 -0.30093 77 69 51
1.97881 -1.84111 -0.30358 84 74 66
2.61521 -2.28877 -0.53996 50 41 32
2.61314 -2.28252 -0.56203 63 49 43
2.60833 -2.30010 -0.53055 36 26 26
2.59250 -2.31652 -0.53380 21 15 17
2.51644 -2.34286 -0.44965 11 13 63
2.51848 -2.34902 -0.42787 12 15 67
2.50965 -2.35404 -0.44036 21 19 78
2.46950 -2.43622 -0.37881 91 74 26
2.46745 -2.43004 -0.40063 68 44 39
2.46013 -2.44605 -0.36830 104 80 46
2.44882 -2.45482 -0.35690 116 89 52
2.41621 -2.48162 -0.32339 84 73 117
2.41417 -2.47547 -0.34509 132 105 67
2.40944 -2.49277 -0.31413 59 60 143
2.40827 -2.50704 -0.30744 38 39 154
2.39626 -2.51525 -0.29578 94 97 170
2.39983 -2.53226 -0.29122 161 148 180
2.38832 -2.54074 -0.27979 173 124 144
2.38294 -2.55271 -0.27115 166 114 139
2.37743 -2.56461 -0.26245 122 100 152
2.36183 -2.58080 -0.26565 67 76 182
2.37109 -2.57604 -0.25337 83 84 167
2.35549 -2.59223 -0.25657 66 74 175
2.36532 -2.58781 -0.24454 88 84 180
2.36443 -2.60248 -0.23788 79 87 199
2.36945 -2.62072 -0.23381 90 98 200
2.34218 -2.63494 -0.20917 67 79 198
2.32655 -2.65114 -0.21237 55 70 186
2.33046 -2.64312 -0.19772 63 78 192
2.31486 -2.65931 -0.20092 62 74 184
2.29919 -2.73171 -0.13964 124 99 78
2.29714 -2.72552 -0.16150 102 80 66
2.28352 -2.74797 -0.14286 155 132 114
2.27585 -2.73229 -0.12334 162 140 102
2.27617 -2.74807 -0.11705 147 125 98
2.30720 -2.78397 -0.12360 93 69 85
2.29227 -2.78999 -0.11084 84 74 110
2.30934 -2.81712 -0.11140 99 107 159
2.29347 -2.83359 -0.11465 119 121 190
2.31165 -2.83463 -0.10576 102 116 189
2.31075 -2.85007 -0.09877 125 135 211
2.30795 -2.86428 -0.09099 121 133 216
2.29199 -2.88083 -0.09426 45 67 193
2.30858 -2.88086 -0.08458 62 79 194
2.29259 -2.89745 -0.08786 53 75 197
2.31434 -2.90102 -0.08022 46 68 191
2.29828 -2.91767 -0.08352 57 74 193
2.31418 -2.95002 -0.05990 42 59 176
2.31207 -2.94364 -0.08242 50 70 188
2.31092 -2.96423 -0.05179 37 48 157
2.31304 -2.97062 -0.02925 36 51 143
2.30390 -2.97581 -0.04218 37 50 145
2.29476 -2.98100 -0.05511 37 51 149
2.42065 -3.19751 -0.03110 36 46 116
2.41843 -3.19081 -0.05476 41 47 102
2.41106 -3.20296 -0.04467 50 55 89
2.44010 -3.22982 -0.03116 69 79 112
2.46598 -3.26724 -0.03354 108 119 142
2.46261 -3.28274 -0.02483 141 149 160
2.33749 -3.55168 0.17227 171 178 171
2.32766 -3.55727 0.15836 164 173 173
2.32010 -3.56972 0.16870 170 174 164
1.20270 -3.18421 0.80197 163 167 177
1.20099 -3.17905 0.78378 164 170 184
1.19699 -3.19351 0.80973 127 131 145
1.18340 -3.19391 0.81926 38 43 82
1.17040 -3.20739 0.81659 25 29 66
1.13110 -3.19686 0.85649 38 41 75
1.12942 -3.19178 0.83858 29 37 66
1.12384 -3.20098 0.84622 28 34 69
1.11826 -3.21017 0.85385 32 36 74
1.12555 -3.20609 0.86411 39 41 81
1.11271 -3.21940 0.86148 31 37 73
1.09065 -3.32373 0.93667 32 31 72
1.10361 -3.31029 0.93933 30 36 76
1.09628 -3.31445 0.92897 35 28 63
1.09798 -3.31957 0.94704 29 36 80
1.09235 -3.32885 0.95474 28 34 74
1.07645 -3.32241 0.94591 38 43 80
1.07866 -3.35769 0.95894 65 76 99
1.06568 -3.37116 0.95628 81 89 104
1.07694 -3.37192 0.96600 75 86 100
1.06393 -3.38541 0.96333 82 88 106
1.07554 -3.38661 0.97302 80 91 104
1.06256 -3.38664 0.98197 87 97 97
1.04947 -3.38641 0.99089 92 100 100
1.01510 -3.40797 1.02345 85 97 110
1.00858 -3.41598 1.03124 75 86 102
1.01247 -3.43775 1.03754 70 76 103
1.00356 -3.44262 1.04569 72 88 110
0.98938 -3.49084 1.07534 88 102 99
0.98495 -3.50177 1.08290 85 92 92
0.97910 -3.51076 1.09064 76 81 84
0.96979 -3.51495 1.09878 67 70 69
0.94639 -3.49948 1.10850 57 54 59
0.94234 -3.51081 1.11596 41 37 52
0.93567 -3.51847 1.12372 31 29 55
0.93009 -3.52766 1.13135 31 35 60
0.83642 -3.65021 1.24640 19 23 66
0.83475 -3.64517 1.22859 22 30 65
0.82396 -3.64867 1.25435 37 49 90
0.80698 -3.63998 1.26245 79 105 139
0.79432 -3.65311 1.25985 106 132 161
0.79117 -3.63290 1.27042 101 130 160
0.77857 -3.64597 1.26784 105 130 157
0.78529 -3.71261 1.30735 95 123 147
0.79802 -3.69940 1.30996 96 125 150
0.79082 -3.70349 1.29978 97 126 151
0.78362 -3.70758 1.28959 98 126 152
0.78990 -3.73815 1.31471 79 98 120
0.77710 -3.75143 1.31209 49 47 62
0.85595 -4.07790 1.40941 36 39 45
0.86962 -4.06372 1.41221 37 38 36
0.86189 -4.06811 1.40128 27 31 34
0.85397 -4.09458 1.41765 46 52 49
0.84892 -4.10598 1.42583 59 66 55
0.84388 -4.11740 1.43401 74 78 69
0.79741 -4.17739 1.49076 52 53 51
0.81108 -4.16321 1.49356 51 51 40
0.80335 -4.16760 1.48263 56 53 49
0.79562 -4.17199 1.47169 67 64 66
0.78361 -4.17273 1.49834 55 58 62
0.78120 -4.18899 1.50670 79 82 78
0.78306 -4.21327 1.51543 98 104 92
0.77234 -4.23512 1.53183 86 81 72
0.76031 -4.27576 1.55688 61 62 60
0.75852 -4.27033 1.53770 62 66 65
0.74657 -4.29002 1.55406 47 50 40
0.74055 -4.30172 1.58119 58 70 59
0.73875 -4.29629 1.56204 47 49 52
0.73278 -4.30613 1.57021 56 55 54
0.72681 -4.31596 1.57838 63 60 52
1.07911 -1.06535 0.00163 94 90 67
1.08765 -1.05649 0.00338 100 89 80
1.08282 -1.05923 -0.00345 98 90 78
1.08460 -1.07384 0.00130 62 59 65
1.09751 -1.08434 -0.00334 32 26 53
1.08888 -1.09330 -0.00511 21 21 22
1.95291 -1.77277 -0.31366 20 20 18
1.95124 -1.76774 -0.33139 15 11 9
1.94572 -1.77685 -0.32383 17 17 19
1.95836 -1.78639 -0.31185 30 28 30
1.94560 -1.79963 -0.31447 32 29 38
2.62834 -2.30433 -0.56362 52 43 30
2.62626 -2.29804 -0.58582 61 49 43
2.62086 -2.31545 -0.55387 36 27 26
2.52494 -2.34193 -0.47658 5 5 21
2.52290 -2.33575 -0.49841 4 5 5
2.51609 -2.34696 -0.48910 4 4 9
2.50695 -2.34753 -0.46181 8 7 43
2.49649 -2.35686 -0.45075 19 14 65
2.49853 -2.36302 -0.42899 20 20 82
2.49543 -2.37094 -0.44424 20 23 82
2.49747 -2.37712 -0.42245 18 16 87
2.48864 -2.38213 -0.43495 25 22 99
2.45851 -2.44010 -0.39031 83 61 32
2.45647 -2.43392 -0.41212 55 38 60
2.44967 -2.44512 -0.40282 73 48 43
2.44786 -2.44923 -0.37919 102 81 34
2.43512 -2.45720 -0.36710 111 82 48
2.42109 -2.46441 -0.35442 121 92 53
2.40445 -2.48498 -0.33446 121 99 93
2.39566 -2.48997 -0.34690 138 114 81
2.39509 -2.49467 -0.32400 74 70 124
2.38770 -2.50544 -0.31447 50 45 148
2.38778 -2.52043 -0.30838 84 88 172
2.37222 -2.53658 -0.31157 89 86 180
2.38593 -2.53438 -0.30138 98 98 186
2.37977 -2.54590 -0.29238 101 94 179
2.37657 -2.55913 -0.28474 118 105 186
2.36096 -2.57532 -0.28794 73 70 181
2.36038 -2.56483 -0.27119 79 63 179
2.34482 -2.58097 -0.27439 77 84 183
2.33964 -2.59800 -0.24322 63 75 186
2.33084 -2.60300 -0.25567 47 61 174
2.32408 -2.61415 -0.24642 52 66 179
2.33165 -2.60841 -0.23342 65 75 188
2.31609 -2.62455 -0.23661 57 67 182
2.31735 -2.61501 -0.22081 61 72 188
2.30183 -2.63111 -0.22400 56 68 183
2.28631 -2.68767 -0.16952 73 74 138
2.29308 -2.67652 -0.17878 60 73 171
2.29512 -2.68267 -0.15707 61 75 169
2.27075 -2.70381 -0.17272 89 74 82
2.28329 -2.70119 -0.16189 92 80 97
2.28360 -2.73242 -0.14930 127 100 77
2.28615 -2.76535 -0.13756 113 92 112
2.29761 -2.78862 -0.13596 70 54 110
2.28915 -2.79888 -0.12589 106 111 153
2.30314 -2.82406 -0.12526 127 139 183
2.29933 -2.85356 -0.11052 112 127 218
2.28340 -2.87009 -0.11379 43 65 193
2.28504 -2.85997 -0.09800 67 80 203
2.26914 -2.87646 -0.10126 49 71 195
2.29389 -2.94737 -0.06829 46 64 182
2.29178 -2.94101 -0.09074 65 72 179
2.28479 -2.95254 -0.08117 50 66 181
2.29257 -2.96291 -0.06101 41 55 168
2.27645 -2.97964 -0.06432 33 52 152
2.40741 -3.21793 -0.03601 67 72 76
2.43613 -3.25752 -0.03967 91 97 97
2.44818 -3.28472 -0.03687 125 132 137
2.44402 -3.29964 -0.02787 155 159 153
2.44628 -3.30646 -0.00380 167 166 163
2.43652 -3.31201 -0.01761 166 164 165
1.85460 -3.31543 0.38691 165 164 159
1.87001 -3.29945 0.39008 160 159 158
1.86130 -3.30440 0.37775 164 168 166
1.85259 -3.30934 0.36543 163 168 163
1.86331 -3.31048 0.39924 161 159 156
1.85745 -3.33531 0.39309 129 130 139
1.85947 -3.34142 0.41464 108 105 120
1.85074 -3.34638 0.40228 108 107 115
1.84200 -3.35134 0.38992 105 104 115
1.19578 -3.18891 0.79143 161 166 173
1.19408 -3.18375 0.77324 163 171 183
1.19423 -3.20289 0.79824 121 120 132
1.18836 -3.21204 0.80605 35 31 70
1.17530 -3.22559 0.80337 26 29 65
1.13987 -3.34819 0.89547 30 33 63
1.15304 -3.33452 0.89817 31 36 76
1.14559 -3.33875 0.88763 30 33 70
1.14732 -3.34396 0.90601 28 37 72
1.14159 -3.35340 0.91384 30 33 71
1.12533 -3.34687 0.90500 39 38 79
1.11621 -3.35208 0.91345 53 55 84
1.10310 -3.36568 0.91076 80 89 104
1.11271 -3.36418 0.92083 64 74 95
1.09959 -3.37779 0.91814 80 86 95
1.09925 -3.36393 0.93006 74 82 93
1.09194 -3.37127 0.93813 76 88 102
1.07887 -3.38483 0.93545 67 73 81
1.05910 -3.39577 0.97092 83 92 100
1.05740 -3.39063 0.95278 71 74 93
1.04508 -3.39433 0.98005 83 95 98
1.03391 -3.39646 0.98866 79 87 93
1.01882 -3.39342 0.99786 70 70 95
1.01547 -3.40556 1.00517 57 61 84
1.00258 -3.41893 1.00252 31 38 56
1.01645 -3.42345 1.01182 48 57 79
1.01822 -3.44248 1.01839 43 50 78
1.00525 -3.45594 1.01573 44 45 68
1.01310 -3.45245 1.02603 47 47 81
1.00012 -3.46590 1.02337 46 41 74
1.00153 -3.45381 1.03460 50 54 88
0.99868 -3.46681 1.04190 54 63 87
0.98573 -3.48025 1.03925 29 37 73
0.99724 -3.48175 1.04903 51 59 86
0.99228 -3.49197 1.05666 57 68 92
0.98293 -3.49620 1.06487 69 86 103
0.97686 -3.50488 1.07263 88 105 120
0.96390 -3.51832 1.06997 94 103 115
0.97211 -3.51539 1.08022 99 107 112
0.95915 -3.52883 1.07756 97 97 113
0.96808 -3.52690 1.08774 95 99 101
0.96247 -3.53624 1.09545 94 99 97
0.95908 -3.54868 1.10290 85 84 87
0.94618 -3.54772 1.11145 72 65 73
0.93211 -3.54498 1.12007 50 47 47
0.92257 -3.54859 1.12815 43 37 42
0.91698 -3.55780 1.13581 34 36 57
0.82961 -3.65495 1.23616 17 21 70
0.82794 -3.64990 1.21834 21 28 61
0.82101 -3.65936 1.24393 48 64 103
0.80207 -3.64756 1.25221 92 120 145
0.78940 -3.66071 1.24961 112 134 160
0.78483 -3.72761 1.29697 93 118 143
0.77206 -3.74086 1.29434 63 65 83
0.78464 -3.74548 1.30442 70 81 102
0.77183 -3.75876 1.30180 51 44 54
0.85544 -4.07471 1.39036 33 34 35
0.86912 -4.06053 1.39317 28 30 33
0.86138 -4.06492 1.38223 30 30 29
0.84176 -4.08890 1.38756 53 49 46
0.85038 -4.08604 1.39852 41 42 47
0.83669 -4.10023 1.39571 40 44 39
0.84901 -4.10386 1.40677 44 49 52
0.84096 -4.10999 1.41486 50 59 59
0.83775 -4.12467 1.42310 66 72 71
0.82949 -4.13040 1.43117 68 68 74
0.82353 -4.14021 1.43932 63 62 67
0.81578 -4.14461 1.42836 53 56 60
0.77913 -4.20387 1.49618 98 103 94
0.77523 -4.21750 1.50447 115 117 106
0.76928 -4.22731 1.51262 115 118 110
0.76777 -4.24554 1.52113 95 97 82
1.06554 -1.05881 -0.00290 92 88 73
1.07404 -1.05000 -0.00115 94 86 85
