ply
format ascii 1.0
element face 0
property list uchar int vertex_indices
element vertex 1310
property float x
property float y
property float z
property uchar diffuse_red
property uchar diffuse_green
property uchar diffuse_blue
end_header
1.38764 0.09222 -0.69440 247 240 236
1.38467 0.07587 -0.69312 251 243 248
1.39079 0.08370 -0.68681 253 252 250
1.38782 0.06734 -0.68553 249 245 237
1.40897 0.06974 -0.68171 252 251 234
1.40267 0.06183 -0.68792 250 247 233
1.41912 0.06297 -0.67999 252 232 190
1.46416 0.06497 -0.70754 241 208 171
1.46113 0.04824 -0.70623 254 254 248
1.47366 0.05782 -0.70503 245 219 193
1.50646 0.05634 -0.72187 228 203 168
1.57486 0.06328 -0.76798 193 173 113
1.61450 0.06290 -0.78986 166 144 104
1.72997 0.04913 -0.83973 164 143 157
1.67437 0.02657 -0.78367 129 112 110
1.69962 0.02202 -0.79288 103 91 67
1.69809 0.01158 -0.78056 164 150 139
1.63006 -0.01281 -0.71550 226 217 213
1.63885 -0.02081 -0.71166 246 244 236
1.64411 -0.02956 -0.70502 252 246 229
1.64071 -0.04984 -0.68084 254 241 224
1.64263 -0.05922 -0.67163 245 237 213
1.59731 -0.08712 -0.61550 235 225 169
1.59420 -0.10427 -0.61415 239 237 215
1.61311 -0.09376 -0.61709 210 207 164
1.61689 -0.10265 -0.60946 205 195 151
1.59878 -0.11539 -0.58528 232 225 208
1.64431 -0.19313 -0.52555 249 248 252
1.64743 -0.17594 -0.52690 254 254 254
1.64083 -0.18421 -0.53339 253 254 254
1.63771 -0.20140 -0.53204 245 234 247
1.64119 -0.21032 -0.52421 248 235 244
1.64462 -0.20250 -0.51545 247 236 244
1.64241 -0.22156 -0.49328 251 247 233
1.63584 -0.22979 -0.49974 254 254 250
1.63930 -0.23867 -0.49194 254 254 254
1.63422 -0.26900 -0.43659 254 254 251
1.62428 -0.26836 -0.45072 254 254 254
1.62771 -0.27716 -0.44299 254 254 251
1.64115 -0.27739 -0.43127 237 233 225
1.66780 -0.28357 -0.43948 172 157 167
1.68922 -0.29048 -0.44395 114 103 106
1.69666 -0.29900 -0.43879 97 85 76
1.70676 -0.29965 -0.42441 93 85 81
1.70015 -0.30795 -0.43092 96 86 79
1.69353 -0.31625 -0.43744 99 87 81
1.37215 -0.51878 -0.01489 76 71 51
1.36342 -0.51822 -0.02731 83 73 72
1.37910 -0.52639 -0.01045 49 33 44
1.37897 -0.54203 0.00680 78 73 56
1.37627 -0.55691 0.00796 86 75 69
1.20910 -0.66074 0.23272 102 91 75
1.22002 -0.66803 0.23457 34 25 17
1.21753 -0.68172 0.23564 23 28 32
1.64426 -0.92637 0.27946 130 165 194
1.66283 -0.94395 0.28831 172 198 207
1.81012 -0.97754 0.24231 74 80 89
1.84479 -0.98999 0.23647 37 47 45
1.84310 -0.99794 0.24614 37 33 16
1.85117 -1.01527 0.26063 86 83 95
1.84817 -1.03181 0.26193 133 143 154
1.81408 -1.01832 0.28485 132 153 153
1.82181 -1.02741 0.29048 137 147 162
1.88820 -1.04485 0.27226 103 99 127
1.88517 -1.06153 0.27357 85 78 82
1.89205 -1.05357 0.27968 87 90 119
1.91054 -1.06446 0.28122 86 103 131
1.95356 -1.07910 0.27309 119 137 164
1.93317 -1.08427 0.29024 146 161 171
1.93812 -1.09326 0.29732 167 175 195
1.93662 -1.10123 0.30692 180 187 192
1.90898 -1.10498 0.32659 144 112 115
1.97541 -1.16500 0.35510 183 182 199
1.97234 -1.18192 0.35643 252 254 254
2.02259 -1.18160 0.34677 240 245 248
2.01947 -1.19874 0.34811 254 254 254
2.81292 -1.46500 0.21316 254 254 249
2.80059 -1.46421 0.19562 254 254 254
2.80484 -1.47512 0.20522 254 254 254
2.80910 -1.48604 0.21481 254 254 254
2.80396 -1.47305 0.22705 254 252 243
2.80015 -1.49403 0.22869 254 254 254
2.80749 -1.48378 0.23684 253 249 244
2.80369 -1.50475 0.23848 254 254 253
2.82749 -1.49815 0.24136 247 241 237
2.83578 -1.50998 0.24968 232 224 208
2.82706 -1.51797 0.26336 219 212 174
2.85237 -1.53370 0.26638 211 202 184
2.85617 -1.63340 0.37371 203 213 234
2.82763 -1.63587 0.39248 226 232 243
2.81103 -1.64126 0.40774 236 240 239
2.65316 -2.10649 1.00733 130 132 131
2.64976 -2.12518 1.00879 104 107 115
2.64463 -2.11136 1.01748 110 108 124
2.64424 -2.11939 1.02651 100 100 122
2.64722 -2.12874 1.03510 118 125 130
2.64384 -2.14735 1.03656 131 133 141
2.93924 -2.29685 1.05534 99 92 102
2.94198 -2.30666 1.06455 67 69 87
2.95501 -2.32070 1.07264 79 94 115
2.97401 -2.33726 1.08014 140 157 156
2.97037 -2.35728 1.08170 165 172 174
2.95337 -2.33735 1.09185 166 174 182
2.94976 -2.35726 1.09340 171 181 181
1.03567 0.19244 -0.62274 190 235 253
1.03832 0.20704 -0.62388 201 239 249
1.03272 0.20001 -0.62940 198 237 250
1.04128 0.19946 -0.61722 199 238 250
1.03330 0.18297 -0.61097 178 225 251
1.03541 0.17511 -0.60353 158 209 246
1.09416 0.16938 -0.63067 53 70 171
1.08807 0.15860 -0.61533 36 49 139
1.10174 0.15445 -0.61854 29 35 102
1.11027 0.13980 -0.60728 46 41 61
1.10756 0.12488 -0.60611 128 133 135
1.12008 0.13424 -0.60674 72 73 88
1.11737 0.11927 -0.60557 122 136 146
1.34306 0.12053 -0.71857 163 184 188
1.34494 0.11172 -0.70995 209 194 185
1.35052 0.10396 -0.70458 223 198 211
1.34757 0.08774 -0.70331 245 242 244
1.37078 0.10023 -0.71201 241 237 233
1.36781 0.08390 -0.71073 247 236 241
1.37437 0.09183 -0.70482 250 248 246
1.37140 0.07550 -0.70354 246 229 240
1.62369 0.05820 -0.80971 254 247 218
1.65436 0.05532 -0.82401 254 237 214
1.68132 0.05141 -0.83504 249 220 208
1.71302 0.03815 -0.83850 162 155 164
1.66285 0.01696 -0.78663 144 126 84
1.67628 0.00983 -0.78643 171 135 67
1.68843 0.00236 -0.78512 188 146 128
1.64423 -0.01689 -0.73878 195 172 188
1.63154 -0.02937 -0.71783 224 215 224
1.63738 -0.03801 -0.71165 245 242 243
1.63652 -0.04798 -0.70018 250 252 252
1.63953 -0.06694 -0.68103 254 254 249
1.63288 -0.07793 -0.66516 246 244 234
1.61585 -0.11952 -0.60970 218 209 158
1.57672 -0.14510 -0.55928 251 252 254
1.58665 -0.14574 -0.54514 254 254 254
1.58015 -0.15390 -0.55155 254 254 254
1.57364 -0.16206 -0.55795 252 254 254
1.63975 -0.19168 -0.54391 249 247 251
1.64288 -0.17445 -0.54525 254 254 254
1.63627 -0.18274 -0.55176 254 254 254
1.63315 -0.19996 -0.55041 248 239 246
1.64454 -0.21925 -0.51628 253 247 245
1.63794 -0.22752 -0.52277 254 254 253
1.64142 -0.23644 -0.51494 254 254 254
1.64340 -0.28456 -0.44377 243 240 236
1.63342 -0.28392 -0.45797 254 254 252
1.67158 -0.29067 -0.45309 196 191 196
1.68702 -0.29830 -0.45348 151 145 133
1.70311 -0.30594 -0.45423 108 88 59
1.69996 -0.32327 -0.45288 102 89 73
1.37834 -0.53342 -0.01907 50 36 61
1.37563 -0.54838 -0.01789 60 42 32
1.37989 -0.54122 -0.01137 52 47 56
1.38184 -0.54900 -0.00392 77 70 67
1.37913 -0.56393 -0.00275 81 76 64
1.21287 -0.66049 0.21493 128 130 108
1.21536 -0.64677 0.21386 76 77 63
1.21009 -0.65337 0.20868 72 71 61
1.20328 -0.66729 0.22788 112 100 76
1.21970 -0.67476 0.22675 37 29 16
1.21721 -0.68848 0.22782 21 28 33
1.69953 -0.94091 0.24651 111 134 153
1.69022 -0.94032 0.23327 35 34 41
1.69343 -0.94856 0.24051 44 50 94
1.69664 -0.95680 0.24776 26 35 83
1.70329 -0.94922 0.25351 121 109 172
1.77176 -0.96535 0.23228 85 90 129
1.82829 -0.98851 0.22560 73 80 75
1.82529 -1.00503 0.22689 31 26 47
1.83626 -0.99768 0.23115 35 37 39
1.82953 -1.00494 0.24297 33 23 35
1.84104 -1.01459 0.24704 54 64 78
1.79122 -1.01589 0.27682 116 139 143
1.81674 -1.03544 0.28381 128 131 142
1.86807 -1.05089 0.27159 105 95 85
1.87787 -1.06858 0.28549 84 86 99
1.93260 -1.08506 0.27247 115 121 148
1.91352 -1.09033 0.28913 156 170 175
1.92580 -1.10044 0.29327 171 185 188
1.93226 -1.11785 0.30874 123 71 71
1.92921 -1.13468 0.31006 92 27 34
1.97078 -1.13241 0.30284 100 41 45
1.98401 -1.14289 0.30684 90 33 44
1.98852 -1.15193 0.31422 77 24 40
1.98542 -1.16900 0.31555 192 185 182
1.97127 -1.15719 0.32982 109 78 92
1.99324 -1.17750 0.33966 237 245 241
1.99015 -1.19454 0.34100 254 254 254
2.81919 -1.51819 0.24444 254 254 247
2.80687 -1.51740 0.22692 254 254 254
2.81112 -1.52831 0.23650 254 254 254
2.81537 -1.53922 0.24609 254 254 254
2.81666 -1.52755 0.25617 254 253 240
2.81285 -1.54854 0.25782 254 254 254
2.85243 -1.58553 0.29962 197 182 134
2.83296 -1.59066 0.31635 152 138 144
2.82372 -1.59820 0.32991 126 125 142
2.79463 -1.60074 0.34925 123 125 133
2.71900 -1.60088 0.39246 129 133 157
2.75103 -1.61856 0.39368 141 152 186
2.80324 -1.64160 0.38931 161 179 205
2.80849 -1.65260 0.39843 182 196 210
2.78602 -1.65630 0.41529 203 212 229
2.79804 -1.65707 0.43240 232 230 230
2.77259 -1.66227 0.42951 220 227 242
2.77672 -1.67287 0.43882 231 233 235
2.65046 -2.10901 0.99060 114 122 127
2.64642 -2.11565 1.00021 111 118 120
2.64303 -2.13435 1.00167 100 105 111
2.64229 -2.13858 1.02779 127 133 140
2.63890 -2.15720 1.02924 139 139 148
2.93341 -2.28979 1.02848 123 130 129
2.93703 -2.26984 1.02691 120 124 129
2.92938 -2.27944 1.01938 124 129 134
2.92172 -2.28904 1.01184 131 135 143
2.94917 -2.33105 1.06491 102 119 122
2.94605 -2.33842 1.07479 153 168 169
2.94243 -2.35834 1.07635 163 170 176
1.01200 0.20475 -0.63919 194 237 252
1.01464 0.21930 -0.64033 202 240 249
1.00906 0.21230 -0.64582 199 241 251
1.00348 0.20530 -0.65131 173 225 251
1.01758 0.21175 -0.63370 201 239 248
1.02052 0.20420 -0.62707 199 238 249
1.01954 0.19888 -0.63706 182 233 252
1.02292 0.19147 -0.63083 168 214 249
1.04477 0.19065 -0.64250 136 183 245
1.07033 0.19098 -0.65758 104 134 227
1.06445 0.18018 -0.64228 70 80 185
1.06842 0.17284 -0.63647 45 55 142
1.08285 0.16033 -0.63098 28 26 93
1.08976 0.15392 -0.62789 31 14 70
1.11472 0.14465 -0.63204 88 88 93
1.31056 0.10525 -0.70132 89 116 175
1.34033 0.10437 -0.71750 182 197 223
1.36379 0.10155 -0.72789 236 238 240
1.63707 0.04433 -0.82210 254 254 254
1.62665 0.04500 -0.83692 254 254 254
1.63025 0.03577 -0.82881 254 254 253
1.65736 0.03888 -0.82776 252 254 251
1.66593 0.03070 -0.82368 249 239 232
1.61777 -0.00975 -0.75134 219 213 156
1.69276 -0.00393 -0.80093 211 165 133
1.61552 -0.03968 -0.71703 217 192 191
1.61234 -0.05716 -0.71566 234 215 188
1.61751 -0.04906 -0.70783 236 220 217
1.61433 -0.06653 -0.70646 233 202 209
1.62411 -0.05752 -0.70230 237 218 229
1.62659 -0.06680 -0.69350 239 234 245
1.63186 -0.07554 -0.68688 244 250 252
1.62619 -0.08632 -0.67174 235 240 249
1.62237 -0.09670 -0.65809 236 234 234
1.61945 -0.12607 -0.62402 215 214 172
1.60931 -0.12542 -0.63845 252 252 249
1.61631 -0.14337 -0.62267 212 206 180
1.59107 -0.14983 -0.58147 239 243 238
1.63119 -0.19080 -0.55938 251 248 248
1.63432 -0.17357 -0.56073 254 254 254
1.62770 -0.18186 -0.56724 253 254 253
1.62458 -0.19909 -0.56589 248 239 242
1.64100 -0.20828 -0.54575 249 240 248
1.63438 -0.21658 -0.55226 254 252 253
1.63786 -0.22553 -0.54440 254 254 253
1.64793 -0.29153 -0.45793 247 244 238
1.63791 -0.29089 -0.47218 254 254 252
1.67005 -0.29839 -0.46310 219 212 200
1.68601 -0.30601 -0.46387 174 169 142
1.71545 -0.31235 -0.47383 125 114 88
1.36476 -0.53300 -0.02859 82 75 59
1.35601 -0.53244 -0.04103 85 78 68
1.35903 -0.54018 -0.03423 83 79 62
1.37548 -0.54055 -0.02645 68 53 48
1.37277 -0.55551 -0.02528 63 45 42
1.37743 -0.55616 -0.01035 70 62 48
1.18554 -0.65955 0.21414 70 67 67
1.18801 -0.64594 0.21308 66 57 45
1.18279 -0.65249 0.20794 68 58 49
1.17757 -0.65903 0.20280 69 61 54
1.21019 -0.66715 0.20834 127 127 113
1.21042 -0.67421 0.21598 121 112 79
1.21933 -0.68151 0.21891 38 34 16
1.21683 -0.69526 0.21999 19 30 36
1.82148 -0.98825 0.21058 47 55 65
1.82997 -0.99750 0.21589 33 37 56
1.82640 -1.01330 0.23538 39 47 51
1.76584 -1.01310 0.27001 93 123 145
1.79417 -1.02499 0.26682 130 148 153
1.82205 -1.03695 0.26396 139 161 176
1.81906 -1.05338 0.26525 146 167 181
1.82401 -1.04528 0.27201 149 165 167
1.85552 -1.05796 0.26787 147 145 129
1.88164 -1.06999 0.26609 122 105 103
1.87861 -1.08669 0.26740 155 167 163
1.90617 -1.08189 0.26510 119 123 119
1.90312 -1.09871 0.26642 151 155 165
1.91635 -1.10806 0.28810 143 118 139
1.91926 -1.11670 0.29596 113 53 71
1.93308 -1.12716 0.29954 97 30 34
1.96355 -1.14872 0.30577 89 20 39
1.97171 -1.15836 0.31171 124 76 94
1.97377 -1.17515 0.32904 240 246 238
1.97068 -1.19215 0.33038 254 254 254
1.98053 -1.18458 0.33554 252 254 253
1.97744 -1.20159 0.33687 254 254 254
2.74009 -1.58937 0.34473 200 194 186
2.75332 -1.60229 0.35136 198 191 171
2.74545 -1.60988 0.36427 190 179 168
2.73981 -1.61799 0.37645 161 160 161
2.73836 -1.62713 0.38738 122 126 139
2.74248 -1.63771 0.39667 117 130 150
2.73673 -1.64568 0.40877 127 141 157
2.76471 -1.66259 0.41132 138 153 185
2.76266 -1.67154 0.42237 137 153 203
2.77838 -1.68529 0.42848 203 213 228
2.79038 -1.68606 0.44556 226 223 224
2.78252 -1.69592 0.43782 225 220 229
3.05809 -1.98005 0.59256 184 203 216
3.04553 -1.97925 0.57469 186 201 220
3.06548 -1.99217 0.60167 189 207 225
2.65487 -2.11433 0.97277 105 109 122
2.64385 -2.11362 0.95709 97 100 108
2.64765 -2.12338 0.96567 97 102 110
2.65145 -2.13314 0.97424 98 104 112
2.94278 -2.30639 1.01886 130 134 135
2.93104 -2.30564 1.00215 138 138 148
2.96301 -2.34967 1.05494 136 151 158
2.95937 -2.36974 1.05651 155 162 171
1.06088 0.20886 -0.68867 116 149 237
0.99910 0.17793 -0.61851 76 84 203
1.07340 0.19571 -0.68142 50 65 161
1.07622 0.18789 -0.67442 39 60 119
1.08052 0.17181 -0.65915 25 33 64
1.07781 0.15689 -0.65798 13 15 34
1.08210 0.15484 -0.64131 27 18 57
1.08345 0.14657 -0.63295 27 26 58
1.11051 0.14672 -0.64887 107 126 118
1.20209 0.13126 -0.68510 55 97 150
1.31538 0.10992 -0.72747 69 105 165
1.32723 0.10397 -0.72779 56 100 175
1.33790 0.09763 -0.72699 115 179 223
1.34451 0.09012 -0.72254 197 203 233
1.35136 0.08264 -0.71826 234 219 233
1.34840 0.06636 -0.71699 252 253 253
1.36321 0.07648 -0.71835 247 242 245
1.36024 0.06014 -0.71707 254 254 254
1.64145 0.02824 -0.82702 246 246 243
1.63100 0.02891 -0.84188 254 254 251
1.66611 0.02363 -0.83628 232 214 202
1.67011 0.01439 -0.82839 125 112 139
1.69191 0.00894 -0.83505 143 152 174
1.60760 -0.02875 -0.74431 253 238 205
1.60405 -0.03928 -0.73060 240 209 171
1.61041 -0.07700 -0.69261 218 208 217
1.60021 -0.07635 -0.70713 236 233 209
1.62156 -0.08463 -0.69066 204 211 220
1.62848 -0.09307 -0.68536 186 193 222
1.62271 -0.10381 -0.67013 195 209 226
1.61383 -0.11503 -0.65255 235 246 244
1.61645 -0.13378 -0.63335 237 233 220
1.63133 -0.15049 -0.62354 221 222 207
1.60338 -0.16449 -0.59180 247 251 253
1.61345 -0.16513 -0.57748 254 254 254
1.60686 -0.17340 -0.58397 254 254 254
1.62107 -0.19016 -0.57372 249 247 246
1.62420 -0.17293 -0.57507 254 254 254
1.61759 -0.18122 -0.58158 253 254 252
1.61446 -0.19845 -0.58023 244 237 234
1.63355 -0.20726 -0.56209 251 244 248
1.62693 -0.21556 -0.56861 253 252 253
1.63042 -0.22452 -0.56074 254 254 254
1.65403 -0.29839 -0.47327 248 244 238
1.64396 -0.29774 -0.48758 254 254 252
1.66315 -0.30670 -0.46939 227 216 207
1.67947 -0.31432 -0.47047 196 189 170
1.70824 -0.32080 -0.48006 152 141 122
1.72993 -0.32811 -0.48460 110 96 75
1.74021 -0.32877 -0.46998 100 91 86
1.73348 -0.33722 -0.47660 101 94 89
1.37299 -0.54767 -0.03408 76 68 51
1.36421 -0.54711 -0.04657 86 79 70
1.37084 -0.56336 -0.01548 67 61 43
1.19458 -0.66645 0.20110 72 71 73
1.18656 -0.66593 0.18969 69 64 52
1.20689 -0.67381 0.20207 124 129 115
1.20897 -0.68092 0.20871 130 127 86
1.22070 -0.68835 0.21010 41 40 18
1.21820 -0.70214 0.21118 24 24 20
1.76366 -0.97350 0.20921 23 26 38
1.76036 -0.96505 0.20178 29 23 43
1.75411 -0.97289 0.19563 30 33 22
1.75741 -0.98134 0.20306 32 33 20
1.77251 -0.98266 0.21417 28 23 36
1.76955 -0.99898 0.21545 10 13 22
1.79964 -0.99421 0.21114 24 19 41
1.82626 -1.00582 0.20848 26 21 49
1.84027 -1.01585 0.21142 38 39 66
1.85027 -1.02540 0.21615 79 96 99
1.79379 -1.02566 0.24932 92 115 130
1.79814 -1.03429 0.25633 113 137 158
1.81242 -1.04437 0.25916 127 150 170
1.83030 -1.06310 0.26945 156 166 168
1.82731 -1.07957 0.27074 159 174 178
1.91012 -1.10801 0.27263 135 100 116
1.89239 -1.11328 0.28877 108 44 64
1.90687 -1.12380 0.29198 91 22 33
1.93035 -1.13591 0.29169 92 22 26
1.93187 -1.14435 0.30013 103 49 74
1.90362 -1.14758 0.32015 156 99 149
1.86615 -1.14901 0.34355 214 191 204
1.86315 -1.16549 0.34484 253 254 253
1.94201 -1.17060 0.32325 243 244 237
1.93894 -1.18747 0.32457 254 254 254
2.67741 -1.58537 0.35360 254 252 241
2.66558 -1.58461 0.33677 252 254 254
2.66966 -1.59509 0.34597 254 254 254
2.66870 -1.59258 0.36665 254 251 235
2.68855 -1.60709 0.37113 243 239 221
2.69938 -1.61933 0.37835 177 169 174
2.73593 -1.63836 0.37810 128 126 128
2.74005 -1.64895 0.38741 122 132 136
2.73096 -1.65601 0.40051 114 122 123
2.72727 -1.67636 0.40210 53 36 55
2.81464 -1.68802 0.38718 81 86 108
2.76632 -1.69400 0.42192 178 200 209
2.76261 -1.71447 0.42352 230 230 233
2.76966 -1.70439 0.43147 226 223 231
2.78165 -1.70516 0.44852 231 231 236
2.77379 -1.71501 0.44080 232 233 238
3.02786 -1.98320 0.58934 181 197 212
3.01536 -1.98239 0.57157 169 184 203
3.04516 -1.99853 0.59622 157 166 182
2.99763 -1.99248 0.61721 126 136 143
2.94270 -2.31919 1.01034 132 132 141
1.00715 0.23655 -0.70463 192 238 253
1.00982 0.25123 -0.70578 198 240 249
1.00418 0.24417 -0.71133 195 239 251
1.01279 0.24361 -0.69909 200 241 249
1.01576 0.23599 -0.69239 200 242 250
0.97652 0.19900 -0.64499 122 167 242
0.98205 0.20594 -0.63954 186 238 253
1.09015 0.23221 -0.74870 87 101 216
1.08740 0.21705 -0.74751 61 70 101
1.08051 0.19304 -0.69962 44 48 91
1.07492 0.18225 -0.68438 35 34 63
1.07221 0.16729 -0.68321 14 16 46
1.07570 0.17372 -0.67538 27 27 53
1.07299 0.15878 -0.67421 9 15 39
1.07632 0.16515 -0.66625 16 17 40
1.07676 0.13908 -0.63763 10 12 62
1.10365 0.13913 -0.65351 74 91 122
1.11051 0.13256 -0.65027 74 78 109
1.12371 0.12797 -0.65296 54 62 124
1.30474 0.11018 -0.73983 89 136 215
1.31936 0.10503 -0.74274 91 149 220
1.32710 0.09788 -0.73936 58 109 189
1.32647 0.08838 -0.72847 34 102 198
1.32647 0.07908 -0.71817 137 176 236
1.35269 0.07684 -0.73113 226 239 247
1.62594 0.01774 -0.82653 244 239 235
1.61553 0.01841 -0.84135 254 254 253
1.66470 0.00606 -0.83640 167 136 94
1.68878 0.00104 -0.84502 179 160 136
1.61351 -0.02474 -0.77214 229 223 215
1.60438 -0.04627 -0.74290 241 231 194
1.58552 -0.05977 -0.71684 229 223 157
1.58869 -0.06885 -0.70865 227 223 166
1.60438 -0.08527 -0.69970 216 213 196
1.60346 -0.09512 -0.68824 162 156 154
1.61792 -0.10218 -0.68893 111 115 143
1.61905 -0.11167 -0.67909 131 139 160
1.63227 -0.11905 -0.67869 196 192 200
1.62848 -0.12937 -0.66502 232 231 238
1.62159 -0.14017 -0.64900 236 242 237
1.61660 -0.15058 -0.63453 222 222 194
1.62495 -0.15881 -0.63033 222 211 189
1.60995 -0.17071 -0.60831 245 236 234
1.61179 -0.17992 -0.59919 252 253 251
1.60865 -0.19717 -0.59784 243 238 227
1.61322 -0.18918 -0.58977 247 246 238
1.62522 -0.20635 -0.57781 249 242 246
1.62208 -0.22363 -0.57645 254 254 254
1.65570 -0.30578 -0.48559 250 244 240
1.64560 -0.30513 -0.49994 254 254 252
1.67402 -0.31319 -0.48816 237 221 213
1.68869 -0.32107 -0.48807 213 195 164
1.72240 -0.32719 -0.50114 151 134 105
1.72595 -0.33630 -0.49313 125 123 116
1.19139 -0.67309 0.19478 71 71 66
1.18336 -0.67258 0.18336 73 69 62
1.20538 -0.68054 0.19480 119 124 113
1.20816 -0.68768 0.20107 139 139 99
1.22225 -0.69524 0.20114 49 45 23
1.76854 -0.99081 0.20699 26 26 18
1.75897 -0.99019 0.19338 27 23 15
1.76227 -0.99867 0.20083 20 17 7
1.76557 -1.00714 0.20827 13 11 7
1.79997 -1.01111 0.21097 16 13 35
1.85282 -1.02647 0.19688 55 59 88
1.86321 -1.03614 0.20147 70 90 121
1.86016 -1.05291 0.20279 70 77 96
1.85708 -1.04348 0.21322 77 89 110
1.85939 -1.05200 0.22130 76 94 120
1.80051 -1.05143 0.25534 104 122 142
1.81588 -1.06176 0.25773 133 153 170
1.82492 -1.07117 0.26283 158 178 182
1.87521 -1.11144 0.27785 103 26 50
1.88988 -1.12198 0.28088 95 13 19
1.90294 -1.13230 0.28464 81 14 34
1.89046 -1.13828 0.29861 125 81 115
1.89364 -1.15498 0.31524 235 230 231
1.89061 -1.17167 0.31655 254 254 254
1.90766 -1.16556 0.31870 249 245 248
1.90462 -1.18230 0.32001 254 254 254
2.65726 -1.60131 0.36017 252 249 248
2.66406 -1.61246 0.36852 228 205 212
2.72884 -1.63887 0.35964 141 125 136
2.74355 -1.66181 0.37640 108 107 119
2.80011 -1.68660 0.37057 81 77 84
2.75719 -1.70349 0.41455 189 210 214
2.98789 -1.98300 0.58842 146 148 167
2.98405 -2.00417 0.59007 105 113 114
2.98428 -1.99137 0.59981 119 123 134
2.99359 -2.02307 0.62945 124 115 127
2.96536 -2.03237 0.65639 202 210 204
2.96156 -2.05330 0.65802 205 209 212
2.94603 -2.32469 0.99166 143 147 148
2.93414 -2.32849 1.00287 119 119 127
0.98276 0.24846 -0.72009 186 235 253
0.98541 0.26309 -0.72124 191 233 249
0.97980 0.25605 -0.72676 189 234 251
0.98837 0.25550 -0.71457 193 236 250
0.99132 0.24791 -0.70791 194 236 249
0.99142 0.24310 -0.71929 177 230 252
0.98880 0.23334 -0.70689 163 218 251
1.03998 0.24414 -0.74936 135 183 248
1.02926 0.23120 -0.72861 98 126 225
1.03088 0.22298 -0.72044 58 74 179
1.02818 0.20814 -0.71928 55 62 86
1.06333 0.19064 -0.70385 37 39 58
1.06061 0.17568 -0.70268 10 18 44
1.06141 0.18116 -0.69217 21 20 52
1.05870 0.16623 -0.69101 11 13 47
1.06305 0.17293 -0.68401 15 14 49
1.07023 0.14909 -0.66182 12 11 33
1.06898 0.13995 -0.65092 13 13 37
1.10182 0.13317 -0.66293 50 73 148
1.09908 0.11811 -0.66175 164 193 229
1.17300 0.14707 -0.72077 82 120 186
1.22718 0.15511 -0.76194 125 164 212
1.22773 0.13688 -0.74203 112 139 193
1.26401 0.13873 -0.76568 115 133 189
1.26969 0.13115 -0.76065 122 143 188
1.26915 0.12172 -0.74986 89 124 185
1.29746 0.11141 -0.75526 93 153 238
1.29453 0.09527 -0.75400 97 158 253
1.31316 0.10658 -0.75925 95 155 246
1.31508 0.09778 -0.75061 96 155 246
1.31969 0.08974 -0.74443 95 147 225
1.32589 0.08212 -0.73966 66 95 189
1.32503 0.07258 -0.72854 86 127 216
1.32944 0.06446 -0.72216 187 214 247
1.35086 0.06081 -0.73086 244 249 254
1.35417 0.05233 -0.72341 254 254 254
1.59975 0.00493 -0.81699 254 252 245
1.58940 0.00560 -0.83171 254 254 254
1.62603 0.00067 -0.82790 231 219 210
1.63491 -0.00745 -0.82417 227 178 125
1.60020 -0.03455 -0.77341 240 236 222
1.59884 -0.04466 -0.76137 251 251 246
1.59566 -0.06221 -0.76000 253 254 254
1.59404 -0.05542 -0.74657 254 251 240
1.58661 -0.06663 -0.72969 240 242 210
1.58121 -0.07737 -0.71455 220 220 162
1.58663 -0.08602 -0.70816 224 230 194
1.59776 -0.09364 -0.70633 222 206 198
1.59840 -0.10320 -0.69610 180 134 141
1.61122 -0.11059 -0.69553 153 128 130
1.61235 -0.12007 -0.68568 165 146 135
1.61500 -0.12927 -0.67703 190 159 152
1.61798 -0.13841 -0.66864 188 173 163
1.61842 -0.14797 -0.65830 184 178 164
1.61617 -0.15793 -0.64589 181 169 168
1.62527 -0.16608 -0.64227 199 177 184
1.62038 -0.17641 -0.62788 235 216 222
1.60789 -0.18781 -0.60778 246 239 239
1.61972 -0.20504 -0.59568 247 243 238
1.61308 -0.21337 -0.60221 253 253 251
1.61657 -0.22235 -0.59433 254 254 254
1.65492 -0.31347 -0.49623 247 244 241
1.67087 -0.32118 -0.49716 235 225 217
1.68964 -0.32870 -0.49999 209 194 160
1.71525 -0.33568 -0.50748 111 113 99
1.71049 -0.34554 -0.49370 128 142 142
1.18914 -0.67978 0.18792 74 74 72
1.18111 -0.67926 0.17648 75 70 67
1.20249 -0.68725 0.18826 117 119 99
1.20918 -0.69454 0.19237 145 146 106
1.22156 -0.70207 0.19338 58 52 36
1.22669 -0.70936 0.19841 27 23 17
1.23482 -0.70988 0.20997 30 29 22
1.22950 -0.71655 0.20473 30 32 24
1.22418 -0.72323 0.19950 34 32 25
1.80843 -1.02107 0.19822 18 25 31
1.79874 -1.02045 0.18443 18 19 14
1.84720 -1.03464 0.19020 69 92 100
1.85196 -1.04352 0.19724 71 68 106
1.87089 -1.06271 0.20728 83 85 101
1.85292 -1.06820 0.22408 103 108 133
1.84989 -1.08490 0.22539 132 145 142
1.83217 -1.08122 0.25090 131 150 171
1.91085 -1.10181 0.22692 122 105 135
1.88613 -1.10606 0.24635 108 68 96
1.87000 -1.11966 0.27106 107 12 25
1.86952 -1.12766 0.28023 125 69 54
1.94327 -1.14846 0.25941 147 129 138
1.88223 -1.14600 0.29303 195 199 199
1.89065 -1.16363 0.30759 252 254 252
1.88762 -1.18033 0.30890 253 254 254
2.55376 -1.54926 0.34105 251 254 254
2.56530 -1.55000 0.35746 254 254 254
2.55774 -1.55947 0.35003 254 254 254
2.72339 -1.64934 0.35120 116 109 107
2.76514 -1.67006 0.34935 92 93 103
2.75116 -1.67585 0.36411 71 50 77
2.76288 -1.68858 0.37127 55 50 51
2.79309 -1.70645 0.37313 91 75 89
2.82242 -1.72420 0.37538 151 147 169
2.81863 -1.74506 0.37701 219 217 220
2.75436 -1.71475 0.40540 209 217 224
2.75064 -1.73523 0.40700 220 215 220
2.76287 -1.72661 0.41351 228 228 229
2.82295 -1.76279 0.41792 223 222 225
2.81498 -1.77279 0.41008 239 235 226
2.83512 -1.76358 0.43524 233 234 236
2.87668 -1.78794 0.41386 231 228 225
3.02587 -1.99882 0.55923 130 136 154
3.02976 -1.97740 0.55756 185 201 215
3.02154 -1.98771 0.54947 156 170 185
3.02198 -2.02025 0.56091 107 107 120
3.00364 -2.00112 0.57502 114 119 128
2.97338 -2.01012 0.60303 112 106 120
2.95672 -2.01397 0.61723 141 136 151
2.88573 -1.99918 0.64307 186 194 184
2.88199 -2.01979 0.64469 204 209 208
2.90362 -2.01459 0.64953 208 213 208
2.89986 -2.03526 0.65115 203 206 207
3.03326 -2.09731 0.66421 202 207 204
3.02897 -2.08629 0.65453 205 209 212
2.93362 -2.33243 0.98467 138 136 151
2.93428 -2.34145 0.99428 79 66 101
2.95963 -2.36087 1.00076 43 38 60
0.97358 0.24877 -0.73165 165 225 254
0.97535 0.24073 -0.72375 136 193 251
0.96802 0.22917 -0.70647 106 135 235
1.02866 0.24372 -0.75918 69 78 193
1.01743 0.23058 -0.73779 43 59 151
1.02968 0.22635 -0.74046 38 56 137
1.03130 0.21811 -0.73225 50 62 110
1.02859 0.20322 -0.73109 27 21 46
1.04181 0.20429 -0.72320 51 47 66
1.03608 0.19712 -0.72883 43 38 65
1.03487 0.19298 -0.70643 32 28 57
1.04789 0.18004 -0.69987 15 13 45
1.06791 0.16059 -0.69027 21 12 31
1.13121 0.16405 -0.73223 37 44 100
1.10449 0.14631 -0.69639 67 87 151
1.20303 0.16018 -0.77116 150 181 225
1.28437 0.13900 -0.79657 166 192 220
1.29484 0.13275 -0.79591 198 223 236
1.29679 0.12394 -0.78727 138 187 235
1.29361 0.11365 -0.77390 101 157 243
1.30735 0.08956 -0.75536 102 165 252
1.30733 0.08025 -0.74498 116 169 248
1.30721 0.07093 -0.73454 128 163 217
1.31622 0.06408 -0.73234 84 114 175
1.30223 0.05112 -0.70949 150 173 219
1.33885 0.05145 -0.73191 225 235 249
1.34683 0.04420 -0.72864 250 252 254
1.35640 0.04358 -0.71503 254 254 254
1.35013 0.03572 -0.72119 254 254 254
1.60936 -0.01000 -0.82637 211 170 215
1.61294 -0.01920 -0.81828 219 183 191
1.60015 -0.03178 -0.79657 238 227 216
1.59695 -0.04943 -0.79519 240 213 232
1.57633 -0.04648 -0.76587 241 230 233
1.57889 -0.05574 -0.75710 248 244 247
1.57963 -0.07507 -0.73604 254 252 248
1.55836 -0.08878 -0.70797 235 236 219
1.56488 -0.09718 -0.70254 205 199 191
1.56942 -0.10595 -0.69551 198 146 185
1.57299 -0.11491 -0.68768 224 159 195
1.57777 -0.12366 -0.68083 246 219 215
1.57463 -0.14096 -0.67947 249 240 237
1.58620 -0.13179 -0.67684 250 238 219
1.60381 -0.13842 -0.68007 228 215 192
1.61128 -0.14681 -0.67523 200 187 146
1.60678 -0.15715 -0.66101 192 162 120
1.60975 -0.16626 -0.65266 171 116 127
1.61103 -0.17562 -0.64300 165 116 157
1.62223 -0.18348 -0.64099 206 179 209
1.61023 -0.19481 -0.62116 240 228 235
1.61101 -0.20419 -0.61119 248 247 240
1.60787 -0.22150 -0.60984 254 254 254
1.64615 -0.31268 -0.51158 251 251 249
1.64929 -0.29541 -0.51293 254 254 254
1.64266 -0.30372 -0.51945 254 254 254
1.64302 -0.32995 -0.51023 224 225 176
1.65318 -0.32128 -0.50624 235 231 225
1.67170 -0.32879 -0.50902 220 213 201
1.67975 -0.33738 -0.50430 204 204 173
1.70807 -0.34417 -0.51381 112 110 99
1.70406 -0.35394 -0.50051 125 122 122
1.70760 -0.36303 -0.49253 133 129 118
1.70442 -0.38054 -0.49115 123 110 100
1.19676 -0.68681 0.17546 78 74 74
1.18868 -0.68629 0.16397 78 75 66
1.20950 -0.70140 0.18403 145 149 124
1.22400 -0.70907 0.18384 75 55 54
1.22929 -0.71639 0.18881 39 18 14
1.22676 -0.73030 0.18990 32 31 31
1.80880 -1.02998 0.18898 24 22 36
1.79908 -1.02935 0.17516 22 23 23
1.84095 -1.04272 0.18381 48 68 71
1.84501 -1.05150 0.19114 62 75 94
1.84840 -1.06019 0.19878 63 80 97
1.84611 -1.06802 0.20887 91 99 114
1.78566 -1.06685 0.24396 112 133 149
1.90173 -1.10131 0.21243 100 87 93
1.89865 -1.11828 0.21376 64 23 27
1.83732 -1.11519 0.26667 63 20 52
1.95386 -1.14306 0.22753 126 98 134
1.86274 -1.14367 0.28306 234 238 227
1.88151 -1.16312 0.29341 233 246 245
1.88573 -1.17194 0.30069 245 252 252
1.88269 -1.18865 0.30200 248 253 254
2.47375 -1.52221 0.33657 163 144 208
2.50916 -1.54019 0.33527 224 232 236
2.55219 -1.56947 0.34196 239 249 253
2.75482 -1.66976 0.33160 77 80 71
2.73306 -1.67343 0.34879 55 43 56
2.73315 -1.68297 0.35936 56 39 66
2.78392 -1.71609 0.36566 176 167 168
2.73523 -1.71197 0.39039 205 202 203
2.75906 -1.74709 0.41514 228 218 208
2.75119 -1.75696 0.40740 246 244 220
2.83181 -1.79684 0.42672 179 150 117
3.23024 -2.01857 0.43365 209 213 204
3.23435 -1.99592 0.43188 207 211 212
3.22567 -2.00682 0.42333 204 209 210
3.16650 -2.01847 0.47192 141 135 163
3.12070 -2.02358 0.50519 147 157 182
3.03563 -2.00540 0.53616 123 131 138
3.03101 -2.01358 0.54805 113 114 125
2.96669 -2.01124 0.58417 111 119 118
2.89610 -1.99676 0.61055 154 161 170
2.89233 -2.01750 0.61218 203 210 210
2.90229 -2.00820 0.61956 195 205 200
2.89852 -2.02895 0.62119 203 208 209
2.86522 -2.00476 0.63805 206 212 207
2.86149 -2.02530 0.63966 203 207 206
2.94297 -2.07832 0.67312 168 168 162
2.94182 -2.34883 0.97495 112 111 109
2.95353 -2.36254 0.98316 40 39 45
2.94604 -2.36811 0.99388 49 62 75
0.98225 0.27386 -0.78169 170 220 253
0.98493 0.28863 -0.78285 185 228 249
0.97926 0.28152 -0.78843 167 219 253
0.98792 0.28097 -0.77611 184 228 250
0.97368 0.26156 -0.76275 160 210 253
0.96552 0.24952 -0.74435 120 162 244
0.96541 0.24073 -0.73448 78 90 209
0.99702 0.24430 -0.75770 39 57 160
0.99920 0.23631 -0.75012 31 56 144
1.00944 0.23140 -0.75087 40 59 120
1.00675 0.21656 -0.74971 30 24 63
1.01803 0.22581 -0.74986 47 60 94
1.02668 0.22019 -0.74886 42 52 68
1.03378 0.21396 -0.74623 39 33 51
1.03107 0.19903 -0.74506 56 71 56
1.03164 0.18671 -0.71452 35 38 40
1.03157 0.17792 -0.70467 13 6 32
1.04113 0.17251 -0.70445 23 7 25
1.04979 0.15796 -0.69349 30 26 60
1.04709 0.14305 -0.69233 102 156 214
1.08749 0.16192 -0.72086 52 74 125
1.12041 0.16402 -0.74324 77 117 165
1.16430 0.16950 -0.77608 124 162 215
1.19179 0.16933 -0.79262 171 198 221
1.18929 0.15932 -0.77994 156 180 224
1.28401 0.14237 -0.81869 166 205 234
1.28327 0.13274 -0.80749 165 211 244
1.28416 0.12362 -0.79786 176 212 248
1.29063 0.11615 -0.79345 141 186 249
1.29193 0.10716 -0.78422 103 155 248
1.29364 0.09831 -0.77539 102 159 251
1.29827 0.09028 -0.76925 114 168 253
1.29196 0.07923 -0.75307 138 181 251
1.28140 0.06709 -0.73309 175 203 250
1.29408 0.06129 -0.73434 210 225 238
1.28545 0.04978 -0.71625 180 197 199
1.29556 0.04325 -0.71512 145 160 181
1.29311 0.03344 -0.70267 181 201 219
1.33618 0.03522 -0.73089 228 242 246
1.34417 0.02794 -0.72763 249 253 253
1.35374 0.02733 -0.71402 254 254 254
1.34748 0.01947 -0.72018 253 254 254
1.55945 -0.01779 -0.80766 249 238 233
1.55719 -0.02809 -0.79479 210 139 180
1.57228 -0.03475 -0.79655 222 189 210
1.56910 -0.05228 -0.79517 251 251 247
1.56415 -0.06572 -0.75704 245 232 244
1.57018 -0.07427 -0.75118 248 253 253
1.56094 -0.08572 -0.73277 246 244 245
1.55701 -0.10572 -0.70806 187 142 172
1.56050 -0.11468 -0.70019 204 145 180
1.56064 -0.12423 -0.68962 229 208 214
1.55751 -0.14149 -0.68827 245 232 223
1.54892 -0.13580 -0.66957 244 239 234
1.54580 -0.15296 -0.66823 249 232 227
1.56948 -0.15136 -0.66472 243 237 226
1.56286 -0.15966 -0.67123 243 230 226
1.58082 -0.15904 -0.66306 236 232 210
1.60253 -0.16514 -0.66948 241 220 197
1.60164 -0.17485 -0.65810 226 181 176
1.60844 -0.18337 -0.65273 201 157 164
1.61117 -0.19252 -0.64419 208 173 180
1.60989 -0.20223 -0.63256 233 215 220
1.60732 -0.21210 -0.61999 250 253 252
1.60417 -0.22943 -0.61863 254 254 254
1.63455 -0.31218 -0.52490 251 252 245
1.63769 -0.29492 -0.52625 254 254 254
1.63107 -0.30323 -0.53277 253 254 254
1.63142 -0.32944 -0.52355 244 232 204
1.64274 -0.32066 -0.52042 242 239 204
1.65036 -0.33854 -0.50511 234 237 222
1.65343 -0.34755 -0.49693 237 233 212
1.68056 -0.35445 -0.50575 191 164 138
1.70386 -0.36182 -0.51171 141 112 101
1.68715 -0.37257 -0.48954 151 145 126
1.19671 -0.69363 0.16727 80 76 72
1.18862 -0.69311 0.15575 82 77 60
1.21598 -0.70145 0.16426 110 106 92
1.21345 -0.71536 0.16535 148 153 124
1.21835 -0.70865 0.17085 147 150 127
1.22477 -0.71603 0.17519 97 80 67
1.23432 -0.72358 0.17780 36 21 14
1.23178 -0.73755 0.17889 33 30 42
1.79686 -1.03716 0.18522 24 22 30
1.78716 -1.03654 0.17142 21 17 13
1.79051 -1.04513 0.17897 19 13 18
1.82137 -1.04885 0.18334 33 32 46
1.83953 -1.05971 0.18440 40 39 61
1.84825 -1.06921 0.18970 48 58 78
1.86965 -1.08070 0.18949 71 82 100
1.85020 -1.08586 0.20709 88 103 132
1.88043 -1.09885 0.20318 86 78 91
1.87736 -1.11576 0.20450 47 29 34
1.92435 -1.14736 0.23056 79 73 100
1.93476 -1.15743 0.23547 149 159 200
1.86559 -1.16138 0.28198 237 245 250
1.87820 -1.17173 0.28585 216 220 244
1.88202 -1.18049 0.29330 224 233 249
2.46990 -1.52335 0.31798 152 124 191
2.48671 -1.54576 0.33275 223 245 247
2.48831 -1.55525 0.34236 220 216 237
2.52470 -1.57377 0.34087 174 175 208
2.72125 -1.67272 0.33163 40 47 38
2.72231 -1.68252 0.34192 31 27 47
2.74173 -1.69739 0.34669 83 82 111
2.71756 -1.70016 0.36448 197 209 193
2.72273 -1.71106 0.37350 208 191 192
2.72287 -1.72053 0.38398 207 202 211
2.72390 -1.73024 0.39419 228 223 219
2.73104 -1.74170 0.40263 232 226 216
2.74887 -1.76570 0.41856 242 236 204
2.81704 -1.79530 0.41008 199 177 149
2.80938 -1.80255 0.42284 173 143 104
2.80561 -1.82329 0.42446 173 152 104
3.20310 -2.04394 0.45249 118 96 116
3.14494 -2.03497 0.47789 107 125 152
3.00349 -2.02708 0.55520 125 125 141
2.94046 -2.01523 0.58034 172 184 179
2.93664 -2.03626 0.58199 204 207 205
2.91654 -2.01648 0.59630 202 210 206
2.91275 -2.03736 0.59793 199 206 205
2.93004 -2.07727 0.65592 173 177 170
2.88228 -2.06943 0.67624 107 95 81
2.87854 -2.08999 0.67785 145 153 137
2.92736 -2.34696 0.95847 138 136 143
2.93120 -2.35734 0.96770 82 68 85
2.94308 -2.37114 0.97587 63 59 67
2.93341 -2.37574 0.98689 94 99 109
2.90388 -2.37172 1.00039 136 151 159
2.90025 -2.39172 1.00196 148 154 159
0.98411 0.28763 -0.81526 166 215 254
0.98218 0.27791 -0.80319 157 204 254
0.97380 0.26563 -0.78430 140 183 252
0.96013 0.25134 -0.75991 115 150 233
0.96469 0.24437 -0.75492 65 92 178
0.98745 0.24450 -0.76908 50 55 119
0.99105 0.23707 -0.76298 49 62 101
0.98837 0.22228 -0.76182 25 23 78
1.00059 0.23190 -0.76307 44 63 74
1.01484 0.22846 -0.76799 42 38 66
1.03217 0.20829 -0.75610 45 52 64
1.03587 0.19191 -0.74007 65 63 53
1.03080 0.18129 -0.72506 51 31 37
1.02587 0.17078 -0.71027 32 9 41
1.05184 0.17103 -0.72654 52 63 109
1.07159 0.16898 -0.73641 90 111 162
1.11469 0.17471 -0.76934 98 142 182
1.13292 0.16273 -0.76716 112 143 206
1.15831 0.16199 -0.78197 135 161 226
1.17513 0.15831 -0.78820 150 181 217
1.23156 0.15783 -0.82239 27 30 128
1.22825 0.14747 -0.80878 94 113 164
1.24541 0.14347 -0.81487 114 132 205
1.27038 0.14173 -0.82830 93 127 200
1.27470 0.13363 -0.82189 89 100 198
1.28088 0.12607 -0.81724 87 102 188
1.29766 0.12160 -0.82256 88 104 196
1.30977 0.11567 -0.82339 66 92 195
1.30267 0.10420 -0.80619 64 101 201
1.30621 0.09580 -0.79897 77 121 220
1.28768 0.08127 -0.77132 132 177 236
1.27434 0.06833 -0.74863 185 219 244
1.28217 0.06123 -0.74552 211 227 249
1.28543 0.05288 -0.73818 216 228 241
1.27920 0.04204 -0.72222 202 212 220
1.27724 0.03237 -0.71020 145 160 186
1.27520 0.02272 -0.69815 125 151 162
1.27913 0.01461 -0.69149 161 200 208
1.33517 0.01940 -0.73136 219 240 246
1.34018 0.01135 -0.72543 248 252 254
1.34974 0.01074 -0.71183 254 254 254
1.34348 0.00288 -0.71799 253 254 254
1.53703 -0.01975 -0.81182 252 253 250
1.54019 -0.00233 -0.81318 254 254 254
1.53351 -0.01071 -0.81976 254 254 254
1.54149 -0.02859 -0.80468 230 214 212
1.52971 -0.04081 -0.78376 213 182 160
1.54239 -0.04792 -0.78361 233 228 217
1.55128 -0.06559 -0.76932 244 227 231
1.54585 -0.07635 -0.75395 240 226 225
1.53630 -0.10701 -0.71378 194 169 186
1.54356 -0.11526 -0.70902 216 188 202
1.53532 -0.12626 -0.69164 240 225 225
1.52584 -0.13741 -0.67334 240 232 223
1.55738 -0.17003 -0.65626 238 231 229
1.55426 -0.18723 -0.65491 254 254 251
1.56273 -0.17866 -0.64991 244 234 237
1.55961 -0.19586 -0.64856 254 254 253
1.56847 -0.18724 -0.64384 252 243 236
1.58294 -0.19454 -0.64459 250 243 221
1.60141 -0.20133 -0.64835 232 211 191
1.60161 -0.21082 -0.63787 231 215 210
1.59431 -0.22132 -0.62163 247 247 248
1.59117 -0.23861 -0.62028 253 254 254
1.62092 -0.31190 -0.53670 248 249 232
1.62405 -0.29466 -0.53805 254 254 254
1.61082 -0.31125 -0.55107 247 239 219
1.61431 -0.32020 -0.54321 245 244 217
1.62854 -0.32043 -0.53186 244 237 215
1.63617 -0.33828 -0.51659 242 243 200
1.63304 -0.35555 -0.51524 254 254 254
1.64030 -0.34718 -0.50918 251 253 248
1.63716 -0.36445 -0.50783 254 254 253
1.64078 -0.35641 -0.49915 254 251 243
1.64527 -0.36527 -0.49200 243 229 208
1.66181 -0.37316 -0.49336 216 197 173
1.64098 -0.38407 -0.46834 196 186 155
1.68354 -0.39004 -0.48786 156 141 99
1.69375 -0.39069 -0.47333 112 103 85
1.69087 -0.39881 -0.48256 117 100 69
1.70109 -0.39946 -0.46802 113 105 92
1.69256 -0.40799 -0.47333 111 103 91
1.70278 -0.40864 -0.45880 115 104 93
1.69608 -0.41704 -0.46538 115 105 93
1.68939 -0.42543 -0.47197 113 98 83
1.21191 -0.70820 0.15828 100 97 85
1.22504 -0.72300 0.16677 110 94 70
1.23866 -0.73080 0.16710 39 24 15
1.23611 -0.74483 0.16820 29 32 39
1.44603 -0.87785 0.20392 33 21 16
1.44874 -0.86294 0.20275 21 22 14
1.44302 -0.87011 0.19712 22 21 16
1.45175 -0.87067 0.20955 23 21 13
1.45477 -0.87841 0.21635 26 21 14
1.45450 -0.88616 0.20800 35 20 15
1.46326 -0.88672 0.22046 25 22 16
1.45752 -0.89391 0.21481 26 20 17
1.80530 -1.05543 0.18138 19 15 20
1.79557 -1.05480 0.16753 21 15 10
1.79893 -1.06342 0.17511 18 16 13
1.80229 -1.07205 0.18268 20 16 13
1.81489 -1.06500 0.18618 19 17 23
1.81187 -1.08165 0.18749 19 16 17
1.94299 -1.17658 0.23213 127 141 172
1.92524 -1.18157 0.24863 179 178 205
1.95405 -1.19514 0.24609 175 169 212
1.89135 -1.19152 0.28063 199 210 236
1.89568 -1.20042 0.28792 241 250 254
1.90553 -1.20105 0.30194 254 254 254
1.89908 -1.20915 0.29559 254 254 254
2.44183 -1.54546 0.33764 164 164 193
2.65824 -1.64863 0.31983 40 44 62
2.69236 -1.66735 0.31975 29 34 50
2.72400 -1.69505 0.33126 16 27 52
2.69182 -1.69553 0.35161 109 117 148
2.70523 -1.70873 0.35811 192 199 205
2.69749 -1.71594 0.37094 206 191 188
2.72378 -1.74229 0.38424 246 243 229
2.73025 -1.75359 0.39288 248 250 219
2.77227 -1.78484 0.40197 182 165 149
2.74043 -1.78477 0.42149 135 91 89
2.73671 -1.80522 0.42309 159 147 108
2.80150 -1.81256 0.41498 160 134 106
2.79774 -1.83330 0.41661 174 152 96
3.46114 -2.08850 0.31758 172 160 145
3.48737 -2.10781 0.32302 173 161 155
3.21401 -2.06121 0.43917 115 88 101
3.21858 -2.07294 0.44948 80 84 102
2.95834 -2.03427 0.56641 205 209 203
2.95022 -2.04445 0.55842 202 205 203
2.95450 -2.05543 0.56807 200 203 199
2.92336 -2.06914 0.62694 199 206 208
2.91914 -2.05831 0.61743 203 207 207
2.86009 -2.06501 0.66127 113 96 120
2.85636 -2.08552 0.66288 158 165 153
2.87256 -2.07866 0.66887 104 96 104
2.86883 -2.09922 0.67047 167 173 164
2.78175 -2.19544 0.85537 102 104 102
2.78534 -2.17569 0.85382 106 112 109
2.77776 -2.18520 0.84637 109 114 108
2.78933 -2.18594 0.86283 103 105 104
2.79332 -2.19619 0.87183 93 94 97
2.78354 -2.20481 0.86474 89 90 96
2.79510 -2.20555 0.88119 85 88 93
2.78753 -2.21505 0.87374 81 86 89
2.92282 -2.35804 0.95039 114 105 106
2.92836 -2.36915 0.95941 72 63 63
2.93551 -2.38096 0.96821 72 75 105
2.89704 -2.38171 0.99273 144 155 159
2.89341 -2.40171 0.99430 149 156 163
0.95496 0.31542 -0.84546 178 223 253
0.95765 0.33023 -0.84661 191 235 249
0.95196 0.32311 -0.85221 183 231 251
0.96064 0.32255 -0.83986 189 234 250
0.96363 0.31487 -0.83311 187 231 250
0.95830 0.30789 -0.83909 170 220 253
0.96697 0.30733 -0.82674 181 225 251
0.96532 0.30190 -0.83675 165 217 253
0.97848 0.28946 -0.83099 143 193 253
0.95032 0.26900 -0.79052 131 171 248
0.95332 0.26140 -0.78387 116 147 230
0.98119 0.26376 -0.80386 90 109 195
0.97633 0.25294 -0.78871 72 84 145
0.97539 0.24373 -0.77779 62 69 95
1.00018 0.23564 -0.78415 35 28 68
1.00477 0.21081 -0.75917 68 71 75
1.01047 0.20409 -0.75519 64 71 72
1.02996 0.19350 -0.75545 32 34 52
1.03121 0.18510 -0.74681 41 35 61
1.03918 0.17908 -0.74502 57 77 114
1.03467 0.16868 -0.73055 71 91 111
1.07733 0.17457 -0.76371 100 123 152
1.07587 0.14735 -0.73229 52 60 143
1.10310 0.14744 -0.74933 83 98 151
1.13935 0.15027 -0.77507 88 89 167
1.18719 0.15656 -0.81189 57 63 107
1.18432 0.14075 -0.81065 22 33 47
1.22271 0.15860 -0.83628 19 17 65
1.21980 0.14257 -0.83502 28 39 46
1.23935 0.15448 -0.84202 25 25 59
1.23643 0.13836 -0.84075 28 36 41
1.25587 0.15022 -0.84752 25 27 62
1.25293 0.13402 -0.84625 23 33 32
1.27905 0.09144 -0.79604 13 14 66
1.27610 0.07523 -0.79477 25 28 45
1.26169 0.06805 -0.75902 37 52 112
1.23488 0.05157 -0.72386 78 100 169
1.26351 0.05014 -0.74008 130 160 224
1.26815 0.04220 -0.73406 173 193 226
1.26639 0.03258 -0.72219 171 193 208
1.26442 0.02295 -0.71016 158 177 191
1.25124 0.01053 -0.68803 103 129 152
1.25576 0.00263 -0.68198 68 99 164
1.27121 -0.00260 -0.68574 137 179 225
1.33260 0.00318 -0.73043 215 237 250
1.45007 -0.01660 -0.78136 248 248 251
1.46001 -0.01724 -0.76722 254 254 254
1.50759 -0.03297 -0.79881 232 231 236
1.52952 -0.03808 -0.80673 201 188 200
1.50482 -0.05289 -0.77475 211 202 192
1.52969 -0.05750 -0.78506 235 238 234
1.53289 -0.06656 -0.77689 247 242 243
1.49625 -0.09290 -0.72456 211 185 181
1.50636 -0.10050 -0.72233 201 148 186
1.50552 -0.11017 -0.71097 205 166 211
1.50133 -0.12041 -0.69688 231 222 228
1.49824 -0.13745 -0.69554 253 254 254
1.48858 -0.13212 -0.67582 250 251 244
1.48551 -0.14905 -0.67450 254 254 254
1.50201 -0.14856 -0.66574 254 253 247
1.49893 -0.16553 -0.66441 254 254 254
1.51077 -0.15648 -0.66232 254 252 245
1.50769 -0.17348 -0.66099 254 254 254
1.52470 -0.17300 -0.65247 254 252 247
1.51816 -0.18120 -0.65891 254 254 254
1.52161 -0.19005 -0.65114 254 254 254
1.53480 -0.18080 -0.65001 254 253 247
1.53170 -0.19789 -0.64867 254 254 254
1.56195 -0.20495 -0.63983 254 253 248
1.55188 -0.20431 -0.65416 254 254 254
1.55536 -0.21323 -0.64632 254 253 250
1.57668 -0.21227 -0.64079 241 236 225
1.58572 -0.22046 -0.63724 235 226 220
1.57954 -0.29609 -0.54860 252 254 250
1.58264 -0.27900 -0.54994 254 254 254
1.57608 -0.28723 -0.55639 254 254 254
1.58610 -0.28787 -0.54215 254 254 254
1.58955 -0.29673 -0.53436 254 254 254
1.57644 -0.31318 -0.54726 244 231 224
1.59212 -0.30396 -0.54761 250 246 236
1.62443 -0.33778 -0.52980 252 245 239
1.62130 -0.35504 -0.52845 254 254 254
1.62730 -0.34679 -0.52148 254 254 243
1.62417 -0.36405 -0.52013 254 254 254
1.62888 -0.37438 -0.49154 254 253 248
1.61881 -0.37374 -0.50587 254 254 254
1.62228 -0.38266 -0.49803 254 254 254
1.62576 -0.39158 -0.49019 254 254 253
1.62532 -0.38386 -0.47869 251 248 236
1.62223 -0.39326 -0.46623 242 237 213
1.63740 -0.40129 -0.46667 216 201 149
1.67629 -0.40775 -0.48363 149 122 87
1.69054 -0.41607 -0.48318 117 89 78
1.21225 -0.71515 0.14978 89 88 70
1.20407 -0.71463 0.13815 78 75 66
1.23560 -0.72338 0.14447 148 157 107
1.22810 -0.73015 0.15673 122 106 76
1.24302 -0.73807 0.15633 40 25 15
1.24047 -0.75216 0.15743 31 34 38
1.41082 -0.86721 0.19667 22 13 11
1.41350 -0.85243 0.19551 18 20 10
1.40783 -0.85954 0.18993 20 17 10
1.41649 -0.86010 0.20225 18 20 10
1.42713 -0.87624 0.19665 35 29 32
1.44183 -0.88518 0.19752 57 67 62
1.42815 -0.89112 0.21269 49 55 43
1.46342 -0.90240 0.20338 25 22 11
1.47222 -0.90296 0.21589 23 23 17
1.46646 -0.91018 0.21022 22 25 13
1.46070 -0.91741 0.20456 24 26 20
1.95136 -1.19588 0.22874 118 80 109
1.91875 -1.19796 0.25136 110 86 126
1.88599 -1.20788 0.28287 226 235 240
1.88294 -1.22468 0.28419 220 217 218
1.89859 -1.21842 0.28685 245 251 254
1.90846 -1.21905 0.30089 254 254 254
1.90200 -1.22716 0.29453 251 253 254
2.42922 -1.54439 0.32205 139 120 175
2.42858 -1.55318 0.33231 110 102 129
2.44856 -1.56739 0.33581 95 104 134
2.66154 -1.66142 0.30867 33 34 40
2.68699 -1.67786 0.31127 27 28 29
2.70247 -1.70111 0.32769 16 23 38
2.68636 -1.71540 0.35374 178 178 182
2.69632 -1.72764 0.36127 223 219 195
2.70164 -1.77595 0.41211 101 75 92
2.69796 -1.79626 0.41370 117 100 90
2.71771 -1.79011 0.41798 101 72 80
2.71401 -1.81048 0.41958 162 142 112
3.49412 -2.10261 0.28513 146 131 106
3.48779 -2.11158 0.29912 159 146 110
3.50360 -2.12766 0.30731 161 143 120
3.38141 -2.10946 0.36295 182 195 198
3.40363 -2.12746 0.36930 197 200 189
3.16399 -2.06842 0.45225 113 92 84
3.15992 -2.09079 0.45401 202 204 194
3.11654 -2.06247 0.47512 121 124 144
3.11253 -2.08458 0.47685 205 206 203
2.95045 -2.09176 0.61132 159 167 164
2.87839 -2.07517 0.63756 88 81 98
2.87464 -2.09584 0.63918 149 165 154
2.86698 -2.08024 0.65034 108 95 116
2.86324 -2.10082 0.65195 167 176 169
3.36130 -2.32093 0.61254 123 123 126
3.36546 -2.29798 0.61075 141 145 145
3.35666 -2.30902 0.60208 134 136 135
3.37010 -2.30988 0.62121 131 131 137
3.37474 -2.32179 0.63167 122 121 128
2.80358 -2.20808 0.83312 106 114 113
2.80720 -2.18816 0.83156 104 110 113
2.79955 -2.19774 0.82404 105 111 116
2.79150 -2.21193 0.84495 95 101 98
2.78789 -2.23176 0.84651 81 52 42
2.80486 -2.22601 0.85242 81 85 84
2.82127 -2.24136 0.85943 76 80 81
2.83295 -2.24211 0.87605 77 83 86
2.82530 -2.25171 0.86852 73 78 82
2.91648 -2.36838 0.94256 92 77 94
2.92531 -2.38091 0.95112 88 97 68
2.93035 -2.39182 0.96021 93 94 91
2.91006 -2.39172 0.97273 141 155 158
2.90641 -2.41184 0.97430 151 156 163
0.94126 0.31381 -0.85220 167 218 253
0.94726 0.30743 -0.84881 160 205 254
0.93884 0.29493 -0.82946 140 179 250
0.94273 0.28768 -0.82376 114 151 239
0.96786 0.28028 -0.83125 93 126 212
0.98337 0.25975 -0.81794 53 60 86
0.99078 0.25375 -0.81586 33 32 68
0.98807 0.23883 -0.81470 14 17 39
0.99667 0.24713 -0.81214 17 15 47
0.99396 0.23219 -0.81097 15 14 31
0.99913 0.23916 -0.80472 14 15 42
0.99865 0.23007 -0.79420 29 28 56
0.99594 0.21515 -0.79304 25 26 58
0.99963 0.22156 -0.78525 43 70 78
1.00879 0.21612 -0.78491 51 63 59
1.02429 0.20407 -0.78113 30 24 47
1.02157 0.18906 -0.77995 13 14 32
1.03202 0.19798 -0.77914 18 16 44
1.02929 0.18294 -0.77796 10 13 26
1.03246 0.18925 -0.76960 13 16 39
1.03409 0.18095 -0.76130 51 52 60
1.04910 0.17735 -0.76670 79 129 123
1.05751 0.17137 -0.76528 66 78 63
1.07518 0.16851 -0.77318 34 39 88
1.09776 0.16720 -0.78592 33 37 82
1.09497 0.15184 -0.78471 42 41 59
1.17583 0.15648 -0.82299 10 13 63
1.17296 0.14068 -0.82175 24 29 53
1.19439 0.15318 -0.83096 9 18 60
1.19151 0.13728 -0.82971 24 31 47
1.23070 0.02631 -0.71123 107 129 173
1.24007 0.01969 -0.70968 126 149 182
1.23773 0.01005 -0.69739 104 121 171
1.23580 0.00055 -0.68550 72 109 161
1.24767 -0.00550 -0.68616 39 80 159
1.25107 -0.01368 -0.67911 53 109 197
1.25953 -0.02065 -0.67661 129 183 236
1.27706 -0.02552 -0.68216 159 178 221
1.29789 -0.02973 -0.69053 157 165 203
1.31634 -0.03461 -0.69665 160 170 216
1.34317 -0.03773 -0.71004 189 189 223
1.34020 -0.05407 -0.70876 177 173 180
1.44332 -0.05338 -0.75546 166 149 189
1.43684 -0.06152 -0.76184 119 100 102
1.49434 -0.06196 -0.77792 182 187 196
1.48956 -0.07252 -0.76305 200 210 220
1.49749 -0.09010 -0.74828 215 187 185
1.48904 -0.10124 -0.73045 198 159 188
1.49105 -0.11036 -0.72146 216 164 184
1.48126 -0.12160 -0.70266 239 223 221
1.47500 -0.13213 -0.68689 249 252 250
1.55634 -0.22250 -0.63652 246 241 236
1.54627 -0.22185 -0.65084 253 250 245
1.54975 -0.23076 -0.64301 249 245 239
1.56323 -0.23094 -0.63137 243 234 229
1.56011 -0.24815 -0.63002 253 253 249
1.56289 -0.24038 -0.62056 248 246 243
1.55977 -0.25755 -0.61921 254 254 254
1.55414 -0.29718 -0.55121 251 246 250
1.55722 -0.28019 -0.55254 254 254 254
1.55070 -0.28837 -0.55896 253 253 254
1.54762 -0.30536 -0.55763 247 222 243
1.55105 -0.31418 -0.54988 246 229 237
1.56759 -0.30491 -0.55099 246 237 239
1.59081 -0.32093 -0.54760 248 237 222
1.58769 -0.33808 -0.54626 254 254 251
1.60338 -0.32892 -0.54652 250 249 234
1.60025 -0.34613 -0.54518 254 254 254
1.61141 -0.33741 -0.54203 253 253 248
1.60828 -0.35466 -0.54068 254 254 254
1.61603 -0.40147 -0.47296 254 253 246
1.60600 -0.40083 -0.48722 254 254 254
1.60946 -0.40971 -0.47942 254 254 253
1.60670 -0.41125 -0.45610 246 240 214
1.64367 -0.41786 -0.47193 216 196 157
1.65824 -0.42610 -0.47184 174 141 110
1.66713 -0.43476 -0.46770 143 122 98
1.67507 -0.44351 -0.46287 117 84 44
1.68525 -0.44416 -0.44839 109 101 88
1.67858 -0.45252 -0.45495 103 92 68
1.67414 -0.46193 -0.44158 106 99 83
1.68079 -0.45360 -0.43504 108 99 86
1.68429 -0.46259 -0.42714 107 96 84
1.67765 -0.47092 -0.43368 110 99 81
1.21678 -0.72234 0.13882 85 86 78
1.20857 -0.72181 0.12714 78 75 69
1.24031 -0.73066 0.13337 147 150 111
1.23073 -0.73733 0.14689 130 112 80
1.24865 -0.74548 0.14477 42 24 15
1.24609 -0.75963 0.14588 30 36 43
1.39098 -0.86553 0.19013 23 20 19
1.39365 -0.85082 0.18898 19 19 13
1.38801 -0.85790 0.18342 14 17 14
1.40434 -0.87424 0.19151 51 47 58
1.40166 -0.88901 0.19266 125 134 126
1.41032 -0.88222 0.19671 94 97 103
1.41565 -0.89015 0.20227 119 122 113
1.44529 -0.90079 0.19558 81 72 61
