ply
format ascii 1.0
element face 0
property list uchar int vertex_indices
element vertex 1312
property float x
property float y
property float z
property uchar diffuse_red
property uchar diffuse_green
property uchar diffuse_blue
end_header
1.41495 0.05795 -0.48723 81 87 147
1.41724 0.04851 -0.47777 80 77 106
1.41449 0.03156 -0.47583 78 72 106
1.42789 0.03276 -0.46495 61 69 97
1.42112 0.02435 -0.47074 79 72 99
1.42513 0.01580 -0.46301 84 77 111
1.99503 0.04801 -0.72724 245 237 246
1.99827 0.06800 -0.72953 254 254 254
1.99030 0.05809 -0.73635 249 254 254
1.94259 0.01387 -0.66676 192 192 218
1.96908 0.00119 -0.66418 221 175 224
1.96121 -0.00860 -0.67091 244 244 247
1.96588 -0.01855 -0.66192 251 253 253
1.17981 -0.58027 0.32102 95 89 86
1.18211 -0.56614 0.31941 85 77 83
1.17647 -0.57315 0.31458 87 77 74
1.17083 -0.58015 0.30976 88 76 70
1.17752 -0.59441 0.32264 104 98 93
1.18682 -0.58630 0.32466 96 98 96
1.19316 -0.59255 0.32883 59 54 67
1.20028 -0.59858 0.33244 38 34 40
3.54680 -0.91494 -0.33273 211 207 239
3.54261 -0.94073 -0.32977 254 254 254
3.55514 -0.92777 -0.32213 242 249 254
3.55095 -0.95357 -0.31918 254 254 254
3.49156 -0.98564 -0.23056 254 251 221
3.48745 -1.01096 -0.22766 254 254 254
3.42433 -1.00305 -0.18219 254 244 213
3.39396 -1.01782 -0.15270 243 225 179
3.61068 -1.01810 -0.24616 193 152 112
3.43643 -1.05393 -0.13111 167 117 67
3.47008 -1.09084 -0.10481 149 117 90
3.46804 -1.10375 -0.08963 152 123 96
3.46388 -1.11669 -0.07350 157 133 97
3.45985 -1.14154 -0.07066 152 124 88
3.46136 -1.12952 -0.05821 162 136 103
3.45735 -1.14235 -0.04227 167 142 114
3.45393 -1.15512 -0.02666 177 149 121
3.45828 -1.16762 -0.01471 188 158 126
3.46870 -1.19255 0.00839 202 169 127
3.45885 -1.20479 -0.00004 197 172 132
3.48523 -1.20480 0.01479 179 141 107
3.49821 -1.21716 0.02286 172 143 107
3.49418 -1.24195 0.02570 187 161 119
3.51424 -1.22952 0.02960 182 160 118
3.51021 -1.25436 0.03245 187 159 120
3.74393 -1.38270 0.09979 171 145 111
3.75279 -1.39570 0.11035 160 138 123
3.76034 -1.40869 0.12146 170 150 133
3.75771 -1.42142 0.13669 172 157 150
3.74332 -1.43377 0.15659 186 187 199
3.75670 -1.44688 0.16531 223 229 236
3.76575 -1.45988 0.17578 238 236 242
3.76160 -1.48548 0.17871 240 240 240
2.93466 -1.91067 1.03443 243 244 244
2.93792 -1.89058 1.03213 248 247 250
2.92991 -1.90054 1.02527 246 246 248
2.91753 -1.91747 1.04937 236 235 236
2.91428 -1.93746 1.05165 212 216 236
2.91260 -1.92605 1.06100 221 219 230
2.92063 -1.94594 1.07954 209 222 238
2.93930 -1.95825 1.08509 186 192 218
2.94220 -1.96803 1.09467 147 146 174
2.92269 -1.97408 1.10981 117 117 134
2.97582 -2.00160 1.11728 92 94 103
2.98374 -2.01228 1.12567 80 77 87
3.02806 -2.04810 1.14615 65 78 72
3.01998 -2.05814 1.13923 63 57 61
3.06320 -2.06383 1.14836 87 97 94
3.05989 -2.08423 1.15069 83 82 84
3.09235 -2.07860 1.15209 91 96 94
3.08902 -2.09912 1.15444 86 82 77
3.12168 -2.09351 1.15591 85 89 94
3.14336 -2.10708 1.16155 88 94 106
3.16490 -2.12070 1.16731 108 119 133
3.15494 -2.12832 1.18004 152 167 182
3.18857 -2.14438 1.18327 194 208 226
3.19310 -2.15481 1.19287 217 226 236
3.20635 -2.15499 1.20949 229 227 230
3.19803 -2.16533 1.20237 226 228 230
1.40765 0.16835 -0.62462 227 253 252
1.41045 0.18560 -0.62660 235 251 249
1.40357 0.17705 -0.63248 231 252 251
1.41453 0.17690 -0.61873 233 250 249
1.41861 0.16821 -0.61087 231 251 249
1.43172 0.13785 -0.60132 146 177 244
1.42892 0.12055 -0.59934 81 82 148
1.42410 0.12271 -0.58118 113 113 227
1.40607 0.05909 -0.50269 74 74 139
1.40881 0.04987 -0.49365 83 90 146
1.40605 0.03291 -0.49171 84 75 117
1.41313 0.04148 -0.48624 78 72 107
1.41038 0.02452 -0.48430 80 63 109
1.92808 0.03695 -0.70693 244 253 249
1.93127 0.05662 -0.70918 254 254 254
1.92342 0.04687 -0.71590 254 254 254
1.93593 0.04670 -0.70022 254 254 254
1.90619 0.01571 -0.67377 226 212 231
1.92641 0.01247 -0.67904 217 182 217
1.91243 -0.00521 -0.65329 185 168 203
1.90927 -0.02470 -0.65106 242 226 213
1.94612 -0.00297 -0.67054 213 202 226
1.18033 -0.58542 0.31144 96 84 81
1.17133 -0.58530 0.30014 89 78 71
1.17803 -0.59959 0.31306 106 94 94
1.19395 -0.59767 0.31906 76 70 74
1.20071 -0.60384 0.32295 43 37 37
1.20455 -0.61089 0.32908 30 26 36
1.21360 -0.61101 0.34043 19 16 30
1.20792 -0.61806 0.33557 22 16 30
1.20224 -0.62512 0.33071 26 17 27
3.41892 -1.04095 -0.16434 254 250 224
3.43003 -1.05322 -0.15560 254 241 209
3.44337 -1.06542 -0.14791 231 207 167
3.45008 -1.07796 -0.13693 186 148 83
3.45587 -1.09055 -0.12550 173 123 57
3.45397 -1.10346 -0.11034 167 112 58
3.45899 -1.11606 -0.09856 152 108 55
3.45835 -1.12886 -0.08408 148 120 81
3.44694 -1.15464 -0.05047 157 130 97
3.44610 -1.16731 -0.03605 161 137 108
3.44992 -1.17982 -0.02383 169 144 120
3.45108 -1.19239 -0.01040 186 163 139
3.46651 -1.21721 0.01039 195 166 124
3.45665 -1.22946 0.00195 189 164 131
3.46250 -1.24192 0.01321 187 160 125
3.47582 -1.22962 0.02007 191 164 120
3.47180 -1.25434 0.02290 183 158 123
3.74190 -1.39560 0.08761 166 135 94
3.72555 -1.39538 0.06711 178 155 119
3.73164 -1.40835 0.07883 175 151 111
3.73772 -1.42131 0.09056 170 152 113
3.75986 -1.40884 0.09444 157 128 102
3.75589 -1.42158 0.11031 168 148 127
3.75512 -1.43436 0.12483 170 155 138
3.75345 -1.44707 0.13966 164 160 171
3.76588 -1.46022 0.14880 207 217 224
3.76707 -1.47299 0.16245 231 234 239
2.96429 -1.91690 1.00692 241 242 242
2.96758 -1.89659 1.00460 247 247 248
2.95948 -1.90666 0.99767 243 243 245
2.96099 -1.93721 1.00925 222 217 233
2.96308 -1.92622 1.01779 235 232 236
2.95979 -1.94650 1.02011 213 215 238
2.93781 -1.93177 1.03503 222 215 232
2.95893 -1.96333 1.06079 180 183 214
2.92272 -1.96675 1.08046 142 140 177
2.94484 -1.98902 1.09548 97 102 113
2.98012 -2.01370 1.10740 78 70 81
2.96593 -2.02052 1.12119 73 68 81
2.96502 -2.02963 1.13169 77 75 74
2.97330 -2.04037 1.13998 72 67 65
3.01788 -2.06707 1.15007 75 81 81
3.12856 -2.11610 1.15596 92 97 91
3.14929 -2.12960 1.16185 104 112 117
3.15797 -2.14080 1.17047 131 140 150
3.14072 -2.14689 1.18479 152 164 187
3.14233 -2.15665 1.19492 179 189 210
3.17761 -2.17322 1.19784 212 222 237
3.19083 -2.17340 1.21442 228 228 230
3.18253 -2.18371 1.20732 226 228 232
1.37161 0.16512 -0.62347 219 252 253
1.37439 0.18222 -0.62543 235 251 250
1.36757 0.17374 -0.63127 229 253 252
1.36074 0.16526 -0.63711 184 220 253
1.37844 0.17360 -0.61763 232 251 250
1.38513 0.16190 -0.62590 203 247 253
1.38235 0.14473 -0.62393 81 92 187
1.37438 0.14485 -0.60216 179 217 253
1.37517 0.13442 -0.59091 149 179 246
1.38361 0.12828 -0.58783 114 114 217
1.38598 0.11874 -0.57827 84 89 174
1.39315 0.11186 -0.57380 80 87 163
1.39892 0.03983 -0.49624 99 144 199
1.38815 0.03998 -0.50975 98 88 189
1.39617 0.02290 -0.49431 80 94 181
1.84271 0.01730 -0.66822 243 251 254
1.84583 0.03653 -0.67042 254 254 254
1.83816 0.02700 -0.67699 251 252 254
1.85038 0.02683 -0.66165 254 254 254
1.86221 0.01406 -0.67327 240 246 240
1.86996 0.00567 -0.66739 204 207 191
1.87271 -0.00487 -0.65688 196 142 171
1.89529 -0.00705 -0.66448 212 172 201
1.93713 -0.00134 -0.68941 238 227 221
1.94976 -0.01984 -0.67444 238 216 230
1.20313 -0.60856 0.31188 50 38 42
1.20642 -0.61578 0.31846 35 27 41
3.46324 -1.08932 -0.15685 254 249 213
3.45916 -1.11440 -0.15398 254 254 253
3.48707 -1.10122 -0.15419 254 242 200
3.47532 -1.11461 -0.13409 236 209 162
3.45327 -1.12826 -0.10911 191 149 75
3.44488 -1.15402 -0.07673 172 126 101
3.43911 -1.16686 -0.05989 178 118 80
3.42995 -1.17972 -0.04151 172 112 74
3.43199 -1.19225 -0.02848 162 116 79
3.44198 -1.20461 -0.01918 165 139 113
3.43965 -1.21719 -0.00415 183 163 135
3.43565 -1.24183 -0.00133 188 159 128
3.51476 -1.27917 0.03145 177 155 122
3.50887 -1.26662 0.02010 184 158 122
3.52469 -1.26683 0.03994 186 159 122
3.53057 -1.27938 0.05129 184 157 124
3.52065 -1.29172 0.04279 175 152 121
3.75227 -1.43452 0.09879 164 152 121
3.77089 -1.44790 0.10541 140 125 121
3.77047 -1.46070 0.11983 127 119 153
3.75350 -1.47287 0.14090 183 192 211
3.76841 -1.48616 0.14906 222 229 230
3.76423 -1.51188 0.15200 227 226 232
3.77449 -1.49913 0.16078 231 231 237
3.79084 -1.49934 0.18128 242 241 243
3.78058 -1.51210 0.17250 237 238 240
3.77032 -1.52485 0.16372 231 231 236
3.01508 -1.91669 0.96242 241 241 244
3.01843 -1.89605 0.96005 244 245 248
3.01020 -1.90629 0.95301 244 244 247
3.02332 -1.90646 0.96946 245 244 247
2.99210 -1.92289 0.97951 236 235 235
2.98309 -1.93110 0.99264 231 226 230
2.93372 -1.95177 1.03755 201 210 236
2.96161 -1.96568 1.04064 170 175 209
2.97786 -1.98721 1.05737 102 99 116
2.97457 -2.00748 1.05969 69 59 61
2.98572 -1.99795 1.06583 74 77 84
2.98152 -2.00663 1.07735 63 67 76
2.96820 -2.01368 1.09111 81 80 84
2.94958 -2.01972 1.10609 93 89 95
2.94138 -2.02751 1.11840 105 101 104
2.92911 -2.03451 1.13163 107 108 96
2.96099 -2.04952 1.13417 89 86 79
2.98292 -2.06280 1.13921 82 73 80
3.01661 -2.07837 1.14157 91 91 88
3.01332 -2.09862 1.14389 108 113 100
3.05227 -2.09444 1.14361 97 99 88
3.08674 -2.11042 1.14608 98 92 83
3.08340 -2.13096 1.14843 96 94 92
3.11546 -2.12541 1.15000 98 103 94
3.13729 -2.13916 1.15560 112 124 128
3.13799 -2.14878 1.16599 143 151 153
3.13108 -2.15685 1.17804 161 166 170
3.13619 -2.16732 1.18741 170 169 167
3.13283 -2.18798 1.18977 172 156 145
3.13683 -2.17686 1.19775 180 178 181
3.15957 -2.19098 1.20335 212 221 230
3.17274 -2.19115 1.21987 228 228 229
3.16447 -2.20143 1.21279 226 228 229
1.37160 0.16054 -0.63673 152 178 244
1.36070 0.16069 -0.65040 91 96 190
1.36476 0.15204 -0.64258 84 90 177
1.38781 0.15881 -0.64208 105 116 217
1.35954 0.12101 -0.58723 84 92 179
1.35678 0.10402 -0.58528 68 72 129
1.37009 0.11608 -0.58647 93 102 171
1.36732 0.09905 -0.58453 57 63 110
1.37943 0.11043 -0.58437 93 103 146
1.37666 0.09336 -0.58242 53 56 97
1.38633 0.10339 -0.57963 87 90 127
1.38356 0.08630 -0.57768 58 60 98
1.79125 0.01184 -0.65965 241 235 248
1.79434 0.03085 -0.66182 251 252 253
1.78676 0.02143 -0.66832 243 237 247
1.77917 0.01200 -0.67481 241 231 241
1.79884 0.02127 -0.65316 251 252 254
1.85214 -0.01988 -0.65166 189 132 146
1.84902 -0.03914 -0.64945 239 230 241
1.90912 -0.00766 -0.69091 232 217 224
1.91691 -0.01623 -0.68486 250 241 232
1.92733 -0.02374 -0.68117 245 216 195
1.92414 -0.04340 -0.67892 254 247 244
1.94861 -0.02689 -0.68723 240 200 216
1.94540 -0.04664 -0.68497 254 251 245
1.19842 -0.60717 0.29712 105 95 95
1.18933 -0.60705 0.28571 107 94 91
1.20727 -0.61281 0.29944 58 44 58
1.20806 -0.62078 0.30796 40 27 48
1.21113 -0.62810 0.31474 29 21 28
1.22023 -0.62822 0.32616 16 15 17
1.21452 -0.63532 0.32127 20 16 16
1.20881 -0.64242 0.31638 23 16 23
2.04862 -0.99488 0.34707 164 159 193
2.05998 -0.99503 0.36132 232 233 244
2.05313 -1.00386 0.35506 181 188 192
2.06449 -1.00401 0.36931 224 233 242
2.06521 -1.01219 0.35891 164 156 168
2.07660 -1.01234 0.37319 242 247 252
2.06945 -1.02122 0.36708 221 227 247
3.47434 -1.17801 -0.08988 254 223 204
3.46436 -1.19041 -0.09842 251 254 252
3.39796 -1.19245 -0.03943 225 178 156
3.43240 -1.20428 -0.04174 192 153 90
3.42448 -1.21697 -0.02402 183 154 124
3.41049 -1.22968 -0.00356 190 160 144
3.45876 -1.26662 0.01591 174 148 126
3.45292 -1.25416 0.00465 184 158 125
3.45475 -1.29132 0.01874 160 134 99
3.48030 -1.27902 0.02006 176 151 116
3.47628 -1.30381 0.02290 156 138 99
3.71122 -1.40803 0.06006 163 148 121
3.73066 -1.42134 0.06615 153 141 122
3.75890 -1.43496 0.06864 126 111 113
3.75470 -1.46085 0.07160 59 43 63
3.73074 -1.44694 0.09466 85 61 88
3.74012 -1.46001 0.10502 60 43 74
3.77218 -1.47393 0.10612 68 70 108
3.74347 -1.48561 0.13205 140 157 192
3.75650 -1.49884 0.14095 208 217 226
3.01927 -1.91911 0.94106 241 238 243
3.02263 -1.89838 0.93869 244 244 247
3.01437 -1.90865 0.93161 245 245 246
3.01100 -1.92938 0.93398 225 222 228
3.01398 -1.92801 0.95337 226 223 230
3.01063 -1.94869 0.95573 200 206 223
2.98730 -1.93358 0.97157 210 208 217
2.98369 -1.94260 0.98325 209 209 225
2.99228 -1.95352 0.99157 207 217 238
2.96515 -1.95871 1.00956 192 204 228
2.99445 -1.97297 1.01227 156 153 190
2.98622 -1.98112 1.02507 116 104 143
2.98862 -1.99100 1.03500 96 90 110
2.99442 -2.00145 1.04404 86 76 86
2.97577 -2.01707 1.06985 71 71 71
2.92941 -2.01823 1.09199 102 103 114
2.92616 -2.03824 1.09428 128 128 136
2.91993 -2.02578 1.10466 119 121 128
2.90408 -2.04124 1.12903 114 112 101
2.90086 -2.06105 1.13130 82 79 71
2.95534 -2.06909 1.13704 87 83 92
3.00091 -2.08696 1.13647 102 104 101
2.99763 -2.10717 1.13878 113 114 110
3.07345 -2.11961 1.14025 104 104 98
3.11768 -2.14718 1.15110 101 110 115
3.13047 -2.15920 1.15875 144 155 158
3.11667 -2.16584 1.17236 179 184 180
3.11333 -2.18648 1.17472 198 198 196
3.12222 -2.17638 1.18162 190 187 172
3.13583 -2.19800 1.19960 180 188 194
3.14557 -2.20945 1.20798 218 227 231
3.15871 -2.20962 1.22447 228 229 231
3.15046 -2.21987 1.21741 228 228 229
3.14221 -2.23012 1.21035 228 228 230
1.33360 0.12341 -0.59640 89 97 162
1.32286 0.12356 -0.60988 86 92 131
1.34050 0.11652 -0.59184 94 104 143
1.35257 0.11249 -0.59283 94 96 133
1.34982 0.09550 -0.59089 42 45 101
1.72049 -0.03667 -0.59369 200 189 174
1.87943 0.02071 -0.73020 156 124 157
1.87625 0.00113 -0.72796 233 223 224
1.84792 -0.00463 -0.68753 171 138 169
1.85466 -0.02515 -0.66767 218 191 194
1.85152 -0.04447 -0.66546 254 254 252
1.89826 -0.04217 -0.66850 253 249 238
1.89509 -0.06168 -0.66627 254 254 254
1.20008 -0.61214 0.28650 113 103 91
1.19096 -0.61202 0.27506 106 94 89
1.19436 -0.61925 0.28160 116 106 90
1.20971 -0.61760 0.28822 72 61 64
1.21061 -0.62556 0.29671 44 32 43
1.21401 -0.63281 0.30326 30 24 32
1.21168 -0.64718 0.30491 25 18 28
1.99296 -0.98958 0.34725 183 196 198
1.99582 -0.97194 0.34523 251 254 253
1.98878 -0.98068 0.33921 234 245 242
2.05383 -1.01204 0.34463 140 159 178
2.05761 -1.02111 0.35305 155 166 177
2.06327 -1.03002 0.36043 185 188 200
2.07466 -1.03018 0.37472 251 253 253
2.06751 -1.03906 0.36860 237 246 251
3.44638 -1.20349 -0.07561 249 252 237
3.43480 -1.21633 -0.05599 247 246 214
3.41983 -1.22912 -0.03488 245 240 221
3.41583 -1.25379 -0.03205 139 115 160
3.40181 -1.25426 0.00143 194 176 135
3.39784 -1.27877 0.00423 194 147 118
3.43113 -1.26648 0.00173 183 153 116
3.55179 -1.37953 0.07313 163 148 119
3.55585 -1.35453 0.07027 172 150 110
3.54588 -1.36692 0.06174 169 149 115
3.56176 -1.36714 0.08167 172 153 109
3.69659 -1.42066 0.05315 111 94 107
3.70171 -1.43358 0.06526 80 65 95
3.69754 -1.45924 0.06820 59 48 60
3.66559 -1.44520 0.09470 54 48 76
3.66146 -1.47064 0.09761 65 56 55
3.72537 -1.47260 0.09810 71 58 59
3.71512 -1.48534 0.08933 72 62 61
3.74503 -1.48609 0.10422 73 67 81
3.77077 -1.49990 0.10794 104 116 146
3.75328 -1.51190 0.12931 185 200 213
3.75775 -1.52481 0.14170 221 226 230
3.76384 -1.53778 0.15343 227 227 231
3.75357 -1.55054 0.14464 224 226 229
3.03483 -1.92324 0.91626 240 241 243
3.03822 -1.90236 0.91387 245 245 246
3.02989 -1.91271 0.90674 244 244 246
3.02157 -1.92306 0.89961 239 239 242
3.00194 -1.93768 0.94738 207 203 215
2.99370 -1.94792 0.94032 201 205 227
2.99639 -1.95608 0.97047 197 213 234
2.98574 -1.96395 0.98412 178 181 211
2.97849 -1.98182 1.00739 104 100 132
2.99435 -1.99398 1.01375 98 93 114
2.99363 -2.00335 1.02456 94 89 97
2.98267 -2.01093 1.03803 86 72 83
2.97973 -2.01985 1.04933 88 79 83
2.96555 -2.02673 1.06348 106 109 109
2.96226 -2.04698 1.06580 127 129 134
2.94906 -2.03312 1.07813 121 124 131
2.90727 -2.04397 1.10930 119 116 119
2.89933 -2.05383 1.10251 101 97 101
2.90404 -2.06386 1.11157 86 79 76
2.89253 -2.05038 1.12317 94 90 79
2.96792 -2.09217 1.13554 107 110 109
2.95990 -2.10213 1.12868 111 112 114
2.96466 -2.11226 1.13784 114 113 116
3.05458 -2.12767 1.13575 110 113 106
3.04641 -2.13782 1.12877 114 115 113
3.09148 -2.14440 1.13764 100 99 94
3.10348 -2.15623 1.14540 90 89 110
3.12540 -2.17013 1.15095 131 143 156
3.10871 -2.17613 1.16525 169 178 180
3.11488 -2.19618 1.18486 192 177 173
3.11153 -2.21679 1.18721 142 109 168
3.09824 -2.20199 1.19893 150 133 159
3.11345 -2.21456 1.20605 207 221 227
1.34380 0.10295 -0.59646 52 50 97
1.34105 0.08598 -0.59452 75 70 101
1.55965 0.02914 -0.61331 253 246 226
1.56256 0.04709 -0.61537 122 102 114
1.55540 0.03819 -0.62149 226 209 214
1.56681 0.03804 -0.60719 159 170 147
1.55249 0.02024 -0.61944 254 254 254
1.56389 0.02009 -0.60514 223 219 178
1.53905 -0.01379 -0.55572 156 181 179
1.53486 -0.00485 -0.56380 176 119 102
1.52779 -0.01364 -0.56985 254 236 204
1.54612 -0.00500 -0.54967 191 203 223
1.55713 -0.02715 -0.54909 243 243 244
1.55425 -0.04494 -0.54705 229 242 249
1.70204 -0.21536 -0.40506 198 187 182
1.70498 -0.19727 -0.40713 251 241 218
1.69776 -0.20624 -0.41330 254 250 240
1.70926 -0.20639 -0.39888 185 158 128
1.71354 -0.21551 -0.39063 139 115 96
1.70632 -0.22448 -0.39681 150 131 121
1.20933 -0.62322 0.27915 91 78 66
1.20016 -0.62310 0.26765 115 105 96
1.21298 -0.63043 0.28554 48 35 34
1.21639 -0.63770 0.29211 33 27 35
1.21405 -0.65213 0.29376 26 22 28
2.00154 -0.97814 0.31141 239 249 244
2.00442 -0.96036 0.30938 242 238 254
1.99733 -0.96918 0.30331 252 254 253
2.00863 -0.96933 0.31748 251 250 253
1.98175 -0.98943 0.33319 181 195 204
2.00428 -1.00594 0.34129 43 37 91
2.01883 -1.01396 0.34357 54 64 106
2.04301 -1.02123 0.34056 69 82 123
2.04493 -1.03044 0.35000 94 95 143
2.05382 -1.03909 0.35558 120 145 176
2.05373 -1.04845 0.36611 196 224 232
2.06510 -1.04860 0.38036 253 254 254
2.06312 -1.05709 0.37146 243 250 253
2.07450 -1.05724 0.38574 254 254 254
2.06736 -1.06612 0.37962 253 254 254
3.44103 -1.21574 -0.08631 208 221 234
3.46096 -1.36564 0.07245 160 139 110
3.50918 -1.37883 0.06499 142 131 114
3.53880 -1.39186 0.06592 119 111 107
3.60196 -1.40580 0.05241 94 79 89
3.54808 -1.41699 0.08979 69 51 73
3.54403 -1.44196 0.09265 53 39 44
3.56477 -1.42989 0.09655 54 40 67
3.56070 -1.45492 0.09942 56 45 47
3.61329 -1.44385 0.08981 53 40 63
3.60919 -1.46910 0.09270 60 50 47
3.73335 -1.49881 0.09600 73 65 72
3.71698 -1.49859 0.07547 70 61 56
3.77242 -1.51326 0.09418 80 88 114
3.73902 -1.52448 0.12215 155 171 197
3.75132 -1.53776 0.13136 213 222 228
3.74713 -1.56351 0.13431 222 224 227
3.00903 -1.94064 0.92509 207 202 220
2.99398 -1.95761 0.95104 190 196 234
2.95579 -1.96104 0.97250 155 148 204
2.97989 -1.98404 0.98716 107 98 123
2.99505 -2.00565 1.00437 110 101 106
2.98531 -2.01346 1.01762 107 95 98
2.98298 -2.02252 1.02884 99 86 98
2.97447 -2.03044 1.04164 112 111 122
2.97117 -2.05079 1.04397 124 127 140
2.96404 -2.03795 1.05487 123 126 136
2.93367 -2.05102 1.08351 125 122 127
2.92566 -2.06097 1.07666 113 109 117
2.90358 -2.08201 1.13211 103 106 101
2.90036 -2.10185 1.13438 114 113 117
3.08888 -2.15576 1.12928 109 110 109
3.07575 -2.15559 1.11282 115 115 117
3.08064 -2.16600 1.12223 115 115 117
3.08552 -2.17641 1.13164 105 103 106
3.09613 -2.16666 1.13815 96 91 114
3.11581 -2.18014 1.14417 121 129 145
3.10237 -2.18675 1.15778 161 173 180
3.08985 -2.19348 1.17109 194 197 203
3.09283 -2.20345 1.18088 205 195 199
3.08950 -2.22400 1.18324 147 119 186
3.08979 -2.22139 1.20239 196 208 217
3.09446 -2.23168 1.21176 226 231 233
3.10748 -2.23185 1.22810 228 229 231
3.09931 -2.24201 1.22110 227 228 230
3.09114 -2.25217 1.21411 228 228 231
1.31577 0.11498 -0.61528 42 48 96
1.31851 0.13189 -0.61721 92 97 146
1.31177 0.12350 -0.62299 59 59 95
1.30502 0.11512 -0.62876 76 53 92
1.32099 0.10714 -0.60891 47 47 101
1.31824 0.09022 -0.60698 86 79 117
1.53133 -0.02288 -0.56113 159 166 159
1.54084 -0.04023 -0.54608 205 187 202
1.69429 -0.21379 -0.42282 251 251 243
1.69723 -0.19567 -0.42489 252 251 251
1.69000 -0.20466 -0.43108 246 249 251
1.70409 -0.22086 -0.41945 204 197 189
1.71057 -0.22921 -0.41311 156 136 122
1.71630 -0.23784 -0.40609 143 119 110
1.71334 -0.25602 -0.40401 136 115 113
1.71981 -0.24729 -0.39712 134 115 111
1.73922 -0.25103 -0.40199 113 96 89
1.73626 -0.26929 -0.39990 113 95 87
1.78228 -0.24647 -0.42722 98 84 76
1.79405 -0.24662 -0.41247 88 82 85
1.78666 -0.25580 -0.41879 92 81 82
1.77928 -0.26497 -0.42510 103 84 88
1.21109 -0.62826 0.26835 104 94 82
1.20189 -0.62814 0.25681 113 106 90
1.21303 -0.63597 0.27609 53 40 45
1.21707 -0.64309 0.28221 36 32 38
1.96916 -0.97077 0.29897 252 253 253
1.97203 -0.95308 0.29694 254 254 254
1.96498 -0.96185 0.29091 253 254 254
1.97622 -0.96200 0.30500 254 254 254
1.96098 -0.98092 0.31420 224 244 236
1.96454 -0.99914 0.33299 90 79 103
1.99497 -1.01492 0.33650 56 37 77
2.00689 -1.02319 0.34023 61 50 81
2.01536 -1.03179 0.34593 59 54 89
2.03886 -1.03922 0.34330 75 76 117
2.03089 -1.04918 0.35820 109 123 169
2.04551 -1.05740 0.36060 134 164 212
2.04436 -1.06679 0.37169 193 213 244
2.05369 -1.07544 0.37705 240 251 254
2.06505 -1.07559 0.39130 254 254 254
2.05792 -1.08446 0.38520 253 254 254
2.98842 -1.21153 0.09334 155 138 212
2.90157 -1.22449 0.14845 136 105 181
3.19827 -1.26730 0.05796 72 19 54
3.19445 -1.29085 0.06066 160 86 86
3.40198 -1.35253 0.05856 162 138 120
3.39662 -1.36468 0.07470 136 115 103
3.45536 -1.39024 0.07598 79 62 80
3.45202 -1.40245 0.09124 52 45 64
3.47583 -1.41531 0.09457 47 39 54
3.47182 -1.43998 0.09739 47 37 34
3.71476 -1.51121 0.09068 71 61 63
3.69842 -1.51099 0.07018 67 59 49
3.70450 -1.52396 0.08190 70 59 55
3.73725 -1.52495 0.09560 73 64 89
3.75490 -1.53853 0.10262 130 139 161
3.75289 -1.55114 0.11773 201 213 218
3.01331 -1.95291 0.91436 200 205 225
3.00008 -1.95274 0.89776 200 207 228
3.01098 -1.96225 0.92594 182 187 215
2.95036 -1.96209 0.95407 142 124 185
2.94704 -1.98256 0.95641 106 107 118
2.97994 -2.00512 0.98858 120 99 117
3.00574 -2.01910 0.99223 146 130 141
2.98512 -2.03447 1.01913 119 112 120
2.98179 -2.05494 1.02147 120 124 129
2.97168 -2.04149 1.03329 122 125 138
2.96837 -2.06187 1.03562 125 127 129
2.95698 -2.05753 1.05816 125 126 136
2.85745 -2.05725 1.10434 86 81 86
2.84958 -2.06703 1.09761 86 79 75
2.86284 -2.06734 1.11315 89 86 93
2.87347 -2.08748 1.13081 111 114 109
2.87026 -2.10722 1.13307 116 113 116
3.08892 -2.18651 1.14140 103 104 117
3.08802 -2.19569 1.15213 153 169 177
3.07234 -2.20168 1.16619 189 194 199
3.06987 -2.21044 1.17718 203 198 206
3.06655 -2.23092 1.17952 143 125 193
3.06718 -2.22836 1.19856 191 196 210
3.06241 -2.23651 1.20994 225 233 237
3.05910 -2.25689 1.21227 228 228 232
1.30030 0.10166 -0.61137 56 43 80
1.28959 0.10180 -0.62480 83 62 105
1.31424 0.09875 -0.61469 66 49 87
1.53436 -0.03786 -0.56498 206 210 182
1.53147 -0.05562 -0.56295 203 207 179
1.69645 -0.20845 -0.44957 241 246 247
1.69941 -0.19024 -0.45166 245 244 247
1.69215 -0.19927 -0.45787 240 246 250
1.69350 -0.22665 -0.44749 238 228 223
1.69995 -0.21793 -0.44055 243 238 228
1.69858 -0.22922 -0.42720 221 208 182
1.69644 -0.24075 -0.41321 171 142 118
1.70994 -0.24653 -0.41308 140 112 105
1.70699 -0.26471 -0.41100 132 108 105
1.73480 -0.25906 -0.41073 127 108 96
1.72751 -0.26812 -0.41697 133 112 110
1.73184 -0.27734 -0.40864 129 108 103
1.21128 -0.63378 0.25872 115 107 83
1.20206 -0.63366 0.24716 114 106 89
1.21822 -0.64013 0.26259 64 51 56
1.21912 -0.64815 0.27119 41 32 34
1.22409 -0.65505 0.27661 30 25 24
1.23332 -0.65517 0.28819 18 16 25
1.22752 -0.66237 0.28323 21 17 18
1.22173 -0.66957 0.27827 25 19 20
1.95752 -0.97066 0.28510 239 250 250
1.96039 -0.95298 0.28308 254 254 254
1.95334 -0.96174 0.27704 253 254 253
1.95581 -1.01725 0.33836 57 30 44
1.98791 -1.02370 0.33045 75 43 59
1.99086 -1.03274 0.33923 70 40 44
1.99168 -1.04193 0.34920 58 29 39
2.02583 -1.04855 0.34049 87 53 82
2.02306 -1.05807 0.35252 102 80 130
2.02255 -1.06739 0.36325 104 89 155
2.03276 -1.07595 0.36806 122 134 205
2.04075 -1.08468 0.37412 188 226 242
2.04676 -1.09357 0.38128 239 252 254
2.05811 -1.09372 0.39551 254 254 254
2.05099 -1.10257 0.38942 253 254 254
3.00266 -1.19919 0.04816 157 166 185
3.00635 -1.17645 0.04556 254 253 252
2.99728 -1.18772 0.03779 254 250 241
2.98820 -1.19900 0.03003 254 254 250
3.01173 -1.18792 0.05593 202 234 242
2.85808 -1.21366 0.13282 108 86 121
2.91173 -1.22388 0.11896 86 49 100
2.87288 -1.23571 0.15065 104 82 124
3.37668 -1.37658 0.07100 112 46 42
3.39489 -1.38910 0.07649 69 25 48
3.40721 -1.40155 0.08468 47 30 52
3.44036 -1.41458 0.08367 42 31 44
3.43638 -1.43915 0.08648 44 18 12
3.44807 -1.42702 0.09403 45 32 38
3.74236 -1.53850 0.08038 74 64 80
3.72591 -1.53829 0.05974 68 58 58
3.72887 -1.55053 0.10029 128 133 149
3.74965 -1.56433 0.10601 191 204 205
3.75460 -1.57730 0.11827 217 219 226
3.77102 -1.57752 0.13888 225 224 227
3.76071 -1.59034 0.13006 220 220 224
3.75040 -1.60316 0.12123 219 217 222
3.01596 -1.96499 0.90405 181 185 219
3.00269 -1.96482 0.88740 189 198 223
2.97638 -2.00657 0.96958 118 99 127
2.99727 -2.01973 0.97452 161 140 167
3.01465 -2.03235 0.98050 185 179 185
2.98914 -2.03735 0.99819 149 140 153
2.98580 -2.05790 1.00054 113 117 124
2.98014 -2.04520 1.01128 122 120 126
2.97681 -2.06568 1.01363 117 123 125
2.83722 -2.05562 1.09061 94 92 97
2.84094 -2.07438 1.10997 98 100 103
2.83775 -2.09404 1.11222 116 118 120
2.83213 -2.08164 1.12231 111 116 114
2.82895 -2.10123 1.12455 116 116 123
3.07629 -2.18644 1.12483 109 108 99
3.07141 -2.17603 1.11542 119 118 117
3.06317 -2.18626 1.10837 120 119 121
3.07665 -2.19588 1.13530 86 84 93
3.06070 -2.20181 1.14951 145 163 167
3.04709 -2.20815 1.16308 185 189 194
3.03662 -2.21509 1.17585 201 196 205
3.03656 -2.23346 1.19656 191 193 210
3.01697 -2.23819 1.21115 225 233 238
3.01369 -2.25838 1.21346 227 227 229
1.56759 0.01656 -0.66171 245 251 254
1.61700 -0.04987 -0.61038 172 199 190
1.61404 -0.06811 -0.60830 187 126 189
1.68943 -0.20657 -0.46821 243 248 251
1.69239 -0.18833 -0.47030 254 253 253
1.68511 -0.19737 -0.47652 254 254 254
1.68647 -0.22480 -0.46613 234 212 226
1.69077 -0.21688 -0.45722 236 227 236
1.69377 -0.23732 -0.43558 247 241 216
1.70374 -0.24441 -0.43235 207 185 156
1.69916 -0.25682 -0.41616 151 116 98
1.21060 -0.63957 0.24974 125 113 89
1.20136 -0.63944 0.23815 116 103 88
1.20480 -0.64677 0.24477 127 116 98
1.21153 -0.64758 0.25834 87 71 69
1.22050 -0.65342 0.26063 47 33 32
1.22517 -0.66043 0.26631 34 28 28
1.22280 -0.67499 0.26798 28 20 22
1.92822 -0.97239 0.28178 231 245 240
1.93107 -0.95481 0.27977 253 254 254
1.91705 -0.97224 0.26776 211 209 235
1.92402 -1.00057 0.31559 31 10 42
1.93388 -1.00886 0.32022 42 15 23
1.93563 -1.01790 0.32960 68 31 36
1.95893 -1.02508 0.32654 92 61 56
1.96728 -1.03361 0.33217 136 103 71
1.99400 -1.04070 0.32738 137 100 49
1.99111 -1.05846 0.32941 157 124 109
2.00911 -1.05811 0.33979 172 146 161
2.00295 -1.06783 0.35371 174 138 137
2.00007 -1.08557 0.35574 168 132 144
2.01087 -1.07652 0.35973 148 120 109
2.01474 -1.08550 0.36801 129 137 148
2.02818 -1.09387 0.37103 133 146 178
2.03775 -1.10253 0.37622 197 228 246
2.04398 -1.11142 0.38326 244 252 254
2.05533 -1.11157 0.39749 254 254 254
2.04820 -1.12042 0.39140 254 254 254
2.91000 -1.21215 0.08231 254 245 233
2.89584 -1.21196 0.06454 254 254 254
2.90111 -1.22320 0.07470 254 254 254
2.91854 -1.22334 0.09085 254 236 213
2.93111 -1.23448 0.09740 228 201 187
2.96861 -1.24537 0.09174 187 170 130
2.89617 -1.25743 0.14003 165 145 110
2.89005 -1.26864 0.15562 148 134 121
3.36504 -1.38860 0.06358 202 88 75
3.34959 -1.38839 0.04420 230 110 118
3.37724 -1.40100 0.07175 144 55 44
3.39747 -1.41366 0.07634 91 33 27
3.41454 -1.42630 0.08243 58 19 17
3.45617 -1.45201 0.09152 43 27 17
3.45217 -1.47665 0.09434 58 17 21
3.48324 -1.46522 0.09347 48 34 29
3.49897 -1.46543 0.11320 53 44 47
3.52425 -1.47909 0.08949 51 42 43
3.54009 -1.47930 0.10937 57 49 51
3.53015 -1.49166 0.10086 55 47 49
3.74004 -1.55176 0.06818 73 67 84
3.72033 -1.56341 0.09077 126 134 149
3.75891 -1.57828 0.08908 185 195 202
3.75613 -1.59084 0.10458 215 218 224
3.75192 -1.61675 0.10755 218 216 220
3.02481 -1.97815 0.89186 132 132 172
3.02141 -1.99912 0.89426 89 88 108
2.96882 -2.00735 0.95162 113 94 112
2.99297 -2.02110 0.95558 162 145 173
2.99933 -2.03179 0.96460 204 200 209
3.00536 -2.04243 0.97372 175 169 181
3.00200 -2.06312 0.97609 113 111 119
2.97502 -2.04646 0.99279 123 116 130
2.97169 -2.06698 0.99514 115 116 127
2.91359 -2.07242 1.05150 111 109 114
2.90080 -2.07225 1.03546 122 124 125
2.91032 -2.09254 1.05381 76 71 80
2.82769 -2.06506 1.08432 79 74 83
2.83963 -2.07640 1.09141 90 88 85
2.82003 -2.08155 1.10660 110 112 113
2.81685 -2.10114 1.10884 118 117 122
3.05511 -2.19391 1.12086 113 113 102
3.04203 -2.19374 1.10446 121 119 122
3.06309 -2.20496 1.12951 79 80 92
3.03634 -2.20846 1.14627 140 156 161
3.01824 -2.21373 1.16088 182 186 192
3.01147 -2.22140 1.17279 195 189 199
3.04263 -2.23754 1.17608 124 98 187
2.98915 -2.23462 1.19840 191 196 220
2.98052 -2.24171 1.21052 226 231 234
2.97727 -2.26176 1.21282 226 227 226
1.57822 -0.05089 -0.61042 232 204 198
1.57528 -0.06897 -0.60835 150 94 134
1.68255 -0.20461 -0.48707 253 252 251
1.68552 -0.18634 -0.48916 254 254 254
1.67823 -0.19540 -0.49540 253 254 254
1.68354 -0.21508 -0.47570 243 239 237
1.68572 -0.23587 -0.45323 243 236 238
1.68276 -0.25407 -0.45115 253 254 254
1.68689 -0.24620 -0.44212 252 254 248
1.69187 -0.25512 -0.43444 237 230 208
1.70990 -0.25935 -0.43839 177 144 117
1.70096 -0.27329 -0.41829 142 112 104
1.70526 -0.28246 -0.41000 141 119 116
1.69800 -0.29148 -0.41621 155 130 116
1.38578 -0.52530 0.01961 94 88 80
1.39584 -0.52543 0.03223 112 97 88
1.38952 -0.53328 0.02683 111 98 90
1.21578 -0.65207 0.24545 105 94 83
1.20651 -0.65195 0.23382 129 116 103
1.21944 -0.65937 0.25193 53 38 40
1.22241 -0.66685 0.25895 37 29 35
1.88199 -0.99424 0.30964 57 48 89
1.89954 -1.01085 0.31993 79 40 62
1.91045 -1.01901 0.32388 128 102 87
1.92789 -1.02665 0.32406 157 132 82
1.94155 -1.03468 0.32652 162 135 73
1.95341 -1.04291 0.33009 165 141 82
1.96504 -1.05120 0.33383 163 132 79
1.97757 -1.06869 0.34755 146 110 144
1.99746 -1.07651 0.34676 159 108 131
2.00786 -1.09429 0.36183 123 104 140
2.01790 -1.10289 0.36670 129 132 146
2.02692 -1.11159 0.37217 140 152 192
2.03741 -1.12024 0.37687 212 228 241
2.04273 -1.12919 0.38441 249 252 254
2.05409 -1.12934 0.39865 254 254 254
2.04696 -1.13819 0.39255 254 254 254
2.03983 -1.14705 0.38645 253 254 254
2.88966 -1.23469 0.09324 254 254 254
2.87556 -1.23450 0.07555 254 254 254
2.88081 -1.24569 0.08566 254 254 254
2.88606 -1.25689 0.09578 254 254 254
2.88988 -1.24594 0.10587 254 254 247
2.88628 -1.26811 0.10841 254 254 254
2.89980 -1.25708 0.11366 254 251 225
2.90633 -1.26826 0.12315 254 244 215
2.90568 -1.27948 0.13615 218 205 186
2.86244 -1.29070 0.16981 164 151 109
2.86762 -1.30175 0.17980 134 126 106
3.39070 -1.43799 0.08040 176 67 57
3.43656 -1.46387 0.08744 76 18 12
3.54889 -1.50532 0.07989 51 39 35
3.56484 -1.50553 0.09989 60 53 45
3.68988 -1.54976 0.06184 66 56 58
3.74553 -1.56549 0.05265 71 68 85
3.70534 -1.57592 0.08393 125 130 149
3.75708 -1.59167 0.07667 179 185 195
3.76087 -1.60463 0.08951 213 215 220
3.75665 -1.63063 0.09248 217 217 219
3.06146 -1.98616 0.86018 149 147 186
3.06491 -1.96494 0.85776 201 206 229
3.05644 -1.97546 0.85051 195 201 230
2.95694 -1.97866 0.90237 95 85 127
2.96320 -1.99890 0.92223 94 100 108
2.96820 -2.00933 0.93161 110 102 120
2.98365 -2.02160 0.93800 166 153 166
2.98256 -2.03097 0.94913 216 215 217
2.99015 -2.04188 0.95780 197 194 202
2.97792 -2.04919 0.97200 134 123 148
2.97458 -2.06979 0.97435 114 115 121
2.80143 -2.06223 1.07229 99 94 102
2.78897 -2.06206 1.05666 118 120 124
2.80593 -2.08105 1.09141 97 103 101
2.80275 -2.10064 1.09365 115 118 122
2.79587 -2.08798 1.10413 114 118 118
2.79270 -2.10749 1.10636 117 117 120
3.02398 -2.19916 1.11934 114 112 109
3.01097 -2.19899 1.10303 122 118 121
3.02842 -2.20940 1.12877 76 76 101
3.01597 -2.21590 1.14217 133 147 160
2.99276 -2.21994 1.15798 176 183 191
2.99621 -2.22984 1.16752 185 178 186
2.97247 -2.23357 1.18324 116 73 155
2.96519 -2.24095 1.19512 195 207 225
2.96194 -2.26099 1.19741 225 227 225
2.96056 -2.24888 1.20634 227 231 230
2.95732 -2.26888 1.20863 223 223 224
1.80837 0.18165 -1.00698 221 189 140
1.66024 0.08457 -0.82419 146 88 48
1.65782 0.07168 -0.80838 129 114 111
1.67476 0.06813 -0.81268 113 91 123
1.70301 0.05807 -0.81513 100 90 158
1.71997 0.05425 -0.81912 142 173 213
1.67096 -0.20445 -0.50165 249 247 251
1.67393 -0.18618 -0.50374 254 254 254
1.66664 -0.19524 -0.50997 253 254 254
1.66368 -0.21350 -0.50788 244 231 245
1.66800 -0.22271 -0.49956 249 234 242
1.67635 -0.21325 -0.49431 251 240 244
1.67725 -0.22375 -0.48283 242 236 228
1.67648 -0.23485 -0.46987 239 229 227
1.67352 -0.25307 -0.46779 249 249 247
1.67935 -0.24457 -0.46026 247 244 246
1.67639 -0.26277 -0.45818 253 253 252
1.68337 -0.26458 -0.43953 254 248 233
1.71080 -0.26548 -0.45197 205 175 160
1.70413 -0.27861 -0.43381 163 128 117
1.70117 -0.29687 -0.43172 161 133 120
1.36711 -0.51867 0.00385 96 80 78
1.36968 -0.50287 0.00204 116 98 85
1.36337 -0.51070 -0.00336 125 105 91
1.35707 -0.51854 -0.00875 129 108 94
1.36081 -0.52650 -0.00155 114 96 80
1.38153 -0.53253 0.01249 80 72 69
1.39305 -0.53822 0.01330 109 98 88
1.40315 -0.53835 0.02597 115 97 85
1.39681 -0.54623 0.02054 118 99 85
1.39047 -0.55411 0.01511 119 103 91
1.21695 -0.65743 0.23492 121 109 96
1.20766 -0.65731 0.22326 132 114 106
1.21957 -0.66503 0.24225 63 44 47
1.22141 -0.67282 0.25019 40 30 33
1.21903 -0.68744 0.25186 32 27 28
1.22486 -0.68019 0.25685 29 23 25
1.23415 -0.68032 0.26850 20 16 21
1.22832 -0.68756 0.26351 18 16 19
1.22249 -0.69480 0.25852 22 18 22
1.60270 -0.88426 0.30290 12 16 33
1.59244 -0.88412 0.29002 17 12 18
1.60220 -0.89303 0.31309 111 126 128
1.61244 -0.89317 0.32595 192 182 149
1.60601 -0.90116 0.32044 169 168 171
1.59958 -0.90916 0.31494 147 149 156
1.87185 -0.95721 0.25357 241 242 227
1.87468 -0.93978 0.25157 68 43 60
1.86773 -0.94842 0.24562 246 235 204
1.87881 -0.94857 0.25952 89 83 128
1.88293 -0.95736 0.26747 172 162 219
1.86903 -0.97465 0.25556 138 144 221
1.87270 -1.00306 0.30515 50 27 62
1.86672 -1.01273 0.31905 97 78 107
1.88678 -1.02000 0.31745 153 150 163
1.90466 -1.02755 0.31724 189 198 195
1.90943 -1.03628 0.32481 192 193 185
1.90660 -1.05372 0.32680 179 183 195
1.91920 -1.04462 0.32947 184 176 157
1.94364 -1.05184 0.32567 169 147 106
1.95722 -1.06000 0.32827 162 131 74
1.96095 -1.06893 0.33655 145 107 82
1.97085 -1.07742 0.34133 117 77 101
1.98148 -1.08590 0.34573 127 85 124
1.98764 -1.09470 0.35269 136 101 119
2.00610 -1.10277 0.35279 107 72 94
2.01740 -1.11134 0.35696 96 77 118
2.02014 -1.12041 0.36590 97 89 132
2.02381 -1.12943 0.37433 158 145 168
2.03293 -1.13817 0.37977 232 229 247
2.89614 -1.27928 0.11623 254 254 253
2.88204 -1.27909 0.09853 254 254 254
2.88729 -1.29028 0.10865 254 254 254
2.89254 -1.30147 0.11877 254 254 254
2.89947 -1.29047 0.12729 254 248 243
2.89922 -1.30165 0.14009 222 217 191
2.87112 -1.31266 0.16638 179 160 108
2.88509 -1.31285 0.18389 127 125 123
2.89024 -1.32385 0.16968 141 128 100
2.90425 -1.32403 0.18726 126 126 127
2.89545 -1.33496 0.17973 128 125 120
3.42212 -1.47587 0.08111 199 69 54
3.41813 -1.50044 0.08392 246 104 92
3.45229 -1.48929 0.08153 134 30 16
3.49374 -1.50334 0.07712 87 18 16
3.52426 -1.51706 0.07771 69 19 13
3.78476 -1.58126 0.02269 73 67 79
3.71123 -1.58967 0.06832 124 127 146
3.70703 -1.61552 0.07127 172 179 186
3.76011 -1.60541 0.06218 175 178 191
3.75588 -1.63149 0.06516 205 209 210
3.77111 -1.61888 0.07206 209 212 217
3.76687 -1.64498 0.07504 216 216 221
3.08952 -1.99280 0.83063 159 155 184
3.09299 -1.97138 0.82818 202 207 231
3.08445 -1.98200 0.82086 192 200 229
2.96030 -1.98123 0.88091 104 91 112
2.96452 -1.99158 0.89058 77 71 88
2.96447 -2.00119 0.90150 91 94 106
2.96626 -2.01110 0.91186 117 114 128
2.97046 -2.02142 0.92150 175 170 186
2.96732 -2.03042 0.93326 220 221 221
2.97324 -2.04103 0.94238 223 221 221
2.98200 -2.05216 0.95071 170 160 172
2.97864 -2.07284 0.95308 112 109 115
2.77015 -2.06734 1.07188 82 78 95
2.75776 -2.06717 1.05634 114 102 112
2.77742 -2.07769 1.08006 83 80 88
2.77604 -2.08632 1.09053 108 114 115
2.77288 -2.10580 1.09275 119 117 124
2.98885 -2.20341 1.11889 115 108 110
2.97593 -2.20323 1.10268 124 119 118
2.99829 -2.21468 1.12705 73 66 104
2.99903 -2.22404 1.13730 128 144 156
2.98358 -2.22972 1.15133 171 178 184
2.99405 -2.24122 1.15924 169 157 165
2.96509 -2.24368 1.17624 129 90 120
2.94630 -2.24835 1.19075 202 217 223
2.94305 -2.26834 1.19304 219 219 223
1.61800 0.05833 -0.79427 200 142 86
1.65186 0.05140 -0.80321 170 146 76
1.68693 0.05637 -0.82629 133 107 63
1.71324 0.04517 -0.82662 118 116 141
1.71820 0.03568 -0.81829 174 148 158
1.71423 0.02211 -0.80089 162 133 159
1.76696 0.02241 -0.82743 99 78 86
1.66175 -0.20337 -0.51845 248 245 251
1.66472 -0.18509 -0.52054 254 254 254
1.65742 -0.19415 -0.52678 253 254 254
1.65446 -0.21243 -0.52469 246 230 246
1.67079 -0.23249 -0.48982 253 249 245
1.66350 -0.24154 -0.49605 254 254 253
1.66782 -0.25075 -0.48773 254 253 251
1.66897 -0.24397 -0.47587 247 248 246
1.66602 -0.26218 -0.47379 253 250 241
1.68230 -0.27138 -0.45132 254 253 244
1.67072 -0.27123 -0.46584 253 253 249
1.67503 -0.28041 -0.45754 254 254 252
1.70240 -0.27495 -0.45725 225 206 193
1.37931 -0.53004 -0.00672 75 63 54
1.36921 -0.52990 -0.01939 126 106 90
1.38008 -0.53894 0.00301 68 61 49
1.39209 -0.54452 0.00340 103 98 79
1.21476 -0.66372 0.22701 132 114 100
1.20546 -0.66359 0.21534 133 113 109
1.22103 -0.67037 0.23147 81 63 53
1.21920 -0.67913 0.24234 43 32 26
1.21683 -0.69377 0.24401 34 28 33
1.60689 -0.89072 0.29034 8 10 28
1.59659 -0.89058 0.27742 16 13 14
1.63906 -0.89486 0.27907 92 101 107
1.63640 -0.91124 0.28095 133 138 146
1.86250 -0.96612 0.24910 216 222 250
1.85144 -0.96597 0.23522 201 211 232
1.85556 -0.97475 0.24316 122 129 161
1.84312 -0.99561 0.29227 37 11 82
1.84592 -0.97838 0.29030 178 174 227
1.83904 -0.98692 0.28441 61 49 150
1.85784 -1.00328 0.29368 73 53 78
1.84908 -1.01320 0.30931 128 121 130
1.85276 -1.02192 0.31739 153 164 174
1.88345 -1.02829 0.30939 149 164 194
1.89511 -1.03641 0.31283 151 157 201
1.90254 -1.04492 0.31882 161 166 195
1.91926 -1.06187 0.32978 184 171 164
1.94640 -1.06902 0.32443 161 123 97
1.94862 -1.07804 0.33358 136 102 58
1.95850 -1.08653 0.33833 110 70 43
1.96686 -1.09516 0.34399 100 43 59
1.96399 -1.11282 0.34601 69 24 33
1.97447 -1.10385 0.35010 78 31 58
1.97160 -1.12153 0.35212 69 26 34
1.99010 -1.11211 0.35172 84 44 54
1.99840 -1.12083 0.35751 88 50 79
2.00863 -1.12947 0.36226 88 53 108
2.02141 -1.13803 0.36564 96 68 141
2.03192 -1.14674 0.37033 209 177 212
2.02903 -1.15606 0.38236 253 254 254
2.04037 -1.15621 0.39658 254 252 254
2.03325 -1.16506 0.39049 254 254 254
2.02613 -1.17391 0.38440 254 254 254
2.89138 -1.31264 0.13204 254 253 245
2.87729 -1.31245 0.11437 254 254 254
2.88254 -1.32362 0.12447 254 254 254
2.89075 -1.32377 0.14500 251 243 199
2.88004 -1.33476 0.16283 200 183 130
2.88889 -1.34593 0.17113 154 137 107
2.90291 -1.34611 0.18872 128 129 126
2.89840 -1.35712 0.17913 136 126 114
2.91243 -1.35730 0.19674 130 128 127
2.90362 -1.36825 0.18920 131 128 126
3.45271 -1.51420 0.08239 222 85 62
3.43700 -1.51399 0.06269 235 125 146
3.52912 -1.53021 0.06264 168 50 30
3.66326 -1.57494 0.04687 64 32 30
3.78012 -1.59464 0.01123 64 62 76
3.70437 -1.60271 0.05802 116 128 143
3.70018 -1.62858 0.06098 169 172 179
3.10141 -1.99682 0.80565 157 157 185
2.98575 -1.98751 0.85252 112 108 122
2.96315 -1.99341 0.87045 72 64 68
2.96724 -2.00375 0.88018 75 69 76
2.96402 -2.01283 0.89209 115 120 135
2.95856 -2.02146 0.90463 182 184 189
2.95520 -2.04217 0.90700 232 230 235
2.95495 -2.03039 0.91657 222 223 226
2.95817 -2.04050 0.92647 232 233 231
2.96645 -2.05154 0.93491 204 195 204
2.95871 -2.05962 0.94794 138 121 146
2.95536 -2.08023 0.95030 110 113 120
2.75368 -2.07527 1.06757 72 59 83
2.74593 -2.08491 1.06093 75 57 76
2.75502 -2.08442 1.07731 94 93 101
2.75186 -2.10385 1.07953 120 116 124
2.75530 -2.09333 1.08731 116 117 120
2.75215 -2.11275 1.08953 120 116 124
2.97205 -2.21156 1.11407 115 106 107
2.95916 -2.21139 1.09790 124 122 121
2.97303 -2.22094 1.12425 67 58 95
2.98387 -2.23253 1.13205 124 142 148
2.97113 -2.23876 1.14546 164 169 171
2.99619 -2.25363 1.14992 135 114 156
2.98903 -2.26109 1.16196 149 135 143
2.93612 -2.25775 1.18444 206 219 223
2.93288 -2.27772 1.18672 214 214 219
2.97202 -2.30218 1.21713 224 225 228
2.97527 -2.28212 1.21483 225 225 228
2.95927 -2.30201 1.20114 213 211 210
2.98002 -2.29224 1.22398 228 230 231
2.98477 -2.30235 1.23312 230 230 232
2.97676 -2.31230 1.22627 228 229 232
1.61769 0.05251 -0.80821 240 220 211
1.62590 0.04486 -0.80361 247 244 230
1.64966 0.04458 -0.81523 254 242 186
1.66797 0.04156 -0.82100 254 204 139
1.69034 0.04033 -0.83084 248 226 211
1.69076 0.02879 -0.81790 251 243 221
1.69509 0.01906 -0.80899 247 244 223
1.67459 -0.00195 -0.77473 191 180 184
1.72013 0.00702 -0.80785 147 102 94
1.69531 -0.01578 -0.76938 199 161 136
1.66970 -0.03870 -0.73038 212 193 185
1.68505 -0.04341 -0.73274 231 222 231
1.69705 -0.04357 -0.71768 225 218 188
1.68952 -0.05293 -0.72413 246 247 234
1.66954 -0.07298 -0.69123 250 234 197
1.67397 -0.08242 -0.68270 173 180 138
1.63713 -0.14260 -0.59558 249 249 247
1.64011 -0.12423 -0.59768 239 225 219
1.63278 -0.13334 -0.60395 225 220 205
1.64445 -0.13349 -0.58931 252 250 249
1.64880 -0.14275 -0.58094 254 254 254
1.64147 -0.15186 -0.58721 254 254 254
1.65306 -0.20208 -0.53578 249 245 247
1.65603 -0.18378 -0.53788 254 254 254
1.64873 -0.19285 -0.54412 253 254 252
1.64576 -0.21115 -0.54203 247 233 240
1.66155 -0.22060 -0.51894 248 232 244
1.65858 -0.23890 -0.51685 254 254 253
1.68559 -0.28739 -0.45490 247 241 223
1.67399 -0.28723 -0.46945 253 254 254
1.72978 -0.28266 -0.48251 197 170 149
1.71962 -0.29702 -0.46102 160 132 124
1.73132 -0.29718 -0.44634 157 135 126
1.72397 -0.30631 -0.45263 154 133 130
1.71663 -0.31544 -0.45892 152 127 120
1.38804 -0.53343 -0.02484 93 76 61
1.37788 -0.53329 -0.03759 135 112 101
1.38166 -0.54135 -0.03030 114 94 80
1.39227 -0.54135 -0.01793 71 61 47
1.39285 -0.55035 -0.00797 97 90 75
1.39543 -0.55875 0.00031 119 106 96
1.40557 -0.55888 0.01303 123 104 92
1.39920 -0.56680 0.00759 126 107 96
1.39283 -0.57471 0.00214 128 111 103
1.21421 -0.66959 0.21777 138 120 108
1.20488 -0.66947 0.20607 134 112 110
1.20835 -0.67687 0.21276 141 123 118
1.21684 -0.67721 0.22514 100 87 65
1.22094 -0.68445 0.23133 46 34 25
1.21855 -0.69913 0.23301 37 30 32
1.61046 -0.89732 0.27813 7 9 23
1.60012 -0.89719 0.26516 16 14 21
1.66077 -0.89903 0.25478 70 80 89
1.65809 -0.91558 0.25667 127 135 140
1.82598 -0.98699 0.27198 41 40 115
1.83383 -0.99530 0.27751 35 30 97
1.82212 -1.00552 0.29505 87 84 112
1.84055 -1.01283 0.29411 136 140 150
1.84711 -1.02130 0.30046 146 153 169
1.85987 -1.02924 0.30309 120 126 156
1.87054 -1.03740 0.30704 105 112 150
1.88451 -1.04534 0.30906 122 128 165
1.89941 -1.05327 0.31061 142 151 180
1.90721 -1.06179 0.31640 164 176 195
1.91348 -1.07045 0.32312 190 192 192
1.91988 -1.07911 0.32977 186 168 142
1.93938 -1.08691 0.32886 145 109 74
1.94792 -1.09550 0.33435 106 63 42
1.94506 -1.11312 0.33637 92 22 31
1.95671 -1.10410 0.33974 80 22 24
1.95384 -1.12174 0.34176 87 33 38
1.98467 -1.12998 0.35518 72 25 58
1.97341 -1.12983 0.34105 77 33 46
1.98915 -1.13891 0.36310 73 24 68
1.99965 -1.14756 0.36768 76 42 108
2.01725 -1.15593 0.36838 208 194 234
2.01436 -1.17377 0.37042 254 254 254
2.01955 -1.16500 0.37756 254 254 254
2.01666 -1.18283 0.37960 254 254 254
2.87984 -1.33472 0.13847 254 254 248
2.86579 -1.33453 0.12084 254 254 254
2.87102 -1.34568 0.13092 254 254 254
2.87625 -1.35684 0.14100 254 254 254
2.87921 -1.34580 0.15142 254 247 226
2.87810 -1.35683 0.16456 226 218 192
2.87393 -1.36778 0.17913 184 166 119
2.89949 -1.37930 0.17942 145 130 101
2.91354 -1.37949 0.19704 132 131 133
2.90472 -1.39045 0.18949 129 127 126
3.83049 -1.61155 -0.02395 98 74 63
3.82617 -1.63818 -0.02090 195 176 150
3.10492 -1.99948 0.78306 150 152 182
3.00653 -1.99305 0.82519 121 122 139
2.95748 -1.99451 0.85153 83 71 85
2.95792 -2.00425 0.86240 68 51 69
2.95833 -2.01396 0.87327 122 121 131
2.95011 -2.02212 0.88670 188 195 197
2.94675 -2.04286 0.88907 230 229 235
2.94499 -2.03078 0.89914 224 226 229
2.95110 -2.05096 0.91907 221 220 224
2.96254 -2.06260 0.92659 172 168 177
2.95918 -2.08330 0.92896 109 103 109
2.75235 -2.07731 1.04904 110 93 106
2.75552 -2.05780 1.04681 133 129 129
2.74774 -2.06747 1.04015 134 131 132
2.73995 -2.07714 1.03349 137 138 144
2.74302 -2.09318 1.07182 104 107 113
2.73987 -2.11259 1.07404 120 116 126
2.96764 -2.22245 1.10624 114 106 112
2.95473 -2.22228 1.09004 122 122 126
2.95970 -2.22980 1.11861 64 59 92
2.97917 -2.24338 1.12429 122 142 145
2.97841 -2.25234 1.13488 155 153 157
2.97474 -2.26059 1.14614 115 74 140
2.97214 -2.26906 1.15710 171 176 190
2.93807 -2.27001 1.17532 208 216 219
2.93482 -2.29004 1.17761 209 212 215
2.96398 -2.31212 1.21029 217 217 222
2.95123 -2.31195 1.19430 208 206 205
2.97730 -2.32437 1.21755 223 224 228
2.99007 -2.32454 1.23358 232 233 236
2.98205 -2.33450 1.22672 229 232 233
1.60456 0.04049 -0.80862 250 248 236
1.59266 0.04065 -0.82355 254 254 252
1.60152 0.02177 -0.80648 236 229 170
1.61827 0.03548 -0.80988 243 230 211
1.62945 0.02920 -0.80839 251 253 246
1.64763 0.02615 -0.81415 253 246 217
1.66651 0.02331 -0.82052 235 202 199
1.68564 0.02047 -0.82700 237 226 220
1.69420 0.01267 -0.82245 207 209 228
1.68474 -0.00332 -0.79936 172 114 167
1.66137 -0.02544 -0.76220 227 201 146
1.64578 -0.05526 -0.72018 206 175 167
1.65589 -0.07358 -0.70439 228 219 214
1.65541 -0.08511 -0.69097 233 218 202
1.65983 -0.09453 -0.68246 238 240 216
1.67170 -0.09469 -0.66757 192 193 158
1.64694 -0.11123 -0.65681 205 212 184
1.65874 -0.11139 -0.64202 189 185 184
1.66584 -0.11454 -0.66265 141 135 114
1.63094 -0.14018 -0.61559 190 190 188
1.63099 -0.15122 -0.60300 236 238 243
1.62833 -0.16332 -0.58782 251 253 254
1.63998 -0.16347 -0.57322 254 254 254
1.63267 -0.17256 -0.57947 254 254 254
1.64558 -0.20031 -0.55432 250 247 242
1.64855 -0.18199 -0.55642 254 254 254
1.64124 -0.19107 -0.56267 252 253 251
1.63827 -0.20940 -0.56058 246 237 233
1.65092 -0.22006 -0.53447 251 240 247
1.64362 -0.22914 -0.54072 254 252 253
1.64795 -0.23837 -0.53238 254 254 254
1.65556 -0.22917 -0.52642 254 251 251
1.65259 -0.24748 -0.52433 254 254 254
1.71915 -0.29297 -0.48588 203 183 178
1.72182 -0.30288 -0.47592 160 131 129
1.71882 -0.32136 -0.47380 155 128 121
1.39842 -0.54562 -0.03394 85 72 64
1.38821 -0.54549 -0.04675 129 113 98
1.39581 -0.56169 -0.03211 96 78 77
1.39708 -0.55521 -0.02231 94 83 79
1.39256 -0.56566 -0.00806 117 104 100
1.38996 -0.58165 -0.00623 130 115 108
1.22025 -0.68211 0.21269 118 108 88
1.21089 -0.68199 0.20095 143 126 116
1.22133 -0.69015 0.22133 52 41 35
1.61714 -0.90354 0.26376 7 8 30
1.60675 -0.90340 0.25073 16 12 20
1.67812 -0.90395 0.23319 61 58 63
1.67542 -0.92063 0.23510 96 108 123
1.80617 -0.96042 0.23256 79 88 150
1.80803 -0.96935 0.24182 73 95 149
1.81467 -0.97777 0.24806 64 79 140
1.81698 -0.98665 0.25703 40 43 105
1.82316 -0.99513 0.26358 47 59 108
1.82560 -1.00398 0.27245 100 115 134
1.82979 -1.01267 0.28025 136 143 144
1.83531 -1.02123 0.28721 137 131 148
1.85057 -1.02894 0.28827 112 103 125
1.85498 -1.03764 0.29597 90 91 110
1.86275 -1.04607 0.30165 85 94 123
1.87616 -1.05408 0.30397 102 114 145
1.89294 -1.06188 0.30435 139 150 177
1.90298 -1.07026 0.30881 164 172 195
1.90831 -1.07899 0.31608 179 186 201
1.91354 -1.08775 0.32342 176 171 170
1.91212 -1.09693 0.33463 133 90 81
1.93668 -1.10449 0.33078 97 29 25
1.97815 -1.13874 0.34882 69 36 57
1.98250 -1.14768 0.35681 87 46 68
1.98498 -1.15669 0.36585 134 103 140
2.00345 -1.16505 0.36600 228 248 252
2.00057 -1.18285 0.36804 254 254 254
2.86839 -1.36775 0.15748 254 253 246
2.85438 -1.36756 0.13990 254 254 254
2.85960 -1.37868 0.14995 254 254 254
2.86514 -1.37869 0.17163 252 245 205
2.85954 -1.38953 0.18686 207 186 139
2.88558 -1.40114 0.18689 159 130 100
2.89959 -1.40133 0.20447 130 131 134
2.88432 -1.41207 0.20002 140 122 113
2.89832 -1.41226 0.21757 132 133 138
2.88953 -1.42318 0.21005 129 125 134
2.93934 -1.54485 0.32375 248 244 218
2.93577 -1.56683 0.32627 239 244 251
2.96430 -1.55719 0.32516 244 229 192
3.18267 -1.95234 0.66557 230 231 232
3.18629 -1.93007 0.66302 235 234 236
3.17741 -1.94111 0.65542 234 235 235
3.19156 -1.94130 0.67317 236 236 237
3.19682 -1.95252 0.68332 232 233 236
3.17906 -1.97460 0.66812 195 193 209
3.12983 -2.00571 0.75345 145 144 173
3.13337 -1.98387 0.75096 196 206 234
3.12466 -1.99470 0.74350 178 182 216
3.02114 -1.99758 0.79948 122 125 135
3.01769 -2.01884 0.80191 80 64 63
2.98352 -2.00103 0.82257 93 98 97
2.94502 -2.00413 0.84570 76 70 61
2.96516 -2.01730 0.85049 124 115 104
2.94555 -2.02348 0.86754 196 202 203
2.94218 -2.04425 0.86991 228 226 233
