ply
format ascii 1.0
element face 0
property list uchar int vertex_indices
element vertex 1325
property float x
property float y
property float z
property uchar diffuse_red
property uchar diffuse_green
property uchar diffuse_blue
end_header
1.05892 -3.61041 1.61130 232 234 232
1.04944 -3.62212 1.61853 230 228 213
1.02398 -3.60923 1.62288 204 193 156
1.03094 -3.64636 1.63312 151 126 89
1.01856 -3.65363 1.63984 122 100 79
1.00156 -3.66685 1.63232 117 102 75
1.00334 -3.65640 1.64600 119 106 87
0.99851 -3.66227 1.66746 126 110 88
0.99244 -3.66593 1.65297 123 109 90
0.98637 -3.66959 1.63849 120 107 95
0.72937 -4.31164 1.96275 106 84 64
0.73107 -4.35003 1.97523 47 30 29
0.72549 -4.37341 1.98509 15 13 24
0.70714 -4.38768 1.97698 7 9 11
2.75491 -1.49588 0.29488 204 192 194
2.77006 -1.48411 0.30158 116 105 121
2.76464 -1.48738 0.28866 190 171 179
2.75922 -1.49065 0.27573 244 238 239
2.76033 -1.49262 0.30781 118 107 134
2.75061 -1.50112 0.31403 135 122 140
2.74497 -1.50430 0.30116 215 209 203
2.68198 -1.50420 0.32288 244 238 239
2.67662 -1.50743 0.31010 254 254 254
2.66700 -1.51584 0.31626 254 254 254
2.66323 -1.50900 0.33098 252 248 243
2.64828 -1.52062 0.32437 254 253 254
2.60113 -1.50853 0.35228 254 252 246
2.59584 -1.51172 0.33966 254 253 254
2.58634 -1.52003 0.34574 254 254 254
2.57695 -1.51089 0.36142 254 252 244
2.56222 -1.52234 0.35491 254 254 254
2.57288 -1.52137 0.36636 254 253 246
2.55813 -1.53284 0.35983 253 254 254
2.55146 -1.52474 0.37490 253 254 249
2.53676 -1.53617 0.36839 253 254 254
2.55218 -1.53721 0.37885 252 254 252
2.53743 -1.54868 0.37233 254 254 254
2.54714 -1.55962 0.38815 253 251 248
2.57798 -1.58503 0.38606 210 206 203
2.76905 -1.70551 0.36065 179 178 184
2.75326 -1.71779 0.35367 184 172 193
2.74318 -1.78816 0.39744 100 71 80
2.73293 -1.79713 0.40401 104 98 93
2.72722 -1.80057 0.39038 100 89 84
3.51519 -2.22233 0.27705 123 129 142
3.53039 -2.24623 0.27986 163 166 174
3.26979 -2.23509 0.36614 174 172 174
3.27508 -2.22866 0.34260 177 176 181
3.25088 -2.24203 0.37501 164 152 136
3.23230 -2.25647 0.36679 164 138 112
3.20639 -2.23594 0.38832 156 134 93
3.17733 -2.23749 0.39889 147 123 95
3.15658 -2.24321 0.40798 136 110 92
3.08261 -2.22126 0.42614 152 142 137
2.99457 -2.19151 0.44653 182 187 203
2.98838 -2.20425 0.45296 204 210 213
2.99222 -2.22233 0.45773 130 142 134
2.97126 -2.22730 0.46665 109 104 95
2.96997 -2.24277 0.47231 147 155 177
3.00549 -2.27821 0.47198 175 186 217
2.98743 -2.29225 0.46399 163 164 177
2.82159 -2.40740 0.57905 154 156 158
2.82670 -2.40119 0.55633 153 157 167
2.79604 -2.40909 0.58845 131 133 136
2.80661 -2.43247 0.59268 100 90 88
2.79863 -2.44475 0.59958 90 75 79
2.77807 -2.44937 0.60824 85 69 69
2.76880 -2.46087 0.61532 72 65 52
2.75082 -2.47486 0.60736 32 28 30
2.76149 -2.47361 0.62213 59 58 49
2.75071 -2.48421 0.62943 77 76 60
2.73221 -2.50737 0.64363 71 67 59
2.72164 -2.51814 0.65091 94 100 105
2.71699 -2.53271 0.65743 86 93 82
2.72422 -2.55501 0.66244 41 34 28
2.71257 -2.56520 0.66991 34 26 21
2.70091 -2.57540 0.67737 31 22 32
2.68209 -2.58087 0.68572 81 63 82
2.67381 -2.59327 0.69276 161 161 180
2.65754 -2.60037 0.70077 174 171 175
2.64371 -2.60907 0.70848 160 163 166
2.63059 -2.61822 0.71610 142 152 156
2.63588 -2.63989 0.72157 120 131 141
2.63915 -2.66034 0.72733 100 96 137
2.64446 -2.68232 0.73291 85 71 119
2.62615 -2.69656 0.72481 43 18 25
2.63997 -2.69766 0.73963 71 53 85
2.62612 -2.70652 0.74740 52 41 55
2.61098 -2.71445 0.75531 33 22 34
2.59635 -2.72273 0.76314 31 17 32
2.58458 -2.73300 0.77068 45 20 25
2.56892 -2.74049 0.77861 70 48 17
2.56082 -2.75340 0.78576 63 44 13
2.55249 -2.76617 0.79294 67 47 19
2.54371 -2.77865 0.80018 82 66 19
2.53395 -2.79044 0.80753 78 57 29
2.44535 -2.81938 0.84789 151 126 83
2.42368 -2.82195 0.85625 150 125 78
2.41851 -2.82823 0.87921 161 132 82
2.40208 -2.82449 0.86456 148 125 77
2.38091 -2.82726 0.87281 139 118 79
2.36753 -2.83602 0.88038 128 107 79
2.35399 -2.84463 0.88796 117 99 69
2.34225 -2.85465 0.89540 115 97 57
2.33185 -2.86574 0.90273 122 99 53
2.31380 -2.87977 0.89474 124 99 55
2.32165 -2.87699 0.91004 123 97 56
2.30359 -2.89103 0.90205 125 98 55
2.31072 -2.88768 0.91742 122 95 57
2.29265 -2.90172 0.90943 125 98 50
2.30030 -2.89879 0.92476 122 96 56
2.28223 -2.91284 0.91677 124 97 49
2.25415 -2.91983 0.94780 139 107 57
2.25927 -2.91360 0.92502 125 97 50
2.24770 -2.92372 0.93243 132 101 55
2.23613 -2.93384 0.93983 133 103 54
2.22930 -2.91887 0.95606 139 110 52
2.21135 -2.93282 0.94812 132 101 58
2.21111 -2.92335 0.96386 136 107 60
2.19669 -2.93094 0.97140 131 103 75
2.18777 -2.94319 0.97861 124 98 66
2.19106 -2.96593 0.98513 112 83 51
2.20869 -3.00120 0.99093 91 74 43
2.17220 -2.98982 0.99970 102 104 57
2.17700 -3.01424 1.00627 140 132 117
2.14483 -3.00633 1.01472 147 146 141
2.12684 -3.02031 1.00676 69 65 66
1.46133 -2.84985 1.19812 158 140 136
1.46582 -2.84439 1.17815 157 135 120
1.42673 -2.83321 1.20446 182 177 175
1.40850 -2.83340 1.21083 194 194 198
1.39289 -2.84554 1.20393 194 192 190
1.39847 -2.84217 1.21725 198 199 195
1.37572 -2.83740 1.22350 189 188 179
1.35412 -2.83368 1.22971 178 175 159
1.33445 -2.83187 1.23590 155 159 158
1.32617 -2.84228 1.24227 157 161 160
1.31074 -2.85428 1.23544 166 172 175
1.30664 -2.91926 1.27496 159 171 175
1.32224 -2.90714 1.28186 161 169 177
1.31666 -2.91050 1.26855 162 170 177
1.31108 -2.91387 1.25523 161 171 177
1.29097 -2.92164 1.28117 150 160 166
1.27007 -2.93810 1.29394 144 154 162
1.26026 -2.94705 1.30035 155 166 168
1.24470 -2.95915 1.29346 162 174 180
1.18381 -3.10624 1.38041 159 171 176
1.18832 -3.10077 1.36039 162 172 175
1.17815 -3.10966 1.36690 160 173 178
1.16978 -3.11028 1.38662 152 160 161
1.16307 -3.12351 1.39340 136 141 147
1.15856 -3.12898 1.41341 132 140 148
1.15290 -3.13240 1.39990 130 139 145
1.14724 -3.13581 1.38639 132 140 141
1.14861 -3.17090 1.41436 134 143 138
1.15315 -3.16540 1.39422 133 142 144
1.17749 -3.23071 1.42455 90 82 97
1.19743 -3.32582 1.44971 77 72 68
1.18683 -3.33509 1.45650 71 75 67
1.18823 -3.48126 1.50528 98 105 116
1.17996 -3.49443 1.51257 108 123 122
1.16320 -3.49565 1.51878 127 144 144
1.15318 -3.50635 1.52584 155 169 171
1.14617 -3.52137 1.53333 175 188 185
1.14010 -3.53784 1.54097 191 201 197
1.12915 -3.54730 1.54795 204 209 208
1.11217 -3.56050 1.54044 209 216 223
1.11828 -3.55688 1.55493 205 210 215
1.10444 -3.56209 1.56147 203 207 215
1.08748 -3.57527 1.55397 207 211 215
1.05976 -3.59849 1.58917 223 225 228
1.03888 -3.61890 1.60326 231 233 232
1.03281 -3.62256 1.58879 230 233 236
1.02309 -3.62084 1.60937 226 223 208
0.99967 -3.61080 1.61408 194 175 139
1.00501 -3.64559 1.62396 142 112 69
0.74548 -4.32813 1.94366 116 95 66
0.76375 -4.31393 1.95174 115 91 76
0.75722 -4.31787 1.93615 114 93 70
0.75068 -4.32182 1.92055 112 91 77
0.73489 -4.34080 1.95159 90 71 63
0.72914 -4.36375 1.96131 39 22 21
0.71080 -4.37800 1.95320 16 10 10
0.72312 -4.38632 1.97100 12 7 10
0.70473 -4.40061 1.96286 13 12 10
2.74373 -1.49693 0.28322 252 250 243
2.74804 -1.49170 0.26410 254 254 254
2.73832 -1.50019 0.27032 254 254 254
2.72861 -1.50869 0.27653 254 254 254
2.72390 -1.50149 0.29165 254 253 246
2.70882 -1.51322 0.28498 254 254 254
2.68363 -1.49799 0.30450 254 254 250
2.66866 -1.50963 0.29788 254 254 254
2.52257 -1.55468 0.37951 254 253 252
2.52676 -1.54959 0.36089 253 254 254
2.52307 -1.56719 0.38351 230 229 228
2.74651 -1.70157 0.35060 187 188 191
2.74408 -1.78099 0.37797 147 126 113
2.72282 -1.78491 0.38668 96 71 62
2.70692 -1.79727 0.37964 96 84 87
3.43544 -2.17556 0.26904 59 50 61
3.45430 -2.16089 0.27739 61 61 75
3.44755 -2.16496 0.26129 81 77 69
3.44081 -2.16903 0.24519 91 85 82
3.42869 -2.17963 0.25294 55 47 57
3.52089 -2.23243 0.25829 99 106 115
3.57451 -2.27477 0.25376 146 149 167
3.55387 -2.28182 0.26330 171 169 187
3.26454 -2.23981 0.35000 170 167 169
3.23085 -2.23927 0.36155 163 129 131
3.15669 -2.23425 0.38569 168 142 106
3.15014 -2.23820 0.37005 181 153 123
3.06998 -2.22196 0.41178 158 144 129
2.99471 -2.19876 0.43023 163 161 183
2.98365 -2.20895 0.43749 192 202 211
2.97777 -2.22191 0.44386 168 173 156
2.96121 -2.22919 0.45206 122 93 72
2.96693 -2.24843 0.45649 146 169 181
2.95353 -2.25743 0.46417 145 135 167
2.88117 -2.39936 0.53676 142 155 174
2.87602 -2.40562 0.55965 147 153 164
2.85058 -2.39836 0.54708 146 155 172
2.81162 -2.40916 0.56425 157 160 161
2.80519 -2.41303 0.54893 160 164 169
2.79842 -2.41824 0.57187 134 140 144
2.79719 -2.43455 0.57775 121 110 87
2.79091 -2.44786 0.58438 104 96 62
2.77676 -2.45640 0.59216 95 86 66
2.76541 -2.46664 0.59953 71 66 45
2.74667 -2.48960 0.61372 59 52 61
2.73792 -2.50150 0.62074 87 71 65
2.71685 -2.50561 0.62945 78 74 75
2.73183 -2.53265 0.63327 109 113 108
2.73208 -2.55047 0.63913 125 138 127
2.71425 -2.55667 0.64741 61 35 24
2.70260 -2.56686 0.65487 49 36 24
2.70031 -2.58318 0.66112 89 68 26
2.69423 -2.59708 0.66788 102 81 37
2.67603 -2.61123 0.65983 176 139 90
2.70712 -2.62364 0.67226 152 143 107
2.69212 -2.63175 0.68019 157 136 113
2.68934 -2.64807 0.68661 108 79 83
2.68716 -2.66488 0.69298 49 39 49
2.67389 -2.67420 0.70072 29 15 38
2.66148 -2.68411 0.70834 27 9 35
2.64854 -2.69363 0.71603 29 8 30
2.61695 -2.70865 0.73204 58 29 16
2.60230 -2.71691 0.73990 64 40 17
2.59387 -2.72957 0.74706 94 79 54
2.59120 -2.74637 0.75361 132 121 82
2.57138 -2.75092 0.76202 163 155 96
2.57283 -2.77080 0.76816 145 131 63
2.56821 -2.78638 0.77497 144 113 66
2.54834 -2.79083 0.78338 156 123 68
2.44908 -2.83113 0.83139 128 97 58
2.43082 -2.84532 0.82332 124 97 50
2.42236 -2.82986 0.84027 123 96 47
2.39863 -2.83074 0.84883 123 98 53
2.37431 -2.83105 0.85740 102 82 63
2.35656 -2.83638 0.86536 77 61 56
2.34654 -2.84774 0.87264 68 51 46
2.33536 -2.85820 0.88003 82 62 50
2.32738 -2.87122 0.88715 111 88 55
2.30932 -2.88527 0.87916 123 98 56
2.19085 -2.93529 0.95608 134 104 65
2.17855 -2.94465 0.96350 133 102 66
2.17066 -2.95781 0.97063 135 102 54
2.17387 -2.98061 0.97713 141 116 67
2.14715 -2.97751 0.98540 163 158 113
2.13216 -2.98451 0.99296 169 168 143
2.12565 -2.99896 1.00005 167 161 144
1.46473 -2.86267 1.18463 161 142 136
1.46924 -2.85719 1.16460 158 137 117
1.42691 -2.84263 1.19111 185 178 174
1.40735 -2.84145 1.19753 191 190 196
1.39171 -2.85360 1.19061 191 186 183
1.37857 -2.84973 1.21031 193 194 189
1.35433 -2.84319 1.21657 173 175 168
1.33883 -2.85524 1.20971 161 172 171
1.33664 -2.84352 1.22284 154 163 167
1.32118 -2.85554 1.21600 164 174 178
1.32832 -2.85396 1.22922 160 170 171
1.31285 -2.86599 1.22238 165 173 181
1.30749 -2.92987 1.26182 155 165 168
1.29076 -2.93107 1.26805 143 150 158
1.27760 -2.93625 1.27436 144 150 156
1.26947 -2.94716 1.28083 152 163 168
1.25388 -2.95928 1.27394 163 176 182
1.26054 -2.95716 1.28728 159 172 176
1.24494 -2.96929 1.28038 164 177 184
1.17801 -3.13119 1.37414 156 168 169
1.18253 -3.12570 1.35404 160 172 181
1.16905 -3.14172 1.38077 136 146 147
1.14965 -3.18307 1.40134 133 137 136
1.19421 -3.26359 1.41271 84 85 99
1.17789 -3.27627 1.40549 75 92 114
1.19595 -3.28881 1.42053 78 84 101
1.17956 -3.30156 1.41328 77 93 114
1.19322 -3.30833 1.42800 78 86 93
1.19337 -3.33185 1.43580 72 71 85
1.19987 -3.38783 1.45224 71 81 92
1.19683 -3.40765 1.45992 79 88 106
1.17758 -3.45393 1.48207 106 127 148
1.16874 -3.46615 1.48923 120 142 164
1.16372 -3.48377 1.49686 133 158 175
1.15462 -3.49572 1.50402 146 171 193
1.14823 -3.51157 1.51154 160 183 205
1.14279 -3.52889 1.51922 173 195 216
1.13435 -3.54196 1.52653 190 204 223
1.12326 -3.55123 1.53348 204 212 224
1.09313 -3.55800 1.54623 209 214 218
1.04815 -3.59372 1.57382 218 221 227
1.05296 -3.58787 1.55243 209 212 218
1.03810 -3.60446 1.58091 226 230 235
1.02119 -3.61762 1.57342 229 231 234
1.01071 -3.61467 1.59385 231 231 229
1.00467 -3.61831 1.57945 231 231 233
0.99724 -3.62004 1.60033 224 214 197
0.97697 -3.61464 1.60559 184 164 117
0.97909 -3.64452 1.61483 132 109 61
0.96519 -3.64912 1.62121 119 101 91
0.96039 -3.65496 1.64253 123 107 94
0.95436 -3.65859 1.62814 122 105 93
0.74926 -4.35365 1.93168 115 95 71
0.75449 -4.34730 1.90845 112 90 78
0.73920 -4.36761 1.93984 70 57 48
0.73015 -4.38379 1.94839 30 17 20
0.71175 -4.39810 1.94025 18 15 15
2.48871 -1.50946 0.36096 250 252 253
2.49803 -1.50131 0.35499 253 254 254
2.49284 -1.52322 0.36406 250 251 253
2.47828 -1.53454 0.35762 248 253 254
2.49667 -1.54912 0.37129 249 252 252
2.49509 -1.56069 0.37567 189 202 229
2.58064 -1.60975 0.36189 111 112 174
2.56662 -1.61631 0.36898 140 119 153
2.72971 -1.70009 0.33949 182 181 191
2.70215 -1.70122 0.34953 175 165 177
2.68645 -1.70748 0.35711 182 170 173
2.68499 -1.72005 0.36178 221 207 200
2.67494 -1.72882 0.36821 242 223 195
2.64160 -1.72705 0.37932 217 196 170
2.71406 -1.77335 0.36922 115 94 111
2.67766 -1.77022 0.38095 80 60 66
2.66191 -1.78247 0.37399 87 80 83
3.55110 -2.27110 0.24027 126 129 146
3.57208 -2.29818 0.24187 159 158 172
3.54539 -2.30231 0.25260 174 173 178
3.53984 -2.30905 0.27728 178 176 184
3.53286 -2.31327 0.26062 176 175 180
3.32440 -2.26067 0.31635 177 172 178
3.34323 -2.24603 0.32468 179 175 188
3.33650 -2.25010 0.30861 179 174 185
3.32976 -2.25416 0.29254 178 172 184
3.24483 -2.23725 0.33652 165 150 157
3.20515 -2.23359 0.34923 162 96 105
3.18000 -2.23716 0.35923 171 136 118
3.07795 -2.23339 0.39379 150 129 107
3.03410 -2.22664 0.40694 138 134 144
2.97630 -2.21228 0.42246 174 187 195
2.96815 -2.22402 0.42921 184 189 184
2.96043 -2.23603 0.43589 130 111 138
2.96123 -2.25266 0.44111 161 171 191
2.94964 -2.26265 0.44848 175 172 173
2.93586 -2.27144 0.45623 145 152 141
2.93078 -2.27762 0.47883 174 189 213
2.92520 -2.28193 0.46344 134 140 126
2.92012 -2.28811 0.48604 182 194 205
2.91405 -2.29215 0.47073 157 150 172
2.90897 -2.29833 0.49334 192 195 205
2.90257 -2.30219 0.47808 174 173 199
2.89822 -2.31624 0.48426 139 148 189
2.90462 -2.31238 0.49954 181 187 196
2.89677 -2.33200 0.48998 126 139 163
2.88235 -2.34043 0.49783 123 128 165
2.85538 -2.34162 0.50769 102 99 154
2.85170 -2.35617 0.51379 95 101 150
2.84047 -2.36639 0.52111 94 89 140
2.82738 -2.37551 0.52873 80 74 140
2.82216 -2.38927 0.53511 106 107 152
2.81887 -2.40423 0.54121 153 156 177
2.79472 -2.42375 0.55615 157 160 161
2.78830 -2.42763 0.54082 157 157 165
2.79055 -2.43830 0.56243 138 116 114
2.78197 -2.45022 0.56938 114 108 97
2.77408 -2.46259 0.57624 102 91 66
2.75496 -2.46804 0.58475 93 88 66
2.74640 -2.48000 0.59171 69 60 37
2.72841 -2.49399 0.58375 78 70 63
2.73087 -2.48761 0.59968 57 44 49
2.72963 -2.50423 0.60561 97 99 98
2.74261 -2.52998 0.60958 120 129 129
2.75864 -2.55789 0.61319 124 154 135
2.72001 -2.55079 0.62440 106 122 116
2.70429 -2.55833 0.63241 63 40 20
2.70962 -2.57960 0.63757 122 101 25
2.72374 -2.60679 0.64162 165 131 67
2.71232 -2.61730 0.64910 172 133 71
2.68713 -2.63674 0.66438 161 125 85
2.69574 -2.66079 0.66931 111 61 47
2.68095 -2.66910 0.67725 82 41 12
2.66964 -2.67976 0.68474 82 49 6
2.65753 -2.68988 0.69234 95 60 9
2.64347 -2.69864 0.70017 108 67 7
2.62658 -2.70540 0.70834 118 85 18
2.61057 -2.71273 0.71638 127 99 35
2.60673 -2.72864 0.72299 129 105 54
2.57931 -2.74652 0.73853 185 184 155
2.57360 -2.76121 0.74539 197 197 189
2.55863 -2.76923 0.75330 185 181 169
2.53486 -2.77078 0.76215 173 141 103
2.52790 -2.78459 0.76916 175 142 86
2.53005 -2.80521 0.77523 171 128 69
2.52649 -2.82169 0.78194 139 111 71
2.51392 -2.83150 0.78959 120 99 79
2.49549 -2.84582 0.78144 121 95 57
2.50064 -2.84076 0.79731 120 94 73
2.48222 -2.85508 0.78916 123 95 47
2.48098 -2.84514 0.80566 122 93 61
2.46260 -2.85944 0.79753 124 96 47
2.38648 -2.83026 0.83389 127 99 52
2.39163 -2.82400 0.81100 123 96 51
2.35767 -2.82699 0.84292 87 71 43
2.34590 -2.83695 0.85034 51 43 36
2.32788 -2.85096 0.84237 70 49 23
2.33433 -2.84707 0.85775 53 42 38
2.32580 -2.85962 0.86489 72 53 41
2.32031 -2.87463 0.87179 102 80 50
2.19254 -2.92621 0.93368 134 104 47
2.20402 -2.91617 0.92633 131 100 50
2.17932 -2.93479 0.94116 152 128 61
2.16768 -2.94470 0.94852 153 122 73
2.16257 -2.96023 0.95545 146 112 54
2.16141 -2.97926 0.96216 143 111 62
2.13872 -2.97960 0.97023 151 134 110
2.12368 -2.98654 0.97781 153 150 121
2.11953 -3.00309 0.98473 152 147 118
2.09508 -3.00162 0.99283 90 80 75
2.09000 -3.00780 1.01541 60 53 56
2.08361 -3.01165 1.00017 59 42 49
2.07722 -3.01551 0.98493 51 39 29
1.46667 -2.87401 1.17107 162 145 131
1.47119 -2.86852 1.15098 158 136 115
1.44262 -2.86840 1.17765 187 179 170
1.42112 -2.86528 1.18416 190 190 191
1.40538 -2.87752 1.17720 191 185 184
1.38782 -2.86897 1.19706 189 192 194
1.36019 -2.85883 1.20340 165 169 169
1.34462 -2.87093 1.19651 164 173 173
1.31879 -2.93215 1.24219 156 168 174
1.33447 -2.91996 1.24912 164 170 175
1.32886 -2.92335 1.23574 162 171 182
1.30312 -2.94434 1.23525 147 149 155
1.30915 -2.94143 1.24864 150 153 158
1.29062 -2.94062 1.25487 145 150 162
1.28521 -2.95470 1.26143 152 162 166
1.26956 -2.96688 1.25450 166 179 180
1.27719 -2.96584 1.26793 160 173 175
1.26152 -2.97802 1.26100 166 179 185
1.17382 -3.13652 1.36068 157 169 172
1.15792 -3.14888 1.35364 146 154 162
1.17622 -3.16153 1.36811 137 146 150
1.16024 -3.17396 1.36104 146 156 166
1.16734 -3.17228 1.37478 138 144 150
1.15583 -3.17966 1.38126 139 146 147
1.15312 -3.19846 1.38844 134 136 139
1.19356 -3.27390 1.39921 81 89 111
1.17721 -3.28661 1.39198 74 94 117
1.18750 -3.33547 1.42171 74 92 117
1.19220 -3.32975 1.40082 77 95 122
1.18769 -3.35927 1.42952 75 94 121
1.19135 -3.38798 1.43774 80 99 129
1.18841 -3.40796 1.44538 87 108 139
1.18367 -3.42560 1.45288 94 118 150
1.17200 -3.43378 1.45968 103 129 163
1.16841 -3.45319 1.46736 114 141 175
1.16624 -3.47472 1.47525 124 154 187
1.15639 -3.48559 1.48230 134 165 200
1.14743 -3.49774 1.48947 145 176 215
1.14358 -3.51724 1.49727 158 187 219
1.12580 -3.54203 1.51171 193 208 229
1.11605 -3.55324 1.51884 208 217 231
1.09908 -3.56643 1.51133 222 229 234
1.09824 -3.55259 1.52487 217 224 230
1.08132 -3.56575 1.51739 225 230 233
1.08167 -3.55364 1.53103 219 224 225
1.06394 -3.55284 1.53699 214 215 220
1.05313 -3.56229 1.54391 210 209 218
1.03057 -3.57979 1.55762 213 216 223
1.03536 -3.57397 1.53633 209 210 218
1.02455 -3.58342 1.54325 210 213 220
1.02151 -3.59192 1.56481 220 222 231
0.98390 -3.61221 1.58472 231 231 226
0.98869 -3.60640 1.56346 230 230 232
0.97789 -3.61584 1.57037 231 231 233
0.96898 -3.61513 1.59092 219 213 187
0.95948 -3.62657 1.59804 168 149 106
0.95045 -3.63880 1.60525 122 96 72
0.93365 -3.65186 1.59782 115 93 64
0.93481 -3.64041 1.61127 118 100 84
0.93004 -3.64620 1.63247 124 104 92
0.92405 -3.64982 1.61816 121 104 89
0.75104 -4.37513 1.91887 110 91 68
0.75628 -4.36876 1.89556 111 92 68
0.73965 -4.38644 1.92661 57 43 31
0.72121 -4.40078 1.91845 18 14 16
0.73014 -4.40177 1.93502 23 17 19
0.71168 -4.41612 1.92685 18 16 16
2.45835 -1.49022 0.35013 248 251 252
2.47273 -1.47904 0.35650 254 254 254
2.46759 -1.48214 0.34422 253 254 254
2.45372 -1.50021 0.35504 231 226 245
2.46574 -1.51720 0.35637 230 221 246
2.45126 -1.52846 0.34996 236 250 249
2.48113 -1.54791 0.36099 226 225 245
2.50807 -1.58403 0.36331 59 61 128
2.55458 -1.61666 0.35757 107 99 134
2.62345 -1.65943 0.34724 153 153 174
2.57738 -1.65204 0.36111 149 137 146
2.55240 -1.65379 0.37051 161 144 140
2.65192 -1.71113 0.35413 213 198 186
2.64934 -1.72317 0.35899 239 218 196
2.60126 -1.71462 0.37318 206 182 171
2.68295 -1.76514 0.36087 93 62 102
2.65921 -1.76771 0.37010 49 39 61
2.64350 -1.77992 0.36316 81 73 81
3.49281 -2.25061 0.23373 103 108 127
3.49829 -2.24396 0.20940 60 51 71
3.55803 -2.29899 0.22654 138 143 153
3.53993 -2.30726 0.23565 163 164 179
3.51495 -2.31211 0.24607 170 172 176
3.50941 -2.31884 0.27069 177 175 184
3.50245 -2.32305 0.25407 174 172 180
3.33499 -2.27343 0.29701 178 172 182
3.34036 -2.26689 0.27310 172 171 181
3.25585 -2.25018 0.31736 170 160 156
3.18796 -2.23218 0.33546 174 144 110
3.16151 -2.23502 0.34574 180 157 108
3.14317 -2.24929 0.33762 151 120 90
3.12734 -2.23377 0.35741 178 152 108
3.10909 -2.24796 0.34933 152 128 93
3.05438 -2.22836 0.38143 156 133 95
3.02219 -2.22764 0.39257 130 118 116
2.98401 -2.22359 0.40474 150 162 173
2.96790 -2.23114 0.41291 173 181 186
2.96315 -2.24477 0.41906 148 149 163
2.94528 -2.25866 0.41116 114 115 138
2.94745 -2.25252 0.42715 139 130 149
2.94308 -2.26642 0.43325 172 185 194
2.92563 -2.27318 0.44164 175 180 166
2.90778 -2.28707 0.43374 169 170 181
2.91341 -2.28279 0.44911 167 168 151
2.89556 -2.29667 0.44121 173 179 182
2.90244 -2.29310 0.45637 167 161 176
2.89008 -2.30262 0.46386 144 144 164
2.88791 -2.31790 0.46963 75 69 124
2.87308 -2.32605 0.47755 52 41 62
2.85820 -2.33415 0.48546 46 35 70
2.84927 -2.34564 0.49239 38 29 88
2.83845 -2.35606 0.49963 34 40 80
2.82058 -2.36996 0.49172 62 70 63
2.82752 -2.36642 0.50689 48 45 79
2.80964 -2.38032 0.49898 46 42 66
2.81530 -2.37603 0.51436 33 34 73
2.80624 -2.38750 0.52132 57 59 88
2.81327 -2.40860 0.52575 144 156 147
2.80055 -2.41797 0.53333 160 157 164
2.77773 -2.43830 0.54805 153 146 155
2.77061 -2.45109 0.55477 153 161 155
2.76506 -2.46489 0.56125 136 134 121
2.75946 -2.47871 0.56776 139 142 126
2.75121 -2.49092 0.57468 116 122 95
2.72762 -2.51093 0.58958 92 109 115
2.73002 -2.53000 0.59498 95 107 121
2.71033 -2.53498 0.60358 86 93 91
2.69693 -2.56167 0.61707 58 50 37
2.72111 -2.59533 0.61955 142 123 80
2.70284 -2.60953 0.61147 187 159 121
2.70838 -2.60493 0.62720 181 152 105
2.69011 -2.61913 0.61912 188 156 113
2.70557 -2.62112 0.63350 187 156 104
2.68726 -2.63536 0.62540 188 157 102
2.69965 -2.63531 0.64025 186 156 97
2.69796 -2.65240 0.64645 178 143 90
2.66853 -2.65078 0.65632 163 123 73
2.67822 -2.67569 0.66106 158 123 43
2.66291 -2.68362 0.66907 160 126 42
2.64428 -2.68922 0.67750 162 125 45
2.65091 -2.71235 0.68274 163 127 43
2.63004 -2.71638 0.69143 166 135 62
2.60349 -2.73496 0.70691 165 138 101
2.58699 -2.74194 0.71503 185 171 146
2.57704 -2.75357 0.72236 195 193 179
2.56525 -2.76389 0.72991 192 181 183
2.54141 -2.76542 0.73885 180 154 149
2.52149 -2.76972 0.74730 174 145 117
2.51407 -2.78318 0.75433 177 152 100
2.51208 -2.80070 0.76078 178 139 72
2.52334 -2.82825 0.76583 137 109 59
2.51200 -2.83900 0.77336 117 95 63
2.38524 -2.83824 0.81793 127 99 46
2.39039 -2.83197 0.79500 125 96 54
2.37875 -2.84215 0.80245 125 98 46
2.35280 -2.83212 0.82739 105 80 31
2.33978 -2.84110 0.83493 77 56 21
2.32176 -2.85511 0.82696 69 51 29
2.31914 -2.86334 0.84952 76 53 26
2.32114 -2.88440 0.85572 98 78 39
2.31163 -2.89627 0.86297 121 99 53
2.30648 -2.90253 0.88587 126 96 50
2.30000 -2.90644 0.87042 125 96 47
2.29352 -2.91035 0.85496 124 96 47
2.19370 -2.91672 0.91137 130 102 60
2.21157 -2.90283 0.91927 133 100 54
2.20518 -2.90669 0.90402 130 101 63
2.19879 -2.91055 0.88877 127 100 62
2.18265 -2.92712 0.91868 142 121 77
2.19960 -2.96141 0.92393 183 174 129
2.18820 -2.97168 0.93133 192 184 136
2.16991 -2.97598 0.93920 183 168 113
2.14419 -2.97374 0.94756 178 156 91
2.12739 -2.97915 0.95528 173 155 105
2.11256 -2.98624 0.96284 171 160 111
2.11235 -3.00627 0.96948 166 151 106
2.07282 -2.99130 0.97855 127 109 69
2.05505 -3.00512 0.97069 52 46 37
1.47846 -2.89572 1.15733 162 145 130
1.48300 -2.89019 1.13712 157 135 115
1.44674 -2.88210 1.16408 186 177 168
1.42568 -2.87948 1.17066 189 185 182
1.40988 -2.89176 1.16367 191 186 186
1.36535 -2.87379 1.19012 166 167 170
1.34972 -2.88594 1.18321 166 173 178
1.32966 -2.93389 1.22244 159 169 185
1.34537 -2.92167 1.22939 165 173 180
1.33975 -2.92506 1.21598 164 175 184
1.31395 -2.94611 1.21549 146 154 162
1.32156 -2.94495 1.22894 147 159 166
1.29725 -2.95794 1.24178 153 159 170
1.28854 -2.96833 1.24827 162 174 175
1.27283 -2.98055 1.24132 169 180 187
1.18334 -3.13733 1.34086 160 170 184
1.19928 -3.12494 1.34791 161 171 179
1.19358 -3.12838 1.33431 160 172 183
1.17039 -3.14282 1.34725 158 168 175
1.15065 -3.18381 1.36766 147 156 162
1.14908 -3.20413 1.37488 131 136 141
1.18967 -3.27999 1.38540 78 89 114
1.17330 -3.29272 1.37816 79 98 123
1.18365 -3.34179 1.40779 77 97 129
1.18150 -3.36250 1.41534 79 99 135
1.18521 -3.39135 1.42348 85 107 146
1.18282 -3.41210 1.43113 96 120 157
1.17534 -3.42600 1.43834 108 134 169
1.16744 -3.43938 1.44552 119 149 188
1.16317 -3.45789 1.45309 131 161 197
1.15562 -3.47191 1.46036 141 172 203
1.15084 -3.48991 1.46795 149 181 215
1.14020 -3.49969 1.47492 160 191 229
1.13308 -3.51451 1.48229 174 202 231
1.12512 -3.52820 1.48959 189 209 229
1.11701 -3.54173 1.49690 203 216 235
1.10007 -3.55491 1.48940 224 229 237
1.10870 -3.55501 1.50419 215 223 237
1.09174 -3.56820 1.49669 228 231 236
1.04910 -3.54326 1.52141 221 224 229
1.05388 -3.53746 1.50019 231 231 235
1.03195 -3.54305 1.52740 214 214 222
0.99740 -3.56768 1.54769 215 218 226
1.00216 -3.56190 1.52655 209 211 219
0.99142 -3.57129 1.53342 213 215 222
0.98879 -3.58037 1.55489 225 226 230
0.94890 -3.59642 1.57425 230 229 222
0.95365 -3.59065 1.55317 229 230 235
0.94294 -3.60002 1.56002 230 230 231
0.93948 -3.60784 1.58133 208 198 170
0.93530 -3.62772 1.58933 146 117 79
0.90815 -3.63728 1.60206 117 102 85
0.90340 -3.64305 1.62317 121 102 90
0.89743 -3.64666 1.60892 121 104 90
0.74608 -4.38256 1.90369 100 79 58
0.74056 -4.40636 1.91345 47 27 22
0.72205 -4.42075 1.90526 16 17 12
2.40466 -1.46152 0.34482 252 254 254
2.41883 -1.45051 0.35109 252 247 252
2.41376 -1.45357 0.33899 253 252 253
2.40869 -1.45662 0.32690 254 254 254
2.40178 -1.47205 0.34927 233 232 244
2.39708 -1.48186 0.35412 197 180 217
2.41636 -1.50177 0.35372 204 195 223
2.40176 -1.51946 0.36467 187 189 216
2.50700 -1.58904 0.34978 40 38 90
2.50350 -1.59997 0.35458 65 69 104
2.53971 -1.62837 0.35091 104 109 129
2.53454 -1.63877 0.35612 110 101 119
2.52894 -1.64900 0.36144 147 125 128
2.61244 -1.69925 0.34802 211 197 176
2.61843 -1.71507 0.35102 235 216 189
2.56520 -1.70402 0.36640 191 165 151
2.64659 -1.75445 0.35378 84 48 75
3.47890 -2.25137 0.21872 86 88 100
3.48436 -2.24473 0.19443 63 45 63
3.51112 -2.28381 0.21778 122 125 138
3.53245 -2.31123 0.21908 151 153 169
3.50609 -2.31538 0.22982 164 167 173
3.44756 -2.30346 0.24680 169 169 174
3.35420 -2.29058 0.27587 173 170 181
3.12851 -2.22539 0.33508 148 122 105
3.00357 -2.22507 0.37948 120 110 110
2.99716 -2.22894 0.36419 127 105 91
2.97409 -2.22557 0.39014 136 141 149
2.96707 -2.23797 0.39667 156 166 174
2.95417 -2.24723 0.40428 154 157 164
2.92849 -2.26579 0.41945 134 148 168
2.91555 -2.27500 0.42705 164 168 180
2.87360 -2.30080 0.45037 170 173 165
2.86723 -2.30464 0.43517 161 165 172
2.86858 -2.31443 0.45659 142 141 149
2.87050 -2.33208 0.46164 121 113 98
2.86531 -2.34576 0.46793 100 86 55
2.84288 -2.34950 0.47713 60 51 34
2.83206 -2.35992 0.48437 57 47 52
2.79969 -2.39127 0.50608 52 58 77
2.80632 -2.41215 0.51051 120 143 146
2.79436 -2.42199 0.51796 143 150 166
2.78493 -2.43335 0.52501 145 152 167
2.77015 -2.44147 0.53291 142 153 168
2.76652 -2.45641 0.53905 138 151 159
2.75517 -2.46664 0.54642 113 125 125
2.73718 -2.48063 0.53846 59 47 58
2.75072 -2.48118 0.55272 99 107 131
2.73270 -2.49519 0.54475 59 49 51
2.73368 -2.48787 0.56097 70 74 86
2.72830 -2.50188 0.56743 67 48 58
2.71480 -2.51078 0.57513 55 40 47
2.70580 -2.52254 0.58216 45 36 57
2.70379 -2.53883 0.58817 68 57 57
2.69737 -2.55235 0.59484 112 86 46
2.70031 -2.57202 0.60019 156 130 77
2.68215 -2.58614 0.59215 189 160 114
2.68297 -2.57849 0.60846 182 154 109
2.66484 -2.59258 0.60044 188 158 120
2.67940 -2.64827 0.63240 186 155 92
2.66700 -2.65814 0.64002 183 150 88
2.65448 -2.66791 0.64765 183 151 91
2.63616 -2.68215 0.63955 187 157 119
2.63123 -2.67029 0.65671 184 151 95
2.61296 -2.68449 0.64863 186 159 106
2.61850 -2.67986 0.66435 184 153 93
2.60024 -2.69406 0.65627 186 161 105
2.60870 -2.69146 0.67161 185 153 93
2.59042 -2.70567 0.66353 186 165 116
2.60615 -2.70818 0.67795 186 155 94
2.59995 -2.72240 0.68478 187 157 96
2.59758 -2.73941 0.69114 186 157 106
2.58817 -2.75145 0.69840 188 160 124
2.57325 -2.75954 0.70635 188 160 124
2.55047 -2.76189 0.71522 184 151 124
2.53196 -2.76726 0.72356 178 145 120
2.51810 -2.77598 0.73133 173 149 117
2.50654 -2.78639 0.73883 175 154 114
2.49710 -2.79838 0.74609 173 145 94
2.51477 -2.83075 0.75031 117 86 71
2.50771 -2.84472 0.75736 99 78 69
2.49499 -2.85444 0.76504 114 93 58
2.48314 -2.86481 0.77263 122 96 51
2.47654 -2.86879 0.75688 121 97 57
2.34600 -2.83573 0.81204 113 93 33
2.35113 -2.82950 0.78924 122 98 51
2.33368 -2.84526 0.81952 87 67 29
2.31770 -2.87125 0.83365 68 60 33
2.32047 -2.89299 0.83973 92 81 42
2.30768 -2.90224 0.84728 119 96 47
2.28956 -2.91632 0.83927 124 97 52
2.19734 -2.92905 0.89530 128 101 63
2.20243 -2.92286 0.87264 125 98 51
2.18353 -2.93716 0.90285 138 119 92
2.19472 -2.96664 0.90844 176 174 154
2.18646 -2.97962 0.91560 194 197 169
2.16877 -2.98445 0.92347 200 195 156
2.15695 -2.99434 0.93089 205 199 153
2.13583 -2.99605 0.93897 203 193 150
2.11788 -3.01001 0.93102 202 196 168
2.11381 -2.99685 0.94707 199 187 145
2.09577 -3.00109 0.95487 192 179 132
2.08630 -3.01291 0.96209 165 150 90
2.06842 -3.02681 0.95418 67 61 65
1.72410 -2.78080 1.01571 120 120 114
1.74037 -2.76815 1.02291 55 47 54
1.73455 -2.77166 1.00902 41 35 47
1.71946 -2.78643 1.03630 150 133 109
1.71364 -2.78994 1.02241 148 133 108
1.70782 -2.79346 1.00851 149 133 106
1.48237 -2.90927 1.14354 161 144 133
1.45307 -2.89821 1.15038 184 176 168
1.43714 -2.91059 1.14334 184 178 176
1.43149 -2.89508 1.15705 186 180 176
1.41562 -2.90741 1.15004 189 187 186
1.39506 -2.89561 1.17020 184 187 191
1.37929 -2.90787 1.16322 170 171 177
1.37725 -2.89614 1.17671 169 169 173
1.36152 -2.90837 1.16976 167 175 182
1.34589 -2.94156 1.20264 162 173 180
1.36167 -2.92929 1.20962 165 173 185
1.35603 -2.93269 1.19615 166 175 184
1.35038 -2.93610 1.18268 165 175 182
1.33011 -2.95383 1.19565 155 154 164
1.33248 -2.94674 1.20910 154 160 173
1.30975 -2.96164 1.22203 152 162 167
1.29401 -2.97388 1.21506 166 182 187
1.29927 -2.97006 1.22850 160 173 179
1.28353 -2.98231 1.22153 169 184 194
1.29293 -2.98325 1.23504 166 179 185
1.27717 -2.99551 1.22807 172 183 193
1.24255 -3.11283 1.29507 165 174 186
1.25857 -3.10038 1.30216 164 175 185
1.24828 -3.10937 1.30874 164 174 182
1.23682 -3.11629 1.28140 145 145 172
1.23799 -3.11837 1.31533 164 173 181
1.21881 -3.10526 1.30107 162 172 183
1.21428 -3.11077 1.32122 162 171 178
1.17539 -3.13791 1.32714 148 154 176
1.17302 -3.15687 1.33414 142 147 167
1.17089 -3.17626 1.34120 135 137 158
1.16146 -3.18637 1.34784 130 135 153
1.15217 -3.19667 1.35449 126 126 148
1.18731 -3.26516 1.36422 107 108 127
1.19109 -3.29312 1.37196 78 91 118
1.18119 -3.32650 1.38632 82 99 126
1.18102 -3.34976 1.39394 84 104 136
1.18256 -3.37555 1.40177 94 114 148
1.18019 -3.39624 1.40933 109 130 161
1.17290 -3.41031 1.41650 123 148 180
1.16314 -3.42103 1.42346 140 165 197
1.15259 -3.43068 1.43035 154 178 212
1.14863 -3.44958 1.43789 165 188 216
1.14135 -3.46390 1.44514 174 195 217
1.13606 -3.48114 1.45262 181 203 228
1.13125 -3.49916 1.46019 193 212 237
1.12540 -3.51581 1.46768 204 218 238
1.10851 -3.52895 1.46021 228 232 239
1.11819 -3.53059 1.47505 214 223 238
1.10127 -3.54374 1.46756 230 233 238
1.11014 -3.54421 1.48234 220 226 239
1.09321 -3.55738 1.47485 232 233 237
1.03327 -3.53210 1.50579 230 229 233
1.03803 -3.52632 1.48466 232 232 237
1.02730 -3.53571 1.49153 232 232 236
1.01542 -3.53070 1.51169 221 220 227
1.00027 -3.53326 1.51792 212 211 221
0.96089 -3.54983 1.53733 218 223 226
0.96560 -3.54410 1.51637 212 214 220
0.95496 -3.55341 1.52318 213 216 221
0.94934 -3.55773 1.54401 225 229 232
0.93278 -3.57061 1.53668 226 229 233
0.91027 -3.57418 1.56327 227 224 213
0.91497 -3.56847 1.54238 227 229 233
0.91599 -3.60982 1.57280 196 177 146
0.90270 -3.61492 1.57920 129 99 72
0.88910 -3.61946 1.58551 112 94 78
0.87251 -3.61899 1.59127 117 102 88
0.86780 -3.62472 1.61220 122 104 96
0.86188 -3.62829 1.59808 121 102 89
0.85596 -3.63186 1.58395 116 101 84
0.86150 -4.22332 1.79147 104 91 69
0.87979 -4.20911 1.79956 114 93 77
0.87325 -4.21305 1.78395 107 93 82
0.86804 -4.21938 1.80708 110 91 72
0.85630 -4.22965 1.81459 107 92 71
0.85099 -4.23599 1.79933 101 89 65
0.84579 -4.24232 1.82246 107 90 73
0.82508 -4.25178 1.81369 99 88 70
0.81988 -4.25810 1.83680 108 90 74
0.81335 -4.26205 1.82120 99 86 71
0.75159 -4.37672 1.88044 115 92 64
0.77004 -4.36237 1.88860 111 89 72
0.76344 -4.36636 1.87286 109 90 66
0.75684 -4.37034 1.85711 104 90 75
0.74296 -4.39390 1.88909 88 68 61
0.73840 -4.41988 1.89916 39 25 22
0.71986 -4.43430 1.89095 23 20 17
2.38739 -1.45955 0.33549 245 242 249
2.39507 -1.47444 0.33752 202 190 222
2.38089 -1.48546 0.33125 163 131 183
2.37311 -1.47703 0.34624 166 143 189
2.38644 -1.49441 0.34704 197 188 211
2.43017 -1.53689 0.34502 140 142 188
2.48878 -1.57426 0.33601 68 64 108
2.50312 -1.59285 0.33684 33 33 74
2.50801 -1.60746 0.33979 37 41 70
2.52120 -1.62582 0.34096 48 54 73
2.51713 -1.64937 0.35000 135 118 119
2.57603 -1.68866 0.34150 205 191 157
2.57304 -1.70032 0.34633 224 202 159
2.54187 -1.69916 0.35714 171 143 114
2.62852 -1.75208 0.34307 89 57 58
2.61999 -1.76152 0.34917 60 49 64
3.40072 -2.22100 0.21681 72 67 78
3.40610 -2.21446 0.19288 62 42 56
3.47851 -2.27548 0.20642 105 106 118
3.51428 -2.30995 0.20467 135 138 147
3.49272 -2.31641 0.21449 155 155 163
3.44990 -2.31222 0.22851 163 163 168
3.13463 -2.21956 0.31184 139 123 82
3.14832 -2.24290 0.31444 137 101 68
3.09784 -2.23311 0.32940 169 136 98
3.06459 -2.23204 0.34099 176 144 101
3.02625 -2.22814 0.35349 154 126 99
2.97864 -2.23526 0.37287 120 116 124
2.95876 -2.24079 0.38178 147 157 165
2.94652 -2.25040 0.38927 154 159 168
2.93147 -2.25847 0.39727 139 139 150
2.89141 -2.25279 0.40981 110 98 132
2.90613 -2.27717 0.41237 134 145 171
2.89337 -2.28646 0.41994 149 154 174
2.87555 -2.30031 0.41206 153 158 176
2.87336 -2.29166 0.42880 155 161 177
2.85557 -2.30549 0.42093 154 159 171
2.84471 -2.30835 0.44444 156 165 168
2.80941 -2.33765 0.46654 115 113 84
2.81156 -2.35554 0.47152 83 83 83
2.81359 -2.37347 0.47656 73 65 61
2.80385 -2.38454 0.48362 46 41 64
2.78597 -2.39844 0.47571 76 75 75
2.79407 -2.39560 0.49069 65 59 82
2.80381 -2.41838 0.49452 118 128 141
2.77378 -2.41731 0.50496 104 111 146
2.75907 -2.42541 0.51284 91 106 135
2.75239 -2.43840 0.51942 87 99 116
2.75118 -2.45480 0.52513 82 67 85
2.74589 -2.46876 0.53152 66 37 49
2.71680 -2.50257 0.55283 82 60 51
2.70311 -2.51132 0.56056 90 73 36
2.69993 -2.52680 0.56668 129 107 37
2.69737 -2.54276 0.57274 165 137 82
2.69506 -2.55896 0.57878 181 152 82
2.67695 -2.57304 0.57077 192 160 113
2.68824 -2.57228 0.58551 189 161 100
2.67011 -2.58638 0.57749 193 162 122
2.66677 -2.62992 0.61176 190 156 113
2.67849 -2.61968 0.60426 190 155 117
2.67196 -2.62361 0.58868 191 164 129
2.66494 -2.64687 0.61787 189 155 106
2.65642 -2.65935 0.62494 190 155 102
2.64755 -2.67161 0.63207 188 155 111
2.58282 -2.71886 0.67050 186 164 120
2.58177 -2.73678 0.67664 184 163 120
2.57008 -2.74714 0.68417 182 159 125
2.55561 -2.75550 0.69205 178 158 119
2.53758 -2.76123 0.70037 173 153 113
2.52378 -2.77000 0.70814 164 139 111
2.51116 -2.77964 0.71577 149 122 99
2.50392 -2.79326 0.72275 143 120 96
2.50172 -2.81069 0.72915 140 113 84
2.50059 -2.82902 0.73545 88 67 57
2.48858 -2.83921 0.74304 80 59 56
2.48611 -2.85668 0.74955 107 88 50
2.33726 -2.83781 0.79689 118 93 43
2.34239 -2.83158 0.77411 122 97 48
2.33192 -2.85287 0.80366 87 60 26
2.32421 -2.86611 0.81068 56 40 20
2.31300 -2.87656 0.81807 45 41 37
2.31115 -2.89460 0.82453 71 64 51
2.30173 -2.90657 0.83177 111 91 53
2.28361 -2.92066 0.82375 122 97 48
2.20111 -2.94155 0.87913 126 99 51
2.20622 -2.93534 0.85640 125 97 56
2.19468 -2.94543 0.86379 127 98 61
2.19111 -2.95296 0.88639 133 110 80
2.18796 -2.97026 0.89308 161 151 129
2.18184 -2.98510 0.90005 178 178 159
2.16461 -2.99032 0.90792 183 179 155
2.15251 -2.99997 0.91537 193 193 173
2.12823 -2.99889 0.92373 197 194 174
2.08670 -3.00255 0.93981 205 195 163
2.08014 -3.01698 0.94681 192 176 132
2.06226 -3.03088 0.93890 85 77 78
1.72351 -2.78918 1.00151 116 118 112
1.49141 -2.90841 1.12316 152 133 113
1.50747 -2.89593 1.13026 157 134 114
1.50172 -2.89939 1.11655 154 134 113
1.49598 -2.90286 1.10285 151 131 111
1.48109 -2.91743 1.12976 157 142 132
1.45520 -2.90995 1.13665 183 178 168
1.40184 -2.91245 1.15660 181 185 189
1.40635 -2.90697 1.13656 192 189 181
1.38600 -2.92476 1.14959 167 171 178
1.32084 -2.96367 1.20215 157 163 174
1.32533 -2.95821 1.18218 161 169 183
1.31071 -2.97255 1.20864 162 176 181
1.29077 -3.03215 1.23497 172 183 191
1.29646 -3.02872 1.24855 169 180 187
1.28624 -3.03766 1.25510 170 181 188
1.28693 -3.04861 1.24165 171 183 191
1.28239 -3.05412 1.26182 169 181 189
1.27098 -3.06101 1.23459 142 144 162
1.28585 -3.06845 1.24841 168 181 187
1.28130 -3.07398 1.26865 168 180 188
1.28421 -3.08775 1.25521 164 177 185
1.27964 -3.09330 1.27552 166 178 188
1.27713 -3.10066 1.26191 161 171 186
1.27256 -3.10622 1.28224 166 177 188
1.26681 -3.10969 1.26852 157 165 185
1.22789 -3.14876 1.29505 128 125 148
1.23977 -3.18562 1.30265 118 111 134
1.23753 -3.20506 1.30970 108 97 125
1.22125 -3.21771 1.30250 65 23 46
1.22708 -3.21420 1.31640 102 84 121
1.20622 -3.23255 1.32979 86 52 99
1.19738 -3.24379 1.33657 79 46 90
1.18737 -3.25353 1.34330 72 41 92
1.17743 -3.26337 1.35003 62 56 96
1.18231 -3.29281 1.35775 62 78 109
1.17788 -3.31014 1.36492 87 101 128
1.17540 -3.33020 1.37226 99 115 132
1.18033 -3.36040 1.38021 112 131 148
1.17387 -3.37542 1.38736 137 155 175
1.16502 -3.38723 1.39434 161 175 196
1.16420 -3.41016 1.40201 179 191 205
1.14274 -3.40463 1.40793 189 202 216
1.13799 -3.42224 1.41530 199 211 225
1.13345 -3.44026 1.42273 204 216 229
1.11675 -3.45324 1.41534 229 232 238
1.13134 -3.46184 1.43043 209 219 230
1.11458 -3.47487 1.42302 230 232 238
1.12391 -3.47602 1.43765 215 223 233
1.10713 -3.48906 1.43023 231 233 238
1.12411 -3.50120 1.44568 220 227 236
1.10725 -3.51430 1.43823 233 234 239
1.11774 -3.51711 1.45309 224 230 237
1.10085 -3.53023 1.44562 234 235 240
0.99181 -3.50748 1.49518 228 228 232
0.99652 -3.50176 1.47427 233 232 237
0.98590 -3.51104 1.48107 231 232 235
0.98173 -3.51759 1.50205 219 219 225
0.96724 -3.52091 1.50832 213 213 219
0.93115 -3.54199 1.52805 219 221 230
0.91467 -3.55480 1.52076 227 231 234
0.88309 -3.56975 1.55423 223 216 198
0.87370 -3.58088 1.56118 171 149 115
0.87536 -3.61021 1.57002 115 87 68
0.85877 -3.60961 1.57579 110 96 87
0.88337 -4.15133 1.74124 107 91 79
0.90150 -4.13724 1.74926 117 95 84
0.89502 -4.14115 1.73378 112 94 82
0.88985 -4.14742 1.75672 114 93 81
0.87821 -4.15761 1.76418 113 95 77
0.86523 -4.16543 1.73322 83 73 55
0.87355 -4.16499 1.74915 102 88 73
0.86839 -4.17126 1.77211 110 95 80
0.85540 -4.17910 1.74113 83 79 69
0.86169 -4.20736 1.76705 93 84 76
0.85516 -4.21130 1.75147 78 79 71
0.84344 -4.22154 1.75898 85 83 65
0.85076 -4.21913 1.77475 92 82 67
0.84030 -4.23184 1.78260 87 75 63
0.82735 -4.23971 1.78977 81 64 65
0.80910 -4.25390 1.78170 72 63 58
0.81305 -4.24484 1.79656 82 75 63
0.79531 -4.24304 1.80234 76 77 71
0.79013 -4.24932 1.82533 99 85 73
0.78363 -4.25324 1.80982 81 81 79
0.76584 -4.28501 1.82642 86 75 72
0.78406 -4.27084 1.83449 98 86 75
0.77754 -4.27477 1.81893 87 79 77
0.77102 -4.27871 1.80337 86 85 81
0.76065 -4.29131 1.84947 102 88 72
0.74761 -4.29918 1.81836 72 61 73
0.75893 -4.30513 1.83537 89 77 66
0.75373 -4.31144 1.85848 105 89 69
0.75386 -4.32921 1.84494 97 85 69
0.73986 -4.36989 1.86306 110 92 66
0.73802 -4.40145 1.87387 71 52 38
0.73362 -4.42784 1.88394 35 24 18
2.37404 -1.44754 0.32164 252 253 252
2.38809 -1.43662 0.32786 254 254 254
2.38306 -1.43965 0.31586 254 254 254
2.35963 -1.45321 0.32866 228 226 237
2.34560 -1.46413 0.32245 156 129 195
2.39384 -1.50275 0.33207 205 197 212
2.37957 -1.51384 0.32576 150 148 187
2.36736 -1.50339 0.34185 179 185 213
2.35316 -1.51443 0.33557 116 103 128
2.48398 -1.57764 0.32335 63 60 87
2.51785 -1.60476 0.31974 27 24 56
2.51341 -1.61537 0.32473 23 22 47
2.50240 -1.62310 0.33117 20 20 40
2.51244 -1.64019 0.33299 42 39 66
2.51815 -1.65547 0.33579 130 113 117
2.55573 -1.68525 0.33169 195 177 149
2.54596 -1.69379 0.33795 206 183 140
2.54270 -1.70532 0.34280 143 119 94
2.59779 -1.74383 0.33516 94 69 62
2.59619 -1.75642 0.33974 86 72 70
2.58067 -1.76848 0.33288 100 85 75
3.43791 -2.26316 0.19689 88 91 92
3.49894 -2.31003 0.18976 119 121 126
3.47604 -2.31578 0.19988 141 141 152
3.45242 -2.32110 0.21011 153 155 165
3.10558 -2.22815 0.30589 161 124 77
3.07576 -2.22892 0.31692 186 152 101
3.05763 -2.24301 0.30890 189 156 118
3.05894 -2.23638 0.32538 188 152 107
3.02800 -2.23634 0.33655 162 134 110
2.99972 -2.23758 0.34717 148 117 86
2.95116 -2.24399 0.36677 141 142 153
2.93330 -2.25055 0.37532 155 163 174
2.92130 -2.26025 0.38275 154 156 167
2.88734 -2.25786 0.39427 119 119 138
2.87334 -2.26637 0.40204 110 109 121
2.87911 -2.28590 0.40618 139 150 172
2.84193 -2.31422 0.42864 149 157 169
2.82982 -2.32380 0.43607 140 148 158
2.80775 -2.32763 0.44527 133 138 144
2.81065 -2.34590 0.45005 116 124 127
2.80136 -2.35714 0.45699 94 111 115
2.78356 -2.37098 0.44911 65 46 64
2.79619 -2.37083 0.46322 79 90 98
2.79191 -2.38510 0.46931 69 78 89
2.77990 -2.41174 0.48214 81 64 75
2.77058 -2.42312 0.48914 66 40 69
2.76429 -2.43636 0.49563 53 49 58
2.75511 -2.44787 0.50262 71 62 72
2.74609 -2.45950 0.50959 103 70 30
2.72982 -2.46663 0.51774 128 99 37
2.71489 -2.47457 0.52567 145 124 59
2.70810 -2.48762 0.53228 111 84 73
2.69776 -2.49844 0.53947 129 92 57
2.68859 -2.51003 0.54648 147 116 43
2.67063 -2.52399 0.53854 182 162 109
2.68347 -2.52425 0.55286 174 144 71
2.68933 -2.54564 0.55756 185 155 100
2.68949 -2.56346 0.56318 189 160 113
2.65864 -2.63278 0.59642 189 164 127
2.65893 -2.65118 0.60218 187 164 120
2.65086 -2.66397 0.60917 186 163 114
2.64226 -2.67643 0.61625 182 159 120
2.61816 -2.67817 0.62552 176 157 125
2.60695 -2.68880 0.63296 172 151 114
2.59049 -2.69574 0.64112 168 145 116
2.58230 -2.70849 0.64815 161 135 122
2.56072 -2.71174 0.65698 149 125 117
2.55137 -2.72365 0.66416 140 114 108
2.54202 -2.73559 0.67135 133 109 94
2.52769 -2.74394 0.67919 122 104 78
2.50946 -2.75811 0.67112 112 88 51
2.51358 -2.75242 0.68699 116 96 66
2.49536 -2.76659 0.67893 111 90 47
2.50450 -2.76458 0.69415 107 86 60
2.48627 -2.77875 0.68609 108 89 48
2.49630 -2.77742 0.70121 104 81 62
2.47805 -2.79161 0.69313 114 92 55
2.48857 -2.79064 0.70821 111 90 76
2.48317 -2.80566 0.71495 122 95 73
2.48960 -2.82966 0.72028 100 64 41
2.47121 -2.84395 0.71215 65 35 20
2.47663 -2.83910 0.72797 78 42 28
2.47524 -2.85739 0.73430 100 77 49
2.47547 -2.87704 0.74048 121 96 62
2.47021 -2.88343 0.76386 124 95 59
2.46360 -2.88742 0.74808 125 95 59
2.45699 -2.89141 0.73230 126 95 60
2.33561 -2.84549 0.78099 120 96 46
2.34074 -2.83925 0.75819 124 96 53
2.32171 -2.85377 0.78866 90 68 32
2.31321 -2.86636 0.79575 62 47 27
2.30162 -2.87649 0.80316 57 44 41
2.29960 -2.89439 0.80960 79 59 46
2.29656 -2.91156 0.81617 110 87 43
2.27844 -2.92566 0.80815 123 97 51
2.19540 -2.96601 0.87009 132 104 80
2.20053 -2.95977 0.84729 128 99 59
2.19247 -2.98358 0.87675 158 142 121
2.18044 -2.99337 0.88422 189 189 162
2.16359 -2.99894 0.89209 179 171 145
2.15603 -3.01262 0.89918 173 166 151
2.12669 -3.00707 0.90802 168 167 164
2.10100 -3.00458 0.91651 183 181 174
2.08032 -3.00640 0.92457 192 185 168
2.06986 -3.01734 0.93184 188 176 143
2.05200 -3.03123 0.92394 94 80 80
1.70886 -2.80341 0.99419 149 133 111
1.70422 -2.80905 1.01482 152 131 112
1.69838 -2.81257 1.00090 151 131 115
1.69255 -2.81609 0.98697 151 130 120
1.48767 -2.91399 1.10940 147 129 110
1.49225 -2.90843 1.08907 147 129 113
1.48193 -2.91746 1.09568 144 126 110
1.47553 -2.92109 1.11605 152 139 130
1.44921 -2.91309 1.12302 181 178 171
1.43419 -2.91697 1.12968 187 179 178
1.41825 -2.92937 1.12263 188 184 175
1.31372 -2.96541 1.18867 163 176 190
1.30465 -2.97548 1.19516 164 178 188
1.28953 -2.99919 1.20818 163 174 193
1.28925 -3.01960 1.21479 162 168 188
1.29047 -3.04192 1.22146 155 159 182
1.28738 -3.05933 1.22813 149 152 176
1.29258 -3.12971 1.24867 125 111 137
1.27637 -3.14231 1.24151 76 24 48
1.27667 -3.13213 1.25519 116 95 133
1.24382 -3.13542 1.26812 94 56 108
1.25212 -3.16756 1.27536 86 45 88
1.23718 -3.17101 1.28186 77 36 67
1.22995 -3.18407 1.28864 67 27 51
1.21828 -3.19159 1.29525 61 21 46
1.19455 -3.22851 1.31560 76 37 56
1.18730 -3.24178 1.32245 83 46 74
1.17882 -3.25348 1.32924 91 59 70
1.17272 -3.26836 1.33619 48 32 56
1.16402 -3.27987 1.34300 29 32 67
1.16903 -3.30971 1.35070 89 102 135
1.17697 -3.34380 1.35869 139 154 158
1.17410 -3.36357 1.36603 174 184 184
1.15721 -3.36438 1.37240 198 207 211
1.15182 -3.38087 1.37960 212 220 227
1.13525 -3.39376 1.37226 233 235 237
1.14442 -3.39467 1.38667 220 226 231
1.12782 -3.40757 1.37933 233 235 238
1.13016 -3.39897 1.39320 224 229 234
1.11358 -3.41186 1.38587 232 234 238
1.13062 -3.42386 1.40096 226 230 236
1.11397 -3.43680 1.39360 233 235 239
1.11563 -3.42714 1.40743 228 231 238
1.09901 -3.44007 1.40007 233 234 239
0.96134 -3.49892 1.48608 228 229 231
0.96601 -3.49324 1.46530 232 233 236
0.95546 -3.50247 1.47206 231 232 234
0.94490 -3.51170 1.47881 228 229 233
0.94756 -3.50317 1.49242 223 223 227
0.93115 -3.51593 1.48516 228 228 233
0.93807 -3.51402 1.49931 219 218 224
0.92141 -3.51366 1.50522 217 215 225
0.90504 -3.52640 1.49797 231 231 238
0.91059 -3.52238 1.51191 223 223 231
0.87926 -3.55033 1.53214 228 229 234
0.87246 -3.56557 1.53946 227 226 228
0.84760 -3.55132 1.54390 206 199 184
0.85937 -3.59716 1.55426 135 111 103
0.84478 -3.59973 1.56035 109 91 82
0.83109 -3.60371 1.56657 110 98 80
0.82642 -3.60939 1.58732 118 101 85
0.82055 -3.61293 1.57332 112 98 83
0.94184 -3.96330 1.64111 113 102 82
0.95958 -3.94950 1.64896 121 104 93
0.94689 -3.95716 1.61867 104 92 70
0.94819 -3.95947 1.65625 119 105 89
0.93549 -3.96713 1.62597 103 88 82
0.93679 -3.96943 1.66355 118 103 89
0.93815 -3.98684 1.64994 110 101 81
0.93308 -3.99299 1.67246 118 102 89
0.93293 -4.00787 1.65853 107 97 82
0.92786 -4.01404 1.68110 123 100 84
0.92435 -4.02304 1.66647 111 96 83
0.91926 -4.02922 1.68907 118 99 84
0.91118 -4.03002 1.67346 115 97 82
0.90610 -4.03620 1.69604 113 101 85
0.90343 -4.04681 1.68161 105 93 79
0.89834 -4.05299 1.70423 117 99 85
0.89671 -4.06558 1.69002 101 93 79
0.89161 -4.07177 1.71268 118 99 83
0.88520 -4.07564 1.69739 105 98 85
0.88387 -4.10462 1.70710 108 100 83
0.89031 -4.10073 1.72247 116 98 75
0.88291 -4.13456 1.71699 103 91 79
0.87688 -4.15524 1.72576 95 79 65
0.82510 -4.21882 1.76474 82 70 61
0.83027 -4.21253 1.74173 95 84 68
0.81859 -4.22274 1.74921 90 82 79
0.81453 -4.23123 1.77252 70 64 54
0.78555 -4.24043 1.78593 70 64 67
0.76809 -4.23891 1.79175 79 77 82
0.75351 -4.27703 1.80917 74 67 79
0.73533 -4.29116 1.80113 72 66 60
0.74147 -4.32101 1.82754 83 71 64
0.73493 -4.32495 1.81194 84 74 61
0.72320 -4.33522 1.81946 89 79 60
0.73512 -4.34258 1.83671 95 86 65
0.72620 -4.35889 1.84513 102 87 60
0.72773 -4.39759 1.85691 58 44 31
0.70926 -4.41194 1.84874 31 31 39
0.71729 -4.41101 1.86496 32 26 26
0.69881 -4.42537 1.85679 28 31 42
2.35612 -1.43373 0.30902 253 254 253
2.37009 -1.42286 0.31521 254 254 254
2.36509 -1.42588 0.30328 254 254 254
2.36009 -1.42890 0.29135 254 254 254
2.34625 -1.44121 0.31498 241 241 247
2.33228 -1.45207 0.30880 161 145 197
2.34535 -1.45240 0.31884 196 191 226
2.38288 -1.50335 0.32125 194 200 222
2.37779 -1.50642 0.30909 179 171 205
2.36864 -1.51442 0.31495 147 128 170
2.45267 -1.56952 0.31671 67 60 83
2.45683 -1.56446 0.29822 146 143 148
2.50232 -1.60352 0.30935 21 17 43
2.49419 -1.61247 0.31514 17 15 34
2.48212 -1.61968 0.32181 14 12 23
2.49081 -1.63615 0.32385 44 38 52
2.53092 -1.66688 0.31893 139 123 115
2.53471 -1.68147 0.32216 197 178 155
2.52164 -1.68846 0.32912 193 171 148
2.53727 -1.70862 0.32979 121 93 100
2.56915 -1.73648 0.32697 95 74 64
2.55375 -1.74845 0.32016 102 86 71
2.56489 -1.74775 0.33208 98 84 72
2.54946 -1.75974 0.32526 103 86 76
3.50588 -2.32109 0.17027 104 104 110
3.51143 -2.31434 0.14562 61 58 64
3.49492 -2.33281 0.17797 129 127 140
3.46657 -2.33584 0.18925 145 146 157
3.07866 -2.22148 0.29445 172 137 95
3.05778 -2.22682 0.30374 190 157 115
3.03970 -2.24087 0.29574 188 156 120
3.00562 -2.23179 0.32431 181 150 112
2.99920 -2.23567 0.30898 189 156 112
2.98266 -2.23577 0.33393 179 149 95
2.95562 -2.23749 0.34432 149 130 98
2.93516 -2.24264 0.35340 132 116 136
2.91937 -2.25027 0.36156 157 165 177
2.91241 -2.26272 0.36802 161 164 176
2.89732 -2.27070 0.37604 147 149 156
2.86502 -2.26909 0.38729 109 111 117
2.85267 -2.27849 0.39475 112 115 131
2.84847 -2.29248 0.40070 139 154 174
