ply
format ascii 1.0
element face 0
property list uchar int vertex_indices
element vertex 1347
property float x
property float y
property float z
property uchar diffuse_red
property uchar diffuse_green
property uchar diffuse_blue
end_header
1.00994 -3.56879 0.96088 66 67 97
0.99320 -3.57850 0.94820 111 130 144
0.99891 -3.58061 0.96351 103 120 129
0.98580 -3.58968 0.96671 103 113 123
0.98422 -3.61450 0.96671 52 67 95
0.96738 -3.62426 0.95396 24 36 63
0.99198 -3.65239 0.96412 24 35 60
0.97499 -3.66224 0.95127 26 37 66
0.92376 -3.78196 0.97946 30 32 56
0.93787 -3.77343 0.97600 29 36 56
0.91088 -3.79229 0.98258 38 37 64
0.92190 -3.83811 0.97903 62 69 97
0.90855 -3.84808 0.98228 80 92 111
0.90031 -3.86577 0.98410 53 56 79
0.89776 -3.89224 0.98433 21 24 59
0.88268 -3.89981 0.98806 28 39 74
0.82165 -3.83644 1.00465 81 99 124
0.86411 -3.93293 0.99226 132 151 164
0.84647 -3.94316 0.97891 144 153 159
0.82439 -3.96464 1.00190 138 146 144
0.83558 -3.95744 0.98144 142 151 156
0.81763 -3.98569 1.00328 99 101 88
0.85755 -4.08252 0.99154 31 27 19
0.85413 -4.11004 0.99197 34 35 28
0.84260 -4.11746 1.01304 49 53 50
0.86236 -4.15702 0.98912 55 63 43
0.85072 -4.16451 1.01038 57 58 60
0.84736 -4.16609 0.99280 53 59 64
0.88717 -4.30199 0.98046 48 46 57
0.90598 -4.36952 0.97457 33 31 37
0.88684 -4.38062 0.96009 16 22 22
0.91113 -4.41462 0.97253 25 25 35
0.88944 -4.48819 0.97689 32 31 29
0.88249 -4.51372 0.97826 35 40 47
0.87479 -4.53818 0.97983 53 54 63
0.86630 -4.56146 0.98162 71 77 64
0.85348 -4.57710 0.98464 81 84 72
0.83896 -4.58973 0.98815 89 92 81
0.82640 -4.60603 0.99109 97 105 92
0.63105 -4.67676 1.03982 112 116 112
0.64706 -4.66708 1.03589 117 122 108
0.64347 -4.66877 1.01713 117 123 111
0.61719 -4.69083 1.04314 122 133 123
0.60305 -4.70442 1.04653 123 126 130
0.58959 -4.71951 1.04972 108 104 101
0.57850 -4.73972 1.05223 116 123 117
0.55881 -4.75114 1.03732 120 128 119
0.33475 -4.87963 1.11221 120 121 118
0.34721 -4.87161 1.08943 124 128 123
0.32029 -4.89332 1.11568 114 115 109
0.30060 -4.90473 1.10078 114 117 106
-0.20099 -4.92575 1.24823 94 94 80
-0.20443 -4.92737 1.23025 92 93 88
-0.21976 -4.93663 1.23402 91 94 88
-0.22540 -4.90399 1.25481 89 91 79
-0.24405 -4.91480 1.24069 92 94 84
-0.24828 -4.88675 1.26092 87 90 74
-0.28736 -4.87391 1.27111 85 93 89
-0.29074 -4.87549 1.25345 87 89 81
-0.30387 -4.87777 1.27526 105 110 105
-0.31777 -4.89104 1.27859 132 132 130
-0.32945 -4.89856 1.29994 152 141 127
-0.42801 -4.86692 1.30712 159 144 123
-0.41652 -4.85952 1.28612 156 141 121
-0.46106 -4.80280 1.31659 125 111 90
-0.45972 -4.87638 1.31506 97 81 36
-0.47209 -4.89528 1.31792 56 47 34
-0.48761 -4.90133 1.32178 32 29 27
-0.50574 -4.91184 1.30806 21 25 22
-0.61845 -5.24508 1.34967 16 11 14
-0.59947 -5.23408 1.36404 13 13 11
-0.60294 -5.23571 1.34586 11 12 8
-0.61498 -5.24345 1.36785 12 11 8
-0.62662 -5.29213 1.35100 28 15 32
-0.63441 -5.34238 1.35218 38 34 40
-0.64452 -5.38181 1.35413 53 57 45
-0.65461 -5.42240 1.35605 67 70 62
-0.67410 -5.43370 1.34130 84 85 82
-0.66805 -5.44567 1.35911 75 78 77
-0.68759 -5.45700 1.34432 83 85 80
-0.68651 -5.44132 1.36389 78 81 77
-0.70600 -5.45262 1.34914 81 83 77
-1.42661 -5.69252 1.54879 61 58 63
-1.41466 -5.68483 1.52695 68 72 64
-1.43006 -5.69414 1.53074 66 69 68
-1.44201 -5.70183 1.55257 65 65 72
-1.44546 -5.70345 1.53452 68 67 72
2.63434 -2.55326 0.54582 157 125 109
2.64489 -2.54647 0.52655 128 108 92
2.61770 -2.56290 0.53323 117 94 78
2.62996 -2.56696 0.54669 135 111 100
2.59647 -2.57966 0.55506 115 96 69
2.59343 -2.58109 0.53911 115 95 64
2.57982 -2.58931 0.54245 116 94 66
2.44730 -2.90181 0.58721 124 99 59
2.45832 -2.89471 0.56706 124 98 74
2.44411 -2.90331 0.57055 125 99 74
2.43873 -2.95206 0.58845 97 65 41
2.44906 -2.97855 0.58528 122 97 59
2.37234 -3.05788 0.60349 122 96 49
2.38359 -3.05064 0.58292 126 98 64
2.36809 -3.07446 0.60426 113 89 41
2.36263 -3.11027 0.60497 113 85 59
2.35935 -3.11181 0.58782 101 80 50
2.35734 -3.12636 0.60602 124 103 51
2.34596 -3.13368 0.62681 131 102 69
2.34268 -3.13523 0.60962 127 104 64
2.23961 -3.21787 0.63454 96 89 95
2.24862 -3.24643 0.63167 101 101 103
2.25551 -3.27347 0.62938 108 109 100
2.24487 -3.28604 0.63187 106 98 99
2.26562 -3.32518 0.62578 58 50 72
2.23911 -3.32453 0.63261 44 58 71
1.94867 -3.13881 0.71091 111 97 109
1.94552 -3.14029 0.69445 37 29 65
1.83779 -3.08302 0.74051 133 128 120
1.17104 -3.01502 0.91333 131 122 126
1.18072 -3.00880 0.89564 136 149 161
1.16825 -3.01634 0.89871 138 144 153
1.16088 -3.02503 0.91575 133 119 125
1.16197 -3.04720 0.91504 139 132 138
1.16647 -3.07326 0.91338 143 150 160
1.15102 -3.08222 0.90169 149 158 174
1.16126 -3.08899 0.91442 145 157 166
1.14577 -3.09797 0.90269 151 160 176
1.15680 -3.10564 0.91524 147 157 168
1.13975 -3.13028 0.91915 139 152 165
1.14145 -3.15417 0.91825 116 121 148
1.17054 -3.20928 0.90971 78 86 121
1.15464 -3.21850 0.89768 44 47 85
1.16370 -3.22413 0.91118 53 59 104
1.15129 -3.23270 0.91421 39 43 89
1.09797 -3.33337 0.92598 42 46 68
1.11117 -3.32539 0.92274 31 35 64
1.11112 -3.37334 0.92183 63 73 89
1.09480 -3.38280 0.90948 71 74 96
1.08899 -3.39502 0.92710 66 71 94
1.06615 -3.41598 0.93257 72 76 87
1.06614 -3.44088 0.93210 55 59 73
1.04969 -3.45041 0.91965 37 39 74
1.02975 -3.57415 0.93889 42 47 84
1.04040 -3.56730 0.91943 37 45 72
1.02033 -3.58820 0.94104 81 86 104
0.99348 -3.60571 0.94761 73 79 104
1.00055 -3.64247 0.94508 37 37 56
0.94573 -3.76194 0.95688 28 33 58
0.96297 -3.75194 0.96993 30 35 50
0.95981 -3.75343 0.95342 27 30 52
0.94888 -3.76046 0.97339 30 38 53
0.93688 -3.77807 0.95884 32 39 68
0.92706 -3.79291 0.96108 44 44 73
0.92967 -3.82615 0.95977 61 59 85
0.92437 -3.84803 0.96071 74 81 104
0.91138 -3.85862 0.96385 82 92 108
0.90474 -3.87879 0.96517 53 55 80
0.90201 -3.90512 0.96536 25 24 59
0.88667 -3.91237 0.96917 21 28 64
0.84171 -3.87381 0.98148 65 84 108
0.87002 -3.94869 0.97275 127 146 155
0.85232 -3.95896 0.95935 143 153 159
0.83135 -3.98244 0.98204 139 148 146
0.84259 -3.97521 0.96150 142 150 156
0.82875 -4.01033 0.98218 107 112 99
0.86868 -4.10752 0.97003 39 38 30
0.85892 -4.12488 0.97221 36 32 31
0.86254 -4.16445 0.97051 52 60 41
0.84415 -4.17511 0.95659 33 38 41
0.86251 -4.19845 0.96986 48 56 65
0.90246 -4.33529 0.95695 31 26 40
0.88344 -4.34631 0.94255 15 21 27
0.90679 -4.37852 0.95500 19 21 27
0.90010 -4.44011 0.95553 22 24 30
0.89115 -4.46166 0.95742 26 32 40
0.88623 -4.49049 0.95813 42 51 42
0.88208 -4.52104 0.95860 57 69 54
0.87169 -4.54075 0.96090 71 75 73
0.85983 -4.55797 0.96362 81 87 77
0.84750 -4.57447 0.96647 89 94 82
0.83446 -4.58979 0.96953 98 100 91
0.82108 -4.60456 0.97268 104 109 98
0.80135 -4.61601 0.95775 109 115 107
0.80853 -4.62099 0.97560 108 117 105
0.79239 -4.63075 0.97956 112 118 110
0.78877 -4.63245 0.96064 111 116 111
0.61611 -4.65523 1.02443 118 124 115
0.62846 -4.64728 1.00186 112 122 114
0.61254 -4.65691 1.00577 117 123 117
0.60330 -4.67129 1.02742 121 132 123
0.58378 -4.68261 1.01264 91 88 89
0.58987 -4.68616 1.03059 103 101 108
0.57831 -4.70507 1.03319 108 110 94
0.55873 -4.71643 1.01837 118 123 112
0.56681 -4.72427 1.03578 116 127 115
0.54718 -4.73564 1.02093 120 129 114
0.32163 -4.85802 1.09627 124 126 120
0.33404 -4.85004 1.07360 123 126 124
0.31805 -4.85970 1.07753 126 131 126
0.30723 -4.87160 1.09971 118 119 110
0.28763 -4.88296 1.08488 119 116 113
-0.27609 -4.86493 1.24989 89 92 83
-0.26442 -4.85741 1.22855 94 96 93
-0.27947 -4.86651 1.23225 93 96 91
-0.31127 -4.86482 1.25894 88 93 79
-0.31464 -4.86640 1.24137 89 89 77
-0.32804 -4.86743 1.26321 100 106 104
-0.34132 -4.88275 1.26633 127 130 125
-0.36041 -4.87644 1.27136 146 139 131
-0.37201 -4.88390 1.29255 154 140 127
-0.37536 -4.88548 1.27503 153 140 127
-0.42725 -4.88465 1.28840 158 141 117
-0.41572 -4.87723 1.26732 154 142 123
-0.45479 -4.84268 1.29629 117 107 85
-0.45666 -4.90393 1.29559 90 79 46
-0.47012 -4.91874 1.29876 49 42 41
-0.48621 -4.92268 1.30283 26 27 33
-0.50441 -4.93324 1.28905 22 25 20
-0.62379 -5.23730 1.33215 35 28 40
-0.63345 -5.27664 1.33387 50 48 50
-0.64599 -5.39453 1.33483 73 75 63
-0.66541 -5.40579 1.32013 87 85 75
-0.65877 -5.42086 1.33760 81 82 72
-0.67825 -5.43216 1.32286 90 88 78
2.45149 -2.92723 0.56810 124 95 66
2.46257 -2.92009 0.54784 125 99 71
2.44828 -2.92873 0.55135 126 100 69
2.45476 -2.94841 0.56678 112 77 49
2.45484 -2.98659 0.56590 103 79 57
2.45649 -3.00705 0.56501 122 102 60
2.44523 -3.01429 0.58558 129 99 63
2.44198 -3.01582 0.56857 128 101 68
2.43873 -3.01735 0.55156 126 101 68
2.38838 -3.07402 0.58115 125 96 57
2.39969 -3.06674 0.56048 126 99 70
2.38511 -3.07555 0.56406 126 97 68
2.37814 -3.08613 0.58353 120 91 50
2.37700 -3.10528 0.58339 102 83 51
2.36494 -3.13636 0.58582 110 82 41
2.34694 -3.14680 0.57220 113 95 76
2.35996 -3.15286 0.58674 119 95 67
2.34852 -3.16022 0.60764 128 102 70
2.34522 -3.16177 0.59036 122 99 73
2.34191 -3.16332 0.57308 109 94 85
2.30160 -3.20981 0.60058 99 91 84
2.31971 -3.19930 0.61430 125 97 76
2.31639 -3.20086 0.59695 105 93 84
2.30491 -3.20825 0.61793 119 98 84
2.29012 -3.21719 0.62156 106 97 91
2.28034 -3.21350 0.60601 100 96 93
2.26233 -3.21978 0.61054 101 104 103
2.25369 -3.23375 0.61246 121 121 120
2.28904 -3.28427 0.60216 144 142 138
2.30137 -3.31613 0.59824 153 156 158
2.29557 -3.33304 0.59937 152 150 143
2.23722 -3.30560 0.61511 106 105 86
2.26026 -3.34698 0.60821 39 35 31
1.90796 -3.14894 0.70398 104 102 98
1.84800 -3.11669 0.72025 147 134 114
1.83728 -3.12359 0.73985 153 132 117
1.83418 -3.12505 0.72365 153 133 115
1.83108 -3.12650 0.70744 152 134 118
1.17535 -3.04484 0.89622 141 148 152
1.18509 -3.03857 0.87842 144 157 166
1.17253 -3.04616 0.88150 146 159 164
1.15997 -3.05375 0.88459 149 159 166
1.17033 -3.06056 0.89717 146 156 160
1.15491 -3.06950 0.88550 151 159 169
1.17108 -3.08267 0.89648 148 158 168
1.15559 -3.09165 0.88475 151 160 175
1.14693 -3.12093 0.90187 135 148 166
1.18194 -3.18193 0.89142 97 107 133
1.18159 -3.20390 0.89102 66 63 110
1.16875 -3.21192 0.89417 44 45 89
1.13899 -3.24614 0.90111 45 55 83
1.12595 -3.25402 0.90431 45 50 79
1.10737 -3.32577 0.90751 40 42 68
1.12353 -3.31641 0.91974 28 37 71
1.12057 -3.31780 0.90427 29 35 72
1.11544 -3.35943 0.90466 63 68 75
1.09917 -3.36887 0.89234 74 81 89
1.11330 -3.38104 0.90473 76 85 93
1.09696 -3.39051 0.89236 75 77 98
1.08931 -3.40052 0.91051 68 70 91
1.07770 -3.41078 0.91329 79 84 91
1.06881 -3.42447 0.91528 74 78 87
1.07268 -3.45435 0.91360 44 44 68
1.03367 -3.58490 0.92077 35 47 81
1.04435 -3.57803 0.90126 41 46 71
1.01886 -3.59182 0.92446 81 94 105
0.99834 -3.59101 0.92979 99 113 135
1.00670 -3.62930 0.92676 40 45 72
0.98976 -3.63912 0.91394 26 27 56
1.00077 -3.64848 0.92787 30 25 51
0.98378 -3.65834 0.91501 26 29 54
0.96811 -3.71428 0.93485 25 31 58
0.98524 -3.70434 0.94782 29 38 57
0.98210 -3.70581 0.93141 29 33 55
0.97124 -3.71280 0.95126 27 33 53
0.95724 -3.72127 0.95470 28 32 53
0.96197 -3.73392 0.93600 30 36 67
0.95348 -3.75037 0.93783 32 41 66
0.94514 -3.76714 0.93961 48 47 75
0.95597 -3.81194 0.93579 61 66 93
0.95056 -3.83349 0.93671 75 80 102
0.93307 -3.84363 0.92347 94 100 121
0.93887 -3.84596 0.93946 84 92 110
0.92570 -3.85629 0.94264 85 92 107
0.91051 -3.86361 0.94641 84 85 97
0.90705 -3.88866 0.94674 53 48 72
0.90513 -3.91631 0.94662 25 22 54
0.89181 -3.92675 0.94984 16 20 58
0.86588 -3.91768 0.95676 50 63 99
0.87617 -3.96487 0.95303 119 137 152
0.84314 -4.00801 0.96062 139 149 151
0.85445 -4.00073 0.93995 141 148 155
0.84548 -4.04408 0.95920 116 121 116
0.87437 -4.12375 0.94992 52 52 51
0.86721 -4.14551 0.95128 34 26 26
0.86316 -4.17262 0.95172 34 38 36
0.84474 -4.18330 0.93778 21 23 21
0.88292 -4.27449 0.94430 28 31 34
0.87948 -4.27611 0.92631 19 27 27
0.86413 -4.28538 0.93008 23 27 20
0.89680 -4.33324 0.93938 23 25 25
0.89970 -4.41042 0.93689 17 24 20
0.89599 -4.44079 0.93717 28 35 32
0.88629 -4.46105 0.93922 40 46 46
0.88249 -4.49187 0.93951 54 63 55
0.87507 -4.51662 0.94088 68 77 69
0.86430 -4.53563 0.94324 81 88 82
0.85168 -4.55142 0.94616 88 95 91
0.84032 -4.56965 0.94869 98 105 95
0.82066 -4.58105 0.93381 115 123 119
0.82834 -4.58687 0.95141 108 111 102
0.81569 -4.60296 0.95433 110 113 104
0.79597 -4.61439 0.93940 111 115 110
0.59204 -4.65709 1.01107 112 116 120
0.56736 -4.69125 1.01670 109 119 100
0.54784 -4.70257 1.00193 122 127 118
0.29455 -4.85074 1.08382 121 122 114
0.30691 -4.84279 1.06123 129 132 130
0.27505 -4.86205 1.06906 115 113 120
-0.08895 -5.01755 1.17946 106 100 93
-0.07320 -5.00803 1.17559 114 111 105
-0.08542 -5.01589 1.19793 104 98 96
-0.10118 -5.02542 1.20180 106 102 95
-0.30139 -4.85107 1.23828 96 95 83
-0.28977 -4.84360 1.21704 93 95 85
-0.30475 -4.85265 1.22072 95 97 87
-0.33542 -4.85426 1.24703 86 89 82
-0.33876 -4.85583 1.22952 86 89 87
-0.35263 -4.85481 1.25147 97 103 106
-0.36409 -4.87679 1.25395 125 124 126
-0.38109 -4.87799 1.25833 146 138 132
-0.39266 -4.88544 1.27948 156 139 123
-0.39601 -4.88701 1.26199 153 140 123
-0.42923 -4.89160 1.27050 155 139 110
-0.41769 -4.88418 1.24940 152 145 125
-0.45027 -4.87576 1.27631 112 98 73
-0.44856 -4.95228 1.27414 84 73 49
-0.46693 -4.96293 1.26023 46 31 39
-0.46468 -4.95674 1.27822 45 36 42
-0.48303 -4.96739 1.26432 27 24 21
-0.47950 -4.96653 1.28184 26 25 29
-0.49786 -4.97717 1.26794 21 26 14
-0.62039 -5.18659 1.31340 39 43 52
-0.62853 -5.23249 1.31447 59 63 57
-0.64746 -5.24346 1.30015 80 82 66
2.47063 -2.96357 0.54462 120 92 61
2.48181 -2.95638 0.52418 124 99 69
2.46253 -2.97684 0.54639 100 70 59
2.47351 -3.02337 0.54232 113 93 61
2.39717 -3.10469 0.56016 122 92 56
2.40855 -3.09737 0.53936 128 101 65
2.39627 -3.12415 0.55989 110 88 51
2.38618 -3.13663 0.56221 102 88 51
2.37521 -3.14847 0.56477 112 91 54
2.35715 -3.15894 0.55110 97 91 91
2.34053 -3.20359 0.57240 98 91 89
2.35871 -3.19305 0.58616 123 96 76
2.35538 -3.19461 0.56876 104 93 89
2.34386 -3.20202 0.58980 113 94 78
2.32649 -3.21320 0.57582 102 94 98
2.31552 -3.22531 0.57838 110 110 116
2.33412 -3.26156 0.57258 134 134 129
2.32366 -3.27433 0.57498 152 159 142
2.35509 -3.32171 0.56556 170 172 165
2.33650 -3.33249 0.55149 188 189 192
2.33697 -3.32845 0.57011 180 180 176
2.31840 -3.33922 0.55606 187 186 196
2.32372 -3.33923 0.57329 182 182 188
2.30514 -3.35000 0.55923 187 186 196
2.31904 -3.35724 0.57405 183 181 181
2.30963 -3.37135 0.57615 163 160 141
2.23368 -3.32879 0.59708 88 78 58
2.26831 -3.38047 0.58670 36 18 21
1.16359 -3.12208 0.88188 150 159 170
1.17348 -3.11572 0.86381 153 161 174
1.18521 -3.16796 0.87505 99 110 138
1.18746 -3.19271 0.87382 50 52 100
1.17158 -3.20192 0.86180 35 35 84
1.17741 -3.20384 0.87616 37 30 87
1.16590 -3.21336 0.87892 43 45 84
1.15724 -3.22616 0.88085 55 60 84
1.13795 -3.24969 0.88528 45 52 85
1.12198 -3.25895 0.87320 32 38 79
1.13233 -3.26624 0.88633 40 45 78
1.12218 -3.27276 0.90487 38 44 76
1.11925 -3.27414 0.88954 35 39 76
1.11632 -3.27552 0.87421 30 36 77
1.11784 -3.31946 0.88874 38 38 74
1.13400 -3.31010 0.90096 32 39 74
1.13104 -3.31149 0.88550 31 34 72
1.12439 -3.35115 0.88621 59 62 86
1.10812 -3.36058 0.87390 72 83 96
1.12595 -3.37715 0.88513 72 83 90
1.10959 -3.38663 0.87275 73 79 89
1.09157 -3.40843 0.89330 80 82 101
1.07518 -3.41793 0.88090 89 97 108
1.08109 -3.42014 0.89574 87 93 102
1.07180 -3.43340 0.89782 78 85 89
1.07706 -3.46512 0.89563 46 45 60
1.06860 -3.47972 0.89746 33 31 66
1.05809 -3.48648 0.91666 37 42 75
1.05202 -3.48933 0.88492 26 34 65
1.05818 -3.49191 0.89987 32 37 70
1.04766 -3.49868 0.91909 40 42 74
1.04462 -3.50010 0.90320 38 42 72
1.03354 -3.59028 0.90377 35 47 71
1.04423 -3.58340 0.88424 44 47 72
1.01668 -3.60006 0.89100 55 58 78
1.02408 -3.60440 0.90587 63 72 85
1.01231 -3.61548 0.90866 68 71 95
1.00984 -3.63925 0.90870 34 29 62
0.96944 -3.69392 0.91784 39 37 48
0.98651 -3.68402 0.93076 26 36 65
0.98338 -3.68549 0.91441 28 30 56
0.96579 -3.71692 0.91820 47 49 76
0.96579 -3.74532 0.91746 54 60 90
0.97591 -3.78856 0.91370 63 80 95
0.95852 -3.79865 0.90054 96 104 112
0.97168 -3.81157 0.91422 88 93 107
0.95421 -3.82169 0.90100 94 102 115
0.96221 -3.82718 0.91629 99 106 118
0.94472 -3.83732 0.90305 91 99 115
0.95147 -3.84103 0.91873 95 102 120
0.92693 -3.86441 0.92454 90 94 110
0.91223 -3.87253 0.92817 82 82 93
0.91600 -3.90861 0.92625 51 46 65
0.90746 -3.92633 0.92803 25 23 47
0.89356 -3.93594 0.93141 16 18 54
0.88415 -3.95254 0.93344 43 53 92
0.88370 -3.98327 0.93276 108 124 146
0.86888 -3.99169 0.93642 139 151 160
0.85103 -4.00204 0.92291 140 147 154
0.85270 -4.03010 0.93965 141 148 151
0.83927 -4.04092 0.94288 126 129 125
0.86867 -4.12149 0.93313 72 67 64
0.87359 -4.16306 0.93077 33 20 21
0.85518 -4.17374 0.91684 19 22 22
0.86931 -4.18995 0.93119 24 24 26
0.89459 -4.37297 0.91987 23 29 31
0.90671 -4.36517 0.89772 26 32 28
0.89109 -4.37461 0.90155 29 33 37
0.89441 -4.40905 0.91899 26 31 32
0.89044 -4.43897 0.91925 36 41 39
0.88395 -4.46483 0.92028 48 51 55
0.87531 -4.48716 0.92196 64 67 68
0.86903 -4.51392 0.92291 79 82 81
0.85672 -4.53013 0.92571 91 98 90
0.84468 -4.54693 0.92842 95 106 101
0.82508 -4.55830 0.91359 108 113 114
0.83242 -4.56347 0.93119 106 118 111
0.81279 -4.57485 0.91634 110 120 118
0.76031 -4.66800 0.94733 108 112 104
0.78013 -4.65650 0.96234 111 113 103
0.77650 -4.65821 0.94335 109 111 108
0.76394 -4.66629 0.96631 114 117 98
0.75668 -4.66970 0.92835 99 104 104
0.74774 -4.67608 0.97029 118 120 104
0.74898 -4.68724 0.94979 117 121 113
0.73639 -4.69534 0.97280 118 113 110
0.73275 -4.69705 0.95378 121 123 123
0.59486 -4.62965 0.99153 118 127 122
0.61068 -4.62008 0.98764 121 130 118
0.60714 -4.62175 0.96909 121 128 123
0.57548 -4.64088 0.97686 94 94 109
0.58105 -4.64338 0.99478 100 102 115
0.56738 -4.65750 0.99799 106 108 98
0.54797 -4.66876 0.98329 122 128 125
0.43727 -4.68194 1.03134 123 126 112
0.45650 -4.67079 1.04590 120 124 119
0.45298 -4.67245 1.02748 125 134 120
0.44079 -4.68029 1.04976 119 120 116
0.42508 -4.68979 1.05361 123 127 113
0.41803 -4.69310 1.01678 116 111 103
-0.07850 -5.00408 1.15773 114 110 100
-0.05923 -4.99291 1.17231 110 113 106
-0.06276 -4.99456 1.15386 111 110 116
-0.08203 -5.00574 1.13928 108 110 94
-0.09777 -5.01525 1.14314 104 102 88
-0.09399 -5.01440 1.16151 106 103 90
-0.10711 -5.03240 1.16447 101 98 79
-0.12415 -5.03778 1.16878 95 93 67
-0.13637 -5.04564 1.19112 94 98 84
-0.13991 -5.04730 1.17265 97 100 87
-0.14344 -5.04896 1.15418 98 101 88
-0.35767 -4.85007 1.23461 86 88 89
-0.34612 -4.84264 1.21350 85 91 91
-0.36100 -4.85164 1.21716 88 90 86
-0.37589 -4.86063 1.22082 83 89 86
-0.37188 -4.86162 1.23802 93 96 100
-0.38583 -4.87421 1.24134 124 122 115
-0.40209 -4.87795 1.24549 147 139 128
-0.43266 -4.89282 1.25309 150 136 104
-0.44589 -4.90846 1.25614 107 92 61
-0.45149 -4.95565 1.25639 76 67 45
-0.61845 -5.21516 1.29330 68 74 68
-0.63735 -5.22612 1.27900 83 83 73
-0.63024 -5.24308 1.29566 79 81 68
-0.64920 -5.25408 1.28130 82 80 71
2.48097 -2.97482 0.52386 123 98 69
2.49220 -2.96760 0.50335 122 96 71
2.47773 -2.97634 0.50691 124 98 68
2.47964 -2.99302 0.52369 111 86 60
2.47807 -3.01119 0.52357 91 68 42
2.46025 -3.02152 0.51008 87 68 34
2.48614 -3.03651 0.52071 95 75 46
2.48259 -3.05351 0.52115 118 96 66
2.47120 -3.06083 0.54196 128 99 70
2.46791 -3.06238 0.52476 126 98 67
2.39844 -3.10973 0.54166 120 99 56
2.40778 -3.13709 0.53841 106 94 58
2.39693 -3.14905 0.54092 104 92 63
2.37899 -3.15555 0.54545 107 94 77
2.37377 -3.19263 0.54574 99 91 93
2.36116 -3.20342 0.54875 104 99 101
2.35130 -3.21642 0.55097 112 115 116
2.36694 -3.25001 0.54587 134 132 132
2.39123 -3.29092 0.53830 158 161 164
2.38274 -3.30553 0.54010 178 177 174
2.36416 -3.31630 0.52604 193 193 198
2.36895 -3.31585 0.54343 186 188 180
2.35290 -3.32432 0.54741 187 190 191
2.30790 -3.37438 0.55780 184 181 175
2.29083 -3.38204 0.56207 138 134 110
2.24782 -3.36739 0.57381 70 52 46
2.22930 -3.37813 0.55979 56 52 58
1.86669 -3.14171 0.68065 111 106 100
1.17386 -3.13792 0.86306 146 153 161
1.18379 -3.13153 0.84491 154 161 173
1.19524 -3.18369 0.85611 75 79 111
1.18585 -3.19553 0.85823 33 34 87
1.16997 -3.20474 0.84621 32 39 76
1.16161 -3.21316 0.86410 43 48 82
1.15870 -3.21453 0.84888 35 42 76
1.15248 -3.22542 0.86615 50 54 78
1.13656 -3.23465 0.85410 38 38 74
1.14427 -3.23881 0.86792 47 48 79
1.12833 -3.24806 0.85585 35 36 78
1.13588 -3.25206 0.86974 38 40 80
1.11991 -3.26132 0.85765 31 35 79
1.12578 -3.31015 0.87071 31 34 73
1.13601 -3.30357 0.85202 31 33 77
1.13209 -3.34139 0.86815 51 52 78
1.13848 -3.37308 0.86554 72 79 94
1.10325 -3.40334 0.87393 80 84 105
1.08686 -3.41284 0.86152 90 96 116
1.09305 -3.41538 0.87627 86 91 111
1.07663 -3.42490 0.86384 91 99 113
1.07458 -3.44209 0.88035 83 93 95
1.07711 -3.47044 0.87887 57 59 65
1.07175 -3.48904 0.87973 35 27 58
1.03302 -3.59515 0.88684 41 50 74
1.01614 -3.60494 0.87407 59 75 106
1.01829 -3.62921 0.88973 59 57 69
1.00921 -3.64409 0.89169 44 38 69
1.00032 -3.65934 0.89358 26 28 56
0.98949 -3.67201 0.89607 20 23 55
0.98184 -3.68917 0.89758 40 39 63
0.98675 -3.72410 0.89527 68 73 64
0.99034 -3.75758 0.89336 81 95 103
0.98277 -3.77552 0.89483 86 92 105
0.98098 -3.80192 0.89453 91 99 107
0.93939 -3.85924 0.90381 92 96 114
0.95051 -3.85209 0.88348 86 96 109
0.93617 -3.86075 0.88700 86 94 108
0.92627 -3.86974 0.90696 88 91 108
0.91598 -3.88451 0.90924 76 82 95
0.91650 -3.91581 0.90819 47 49 66
0.90687 -3.93191 0.91026 26 26 49
0.88914 -3.94219 0.89684 22 24 54
0.89381 -3.94286 0.91338 18 21 54
0.88046 -3.95338 0.91658 35 42 82
0.88246 -3.98797 0.91505 91 106 133
0.87491 -4.00790 0.91646 134 148 160
0.85700 -4.01829 0.90290 138 145 156
0.85902 -4.04704 0.91950 139 145 149
0.85572 -4.04859 0.90226 138 145 149
0.84615 -4.05891 0.92255 133 134 129
0.87682 -4.14181 0.91207 86 80 69
0.87739 -4.17645 0.91091 26 15 12
0.86635 -4.22662 0.91236 23 25 23
0.85116 -4.23581 0.91609 21 29 31
0.84775 -4.23741 0.89828 28 30 34
0.88391 -4.39866 0.90274 34 38 41
0.88640 -4.43976 0.90090 45 47 50
0.87635 -4.45940 0.90297 58 61 70
0.86751 -4.48134 0.90466 74 81 84
0.86036 -4.50652 0.90581 90 95 93
0.84941 -4.52510 0.90815 101 110 99
0.82987 -4.53642 0.89336 109 117 112
0.83775 -4.54256 0.91071 102 106 109
0.81818 -4.55391 0.89590 110 115 113
0.75729 -4.63010 0.92934 107 110 107
0.77698 -4.61868 0.94425 114 116 112
0.77337 -4.62037 0.92539 116 117 111
0.73281 -4.66455 0.93478 107 112 111
0.71305 -4.67600 0.91982 115 119 120
0.73140 -4.70326 0.93403 115 121 122
0.71880 -4.71136 0.95705 122 123 125
0.71516 -4.71307 0.93801 119 123 123
0.71152 -4.71479 0.91898 114 122 122
0.58590 -4.62019 0.97472 118 124 123
0.55573 -4.64223 0.98202 114 124 114
0.53639 -4.65345 0.96738 118 125 126
0.49192 -4.72327 0.99646 121 129 125
0.48835 -4.72494 0.97781 112 115 100
0.47244 -4.73456 0.98172 116 120 111
0.44711 -4.71348 1.00853 118 120 104
0.42775 -4.72470 0.99388 112 117 112
0.29742 -4.78150 1.04595 119 124 116
0.31670 -4.77032 1.06054 118 122 114
0.31317 -4.77198 1.04208 116 121 108
0.30964 -4.77364 1.02361 113 118 107
0.28166 -4.79103 1.04982 127 128 127
0.00672 -4.93181 1.11807 109 106 99
0.02241 -4.92233 1.11422 105 101 98
0.01889 -4.92398 1.09583 105 104 93
0.01024 -4.93016 1.13646 107 106 100
-0.00545 -4.93964 1.14031 109 111 103
-0.01248 -4.94295 1.10354 117 114 113
-0.01505 -4.92309 1.12406 111 109 107
-0.02718 -4.93089 1.14621 118 119 103
-0.03068 -4.93254 1.12789 123 125 105
-0.05943 -4.90181 1.13635 120 121 112
-0.06290 -4.90345 1.11818 116 120 117
-0.07145 -4.90955 1.15833 111 109 110
-0.07493 -4.91119 1.14016 113 109 111
-0.11283 -5.02697 1.14677 108 107 89
-0.10062 -5.01911 1.12444 107 106 93
-0.13211 -5.03815 1.13218 107 104 91
-0.12906 -5.03492 1.15081 105 105 81
-0.14833 -5.04609 1.13622 102 105 91
-0.38879 -4.87724 1.22373 95 98 98
-0.37723 -4.86980 1.20259 89 95 90
-0.39213 -4.87881 1.20625 87 90 96
-0.40566 -4.87861 1.22813 125 121 119
-0.41970 -4.89097 1.23146 146 142 128
-0.43534 -4.89698 1.23540 143 128 101
-0.43791 -4.95597 1.23437 100 87 52
-0.44344 -5.00418 1.23442 69 60 44
-0.45133 -5.04370 1.23535 43 30 34
-0.47000 -5.05452 1.22122 23 20 17
-0.56389 -5.16193 1.26153 41 45 44
-0.54506 -5.15102 1.27579 16 14 15
-0.54851 -5.15264 1.25776 27 23 33
-0.56044 -5.16031 1.27956 22 17 17
-0.57582 -5.16961 1.28334 33 26 27
-0.57823 -5.17623 1.26489 56 60 56
2.48990 -3.00431 0.50278 121 96 56
2.50119 -2.99704 0.48214 121 98 69
2.48940 -3.02333 0.50229 105 81 34
2.49157 -3.06409 0.50040 106 82 54
2.49355 -3.08535 0.49919 122 97 64
2.48208 -3.09273 0.52015 126 98 65
2.47877 -3.09428 0.50282 127 97 63
2.44397 -3.12834 0.51095 110 91 62
2.45272 -3.15532 0.50776 86 63 52
2.45831 -3.18010 0.50547 58 49 44
2.39880 -3.15464 0.52207 68 63 54
2.39210 -3.16992 0.52336 99 92 89
2.38084 -3.18170 0.52596 106 99 96
2.39732 -3.21544 0.52050 118 114 118
2.40942 -3.24603 0.51631 144 141 131
2.41162 -3.29031 0.51429 179 180 180
2.40100 -3.30320 0.51669 190 192 196
2.38012 -3.30776 0.52208 194 193 196
2.34950 -3.32592 0.52961 192 194 194
2.33223 -3.33336 0.53395 192 187 172
2.32733 -3.35115 0.53467 189 180 151
2.31064 -3.38123 0.53813 190 187 187
2.29466 -3.38985 0.54208 169 166 155
2.32476 -3.43812 0.53255 113 102 98
1.85069 -3.15253 0.66744 135 130 118
1.18590 -3.15577 0.84357 148 153 160
1.19589 -3.14935 0.82532 153 160 173
1.20160 -3.19538 0.83813 79 78 104
1.19115 -3.20611 0.84055 34 37 76
1.17522 -3.21535 0.82849 29 36 70
1.15300 -3.23073 0.84987 38 41 72
1.16310 -3.22423 0.83141 31 39 73
1.15008 -3.23210 0.83461 33 38 73
1.13706 -3.23997 0.83781 35 36 75
1.13826 -3.32987 0.85057 37 41 76
1.14855 -3.32325 0.83178 34 33 71
1.14478 -3.36153 0.84782 58 66 85
1.13709 -3.37643 0.84938 72 80 95
1.12684 -3.38831 0.85171 68 76 94
1.11641 -3.40003 0.85410 73 82 95
1.10544 -3.41113 0.85665 84 90 110
1.08001 -3.45413 0.86200 92 100 112
1.09048 -3.44739 0.84287 89 99 117
1.07698 -3.45555 0.84619 96 103 122
1.07292 -3.47040 0.86336 86 87 94
1.07537 -3.49897 0.86179 61 54 63
1.06396 -3.51001 0.86445 34 41 51
1.05034 -3.51824 0.86780 36 40 63
1.04642 -3.56535 0.86732 44 46 74
1.06323 -3.55560 0.88004 40 45 75
1.06015 -3.55705 0.86394 38 42 69
1.05707 -3.55849 0.84785 33 44 71
1.04950 -3.56390 0.88342 41 47 77
1.04264 -3.58684 0.86762 54 57 83
1.03686 -3.60585 0.86854 55 66 91
1.01427 -3.62943 0.87377 65 75 98
1.01146 -3.65287 0.87376 46 54 85
1.00816 -3.67587 0.87389 26 28 55
0.99707 -3.68830 0.87643 16 20 54
0.99416 -3.71220 0.87643 57 66 81
0.98729 -3.73078 0.87765 90 100 101
0.98534 -3.75649 0.87733 84 99 112
0.97656 -3.77268 0.87914 77 89 111
0.97778 -3.80342 0.87782 81 90 113
0.97035 -3.82193 0.87920 85 99 110
0.95989 -3.83617 0.88151 86 98 108
0.92571 -3.87522 0.88931 83 91 104
0.91773 -3.89353 0.89083 64 73 94
0.92040 -3.92818 0.88901 40 42 67
0.90266 -3.93847 0.87558 25 29 52
0.91195 -3.94620 0.89066 27 27 51
0.89417 -3.95651 0.87720 24 24 50
0.88771 -3.97125 0.89628 27 34 69
0.88678 -4.03340 0.89452 127 144 160
0.86876 -4.04385 0.88088 138 145 157
0.85775 -4.08460 0.90056 135 138 134
0.86924 -4.07721 0.87957 138 144 151
0.87848 -4.15158 0.89291 98 95 83
0.87945 -4.18699 0.89150 29 19 12
0.87107 -4.20730 0.89307 23 25 27
0.85252 -4.21806 0.87903 31 34 37
0.86738 -4.23564 0.89313 29 31 28
0.84875 -4.24645 0.87903 36 35 40
0.87787 -4.35959 0.88635 31 33 40
0.89343 -4.35018 0.88253 31 32 29
0.87896 -4.39782 0.88483 40 42 51
0.87835 -4.43357 0.88383 55 59 63
0.87175 -4.45922 0.88475 70 76 82
0.86333 -4.48190 0.88625 82 90 99
0.85224 -4.50005 0.88861 101 107 105
0.83278 -4.51134 0.87388 118 120 117
0.84025 -4.51671 0.89125 109 117 110
0.82076 -4.52801 0.87650 114 120 116
0.72786 -4.66366 0.91630 115 117 116
0.70812 -4.67511 0.90135 122 122 116
0.57818 -4.61325 0.95760 122 123 116
0.59041 -4.60538 0.93526 111 117 115
0.57465 -4.61491 0.93913 121 126 119
0.56203 -4.62197 0.96160 107 99 102
0.54368 -4.62604 0.96634 117 128 126
0.28748 -4.76749 1.02969 116 121 114
0.29966 -4.75965 1.00742 111 113 105
0.26826 -4.77863 1.01514 122 123 121
0.27005 -4.77272 1.03414 122 126 125
0.25788 -4.78055 1.05638 122 124 130
0.25437 -4.78220 1.03799 123 128 130
0.25085 -4.78385 1.01960 123 124 126
-0.04162 -4.91160 1.11228 119 118 108
-0.02956 -4.90384 1.09022 118 115 114
-0.04511 -4.91324 1.09404 111 109 105
-0.07815 -4.91360 1.12189 113 109 106
-0.08163 -4.91523 1.10372 113 117 107
-0.09366 -4.92297 1.12570 105 104 96
-0.12059 -5.01484 1.12988 113 114 97
-0.12411 -5.01650 1.11147 117 119 108
-0.13982 -5.02599 1.11532 109 104 97
-0.40394 -4.89995 1.20870 97 99 103
-0.39234 -4.89249 1.18751 92 92 98
-0.42345 -4.89092 1.21416 123 124 115
-0.43435 -4.91593 1.21624 129 114 100
-0.43477 -4.98406 1.21416 93 81 53
-0.43460 -5.05632 1.21178 64 50 42
-0.44665 -5.07924 1.21423 39 27 24
-0.50122 -5.14675 1.22652 17 13 23
-0.48232 -5.13579 1.24083 12 17 11
-0.48578 -5.13741 1.22273 15 13 17
-0.49776 -5.14512 1.24462 11 14 12
-0.51320 -5.15446 1.24841 10 13 19
-0.51319 -5.17176 1.22888 21 18 35
-0.52521 -5.17950 1.25085 18 15 27
-0.52868 -5.18113 1.23269 37 34 52
-0.55120 -5.15779 1.23941 55 56 55
-0.56609 -5.16948 1.24298 67 73 67
-0.58494 -5.18041 1.22871 82 84 83
-0.57851 -5.19310 1.24551 74 80 77
-0.59741 -5.20406 1.23120 86 85 83
-0.59275 -5.20833 1.24879 79 80 73
2.50531 -3.01934 0.48024 123 97 60
2.51666 -3.01204 0.45951 121 97 67
2.50203 -3.02088 0.46310 124 95 66
2.50150 -3.03604 0.48067 115 91 45
2.51099 -3.06259 0.47719 95 71 45
2.49829 -3.09288 0.47950 113 90 63
2.47820 -3.11794 0.48398 111 87 51
2.52543 -3.17385 0.46938 84 66 36
2.54659 -3.21053 0.46242 46 42 35
2.52799 -3.22132 0.44834 18 12 13
2.51387 -3.20629 0.47131 31 20 27
2.49491 -3.21249 0.47616 26 16 23
2.47169 -3.21534 0.48226 37 34 47
2.41119 -3.18899 0.49935 99 103 109
2.44516 -3.23646 0.48859 144 144 129
2.43258 -3.24758 0.49155 164 164 160
2.43326 -3.26929 0.49060 183 183 174
2.41469 -3.28006 0.47655 195 196 200
2.42709 -3.28568 0.49167 192 193 191
2.41212 -3.29506 0.49533 194 196 200
2.39878 -3.30577 0.49851 195 197 203
2.38556 -3.31659 0.50166 196 193 188
2.37321 -3.32816 0.50455 196 186 153
2.36471 -3.34294 0.50629 193 177 120
2.36097 -3.36176 0.50662 189 167 99
2.34582 -3.37114 0.51033 189 163 84
2.31733 -3.39143 0.51722 192 190 193
2.30270 -3.40127 0.52078 187 187 179
2.30774 -3.42807 0.51848 143 133 133
2.31164 -3.45411 0.51651 85 82 77
1.84638 -3.15294 0.65147 111 109 106
1.84326 -3.15440 0.63515 75 78 88
1.84029 -3.16842 0.65255 150 134 120
1.82947 -3.17539 0.67233 152 133 120
1.82634 -3.17686 0.65597 153 132 123
1.82321 -3.17833 0.63961 152 133 119
1.55777 -3.35653 0.72131 162 144 139
1.57491 -3.34659 0.73428 159 138 130
1.57177 -3.34806 0.71787 160 138 128
1.56863 -3.34954 0.70146 161 138 124
1.56091 -3.35505 0.73772 166 153 147
1.54691 -3.36352 0.74116 160 157 161
1.19054 -3.16546 0.82617 154 158 164
1.20055 -3.15902 0.80787 154 159 173
1.19188 -3.21157 0.82418 42 44 73
1.14539 -3.34328 0.83191 45 48 74
1.12910 -3.35272 0.81958 57 63 78
1.14744 -3.36971 0.83042 58 68 84
1.13869 -3.38338 0.83227 60 68 86
1.13005 -3.39727 0.83409 58 65 86
1.11998 -3.40949 0.83634 67 75 93
1.10883 -3.42044 0.83893 79 89 105
1.10005 -3.43437 0.84078 85 94 114
1.07168 -3.47410 0.84694 105 111 116
1.06686 -3.49342 0.84754 95 99 88
1.06964 -3.52270 0.84576 67 69 58
1.06144 -3.53804 0.84741 42 45 69
1.04986 -3.57538 0.84917 51 56 81
1.04925 -3.60117 0.84842 63 77 103
1.03709 -3.61176 0.85129 67 74 103
1.02014 -3.62159 0.83846 47 38 82
1.02910 -3.62801 0.85285 55 58 90
1.01212 -3.63786 0.83999 41 43 78
1.02255 -3.64634 0.85394 45 42 86
1.00552 -3.65621 0.84105 31 36 72
1.01471 -3.66304 0.85544 32 36 72
0.99764 -3.67294 0.84252 32 32 65
1.00785 -3.68122 0.85663 28 31 58
0.99073 -3.69115 0.84368 27 30 57
1.00299 -3.70233 0.85718 21 24 52
0.98581 -3.71229 0.84418 25 31 61
0.99499 -3.71925 0.85871 43 50 65
0.99697 -3.75035 0.85708 54 57 75
0.98818 -3.76651 0.85885 53 60 84
0.99340 -3.80281 0.85617 54 55 89
0.98247 -3.81628 0.85861 59 67 101
0.97231 -3.83093 0.86080 67 79 101
0.96342 -3.84753 0.86258 72 83 102
0.95284 -3.86177 0.86490 76 89 106
0.93999 -3.87272 0.86795 76 87 107
0.92973 -3.88758 0.87016 73 84 101
0.92872 -3.91652 0.86940 53 57 86
0.92367 -3.93963 0.86992 33 34 65
0.90588 -3.94994 0.85646 25 28 52
0.88798 -3.97829 0.87808 23 26 58
0.89929 -3.97102 0.85742 23 24 49
0.90371 -4.03473 0.87187 57 73 104
0.89805 -4.05803 0.87256 121 138 157
0.87993 -4.06854 0.85884 137 146 157
0.86759 -4.10752 0.87893 137 143 139
0.87914 -4.10009 0.85783 138 144 153
0.87820 -4.15821 0.87430 109 113 93
0.88546 -4.20408 0.87073 37 33 21
0.86689 -4.21485 0.85667 31 33 48
0.87419 -4.21972 0.87318 29 28 41
0.85559 -4.23051 0.85911 31 39 41
0.87534 -4.32693 0.86906 38 37 36
0.88735 -4.31921 0.84712 38 40 44
0.87543 -4.36303 0.86776 41 40 46
0.87610 -4.40060 0.86624 52 51 62
0.87257 -4.43131 0.86609 66 71 77
0.86491 -4.45508 0.86730 82 88 90
0.85718 -4.47897 0.86851 94 105 103
0.84568 -4.49636 0.87096 116 118 110
0.82625 -4.50763 0.85625 120 121 117
0.70922 -4.55503 0.90532 121 127 123
0.70567 -4.55669 0.88678 119 128 123
0.68986 -4.56625 0.89067 115 123 113
0.54990 -4.60572 0.94607 117 111 107
0.56208 -4.59789 0.92382 123 126 119
0.54638 -4.60737 0.92767 116 118 115
0.53148 -4.60947 0.95085 128 135 128
0.51778 -4.62314 0.95403 126 129 117
0.50561 -4.63097 0.97627 119 128 124
0.49857 -4.63428 0.93949 110 113 104
0.50357 -4.63580 0.95737 117 126 112
0.49139 -4.64364 0.97963 122 133 115
0.48787 -4.64529 0.96123 123 130 116
0.28072 -4.76121 1.01243 115 117 112
0.26154 -4.77234 0.99790 124 124 123
-0.40378 -4.91525 1.18975 86 89 91
-0.39215 -4.90777 1.16850 92 92 97
-0.42213 -4.92589 1.17587 80 82 72
-0.41511 -4.93883 1.19194 89 90 90
-0.43351 -4.94950 1.17801 84 87 73
-0.42896 -4.95269 1.19515 97 95 85
-0.43389 -5.00309 1.19467 84 75 62
-0.43178 -5.08382 1.19124 63 47 48
-0.44746 -5.09192 1.19514 41 30 27
-0.46213 -5.10425 1.19862 28 20 26
-0.47408 -5.11193 1.22045 18 15 17
-0.47814 -5.11093 1.20266 28 18 24
-0.49088 -5.13185 1.20532 29 20 35
-0.50337 -5.15425 1.20785 36 35 49
-0.51953 -5.16041 1.21195 53 54 59
-0.53129 -5.18674 1.21416 70 70 70
-0.55027 -5.19774 1.19979 88 86 78
-0.55056 -5.17853 1.21959 80 81 69
-0.56947 -5.18950 1.20528 85 87 84
-0.56717 -5.18235 1.22390 82 84 76
-0.58606 -5.19330 1.20959 82 85 83
2.51506 -3.04986 0.45847 121 94 59
2.52648 -3.04251 0.43760 122 94 71
2.51176 -3.05141 0.44122 123 96 70
2.52219 -3.07478 0.45559 109 85 54
2.50927 -3.08512 0.45866 94 69 56
2.50180 -3.09951 0.46011 92 72 50
2.52003 -3.13319 0.45390 86 66 49
2.54829 -3.17474 0.44469 61 44 33
2.56685 -3.20936 0.43835 38 24 20
2.54820 -3.22016 0.42424 25 16 14
2.55588 -3.22181 0.44082 19 14 13
2.53722 -3.23263 0.42670 21 17 14
2.50430 -3.22395 0.45462 19 13 17
2.50090 -3.22554 0.43684 20 18 17
2.48349 -3.22873 0.46003 24 22 38
2.44423 -3.21902 0.47096 91 95 96
2.46532 -3.25658 0.46383 173 181 173
2.45182 -3.26710 0.46706 194 193 196
2.43321 -3.27789 0.45298 195 196 202
2.44522 -3.28315 0.46821 196 196 198
2.42658 -3.29396 0.45410 194 195 200
2.41692 -3.30330 0.47504 195 194 192
2.40324 -3.31378 0.47832 196 184 154
2.40648 -3.33812 0.47650 197 175 105
2.39977 -3.35447 0.47767 197 169 82
2.38223 -3.36191 0.48210 193 162 60
2.36280 -3.36777 0.48710 180 155 50
2.34558 -3.37544 0.49144 184 159 53
2.32357 -3.40128 0.49636 195 191 176
2.31218 -3.41395 0.49893 195 195 192
2.31586 -3.43967 0.49694 163 157 159
2.29703 -3.44605 0.50176 130 120 103
2.25951 -3.43605 0.51224 63 60 35
2.22547 -3.42886 0.52168 44 29 29
2.20679 -3.43969 0.50753 47 40 33
1.55973 -3.36332 0.70332 161 138 126
1.57061 -3.35632 0.68344 159 137 124
1.54875 -3.37499 0.70582 164 155 150
1.53157 -3.38495 0.69281 164 153 156
1.20279 -3.18362 0.80632 156 161 167
1.21286 -3.17715 0.78792 154 159 171
1.19988 -3.18499 0.79111 155 160 169
1.19375 -3.19586 0.80827 127 133 134
1.19357 -3.21814 0.80746 63 59 84
1.18773 -3.23419 0.80841 32 32 70
1.17464 -3.24210 0.81162 31 38 72
1.17171 -3.24348 0.79628 32 35 67
1.16043 -3.34221 0.81156 37 37 66
1.17674 -3.33275 0.82391 33 33 74
1.17376 -3.33416 0.80829 34 34 70
1.17077 -3.33556 0.79267 35 35 68
1.15279 -3.35705 0.81304 49 53 75
1.13964 -3.38957 0.81532 47 52 66
1.13663 -3.39099 0.79958 42 43 57
1.13108 -3.40360 0.81707 42 45 70
1.12240 -3.41756 0.81887 54 57 89
1.11276 -3.43042 0.82096 66 80 100
1.10463 -3.44523 0.82258 70 87 112
1.09536 -3.45872 0.82455 82 94 119
1.08346 -3.46896 0.82735 88 100 124
1.07194 -3.47972 0.83003 92 103 122
1.06717 -3.49915 0.83056 90 96 114
1.06446 -3.52141 0.83043 77 73 94
1.04775 -3.53110 0.81778 36 37 75
1.06574 -3.54905 0.82901 44 43 74
1.04894 -3.55879 0.81629 36 39 78
1.05949 -3.56714 0.82999 32 43 81
1.05257 -3.58448 0.83118 49 62 83
1.04592 -3.60232 0.83227 53 60 87
1.03769 -3.61817 0.83388 43 37 89
1.02072 -3.62801 0.82103 58 61 86
0.99851 -3.78721 0.83786 28 32 63
0.98107 -3.79732 0.82465 31 36 59
0.99545 -3.81185 0.83772 31 34 69
0.97793 -3.82200 0.82447 32 37 63
0.99625 -3.84231 0.83633 31 36 77
0.98530 -3.85602 0.83874 41 42 78
0.97536 -3.87128 0.84082 57 63 90
0.95631 -3.87318 0.84587 67 76 102
0.94763 -3.89042 0.84754 66 67 103
0.93601 -3.90338 0.85016 58 61 93
0.93661 -3.93489 0.84878 44 48 79
0.92725 -3.95157 0.85065 33 35 64
0.90941 -3.96192 0.83715 27 28 55
0.89753 -3.99983 0.85677 18 19 55
0.90889 -3.99252 0.83601 27 27 52
0.90343 -4.04103 0.85359 46 59 95
0.90508 -4.07601 0.85179 113 132 149
0.87198 -4.12163 0.85892 136 145 144
0.88356 -4.11418 0.83776 138 144 154
0.87242 -4.15585 0.85748 117 124 104
0.89165 -4.22152 0.84976 46 48 38
0.87396 -4.33213 0.85022 43 38 46
0.88598 -4.32440 0.82826 41 40 46
0.87259 -4.36580 0.84929 54 51 52
0.87628 -4.40867 0.84663 62 65 70
0.86068 -4.45553 0.84901 95 100 96
0.84773 -4.47014 0.85193 106 116 104
0.82837 -4.48136 0.83727 127 130 122
0.83511 -4.48544 0.85472 118 118 114
0.81573 -4.49668 0.84005 125 124 120
0.69635 -4.49918 0.89152 119 125 124
0.71200 -4.48972 0.88768 119 125 120
0.70849 -4.49137 0.86934 117 116 115
0.67719 -4.51029 0.87702 117 120 126
0.51824 -4.59065 0.93589 129 133 115
0.49914 -4.60173 0.92143 114 120 110
0.50341 -4.60172 0.93945 124 126 108
0.48430 -4.61280 0.92499 110 118 106
0.27691 -4.76213 0.99416 123 123 119
0.28907 -4.75431 0.97194 124 124 119
0.27340 -4.76378 0.97579 124 126 123
0.24617 -4.78258 1.00164 121 121 125
0.23049 -4.79206 1.00549 116 117 121
0.22697 -4.79371 0.98711 113 114 115
-0.43887 -4.99821 1.17756 82 79 71
-0.42711 -4.99065 1.15608 90 92 74
-0.44322 -5.05225 1.17664 73 62 61
-0.44495 -5.11867 1.17453 54 44 48
-0.46270 -5.11821 1.17932 45 39 45
-0.47272 -5.15102 1.18074 50 47 45
-0.49976 -5.18754 1.18660 66 67 74
-0.51880 -5.19858 1.17218 88 92 84
-0.51693 -5.18959 1.19114 81 84 79
-0.53595 -5.20062 1.17675 89 89 73
-0.53185 -5.20181 1.19468 92 89 77
-0.55088 -5.21285 1.18028 82 83 77
2.53774 -3.09019 0.43254 119 94 57
2.54928 -3.08277 0.41147 123 95 70
2.53441 -3.09176 0.41512 124 96 61
2.51972 -3.09685 0.43715 105 85 53
2.52957 -3.12420 0.43333 86 67 48
2.55537 -3.16372 0.42468 70 44 40
2.53690 -3.17443 0.41069 62 40 29
2.57384 -3.19813 0.41822 50 32 27
2.57014 -3.21605 0.41847 36 20 22
2.49150 -3.23920 0.43881 21 20 27
2.50328 -3.23162 0.41728 19 21 15
2.48809 -3.24080 0.42101 20 21 17
2.46142 -3.23671 0.44707 49 59 71
2.45625 -3.25372 0.44775 150 164 179
2.45099 -3.27075 0.44846 193 197 213
2.43238 -3.28155 0.43437 196 197 204
2.41988 -3.31006 0.45524 195 192 179
2.43172 -3.30244 0.43361 195 195 201
2.42368 -3.33481 0.45317 197 174 105
2.41162 -3.34676 0.45594 197 168 45
2.39574 -3.35560 0.45987 200 167 45
2.37654 -3.36167 0.46481 194 162 41
2.36300 -3.37242 0.46803 182 154 35
2.34867 -3.38253 0.47149 170 147 35
2.32413 -3.38401 0.47808 190 168 77
2.33620 -3.41660 0.47344 200 188 151
2.32613 -3.43050 0.47558 196 195 196
2.31861 -3.44666 0.47694 174 167 167
2.31131 -3.46311 0.47822 150 134 127
2.31514 -3.48939 0.47608 109 102 81
2.24018 -3.44644 0.49820 65 50 23
2.22141 -3.45732 0.48399 61 58 48
1.56268 -3.37115 0.68496 159 136 121
1.57358 -3.36414 0.66505 156 135 123
1.55953 -3.37263 0.66850 158 136 120
1.55473 -3.38606 0.68649 164 149 140
1.19410 -3.20088 0.79201 149 152 152
1.20419 -3.19439 0.77356 154 159 171
1.19790 -3.22768 0.78985 85 80 105
1.19269 -3.24454 0.79055 38 35 73
1.17532 -3.36478 0.79020 41 41 72
1.18572 -3.35809 0.77119 35 35 63
1.15890 -3.37430 0.77778 54 59 81
1.16323 -3.37447 0.79307 52 55 83
1.15398 -3.38760 0.79503 54 55 77
1.13753 -3.39714 0.78257 44 49 65
1.13087 -3.40843 0.80041 38 45 63
1.12565 -3.42667 0.80106 52 59 90
1.10912 -3.43625 0.78856 70 76 99
1.11759 -3.44155 0.80262 60 74 100
1.10103 -3.45115 0.79009 68 67 99
1.10930 -3.45626 0.80425 61 76 106
1.10040 -3.47028 0.80607 71 82 110
1.08656 -3.47815 0.80949 79 91 115
1.07999 -3.49525 0.81055 78 84 111
1.08168 -3.52310 0.80892 63 67 100
1.08074 -3.54783 0.80814 43 40 88
1.06392 -3.55759 0.79540 33 38 69
1.05505 -3.59329 0.81319 41 41 80
1.06577 -3.58639 0.79359 33 39 71
1.05195 -3.59475 0.79698 33 39 78
1.03812 -3.60310 0.80038 38 45 78
1.04763 -3.61018 0.81449 44 39 80
1.04118 -3.62848 0.81547 47 50 85
0.99524 -3.87674 0.81747 37 38 62
1.00648 -3.86951 0.79695 31 38 55
0.98329 -3.88921 0.82019 53 53 75
0.96234 -3.88841 0.82590 71 78 101
0.94901 -3.89883 0.82907 69 79 99
0.94618 -3.92507 0.82874 54 60 86
0.94173 -3.94913 0.82893 38 43 72
0.92388 -3.95948 0.81542 26 31 61
0.92994 -3.96221 0.83158 29 33 60
0.91206 -3.97258 0.81805 29 29 59
0.90642 -4.02042 0.83550 19 22 55
0.91784 -4.01307 0.81464 29 29 56
0.91813 -4.07099 0.83020 40 50 90
0.91492 -4.09852 0.82992 103 120 142
0.90139 -4.10980 0.83311 136 147 158
0.88309 -4.12041 0.81926 137 144 151
0.87706 -4.13694 0.83856 135 145 147
0.86302 -4.14753 0.84192 121 127 120
0.89046 -4.22680 0.83115 64 60 59
0.88204 -4.24739 0.83257 38 31 35
0.86676 -4.25663 0.83632 36 40 42
0.86556 -4.32532 0.83376 45 41 50
0.87755 -4.31761 0.81184 42 39 42
0.86863 -4.36663 0.83119 64 66 57
0.86737 -4.40095 0.83008 74 80 85
0.86331 -4.43076 0.82993 103 108 91
0.84404 -4.44193 0.81535 112 117 106
0.85136 -4.44696 0.83249 111 119 101
0.83206 -4.45815 0.81789 117 118 113
0.67988 -4.47606 0.87774 114 111 121
0.69195 -4.46829 0.85567 115 115 105
0.61971 -4.47782 0.89397 120 121 114
0.63518 -4.46847 0.89017 119 123 122
0.62318 -4.47619 0.91210 113 117 110
0.60771 -4.48554 0.91590 116 119 113
0.60424 -4.48717 0.89777 120 121 110
0.52969 -4.58148 0.91400 115 122 118
0.54529 -4.57205 0.91017 126 128 121
0.51178 -4.58605 0.91866 111 114 106
0.46417 -4.61244 0.93046 120 126 121
0.45208 -4.62021 0.95254 119 127 120
0.44859 -4.62186 0.93428 129 130 123
0.44510 -4.62350 0.91602 122 123 122
0.25658 -4.77041 0.98007 119 120 122
0.26873 -4.76259 0.95786 117 115 105
0.25307 -4.77206 0.96171 115 115 109
0.23741 -4.78153 0.96555 111 112 106
-0.12617 -4.91613 1.07766 111 114 97
-0.11074 -4.90679 1.07387 122 119 110
-0.12271 -4.91450 1.09576 105 110 101
-0.12963 -4.91775 1.05957 107 104 97
-0.13815 -4.92383 1.09955 109 112 96
-0.14161 -4.92546 1.08145 110 106 91
-0.20694 -5.01302 1.09548 103 105 96
-0.19138 -5.00361 1.09165 99 103 91
-0.19487 -5.00525 1.07341 99 105 99
-0.20345 -5.01138 1.11372 104 99 91
-0.21902 -5.02079 1.11754 101 96 87
-0.22207 -5.02395 1.09912 105 105 98
-0.23415 -5.03172 1.12119 99 98 84
-0.23932 -5.02740 1.10365 103 105 87
-0.25139 -5.03516 1.12569 97 100 93
-0.25488 -5.03680 1.10747 100 97 83
-0.25836 -5.03844 1.08924 103 99 79
-0.44081 -5.00578 1.15916 88 88 75
-0.42904 -4.99821 1.13765 94 97 78
-0.45002 -5.03980 1.16022 81 79 70
-0.46869 -5.05062 1.14610 87 86 73
-0.45902 -5.07546 1.16116 74 68 64
-0.46598 -5.12062 1.16115 69 66 64
-0.47156 -5.17285 1.16047 73 76 71
-0.49062 -5.18389 1.14604 92 97 88
-0.48410 -5.19562 1.16291 83 86 81
-0.50321 -5.20670 1.14845 90 95 93
-0.50193 -5.19510 1.16776 88 92 91
2.54338 -3.11838 0.41147 117 92 56
2.55498 -3.11091 0.39027 124 96 69
2.53690 -3.13373 0.41254 102 81 48
2.55777 -3.16964 0.40522 80 59 38
2.56418 -3.21572 0.40138 47 31 25
2.56330 -3.23591 0.40070 33 22 19
2.54801 -3.24516 0.40446 22 19 16
2.54458 -3.24677 0.38653 28 20 18
2.49328 -3.26596 0.41845 23 29 42
2.50512 -3.25834 0.39682 23 23 17
2.47692 -3.27432 0.42254 96 104 134
2.45893 -3.28137 0.42713 177 191 207
2.43273 -3.32485 0.43231 196 194 184
2.44461 -3.31720 0.41059 196 196 205
2.42501 -3.34031 0.43372 199 181 114
2.40952 -3.34948 0.43753 196 170 36
2.39521 -3.35962 0.44098 196 163 41
2.37642 -3.37052 0.42675 181 152 31
2.37667 -3.36625 0.44574 187 157 36
2.35790 -3.37714 0.43152 186 155 29
2.36287 -3.37681 0.44903 184 153 24
2.34581 -3.38464 0.45333 163 141 18
2.33301 -3.39607 0.45631 179 156 72
2.34090 -3.42519 0.45283 196 190 162
2.32200 -3.43615 0.43853 172 168 176
2.33126 -3.43951 0.45482 184 177 188
2.31809 -3.45084 0.45790 179 178 167
2.32041 -3.47569 0.45614 154 142 142
2.29768 -3.47878 0.46220 145 140 127
2.28599 -3.49153 0.46482 98 87 71
1.56307 -3.39963 0.66631 161 140 131
1.57403 -3.39258 0.64628 157 136 118
1.55492 -3.41451 0.66786 165 153 154
1.54394 -3.42157 0.68792 154 150 158
1.54076 -3.42306 0.67133 158 151 160
1.53759 -3.42455 0.65474 162 153 161
1.20186 -3.21421 0.77330 156 159 165
1.21199 -3.20770 0.75479 153 160 171
1.19371 -3.22764 0.77492 112 112 129
1.20465 -3.26285 0.77034 53 46 75
1.19622 -3.27627 0.77203 33 30 57
1.18597 -3.28286 0.79076 34 37 72
1.18300 -3.28425 0.77528 32 36 68
1.18004 -3.28565 0.75979 31 35 65
1.17742 -3.37225 0.77281 47 46 72
1.15653 -3.39570 0.77745 49 54 72
1.14010 -3.42480 0.78062 49 55 72
1.13294 -3.44078 0.78185 62 67 90
1.11636 -3.45040 0.76930 76 83 103
1.10914 -3.48650 0.78628 62 61 95
1.09949 -3.49979 0.78831 66 71 98
1.09110 -3.51474 0.78992 64 71 100
1.08906 -3.56403 0.78824 38 37 73
1.07217 -3.57383 0.77545 26 33 59
1.05042 -3.64654 0.79505 39 54 75
1.06125 -3.63957 0.77526 28 38 71
1.04729 -3.64801 0.77869 29 38 67
1.03333 -3.65645 0.78212 32 35 77
1.04686 -3.66905 0.79501 39 40 81
1.03285 -3.67752 0.79845 27 36 62
0.99755 -3.88637 0.79862 32 40 55
1.00881 -3.87913 0.77805 33 40 52
0.98657 -3.90034 0.80098 49 52 68
0.97036 -3.90662 0.80512 67 73 87
0.95875 -3.91975 0.80770 63 69 89
0.95107 -3.93887 0.80893 45 48 78
0.93323 -3.94922 0.79542 28 29 60
0.94324 -3.95792 0.81020 30 36 66
0.92535 -3.96829 0.79666 27 29 61
0.91423 -4.03938 0.81443 20 24 58
0.92570 -4.03201 0.79347 28 30 59
0.91092 -4.04094 0.79710 22 28 62
0.91158 -4.06748 0.81388 33 42 83
0.92206 -4.11679 0.80879 90 103 130
0.90857 -4.12827 0.81195 133 145 155
0.89019 -4.13893 0.79804 137 145 149
0.88358 -4.15462 0.81758 134 144 149
0.88021 -4.15621 0.79995 132 143 149
0.86794 -4.16273 0.82148 126 132 128
0.87345 -4.20587 0.81802 80 72 67
0.87621 -4.27994 0.81391 31 39 40
0.85791 -4.31979 0.81710 50 43 50
0.87388 -4.38338 0.80986 81 85 82
0.86467 -4.40400 0.81144 95 104 95
0.84549 -4.41512 0.79692 117 126 115
0.85345 -4.42130 0.81372 106 115 103
0.83424 -4.43244 0.79917 117 114 115
0.67574 -4.47646 0.85973 115 118 107
0.67226 -4.47810 0.84149 120 124 110
0.65637 -4.47850 0.86492 121 126 120
0.63736 -4.48953 0.85053 131 137 126
0.63834 -4.48302 0.86964 124 126 127
0.61935 -4.49403 0.85526 129 135 124
0.61901 -4.48490 0.87483 125 128 128
0.60005 -4.49589 0.86048 132 139 124
0.60048 -4.48822 0.87974 127 132 123
0.58848 -4.49594 0.90167 120 120 112
0.58500 -4.49755 0.88354 129 127 116
0.57300 -4.50527 0.90547 122 125 118
0.56953 -4.50690 0.88734 127 129 119
0.53785 -4.56552 0.89333 118 129 129
0.55692 -4.55446 0.90776 123 127 117
0.55342 -4.55610 0.88951 121 121 118
0.54993 -4.55775 0.87125 112 119 105
0.52080 -4.57184 0.89770 122 132 133
0.50472 -4.58015 0.90171 116 116 108
0.48663 -4.58415 0.90647 115 118 101
0.46983 -4.59084 0.91075 110 108 94
0.45082 -4.60186 0.89636 123 124 126
0.45356 -4.59861 0.91484 118 123 126
0.28695 -4.61934 0.95938 110 117 107
0.30569 -4.60847 0.97357 118 114 113
0.30226 -4.61008 0.95562 117 123 112
0.29038 -4.61773 0.97733 122 118 113
0.27507 -4.62698 0.98109 119 123 112
0.27163 -4.62860 0.96314 109 114 107
-0.15156 -4.90600 1.06608 113 104 91
-0.13963 -4.89832 1.04429 110 108 102
-0.16348 -4.91367 1.08788 111 110 107
-0.17037 -4.91691 1.05184 113 113 107
-0.16772 -4.91267 1.07019 114 116 112
-0.18308 -4.92196 1.07397 121 119 106
-0.21271 -5.00677 1.07821 106 113 100
-0.20066 -4.99901 1.05618 108 107 103
-0.21620 -5.00840 1.06000 112 113 103
-0.23174 -5.01780 1.06381 118 118 107
-0.22775 -5.01792 1.08181 112 116 106
-0.24493 -5.02150 1.08634 108 112 88
-0.44609 -4.99963 1.14224 92 93 80
-0.43434 -4.99207 1.12076 96 98 84
-0.44949 -5.00122 1.12448 93 96 86
-0.45403 -5.03894 1.14262 87 87 76
-0.47268 -5.04976 1.12850 90 91 81
-0.47197 -5.11134 1.14424 85 84 77
