ply
format ascii 1.0
element face 0
property list uchar int vertex_indices
element vertex 1355
property float x
property float y
property float z
property uchar diffuse_red
property uchar diffuse_green
property uchar diffuse_blue
end_header
0.85449 -3.69722 1.16666 22 24 51
0.85988 -3.69537 1.17868 33 30 56
0.85011 -3.70188 1.18425 21 22 45
0.84188 -3.71398 1.18998 47 58 71
0.83332 -3.72496 1.19569 98 114 116
0.81849 -3.73463 1.18926 117 128 132
0.79322 -3.74716 1.21784 99 114 120
0.77841 -3.75681 1.21142 60 60 73
0.78796 -3.77121 1.22407 73 77 87
0.77309 -3.78091 1.21762 49 44 44
0.83850 -4.32309 1.28738 62 68 49
0.83252 -4.32571 1.27374 60 58 58
0.82900 -4.33715 1.29402 77 78 47
0.81795 -4.34462 1.30033 75 71 54
0.80726 -4.35363 1.30672 73 68 56
0.75055 -4.50524 1.35695 59 61 35
0.74443 -4.50792 1.34301 56 51 30
0.73336 -4.51645 1.34950 58 52 37
0.72540 -4.63759 1.38948 47 51 37
0.73047 -4.63163 1.36860 40 42 33
0.71915 -4.64034 1.37523 43 46 39
0.70784 -4.64904 1.38186 47 52 45
0.71604 -4.65648 1.39680 56 60 51
0.69844 -4.66795 1.38917 41 45 47
0.70420 -4.66258 1.40327 57 57 54
0.69287 -4.67131 1.40991 49 47 39
0.68662 -4.67405 1.39564 42 44 49
0.69428 -5.05096 1.46898 54 57 54
0.71312 -5.03868 1.47715 45 49 38
0.70642 -5.04162 1.46187 49 54 50
0.69972 -5.04456 1.44658 56 60 61
0.70098 -5.04802 1.48427 49 50 42
0.68884 -5.05736 1.49139 52 53 46
0.67592 -5.02372 1.47324 57 61 58
0.67052 -5.03008 1.49548 51 55 51
0.66215 -5.02273 1.47949 59 63 61
0.64752 -5.01617 1.48526 61 69 58
0.63587 -5.02750 1.49246 67 71 55
0.61726 -5.03964 1.48439 82 86 73
0.62618 -5.05120 1.50069 75 79 65
0.62079 -5.05754 1.52289 78 81 71
0.61416 -5.06046 1.50775 80 88 77
0.60752 -5.06337 1.49260 83 89 84
1.83411 -1.04940 0.30065 80 80 95
1.83659 -1.04649 0.29045 78 80 80
1.82885 -1.05380 0.30379 106 101 104
1.83494 -1.06425 0.30255 130 130 137
1.82286 -1.07228 0.30944 134 124 117
1.85549 -1.09733 0.29804 110 58 67
1.85430 -1.10413 0.29964 97 30 45
1.84844 -1.10840 0.30304 102 40 46
1.86281 -1.12389 0.29870 137 129 132
1.88430 -1.14351 0.29168 172 209 224
1.87529 -1.14939 0.28777 103 92 111
1.89079 -1.15489 0.29040 187 217 235
1.88494 -1.15939 0.29382 208 226 233
2.78812 -2.41712 0.06517 21 36 111
2.80361 -2.40702 0.07189 33 43 125
2.79810 -2.40944 0.05932 29 41 120
2.79260 -2.41186 0.04675 30 39 116
2.78262 -2.41954 0.05260 16 34 117
2.76266 -2.41205 0.07630 60 79 127
2.75439 -2.42107 0.08155 64 74 136
2.73898 -2.43112 0.07487 32 38 129
2.74415 -2.42845 0.08748 38 27 140
2.72874 -2.43850 0.08080 28 44 125
2.71813 -2.43853 0.10120 32 45 125
2.70275 -2.44856 0.09453 15 29 120
2.70591 -2.44420 0.10779 21 32 121
2.69055 -2.45422 0.10112 22 28 118
2.62936 -2.55759 0.16106 30 27 94
2.63937 -2.54988 0.15519 32 23 91
2.63488 -2.55517 0.17367 25 33 118
2.62487 -2.56288 0.17955 23 31 109
2.61934 -2.56530 0.16693 27 30 96
2.61381 -2.56773 0.15432 29 30 78
2.61673 -2.61418 0.17568 21 33 117
2.62127 -2.60884 0.15701 27 27 107
2.60104 -2.62441 0.16887 29 46 140
2.52475 -2.70123 0.23211 28 41 115
2.52930 -2.69588 0.21337 33 48 150
2.64405 -2.93607 0.21248 71 55 21
2.64891 -2.93035 0.19247 59 44 19
2.63807 -2.93869 0.19883 66 49 21
2.62723 -2.94704 0.20519 72 53 28
2.64604 -3.34122 0.27396 108 90 30
2.65129 -3.33505 0.25236 106 90 43
2.64045 -3.35752 0.27909 55 41 34
2.60439 -3.33730 0.29284 20 9 20
2.56567 -3.33635 0.31080 28 24 25
2.54536 -3.33452 0.32002 37 35 24
2.52702 -3.33497 0.32866 43 35 26
2.50677 -3.33293 0.33782 45 39 32
2.50006 -3.34769 0.34323 70 76 76
2.49387 -3.36320 0.34852 107 113 118
2.46479 -3.34973 0.36004 160 171 172
2.45626 -3.36223 0.36595 185 193 190
2.43851 -3.37380 0.35826 190 194 194
2.43528 -3.38229 0.37886 189 194 179
2.41152 -3.37503 0.38885 183 176 124
2.39277 -3.37412 0.39748 173 149 45
2.37514 -3.38561 0.38983 183 159 9
2.33511 -3.39256 0.42729 147 127 32
2.32750 -3.40629 0.43296 157 145 83
2.32015 -3.42046 0.43858 174 175 158
2.30255 -3.43193 0.43095 154 147 142
2.31648 -3.43979 0.44327 160 150 147
2.29767 -3.43820 0.45182 167 173 157
2.30411 -3.47183 0.45400 156 140 116
2.29217 -3.47990 0.46082 122 106 86
2.28653 -3.49690 0.46608 34 14 9
2.26291 -3.51348 0.47968 45 40 15
2.24754 -3.51659 0.48734 50 41 32
2.19985 -3.49756 0.50672 44 45 39
2.19361 -3.50030 0.49248 47 48 45
2.17186 -3.48150 0.51733 52 54 46
2.15184 -3.47700 0.52600 60 61 55
2.13449 -3.48832 0.51847 70 72 68
2.13316 -3.47433 0.53433 67 69 65
2.11586 -3.48561 0.52682 74 77 65
1.82147 -3.11738 0.62511 64 60 53
1.80613 -3.12738 0.61846 31 27 31
1.79307 -3.11891 0.63863 56 57 47
1.80506 -3.16135 0.63956 123 121 90
1.78961 -3.17142 0.63286 144 126 104
1.57920 -3.31676 0.76913 151 136 115
1.58364 -3.31153 0.75083 146 127 107
1.56465 -3.31557 0.77575 169 166 153
1.54931 -3.32557 0.76909 184 186 176
1.55560 -3.32478 0.78140 185 184 177
1.54025 -3.33479 0.77474 182 185 176
1.53539 -3.33917 0.79307 179 180 178
1.51802 -3.33207 0.80009 154 162 165
1.50023 -3.32388 0.80715 126 139 158
1.49584 -3.32905 0.82524 122 136 154
1.49043 -3.33142 0.81290 118 135 162
1.17940 -2.99449 0.90646 125 126 127
1.18325 -2.98996 0.89063 126 143 144
1.17446 -3.00919 0.91103 114 71 87
1.16686 -3.01805 0.91596 118 91 104
1.16026 -3.02925 0.92076 124 105 113
1.14689 -3.03797 0.91496 135 144 143
1.16729 -3.07167 0.92401 130 126 120
1.15376 -3.08050 0.91814 135 143 145
1.16547 -3.09430 0.92835 131 140 130
1.15187 -3.10317 0.92245 135 143 140
1.15548 -3.09821 0.93362 132 132 126
1.14189 -3.10707 0.92773 135 144 138
1.14908 -3.11047 0.93851 132 127 120
1.13546 -3.11935 0.93260 136 142 139
1.14091 -3.11866 0.94359 134 133 130
1.13271 -3.12679 0.94868 135 143 135
1.11263 -3.16246 0.96356 132 141 140
1.10901 -3.18214 0.96828 127 139 137
1.10305 -3.19620 0.97324 121 133 132
1.09698 -3.21014 0.97822 113 123 122
1.09247 -3.22816 0.98311 102 111 117
1.08989 -3.25134 0.98788 87 94 119
1.08948 -3.28044 0.99256 72 77 114
1.08588 -3.30162 0.99751 60 68 97
1.07848 -3.31303 1.00272 48 56 86
1.06438 -3.32222 0.99661 30 32 68
1.07031 -3.32246 1.00800 37 39 81
1.05619 -3.33167 1.00188 29 31 67
1.06209 -3.33182 1.01328 29 31 79
1.05433 -3.34247 1.01855 25 27 74
1.04579 -3.35105 1.02387 28 28 67
1.03197 -3.37740 1.03439 36 31 62
1.02466 -3.38963 1.03970 40 36 66
1.01044 -3.39891 1.03353 77 90 93
1.01932 -3.40758 1.04496 42 41 74
1.01328 -3.42372 1.05027 48 52 82
1.00525 -3.43428 1.05565 60 71 86
1.00096 -3.45586 1.06098 73 89 90
0.99281 -3.46630 1.06640 82 86 93
0.98676 -3.48306 1.07181 83 87 100
0.97763 -3.49074 1.07726 89 98 106
0.97043 -3.50430 1.08272 94 100 98
0.95597 -3.51373 1.07645 83 87 100
0.96477 -3.52278 1.08821 94 97 95
0.95749 -3.53642 1.09372 97 102 101
0.94296 -3.54589 1.08741 95 104 113
0.93870 -3.58793 1.11044 83 84 83
0.92435 -3.57926 1.11582 65 61 64
0.91899 -3.59977 1.12148 48 39 51
0.91476 -3.60474 1.13890 27 27 55
0.91274 -3.61761 1.12715 33 26 48
0.90850 -3.62260 1.14462 25 28 55
0.90328 -3.62490 1.13270 25 23 52
0.84713 -3.71245 1.17245 26 31 49
0.84585 -3.75015 1.17885 68 84 90
0.83087 -3.73776 1.18395 112 128 129
0.81600 -3.74746 1.17750 120 129 136
0.80241 -3.76102 1.20084 111 124 130
0.81200 -3.75364 1.19522 113 125 133
0.80671 -3.75596 1.18315 117 129 135
0.79343 -3.77072 1.20654 90 101 113
0.77854 -3.78043 1.20008 46 46 49
0.85628 -4.31777 1.26141 43 43 38
0.87312 -4.30678 1.26871 50 45 44
0.86714 -4.30941 1.25505 44 41 33
0.86115 -4.31204 1.24138 46 43 42
0.86227 -4.31514 1.27508 41 43 40
0.84590 -4.32813 1.26786 48 51 53
0.82467 -4.34694 1.28069 74 72 56
0.81493 -4.36025 1.28729 83 81 60
0.79805 -4.37126 1.27997 92 93 83
0.80405 -4.36863 1.29367 79 75 66
0.79436 -4.38234 1.30031 68 67 56
0.78948 -4.38808 1.32041 64 62 55
0.78347 -4.39072 1.30670 64 63 49
0.77693 -4.41921 1.31415 61 61 60
0.77089 -4.42186 1.30037 55 54 50
0.77203 -4.42498 1.33434 67 71 74
0.76905 -4.44198 1.32134 69 67 75
0.75202 -4.45309 1.31395 57 56 57
0.76010 -4.46004 1.32831 83 72 82
0.74303 -4.47117 1.32090 59 56 50
0.68110 -5.01607 1.45090 62 66 62
0.68650 -5.00972 1.42867 66 68 70
0.66538 -5.00360 1.45633 66 69 67
0.65123 -4.99981 1.46237 70 70 78
0.63266 -5.01192 1.45432 86 89 84
0.63821 -5.00260 1.46888 75 79 78
0.61967 -5.01470 1.46084 87 89 78
0.62727 -5.01804 1.47638 81 84 73
0.60870 -5.03015 1.46833 86 84 79
1.83095 -1.05069 0.29373 75 83 94
1.82474 -1.05457 0.29724 109 111 121
1.82239 -1.06052 0.29924 135 137 147
1.81879 -1.06582 0.30173 142 144 149
1.82149 -1.07455 0.30178 126 106 111
1.85206 -1.09853 0.29102 104 46 53
1.84328 -1.10426 0.28721 97 24 27
1.84581 -1.10257 0.29457 98 28 36
1.84117 -1.10749 0.29749 85 21 29
1.83158 -1.10966 0.30233 77 78 70
1.86768 -1.13740 0.28954 81 108 131
1.85873 -1.14324 0.28565 235 229 205
1.88111 -1.16829 0.28788 164 141 158
1.87848 -1.17138 0.29869 243 246 252
1.87202 -1.17421 0.28394 83 98 123
1.88053 -1.17583 0.28929 178 185 224
1.87789 -1.17893 0.30013 249 251 254
1.87465 -1.18035 0.29273 206 221 242
2.76530 -2.42116 0.06099 33 43 125
2.76976 -2.41591 0.04262 20 29 118
2.75981 -2.42357 0.04846 24 32 123
2.74986 -2.43123 0.05429 28 34 122
2.75350 -2.42728 0.06746 36 41 129
2.73806 -2.43735 0.06077 28 40 119
2.66250 -2.46229 0.11553 16 24 117
2.67238 -2.45469 0.10974 19 28 118
2.66795 -2.45990 0.12796 16 26 118
2.65706 -2.46468 0.10309 16 19 99
2.65808 -2.46750 0.13375 21 26 110
2.65321 -2.47039 0.12112 22 21 98
2.64878 -2.47560 0.13934 20 26 101
2.64333 -2.47799 0.12691 20 20 89
2.64122 -2.50894 0.13257 19 22 100
2.65664 -2.49888 0.13926 18 24 92
2.65115 -2.50129 0.12674 17 21 84
2.64670 -2.50653 0.14508 20 21 98
2.63676 -2.51418 0.15091 22 23 106
2.63232 -2.51752 0.13805 22 24 99
2.62786 -2.52276 0.15639 27 23 98
2.62804 -2.53029 0.14198 29 19 82
2.62692 -2.54600 0.14488 57 36 58
2.62432 -2.56047 0.14828 41 33 67
2.60782 -2.61349 0.16403 27 36 126
2.59214 -2.62371 0.15723 30 44 142
2.52001 -2.70455 0.21905 28 42 130
2.52456 -2.69920 0.20031 35 47 156
2.64420 -3.34955 0.25788 109 91 35
2.64946 -3.34337 0.23625 106 90 53
2.64071 -3.36843 0.26237 68 57 37
2.60517 -3.34880 0.27612 24 11 12
2.58788 -3.35093 0.28457 19 17 21
2.56964 -3.35180 0.29328 32 28 33
2.55269 -3.35416 0.30161 42 41 39
2.53268 -3.35263 0.31079 49 43 45
2.51315 -3.35156 0.31981 56 49 53
2.53584 -3.40340 0.31695 80 86 89
2.51004 -3.39448 0.32774 109 114 119
2.46919 -3.36613 0.34267 160 172 172
2.45840 -3.37584 0.34921 188 197 196
2.44059 -3.38745 0.34149 191 195 192
2.43650 -3.39487 0.36238 188 193 184
2.41981 -3.39688 0.37053 186 178 137
2.38789 -3.37870 0.38280 183 160 53
2.34635 -3.39491 0.40477 176 153 8
2.36394 -3.38345 0.41240 179 159 13
2.35768 -3.38619 0.39813 185 163 10
2.33102 -3.39821 0.41248 155 130 21
2.32154 -3.40943 0.41863 160 143 76
2.31780 -3.42858 0.42327 173 173 147
2.29400 -3.44456 0.43687 168 178 159
2.28774 -3.44731 0.42257 173 187 168
2.29611 -3.47222 0.44005 157 143 116
2.29432 -3.49463 0.44427 128 122 101
2.29159 -3.51590 0.44876 66 55 36
2.27022 -3.51057 0.45801 41 25 14
2.25677 -3.51650 0.46522 50 37 20
2.24015 -3.51777 0.47323 63 64 43
2.22012 -3.51392 0.48207 49 45 42
2.20246 -3.52543 0.47441 49 50 47
2.16667 -3.48572 0.50295 55 56 50
2.14924 -3.49709 0.49539 66 66 62
2.14592 -3.48009 0.51186 63 63 60
2.12856 -3.49141 0.50433 72 72 67
1.82417 -3.13255 0.61076 63 58 53
1.80877 -3.14260 0.60407 29 27 34
1.79713 -3.13639 0.62405 57 60 46
1.80183 -3.16739 0.62651 127 123 93
1.78637 -3.17747 0.61981 145 124 97
1.58033 -3.33170 0.75543 151 140 124
1.56415 -3.32743 0.76240 172 171 159
1.54876 -3.33747 0.75572 184 185 178
1.53448 -3.35047 0.77982 179 181 175
1.52901 -3.35287 0.76733 164 169 165
1.51909 -3.36050 0.77315 165 170 164
1.52024 -3.34955 0.78638 171 173 169
1.49915 -3.33486 0.79408 147 153 163
1.47357 -3.31079 0.80248 120 136 160
1.46921 -3.31593 0.82044 117 137 164
1.46384 -3.31828 0.80818 112 135 160
1.45847 -3.32064 0.79593 115 135 165
1.18430 -3.01794 0.89435 128 141 139
1.18817 -3.01338 0.87840 129 145 144
1.17954 -3.02003 0.88347 131 144 142
1.17090 -3.02668 0.88853 133 145 142
1.18254 -3.03998 0.89850 127 130 128
1.16907 -3.04877 0.89265 134 146 143
1.17813 -3.05630 0.90303 129 136 134
1.16461 -3.06511 0.89717 136 145 144
1.17882 -3.08440 0.90695 133 145 139
1.16521 -3.09328 0.90104 139 142 141
1.13139 -3.13739 0.93723 131 141 141
1.12191 -3.14254 0.94247 123 135 133
1.11684 -3.15842 0.94725 115 125 124
1.11086 -3.17224 0.95214 100 115 121
1.11530 -3.21208 0.95606 86 98 115
1.10922 -3.22615 0.96104 73 77 113
1.10076 -3.23430 0.96624 59 67 95
1.09899 -3.25958 0.97089 44 53 81
1.08501 -3.26870 0.96482 28 34 62
1.09376 -3.27627 0.97586 31 38 78
1.07973 -3.28541 0.96978 28 35 63
1.08806 -3.29191 0.98090 23 29 75
1.07399 -3.30108 0.97480 29 34 62
1.08317 -3.30986 0.98590 21 30 70
1.06906 -3.31906 0.97978 26 33 65
1.07624 -3.32260 0.99108 25 32 70
1.05032 -3.34744 1.00702 28 31 69
1.04240 -3.35779 1.01230 37 36 70
1.02824 -3.36702 1.00616 85 97 98
1.03662 -3.37412 1.01748 46 42 80
1.03207 -3.39408 1.02263 56 63 97
1.02370 -3.40348 1.02798 70 86 103
1.00917 -3.42879 1.03863 75 81 75
1.00184 -3.44140 1.04398 69 76 74
0.99513 -3.45599 1.04933 65 73 78
0.99099 -3.47834 1.05465 59 59 70
0.98359 -3.49121 1.06007 57 53 71
0.97363 -3.49644 1.06554 64 69 90
0.96803 -3.51498 1.07097 78 85 100
0.95456 -3.54570 1.08193 88 97 104
0.94939 -3.54797 1.07011 86 93 101
0.94000 -3.55519 1.07561 96 104 115
0.93738 -3.60281 1.09862 98 100 105
0.94163 -3.59782 1.08113 99 107 114
0.93215 -3.60511 1.08668 102 110 111
0.92268 -3.61240 1.09224 107 113 115
0.93084 -3.61970 1.10424 99 99 103
0.92596 -3.64225 1.10993 95 92 91
0.91215 -3.63535 1.11539 69 56 55
0.90535 -3.65179 1.12106 39 28 45
0.90108 -3.65681 1.13865 30 28 53
0.89582 -3.65912 1.12665 34 29 53
0.85382 -3.71609 1.15498 16 23 51
0.86340 -3.70871 1.14937 30 34 50
0.84315 -3.71948 1.16051 44 51 72
0.83887 -3.74634 1.16658 97 109 115
0.82394 -3.75607 1.16010 126 132 140
0.82868 -3.75164 1.17216 121 132 139
0.81376 -3.76136 1.16569 121 130 137
0.79998 -3.77435 1.18909 109 120 126
0.78505 -3.78408 1.18261 61 51 58
0.79314 -3.79261 1.19505 77 79 86
0.77817 -3.80236 1.18856 40 33 33
0.85199 -4.32755 1.24802 49 47 53
0.85687 -4.32182 1.22795 61 60 54
0.84600 -4.33019 1.23433 63 66 66
0.84187 -4.33911 1.25452 52 55 58
0.82499 -4.35012 1.24720 51 48 54
0.83099 -4.34747 1.26090 58 62 58
0.82105 -4.35996 1.26745 72 77 64
0.80937 -4.36485 1.27368 88 92 75
0.79032 -4.39392 1.28702 77 78 64
0.78235 -4.41581 1.29407 63 59 45
0.76536 -4.42688 1.28670 45 50 44
0.76494 -4.45385 1.30799 54 53 54
0.75887 -4.45651 1.29414 51 52 47
0.74788 -4.46498 1.30059 55 51 48
0.66963 -4.99062 1.43372 75 80 70
0.65529 -4.98571 1.43973 79 81 78
0.63675 -4.99780 1.43169 92 92 90
0.64253 -4.98998 1.44637 83 84 83
0.62401 -5.00206 1.43833 90 90 88
0.59986 -5.05967 1.47693 84 90 90
0.59448 -5.06601 1.49910 90 94 91
0.58122 -5.07183 1.46885 89 99 96
1.83524 -1.04158 0.28177 91 91 90
1.84380 -1.03600 0.28548 77 81 85
1.84076 -1.03733 0.27853 84 85 91
1.83771 -1.03867 0.27159 125 126 121
1.83829 -1.04024 0.28871 82 81 87
1.82917 -1.04554 0.28522 95 99 93
1.82366 -1.04978 0.28845 91 96 101
1.81463 -1.05215 0.29307 115 117 126
1.80609 -1.05772 0.28936 137 143 145
1.81561 -1.05987 0.29374 136 138 153
1.81215 -1.06523 0.29617 142 142 148
1.81917 -1.07630 0.29448 121 96 104
1.84827 -1.09954 0.28415 98 37 41
1.83576 -1.10759 0.29126 86 20 41
1.86047 -1.12889 0.28272 147 120 128
1.87646 -1.14552 0.27761 229 222 207
1.86737 -1.15589 0.28343 204 202 188
1.85815 -1.15840 0.28816 141 154 170
1.84915 -1.16427 0.28426 169 156 130
1.85622 -1.20480 0.29591 192 189 197
1.84707 -1.21077 0.29195 192 176 165
1.86652 -1.21906 0.29315 211 200 199
1.86385 -1.22219 0.30412 230 231 239
1.85729 -1.22507 0.28915 194 176 166
2.66637 -2.45660 0.09750 16 25 106
2.67624 -2.44900 0.09171 21 31 122
2.66092 -2.45899 0.08507 15 16 88
2.64739 -2.47246 0.10881 22 17 87
2.64177 -2.48382 0.11314 23 26 96
2.64035 -2.49897 0.11605 20 26 104
2.63331 -2.50918 0.12088 25 31 120
2.62663 -2.51974 0.12560 40 45 127
2.62139 -2.53166 0.12983 57 63 100
2.60594 -2.54173 0.12313 156 149 71
2.62045 -2.54755 0.13262 125 126 49
2.62195 -2.56580 0.13460 84 91 46
2.61781 -2.57896 0.13850 53 41 45
2.61330 -2.58426 0.15705 30 29 92
2.60775 -2.58670 0.14439 39 29 71
2.60637 -2.60256 0.14739 32 27 94
2.59949 -2.61334 0.15223 30 37 126
2.52021 -2.71287 0.20438 34 45 138
2.52477 -2.70750 0.18560 32 48 154
2.52374 -2.73461 0.20592 28 36 98
2.52993 -2.75925 0.20663 24 25 62
2.52532 -2.76468 0.22562 38 30 29
2.51964 -2.76717 0.21266 30 27 38
2.51396 -2.76966 0.19970 23 23 47
2.63053 -3.34379 0.24526 111 94 58
2.63577 -3.33763 0.22368 108 87 50
2.62433 -3.35938 0.25049 68 64 36
2.61066 -3.36604 0.25793 39 18 21
2.59266 -3.36739 0.26664 32 22 25
2.57998 -3.37515 0.27378 43 38 44
2.56221 -3.37662 0.28239 56 57 59
2.54098 -3.37367 0.29200 66 65 65
2.55482 -3.41448 0.29147 83 77 79
2.52996 -3.40692 0.30211 98 102 104
2.51975 -3.41775 0.30853 112 118 119
2.47416 -3.38336 0.32501 158 168 168
2.45679 -3.38470 0.33342 187 195 193
2.43895 -3.39634 0.32568 188 194 192
2.43496 -3.40391 0.34658 189 194 183
2.41966 -3.40777 0.35438 188 184 137
2.38325 -3.38361 0.36803 188 167 52
2.37033 -3.39030 0.37512 188 159 5
2.35570 -3.39467 0.38268 188 160 6
2.34197 -3.40020 0.38999 183 156 5
2.32795 -3.40527 0.39737 173 148 17
2.32812 -3.42976 0.40090 176 160 69
2.31711 -3.43904 0.40747 176 175 137
2.29945 -3.45055 0.39981 148 146 157
2.30534 -3.44725 0.41425 150 150 148
2.28767 -3.45877 0.40658 176 185 165
2.28464 -3.46769 0.42704 162 161 139
2.28343 -3.49092 0.43104 131 126 124
2.26802 -3.49404 0.43879 145 145 118
2.25997 -3.50769 0.44460 133 129 90
2.25138 -3.52062 0.45057 80 61 17
2.23720 -3.52544 0.45798 88 84 38
2.21818 -3.52306 0.46663 59 51 51
2.20049 -3.53460 0.45895 60 51 34
2.17134 -3.50468 0.48606 56 59 56
2.15383 -3.51610 0.47846 65 68 59
1.83690 -3.14025 0.59043 80 81 75
1.84136 -3.13499 0.57204 79 82 71
1.82382 -3.14302 0.59702 60 58 59
1.80838 -3.15309 0.59032 39 31 37
1.79972 -3.15165 0.60968 59 63 55
1.80097 -3.17727 0.61287 129 123 95
1.78547 -3.18737 0.60615 140 124 88
1.58996 -3.33623 0.73606 143 125 108
1.60545 -3.32613 0.74278 153 133 110
1.59994 -3.32855 0.73021 151 132 106
1.59443 -3.33097 0.71765 152 131 101
1.57774 -3.33963 0.74234 154 146 136
1.56982 -3.35123 0.74780 175 177 169
1.55433 -3.36133 0.74108 186 185 178
1.48802 -3.32584 0.78272 163 170 164
1.49241 -3.32068 0.76465 134 152 172
1.48262 -3.32821 0.77039 164 178 177
1.46654 -3.30980 0.79051 133 145 157
1.15623 -3.12689 0.91024 134 145 133
1.16506 -3.12009 0.90507 138 145 140
1.16019 -3.12223 0.89395 133 146 135
1.14811 -3.13537 0.91533 128 139 133
1.13738 -3.13762 0.92074 112 124 128
1.13581 -3.16188 0.92505 93 99 110
1.13618 -3.19117 0.92920 74 75 107
1.13445 -3.21572 0.93363 60 69 86
1.12052 -3.22481 0.92759 23 32 61
1.13328 -3.24196 0.93806 43 56 82
1.11926 -3.25110 0.93198 25 31 55
1.12556 -3.25222 0.94322 30 40 72
1.11153 -3.26137 0.93713 28 29 56
1.11739 -3.26138 0.94843 23 27 68
1.10335 -3.27054 0.94234 27 31 54
1.10944 -3.27112 0.95363 21 28 61
1.09538 -3.28029 0.94753 26 35 56
1.10204 -3.28236 0.95878 26 30 61
1.08797 -3.29154 0.95268 28 36 57
1.06339 -3.33527 0.98485 31 32 68
1.05531 -3.34510 0.99012 36 32 65
1.04115 -3.35433 0.98398 87 90 80
1.05071 -3.36452 0.99516 41 52 81
1.04866 -3.39125 1.00007 66 86 98
1.02848 -3.40047 1.01098 80 85 91
1.01791 -3.40366 1.01644 66 71 87
1.01735 -3.43557 1.02141 49 51 76
1.00299 -3.44493 1.01518 36 40 71
1.00672 -3.47293 1.03194 38 36 61
0.99226 -3.48235 1.02567 37 37 47
1.00226 -3.49451 1.03723 33 29 51
0.98774 -3.50397 1.03093 32 35 46
0.99502 -3.50802 1.04265 30 25 45
0.98614 -3.51674 1.04813 33 24 40
0.97628 -3.52247 1.05364 49 43 62
0.96489 -3.52345 1.05917 76 79 89
0.95841 -3.53964 1.06462 84 87 92
0.94386 -3.54913 1.05830 95 95 104
0.92269 -3.65121 1.09795 104 107 115
0.92698 -3.64617 1.08031 114 120 117
0.91490 -3.66448 1.10359 97 95 93
0.90632 -3.67521 1.10923 70 59 55
0.86118 -3.72203 1.13748 31 27 53
0.87609 -3.71231 1.14394 35 36 51
0.87079 -3.71464 1.13184 35 31 58
0.85101 -3.72740 1.14307 22 25 56
0.85209 -3.77394 1.14943 63 77 97
0.83821 -3.76590 1.15480 115 129 134
0.82321 -3.77568 1.14830 126 131 135
0.80690 -3.77930 1.17158 120 131 134
0.81122 -3.77422 1.15379 122 131 136
0.79578 -3.78098 1.17709 101 103 110
0.78084 -3.79072 1.17061 46 33 41
0.83840 -4.35259 1.24122 55 58 64
0.82147 -4.36362 1.23388 48 46 37
0.81845 -4.37755 1.25433 58 60 60
0.80637 -4.38087 1.26053 67 75 62
0.79728 -4.39750 1.26728 68 68 64
0.78908 -4.41839 1.27424 58 52 56
0.77206 -4.42948 1.26686 39 42 37
0.78082 -4.43937 1.28123 49 47 41
0.76376 -4.45050 1.27383 36 44 37
0.67597 -4.98997 1.41199 73 77 81
0.69458 -4.97783 1.42006 58 64 65
0.68796 -4.98073 1.40496 64 68 77
0.66935 -4.99287 1.39689 74 77 85
0.65736 -5.00210 1.40392 76 88 88
0.66139 -4.98386 1.41798 81 85 83
0.64283 -4.99596 1.40993 86 95 90
0.64699 -4.97834 1.42397 85 88 89
0.62849 -4.99040 1.41595 97 101 95
0.59912 -5.01381 1.45184 96 93 91
0.61103 -5.00463 1.44485 92 90 86
1.81775 -1.03536 0.28060 133 131 128
1.82020 -1.03247 0.27049 128 133 139
1.81472 -1.03668 0.27370 133 139 147
1.80925 -1.04090 0.27691 135 140 145
1.81558 -1.04131 0.28249 137 136 132
1.80706 -1.04686 0.27880 136 138 144
1.81309 -1.04712 0.28451 138 134 132
1.80456 -1.05268 0.28081 134 138 144
1.81151 -1.05344 0.28617 137 139 135
1.80297 -1.05901 0.28246 134 136 148
1.80483 -1.06426 0.29090 143 144 143
1.81936 -1.07942 0.28618 125 110 101
1.84092 -1.09859 0.27870 103 52 45
1.83374 -1.10209 0.28262 104 32 30
1.83196 -1.10859 0.28440 96 25 41
1.86526 -1.13473 0.27234 135 110 124
1.87523 -1.14803 0.26952 184 193 212
1.87282 -1.15443 0.27159 198 198 233
1.86812 -1.15955 0.27456 202 192 220
1.86597 -1.16614 0.27653 198 182 185
1.85692 -1.17204 0.27261 162 141 130
2.68528 -2.44775 0.07187 19 27 111
2.70062 -2.43775 0.07853 19 33 122
2.69516 -2.44014 0.06608 17 29 118
2.69073 -2.44536 0.08433 20 29 124
2.66878 -2.44966 0.07999 22 23 104
2.64970 -2.46541 0.09133 24 22 106
2.64053 -2.47361 0.09687 36 36 123
2.63684 -2.48668 0.10051 30 44 134
2.63538 -2.50182 0.10338 33 32 141
2.63366 -2.51681 0.10636 53 68 158
2.62509 -2.52572 0.11172 100 115 183
2.61731 -2.53535 0.11681 134 121 104
2.61079 -2.56304 0.12390 147 132 53
2.60693 -2.57645 0.12766 124 110 47
2.60648 -2.59312 0.13028 79 68 27
2.60109 -2.60527 0.13459 53 41 46
2.58935 -2.62881 0.14357 30 43 134
2.58481 -2.63415 0.16223 31 47 148
2.57923 -2.63660 0.14950 29 46 145
2.51604 -2.71679 0.19109 32 47 145
2.52060 -2.71142 0.17230 32 47 152
2.51042 -2.71926 0.17827 35 46 146
2.50775 -2.72655 0.19644 28 40 109
2.51788 -2.75521 0.19576 20 26 67
2.50195 -2.76560 0.18885 22 20 52
2.64686 -3.00591 0.17059 72 54 35
2.66395 -2.99477 0.17800 67 51 28
2.65180 -3.00010 0.15027 59 46 22
2.65294 -3.00324 0.18445 74 56 39
2.64193 -3.01172 0.19090 81 63 42
2.64536 -3.02459 0.17400 79 61 39
2.64041 -3.03041 0.19438 85 68 38
2.63432 -3.03309 0.18047 84 68 37
2.62822 -3.03576 0.16656 81 65 33
2.61798 -3.33932 0.23238 114 93 55
2.62215 -3.36739 0.23444 74 64 41
2.61987 -3.38789 0.23848 43 19 18
2.60461 -3.39270 0.24643 43 33 34
2.58379 -3.39060 0.25602 57 58 51
2.58990 -3.42170 0.25760 86 93 71
2.57209 -3.42328 0.26629 102 103 85
2.54936 -3.41857 0.27642 105 100 90
2.52908 -3.41677 0.28580 113 109 106
2.52518 -3.43568 0.29037 118 121 115
2.48116 -3.40329 0.30662 157 165 162
2.45572 -3.39429 0.31742 184 192 192
2.43784 -3.40595 0.30967 187 194 192
2.43247 -3.41174 0.33099 187 192 184
2.42611 -3.41453 0.31648 186 192 188
2.41852 -3.41740 0.33843 185 182 147
2.37692 -3.38630 0.35372 184 167 69
2.36594 -3.39557 0.36028 183 162 42
2.35413 -3.40374 0.36707 184 168 79
2.34318 -3.41307 0.37362 185 174 101
2.33748 -3.42957 0.37871 185 179 125
2.31978 -3.44111 0.37103 185 188 178
2.32760 -3.44045 0.38497 187 184 150
2.31152 -3.44274 0.39294 178 176 164
2.27810 -3.47008 0.41277 162 153 143
2.28320 -3.46407 0.39175 180 186 159
2.27296 -3.48776 0.41776 115 111 118
2.25622 -3.48891 0.42588 124 121 121
2.24609 -3.49950 0.43222 165 171 146
2.24542 -3.52392 0.43606 129 129 85
2.22512 -3.51975 0.44510 100 90 35
2.21125 -3.52489 0.45244 72 62 40
1.84369 -3.16193 0.57481 76 81 71
1.84818 -3.15664 0.55631 81 82 70
1.82636 -3.15811 0.58250 61 57 57
1.80616 -3.17314 0.59427 68 70 61
1.79705 -3.18226 0.59991 128 126 97
1.78154 -3.19237 0.59318 140 120 94
1.59506 -3.35877 0.72136 141 120 106
1.59956 -3.35348 0.70283 154 129 99
1.58296 -3.36254 0.72765 156 147 141
1.57698 -3.37807 0.73273 178 179 174
1.56138 -3.38824 0.72597 187 186 175
1.45234 -3.29427 0.77989 157 163 164
1.43733 -3.30406 0.77338 143 153 165
1.41912 -3.25365 0.78983 123 138 160
1.41484 -3.25868 0.80741 110 136 163
1.40959 -3.26099 0.79541 109 137 161
1.40433 -3.26330 0.78341 115 135 161
1.34475 -3.17991 0.81454 139 160 164
1.34061 -3.18479 0.83162 134 155 174
1.33550 -3.18703 0.81996 138 158 170
1.15615 -3.14033 0.89847 110 119 128
1.15080 -3.15548 0.90320 89 96 108
1.15362 -3.19041 0.90690 58 57 88
1.14573 -3.19990 0.91201 36 34 72
1.13877 -3.21171 0.91702 27 25 65
1.13345 -3.22763 0.92185 27 28 56
1.11947 -3.23675 0.91579 42 42 61
1.07704 -3.32463 0.96264 32 29 63
1.08616 -3.31761 0.95729 27 33 58
1.07143 -3.34104 0.96767 34 34 71
1.05723 -3.35029 0.96152 76 82 85
1.06725 -3.36150 0.97261 46 55 84
1.06413 -3.38512 0.97750 71 81 86
1.04365 -3.39368 0.98847 80 83 80
1.03539 -3.40346 0.99380 67 72 68
1.03225 -3.42779 0.99880 54 52 59
1.01787 -3.43717 0.99256 35 31 47
1.02707 -3.44663 1.00398 39 32 51
1.01264 -3.45603 0.99772 30 32 54
1.02189 -3.46569 1.00919 31 31 58
1.00741 -3.47513 1.00291 35 39 62
0.98151 -3.52065 1.03630 34 40 52
0.97066 -3.52338 1.04185 63 66 86
0.96635 -3.54628 1.04720 92 95 100
0.95175 -3.55580 1.04087 104 105 104
0.95679 -3.55305 1.05272 97 98 97
0.94219 -3.56257 1.04639 99 102 107
0.91736 -3.65332 1.08592 111 115 116
0.91135 -3.67265 1.09156 98 98 108
0.90508 -3.69136 1.09723 88 84 85
0.88980 -3.71994 1.10862 28 26 47
0.88547 -3.72503 1.12643 27 30 58
0.88015 -3.72737 1.11428 22 27 50
0.87482 -3.72971 1.10212 21 25 47
0.86954 -3.73140 1.11990 24 24 43
0.86422 -3.73373 1.10775 23 24 41
0.86047 -3.74089 1.12558 18 17 41
0.84995 -3.74515 1.13119 34 43 65
0.84761 -3.77949 1.13725 88 106 111
0.83254 -3.78931 1.13072 131 136 136
0.83498 -3.77609 1.14277 123 135 136
0.81995 -3.78589 1.13625 129 131 138
0.80419 -3.79174 1.15966 119 126 126
0.79967 -3.81927 1.16577 85 80 82
0.78459 -3.82910 1.15923 35 26 25
0.84387 -4.34931 1.22117 65 62 45
0.85478 -4.34091 1.21477 66 60 47
0.82693 -4.36035 1.21382 47 44 34
0.83405 -4.36242 1.22773 54 48 42
0.81710 -4.37348 1.22037 47 47 31
0.81664 -4.39889 1.24126 49 51 48
0.81059 -4.40155 1.22744 47 48 35
0.79961 -4.41000 1.23387 47 44 38
0.80712 -4.41384 1.24794 53 56 49
0.79006 -4.42496 1.24054 41 39 36
0.79776 -4.42968 1.25467 50 53 46
0.78067 -4.44081 1.24726 36 36 34
0.78968 -4.45164 1.26168 43 43 42
0.77254 -4.46281 1.25424 40 39 28
0.61458 -4.98706 1.42208 91 93 93
0.61991 -4.98079 1.40013 94 101 101
0.60358 -5.00195 1.42945 95 92 84
0.58511 -5.01399 1.42144 107 107 97
0.59266 -5.01752 1.43689 107 106 99
0.57417 -5.02958 1.42886 100 102 100
0.58457 -5.05199 1.44570 102 103 107
0.56598 -5.06411 1.43764 90 92 95
1.79833 -1.06372 0.28534 151 149 144
1.80080 -1.06082 0.27518 143 148 153
1.79529 -1.06505 0.27841 150 153 154
1.83200 -1.09677 0.27391 107 57 65
1.82860 -1.10234 0.27632 104 48 50
1.81986 -1.10805 0.27252 89 50 59
1.82646 -1.10863 0.27823 106 51 49
1.81770 -1.11434 0.27443 81 48 50
1.82096 -1.11306 0.28148 98 53 58
1.81891 -1.11944 0.28336 80 52 72
1.82744 -1.13186 0.28103 99 79 106
1.83183 -1.14973 0.28145 154 133 141
1.82292 -1.15555 0.27759 161 141 124
2.85258 -2.35509 -0.03652 21 18 55
2.86805 -2.34500 -0.02981 31 21 23
2.86255 -2.34741 -0.04236 24 18 22
2.85808 -2.35267 -0.02396 27 19 45
2.84812 -2.36034 -0.01812 22 18 67
2.84380 -2.36369 -0.03111 22 19 79
2.83383 -2.37136 -0.02526 23 22 93
2.82833 -2.37378 -0.03782 21 23 96
2.69520 -2.44723 0.05166 20 24 108
2.71057 -2.43721 0.05833 17 33 117
2.70511 -2.43961 0.04586 19 27 113
2.69964 -2.44201 0.03338 18 23 110
2.68973 -2.44963 0.03919 18 17 104
2.68290 -2.45280 0.05833 17 22 95
2.66785 -2.45595 0.06596 21 15 98
2.65182 -2.45819 0.07394 36 19 105
2.66079 -2.48230 0.07304 69 58 150
2.65475 -2.49337 0.07749 60 59 154
2.63894 -2.49579 0.08539 34 35 160
2.64390 -2.51673 0.08597 71 73 186
2.62812 -2.51918 0.09385 123 126 201
2.61945 -2.52799 0.09923 141 111 163
2.61847 -2.54384 0.10194 142 103 54
2.60997 -2.55289 0.10727 142 134 61
2.60822 -2.56820 0.11026 133 125 50
2.60320 -2.58056 0.11440 119 110 43
2.60104 -2.59567 0.11756 133 119 38
2.59151 -2.62123 0.12572 68 53 53
2.58554 -2.63296 0.13022 35 39 105
2.56984 -2.64320 0.12341 35 34 107
2.57908 -2.64427 0.13490 28 43 135
2.57454 -2.64962 0.15360 30 45 151
2.56895 -2.65207 0.14084 30 44 145
2.50339 -2.73031 0.18319 30 41 122
2.50796 -2.72493 0.16438 33 48 147
2.49651 -2.74155 0.18806 25 27 75
2.64147 -3.00931 0.15650 68 52 24
2.64641 -3.00350 0.13618 54 43 22
2.63540 -3.01197 0.14264 64 49 20
2.62439 -3.02045 0.14909 72 54 25
2.64109 -3.02923 0.15949 75 58 29
2.62394 -3.04041 0.15205 78 61 29
2.62223 -3.33200 0.21115 116 88 31
2.64033 -3.32020 0.21900 107 87 49
2.63389 -3.32303 0.20431 113 85 39
2.60597 -3.33546 0.21941 124 97 44
2.61838 -3.37350 0.21884 85 75 41
2.60015 -3.38538 0.21093 31 13 17
2.61575 -3.39363 0.22293 33 21 14
2.60540 -3.40446 0.22940 42 31 40
2.58786 -3.40644 0.23806 66 67 49
2.58885 -3.43135 0.24109 93 93 83
2.57773 -3.44132 0.24781 107 107 95
2.54748 -3.42720 0.26027 118 119 108
2.53311 -3.43290 0.26794 119 125 116
2.51026 -3.42773 0.27813 121 131 125
2.48122 -3.41438 0.29013 156 165 168
2.45311 -3.40193 0.30181 183 191 193
2.43520 -3.41360 0.29405 185 192 196
2.41454 -3.42332 0.32325 186 191 177
2.41970 -3.41725 0.30200 185 191 192
2.40818 -3.42611 0.30875 186 190 188
2.39666 -3.43498 0.31550 187 190 186
2.40032 -3.42859 0.33079 184 188 156
2.38246 -3.44023 0.32304 187 190 186
2.38373 -3.43063 0.33900 183 188 151
2.36591 -3.44225 0.33127 187 189 187
2.36537 -3.43016 0.34771 184 190 165
2.34759 -3.44175 0.34000 185 188 187
2.34635 -3.42869 0.35659 183 189 169
2.32864 -3.44024 0.34890 184 188 185
2.33184 -3.43323 0.36416 183 188 174
2.31414 -3.44477 0.35649 185 190 182
2.30559 -3.44600 0.37850 180 181 176
2.29060 -3.44972 0.38619 157 155 163
2.27295 -3.46122 0.37854 186 190 171
2.26895 -3.46878 0.39922 177 172 133
2.27060 -3.49617 0.40229 128 120 68
2.25531 -3.49942 0.41005 98 92 85
2.25101 -3.51854 0.41480 140 147 147
2.23324 -3.53012 0.40709 162 155 148
2.24652 -3.53753 0.41962 162 160 138
2.22156 -3.52653 0.43000 112 86 58
2.20988 -3.53494 0.43676 93 83 56
2.18915 -3.52982 0.44595 63 57 33
2.17777 -3.53857 0.45262 59 59 49
2.17149 -3.54133 0.43829 62 62 55
1.85042 -3.18364 0.55904 74 80 65
1.85494 -3.17832 0.54042 80 80 72
1.82949 -3.17423 0.56772 57 51 50
1.81635 -3.17700 0.57438 44 30 34
1.81213 -3.19403 0.57880 78 75 60
1.79348 -3.18782 0.58684 131 125 100
1.77795 -3.19794 0.58011 140 121 91
1.60535 -3.39135 0.70540 144 121 107
1.60989 -3.38601 0.68670 151 129 100
1.58771 -3.38473 0.71289 161 154 147
1.46801 -3.31202 0.75985 145 165 180
1.47775 -3.30453 0.75414 121 142 164
1.47237 -3.30689 0.74188 119 137 169
1.44640 -3.29540 0.76783 168 178 183
1.43141 -3.30518 0.76132 161 168 168
1.35715 -3.19223 0.79594 119 146 163
1.36132 -3.18732 0.77878 126 138 155
1.33732 -3.17727 0.80331 150 168 171
1.17595 -3.14504 0.87588 138 142 142
1.18977 -3.13602 0.88188 139 147 150
1.18485 -3.13818 0.87066 142 148 152
1.18086 -3.14288 0.88710 146 147 140
1.16863 -3.15563 0.88087 88 77 95
1.15480 -3.16465 0.87487 28 28 60
1.16557 -3.17634 0.88525 32 34 68
1.15753 -3.18542 0.89037 25 24 56
1.14970 -3.19505 0.89547 37 28 67
1.13578 -3.20413 0.88943 59 60 76
1.14112 -3.20288 0.90067 40 38 66
1.12719 -3.21196 0.89463 52 57 67
1.13536 -3.21767 0.90551 43 43 60
1.12140 -3.22677 0.89945 53 49 73
1.13127 -3.23674 0.91015 48 43 62
1.09449 -3.32388 0.93999 33 32 54
1.10364 -3.31684 0.93463 27 31 50
1.08502 -3.33009 0.94539 39 32 54
1.07082 -3.33934 0.93923 75 77 81
1.08202 -3.35352 0.95013 53 49 77
1.08170 -3.38446 0.95464 74 79 94
1.06733 -3.39383 0.94841 68 64 79
1.06083 -3.39226 0.96571 72 74 84
1.05304 -3.40340 0.97100 66 69 69
1.04689 -3.41919 0.97616 57 56 56
1.03250 -3.42857 0.96992 37 32 43
1.04044 -3.43429 0.98137 48 40 52
1.02601 -3.44370 0.97512 33 34 47
1.03330 -3.44759 0.98666 39 32 50
1.01884 -3.45702 0.98039 34 37 56
0.98896 -3.52552 1.01882 41 42 55
0.99836 -3.51828 1.01331 40 40 54
0.98118 -3.53775 1.02426 53 66 65
0.97762 -3.56308 1.02953 80 94 97
0.96293 -3.57266 1.02315 101 110 109
0.96763 -3.56872 1.03510 102 107 106
0.92663 -3.62591 1.06274 102 111 112
0.94140 -3.61628 1.06915 96 106 113
0.93615 -3.61859 1.05716 98 107 111
0.93188 -3.62361 1.07473 102 111 113
0.92175 -3.64863 1.06827 109 118 112
0.91478 -3.66469 1.07386 108 116 108
0.89991 -3.67438 1.06742 94 96 102
0.90848 -3.68318 1.07948 97 100 105
0.90283 -3.70415 1.08514 85 85 92
0.88873 -3.73719 1.09653 29 26 46
0.87368 -3.74699 1.09000 20 23 50
0.85623 -3.74716 1.11346 19 20 45
0.86056 -3.74206 1.09563 19 20 41
0.85339 -3.77963 1.11939 57 69 84
0.84394 -3.78813 1.12510 113 128 125
0.82885 -3.79798 1.11855 132 137 139
0.81158 -3.79836 1.14201 125 132 138
0.81592 -3.79325 1.12411 128 134 141
0.80339 -3.81170 1.14780 109 111 115
0.78832 -3.82152 1.14126 47 37 33
0.80898 -3.87932 1.15465 67 55 55
0.79367 -3.88930 1.14801 36 27 25
0.84440 -4.38004 1.20825 48 47 38
0.84933 -4.37425 1.18798 40 42 34
0.83834 -4.38271 1.19442 44 43 32
0.82736 -4.39116 1.20086 45 46 32
0.60526 -4.97246 1.40596 99 103 99
0.58687 -4.98445 1.39798 116 113 115
0.59491 -4.99125 1.41355 107 112 96
0.57649 -5.00327 1.40556 110 105 97
1.79006 -1.06944 0.28152 147 139 135
1.79608 -1.08004 0.28009 123 96 88
1.81892 -1.10006 0.27187 102 65 66
1.81020 -1.10574 0.26809 82 49 48
1.81234 -1.11886 0.27762 76 50 48
1.81487 -1.11588 0.26719 80 54 48
1.80923 -1.12023 0.27050 79 54 53
1.80358 -1.12457 0.27382 102 79 80
1.83018 -1.13660 0.27149 102 79 78
1.82792 -1.14298 0.27345 140 118 114
1.80772 -1.17001 0.28688 77 80 75
1.81664 -1.16420 0.29075 95 92 64
1.81347 -1.16559 0.28351 127 125 102
1.81089 -1.16862 0.29412 82 90 93
1.80454 -1.17141 0.27964 74 69 76
1.80514 -1.17305 0.29749 150 146 149
1.79493 -1.17024 0.29305 117 105 105
2.85670 -2.34955 -0.05478 19 14 40
2.87216 -2.33947 -0.04807 29 19 15
2.86666 -2.34188 -0.06062 22 17 26
2.86116 -2.34430 -0.07317 15 15 32
2.84958 -2.35945 -0.05000 18 18 69
2.83808 -2.36593 -0.04358 20 21 85
2.82261 -2.37602 -0.05029 19 26 98
2.67983 -2.45726 0.04499 22 13 93
2.65853 -2.45499 0.05492 52 50 131
2.67973 -2.48973 0.04951 111 96 199
2.66918 -2.49691 0.05556 170 150 218
2.65731 -2.50290 0.06209 106 88 188
2.63227 -2.49713 0.07333 44 31 162
2.64067 -2.52119 0.07260 96 67 175
2.62307 -2.52199 0.08116 102 109 188
2.61420 -2.53063 0.08661 125 129 142
2.61529 -2.54840 0.08853 147 127 51
2.61022 -2.56062 0.09265 137 120 56
2.61303 -2.58022 0.09400 98 96 51
2.61394 -2.59819 0.09603 92 83 42
2.59899 -2.60140 0.10366 132 125 54
2.59563 -2.61552 0.10721 158 145 57
2.58503 -2.62282 0.11331 139 126 56
2.58229 -2.63765 0.11666 70 52 52
2.57022 -2.66119 0.12570 32 36 134
2.56461 -2.66365 0.11291 29 32 114
2.56567 -2.66655 0.14445 30 43 147
2.56006 -2.66901 0.13166 33 40 143
2.50086 -2.73594 0.16930 32 45 134
2.50543 -2.73056 0.15047 30 47 150
2.49321 -2.74643 0.17442 27 33 92
2.50681 -2.77901 0.17236 20 21 64
2.50219 -2.78445 0.19138 27 26 48
2.49651 -2.78694 0.17841 19 19 57
2.49082 -2.78944 0.16543 19 19 54
2.62783 -3.19261 0.17112 108 83 49
2.64549 -3.18109 0.17878 103 83 49
2.63921 -3.18385 0.16445 104 82 47
2.63411 -3.18985 0.18545 106 86 41
2.62273 -3.19861 0.19212 107 88 44
2.61129 -3.19546 0.17945 108 86 57
2.60620 -3.20145 0.20042 108 89 42
2.59367 -3.20695 0.17181 126 107 66
2.60259 -3.29631 0.19751 123 98 48
2.62053 -3.28461 0.20529 112 87 33
2.60777 -3.29021 0.17617 124 104 55
2.60253 -3.31897 0.20065 132 107 52
2.59593 -3.33392 0.20588 146 126 67
2.61836 -3.38418 0.20202 86 61 44
2.60009 -3.39609 0.19409 38 16 17
2.60060 -3.40941 0.21402 46 39 51
2.58924 -3.41903 0.22080 70 74 56
2.59188 -3.44611 0.22326 106 104 71
2.56251 -3.43326 0.23560 122 125 113
2.54422 -3.44518 0.22767 148 147 126
2.53481 -3.42222 0.24738 144 151 122
2.51663 -3.43407 0.23950 137 135 121
2.52479 -3.43339 0.25373 130 132 128
2.50730 -3.43503 0.26236 127 135 129
2.47768 -3.42089 0.27465 159 167 164
2.45501 -3.41548 0.28479 181 188 191
2.43706 -3.42719 0.27700 184 191 194
2.30907 -3.46237 0.36135 184 187 179
2.31419 -3.45634 0.34025 185 188 187
2.30276 -3.46514 0.34695 186 189 180
2.29133 -3.47394 0.35365 188 190 177
2.29079 -3.46156 0.37001 175 175 174
2.27310 -3.47310 0.36234 190 194 178
2.26644 -3.47691 0.38382 190 187 160
2.26733 -3.50330 0.38702 158 142 102
2.24956 -3.51489 0.37932 132 116 109
2.28684 -3.55687 0.38502 115 79 53
2.26019 -3.54388 0.39604 140 145 144
2.23600 -3.55995 0.40986 149 139 110
2.21813 -3.57161 0.40211 118 119 78
2.22427 -3.56850 0.41668 130 116 64
2.20906 -3.57183 0.42444 80 71 44
1.84447 -3.18549 0.54644 72 78 63
1.84899 -3.18017 0.52782 76 76 73
1.82612 -3.18010 0.55451 50 46 50
1.81420 -3.18483 0.56089 46 33 36
1.81431 -3.20893 0.56415 89 84 57
1.79256 -3.19774 0.57306 135 127 91
1.77700 -3.20788 0.56631 139 121 91
1.60005 -3.39436 0.69258 147 129 107
1.60459 -3.38902 0.67388 151 126 106
1.59828 -3.41827 0.69672 166 161 151
1.43553 -3.28644 0.75676 159 172 179
1.42058 -3.29619 0.75028 161 175 173
1.35507 -3.20084 0.78364 125 143 162
1.35924 -3.19593 0.76644 155 156 154
1.34060 -3.21027 0.77737 164 179 175
1.33010 -3.17502 0.79209 158 174 177
1.19276 -3.17004 0.85737 142 151 146
1.20671 -3.16094 0.86342 141 147 145
1.20175 -3.16312 0.85210 142 146 147
1.17906 -3.16594 0.86339 88 76 116
1.16515 -3.17500 0.85736 27 33 63
1.17076 -3.17439 0.86854 28 25 57
1.15259 -3.18760 0.87909 42 39 54
1.14764 -3.18977 0.86780 50 53 66
1.14487 -3.19749 0.88416 49 54 67
1.10400 -3.33314 0.92244 35 24 61
1.11827 -3.32384 0.92863 28 32 53
1.11319 -3.32607 0.91705 28 28 54
1.09995 -3.38527 0.93156 73 74 89
1.08552 -3.39468 0.92531 62 58 69
1.06096 -3.40889 0.95354 64 64 73
1.06511 -3.40400 0.93641 71 70 65
1.04866 -3.44078 0.96383 43 30 42
1.03419 -3.45022 0.95755 33 34 45
0.99716 -3.53255 1.00119 47 45 66
1.01181 -3.52300 1.00755 41 43 58
1.00660 -3.52528 0.99566 43 45 61
0.99209 -3.55308 1.00646 66 74 67
0.98540 -3.56893 1.01185 91 103 89
0.97544 -3.57482 1.01744 100 108 112
0.95419 -3.58224 1.02867 99 112 111
0.94508 -3.59072 1.03421 93 105 115
0.94084 -3.59572 1.05170 99 105 107
0.93739 -3.60380 1.03970 87 96 110
0.92935 -3.61582 1.04522 91 103 110
0.92328 -3.63449 1.05071 88 96 109
0.91833 -3.65713 1.05620 86 98 105
0.91343 -3.68026 1.06173 91 102 102
0.90191 -3.72166 1.07296 91 87 90
0.89793 -3.74902 1.07863 56 47 62
0.88674 -3.75140 1.08434 24 20 51
0.87165 -3.76124 1.07779 19 23 47
0.85505 -3.76466 1.10138 26 35 47
0.85547 -3.80944 1.10734 78 98 98
0.84027 -3.81935 1.10075 132 137 135
0.84205 -3.80346 1.11296 126 138 135
0.82691 -3.81334 1.10639 132 135 136
0.80965 -3.81393 1.12997 125 130 129
0.80947 -3.85875 1.13622 91 90 84
0.79422 -3.86869 1.12961 39 32 24
0.77913 -4.52542 1.24249 43 42 34
0.79032 -4.51681 1.23593 43 42 36
0.78414 -4.51952 1.22184 52 55 43
0.77411 -4.53132 1.26314 42 43 27
0.76940 -4.54101 1.24931 44 43 36
0.76437 -4.54692 1.27000 50 49 37
0.75819 -4.54964 1.25588 49 47 41
0.64996 -4.96183 1.36457 87 90 86
0.66843 -4.94979 1.37258 75 81 74
0.66186 -4.95267 1.35759 83 83 80
0.65529 -4.95555 1.34260 92 98 84
0.65653 -4.95895 1.37956 78 79 84
0.64339 -4.96472 1.34958 94 98 87
0.63299 -4.94017 1.36974 91 93 94
0.62769 -4.94641 1.39157 85 95 95
0.62116 -4.94928 1.37667 92 88 93
0.60800 -4.95002 1.38310 98 94 88
0.58967 -4.96197 1.37515 105 111 112
0.59579 -4.95658 1.38986 108 114 113
1.80947 -1.03975 0.25958 121 127 134
1.81797 -1.03421 0.26327 127 134 139
1.81495 -1.03554 0.25637 116 126 132
1.81193 -1.03686 0.24947 106 121 128
1.81249 -1.03843 0.26648 130 138 142
1.80702 -1.04264 0.26969 131 141 143
1.80269 -1.04328 0.26333 123 130 131
1.80024 -1.04617 0.27344 134 142 145
1.79803 -1.04793 0.26621 126 132 133
1.79558 -1.05082 0.27631 138 143 149
1.79183 -1.05175 0.26972 129 136 139
1.79428 -1.06026 0.26967 135 143 148
1.79187 -1.06618 0.27163 141 144 150
1.78775 -1.07117 0.27429 142 142 139
1.78726 -1.07819 0.27547 117 102 97
1.81629 -1.10168 0.26460 92 58 58
1.80757 -1.10737 0.26082 73 43 38
1.78699 -1.15320 0.28567 126 118 112
1.79267 -1.14883 0.28234 165 150 127
1.78953 -1.15021 0.27518 146 136 128
1.78988 -1.17049 0.28660 102 90 81
1.78905 -1.17785 0.28798 162 147 133
1.78995 -1.18629 0.28868 187 171 159
1.78736 -1.18933 0.29931 193 173 163
1.78419 -1.19073 0.29206 191 174 157
1.78101 -1.19212 0.28481 188 172 148
1.69304 -1.23748 0.34235 212 194 164
1.70190 -1.23171 0.34619 223 201 170
1.69875 -1.23309 0.33901 220 199 176
1.69560 -1.23447 0.33182 217 200 179
1.69048 -1.24049 0.35289 156 129 109
1.68733 -1.24188 0.34570 151 130 107
2.84697 -2.34867 -0.06573 16 14 55
2.84076 -2.35927 -0.06131 19 21 76
2.82910 -2.36560 -0.05483 22 25 91
2.81365 -2.37568 -0.06153 29 32 103
2.72216 -2.42008 0.00413 27 33 100
2.73752 -2.41007 0.01079 19 27 106
2.73205 -2.41246 -0.00167 22 30 103
2.72659 -2.41486 -0.01414 24 30 108
2.72762 -2.41769 0.01660 21 26 96
2.71772 -2.42530 0.02240 19 23 94
2.71210 -2.42758 0.00999 24 35 108
2.70767 -2.43280 0.02826 17 25 111
2.69674 -2.43759 0.00333 23 45 129
2.70273 -2.43564 0.01560 18 33 118
2.69263 -2.44309 0.02148 22 28 118
2.68573 -2.45329 0.02618 24 21 112
2.65928 -2.44661 0.03805 64 66 143
2.68002 -2.48083 0.03263 169 154 217
2.67006 -2.48850 0.03847 190 150 227
2.65491 -2.49158 0.04620 140 117 195
2.65181 -2.50531 0.04954 98 91 196
2.63610 -2.50784 0.05747 45 37 164
2.63382 -2.52240 0.06052 99 83 184
2.61882 -2.52551 0.06819 165 161 208
2.60900 -2.53330 0.07397 180 161 167
2.61414 -2.55482 0.07438 148 120 54
2.61272 -2.57046 0.07717 110 98 61
2.62199 -2.59614 0.07614 38 41 82
2.61313 -2.60509 0.08162 48 47 82
2.59802 -2.60817 0.08933 105 106 86
2.59454 -2.62221 0.09289 146 140 80
2.58450 -2.63008 0.09879 161 151 86
2.56922 -2.63291 0.10655 138 128 75
2.57313 -2.65425 0.10753 67 48 92
2.55827 -2.67522 0.11752 28 38 130
2.55371 -2.68058 0.13630 29 42 146
2.54810 -2.68305 0.12348 28 39 138
2.54249 -2.68551 0.11067 41 43 111
2.49631 -2.73953 0.15608 30 48 143
2.50089 -2.73414 0.13723 29 46 147
2.49068 -2.74200 0.14322 30 47 144
2.48871 -2.75008 0.16116 25 38 101
2.49127 -2.77125 0.16277 20 24 61
2.47534 -2.78164 0.15586 18 18 57
2.62705 -3.17993 0.15206 112 94 43
2.64467 -3.16844 0.15970 100 81 41
2.63214 -3.17394 0.13110 112 93 51
2.62078 -3.18268 0.13776 117 97 53
2.60943 -3.19142 0.14441 121 101 57
2.62078 -3.19449 0.15704 120 101 49
2.60313 -3.20601 0.14938 125 104 61
2.60875 -3.20250 0.16392 126 104 62
2.59110 -3.21401 0.15627 126 105 57
2.59799 -3.30123 0.18238 129 103 59
2.58004 -3.31293 0.17459 153 138 89
2.59288 -3.31788 0.18708 150 130 57
2.58827 -3.33524 0.19164 149 133 70
2.61658 -3.39277 0.18569 71 63 44
2.59735 -3.41630 0.19813 54 50 55
2.58990 -3.43080 0.20367 84 85 73
2.57786 -3.43964 0.21068 117 119 113
2.55021 -3.42881 0.22258 135 145 138
2.50423 -3.44221 0.24658 129 137 130
2.50948 -3.43603 0.22496 138 142 116
2.47171 -3.42428 0.25988 156 165 165
2.45083 -3.42115 0.26954 178 187 190
2.43286 -3.43287 0.26174 184 192 191
2.27293 -3.49793 0.36575 192 193 175
2.27806 -3.49189 0.34462 192 195 182
2.26859 -3.51700 0.37041 164 159 145
2.25261 -3.54489 0.38187 145 165 155
2.24912 -3.56558 0.38633 157 157 145
2.23756 -3.57448 0.39311 139 153 131
2.20853 -3.58336 0.40832 107 91 59
1.82755 -3.19367 0.53999 44 43 51
1.81362 -3.19523 0.54693 46 35 40
1.79541 -3.21384 0.55822 137 126 93
1.77978 -3.22403 0.55144 139 121 91
1.60600 -3.41897 0.67722 150 134 112
1.61057 -3.41359 0.65840 145 126 106
1.59749 -3.45785 0.68655 184 183 179
1.34949 -3.20219 0.77200 144 151 152
1.35366 -3.19727 0.75480 167 176 172
1.33503 -3.21162 0.76572 167 175 175
1.31526 -3.18323 0.78598 150 161 176
1.30350 -3.18486 0.79188 124 146 172
1.29937 -3.18972 0.80887 117 141 170
1.29429 -3.19195 0.79727 118 142 168
1.28921 -3.19418 0.78568 118 142 171
1.20178 -3.17681 0.83992 141 150 143
1.21578 -3.16768 0.84599 144 147 145
1.21080 -3.16987 0.83463 141 146 149
1.20583 -3.17205 0.82327 141 147 147
1.19184 -3.18161 0.84536 128 130 118
1.17565 -3.17172 0.85185 36 32 58
1.15774 -3.18558 0.86236 34 35 67
1.15279 -3.18775 0.85107 26 34 59
1.14417 -3.21001 0.87220 45 48 61
1.13920 -3.21219 0.86086 31 34 61
1.13021 -3.21911 0.86614 24 34 56
1.13854 -3.22519 0.87695 37 33 56
1.12454 -3.23432 0.87088 27 32 61
1.12950 -3.35250 0.89841 29 29 53
1.14390 -3.34312 0.90465 36 35 55
1.13878 -3.34536 0.89297 30 31 55
1.13462 -3.35026 0.91009 30 31 54
1.11987 -3.35873 0.90389 34 35 52
1.10548 -3.36812 0.89765 65 73 83
1.11705 -3.38275 0.90848 54 64 74
1.10259 -3.39218 0.90221 61 68 77
1.10772 -3.38989 0.91394 63 79 80
1.09325 -3.39932 0.90767 61 65 78
1.09871 -3.39788 0.91937 65 69 82
1.06229 -3.42900 0.94113 60 66 59
1.04781 -3.43844 0.93485 36 42 49
1.05444 -3.44032 0.94644 51 48 57
1.03994 -3.44977 0.94016 40 38 49
1.04557 -3.44883 0.95187 42 35 47
1.03107 -3.45828 0.94558 35 36 46
1.00737 -3.54546 0.98329 47 46 73
1.02209 -3.53586 0.98967 38 40 61
1.01685 -3.53816 0.97773 41 43 63
0.99957 -3.55788 0.98872 56 57 86
0.98483 -3.56750 0.98233 93 102 110
0.99353 -3.57574 0.99404 81 91 96
0.98242 -3.57822 0.99973 96 109 102
0.97234 -3.58377 1.00535 96 109 107
0.96165 -3.58737 1.01099 85 94 106
0.95203 -3.59431 1.01657 75 83 100
0.95232 -3.63313 1.02164 60 64 81
0.93745 -3.64282 1.01519 24 29 45
0.94215 -3.63859 1.02728 42 41 63
0.92729 -3.64828 1.02084 30 32 45
0.93624 -3.65801 1.03274 34 37 54
0.92133 -3.66773 1.02628 31 30 42
0.93221 -3.68394 1.03817 31 33 57
0.91723 -3.69372 1.03167 30 28 38
0.92934 -3.71414 1.04361 36 38 75
0.91938 -3.72080 1.04932 54 67 101
0.90439 -3.71017 1.05513 83 98 110
0.88938 -3.71995 1.04862 85 94 92
0.89674 -3.72462 1.06076 97 97 92
0.89706 -3.76718 1.06632 60 49 58
0.88535 -3.76784 1.07206 23 20 42
0.87021 -3.77771 1.06549 14 23 45
0.86502 -3.77990 1.08350 15 19 52
0.85970 -3.80369 1.08926 49 57 78
0.84981 -3.81087 1.09500 108 120 120
0.83462 -3.82078 1.08841 134 138 136
0.81773 -3.82309 1.11214 128 136 137
0.82211 -3.81794 1.09411 131 136 134
0.80824 -3.83168 1.11787 119 119 117
0.79308 -3.84157 1.11130 52 38 40
0.82171 -3.93061 1.12464 77 64 61
0.80619 -3.94073 1.11791 33 26 15
0.78134 -4.56803 1.22971 54 60 42
0.78639 -4.56208 1.20888 65 59 40
0.77187 -4.58554 1.23663 59 62 44
0.76506 -4.61624 1.24404 61 55 47
0.75997 -4.62223 1.26501 52 49 43
0.74743 -4.62774 1.23639 83 86 70
0.75838 -4.64824 1.25156 60 57 51
0.72300 -4.95470 1.30979 69 64 74
0.70982 -4.95744 1.31652 75 69 81
0.69720 -4.96314 1.32338 82 78 86
0.69182 -4.96947 1.34551 74 81 78
0.67859 -4.97527 1.31531 93 95 92
0.68263 -4.95752 1.32966 85 88 86
0.67727 -4.96382 1.35172 81 85 81
0.66408 -4.96961 1.32161 90 98 95
0.62172 -4.91396 1.35322 100 109 96
0.62700 -4.90775 1.33152 92 91 71
0.61109 -4.93003 1.36052 99 111 103
0.59281 -4.94195 1.35259 115 120 105
0.59935 -4.93936 1.36744 104 113 105
1.80777 -1.04178 0.25213 109 121 127
1.81023 -1.03889 0.24202 89 89 99
1.79970 -1.04462 0.25642 109 118 124
1.79162 -1.04744 0.26072 111 117 124
1.78426 -1.05062 0.26471 113 121 122
1.77747 -1.05411 0.26846 110 117 117
1.78337 -1.06452 0.26696 118 117 121
1.77485 -1.07008 0.26326 128 128 130
1.77810 -1.06887 0.27009 131 127 127
1.78103 -1.07777 0.26983 107 93 92
1.80717 -1.09968 0.26001 80 46 43
1.79847 -1.10535 0.25624 69 42 41
1.80367 -1.12778 0.26539 101 81 75
1.80933 -1.12343 0.26207 76 56 47
1.79489 -1.13351 0.26158 137 117 100
1.78607 -1.15590 0.27761 98 83 101
1.77764 -1.15864 0.28206 74 64 81
1.77454 -1.16456 0.28434 109 98 91
1.77520 -1.17278 0.28510 154 134 124
1.77579 -1.18101 0.28589 183 167 151
1.76691 -1.18680 0.28203 187 166 146
1.68612 -1.23635 0.33666 208 191 161
1.68868 -1.23335 0.32615 216 196 178
1.68649 -1.24481 0.33759 147 123 101
1.68393 -1.24782 0.34814 81 57 63
1.68078 -1.24921 0.34094 82 53 62
1.67762 -1.25059 0.33375 83 48 61
2.84793 -2.34071 -0.08275 14 15 47
2.86336 -2.33065 -0.07606 23 24 26
2.85787 -2.33306 -0.08858 19 18 29
