ply
format ascii 1.0
element face 0
property list uchar int vertex_indices
element vertex 1328
property float x
property float y
property float z
property uchar diffuse_red
property uchar diffuse_green
property uchar diffuse_blue
end_header
2.90872 -2.27798 0.29122 183 158 105
2.88487 -2.27915 0.30219 171 148 92
2.86136 -2.28040 0.31303 166 147 93
2.85786 -2.29288 0.31926 166 149 95
2.82155 -2.31564 0.34381 160 138 96
2.81595 -2.32697 0.35053 108 93 77
2.81372 -2.34030 0.35651 88 83 84
2.81043 -2.35305 0.36275 110 103 109
2.79647 -2.35950 0.37132 128 115 109
2.79069 -2.38563 0.38367 130 109 92
2.78298 -2.39584 0.39090 128 106 87
2.76438 -2.39937 0.40044 126 105 88
2.74844 -2.41219 0.39519 110 90 72
2.75159 -2.40642 0.40872 124 103 89
2.73567 -2.41921 0.40348 109 91 72
2.74784 -2.41904 0.41511 122 102 82
2.73388 -2.42531 0.42362 119 101 74
2.72286 -2.43340 0.43152 109 94 78
2.70696 -2.44619 0.42628 60 55 105
2.71210 -2.44163 0.43935 97 84 85
2.69620 -2.45441 0.43412 63 61 107
2.70958 -2.45510 0.44551 93 84 83
2.69366 -2.46790 0.44027 77 74 87
2.69579 -2.46138 0.45395 94 88 75
2.68893 -2.47210 0.46100 86 81 63
2.67302 -2.48489 0.45577 78 61 55
2.68210 -2.48286 0.46805 68 57 49
2.67586 -2.49402 0.47499 80 63 47
2.67670 -2.50987 0.48056 109 94 57
2.66073 -2.52271 0.47531 117 97 63
2.67291 -2.52274 0.48706 117 98 65
2.65692 -2.53560 0.48179 119 97 67
2.66759 -2.53462 0.49386 119 97 71
2.65158 -2.54749 0.48859 119 97 71
2.66082 -2.54555 0.50095 119 98 79
2.64480 -2.55843 0.49568 120 99 76
2.46230 -2.81848 0.69090 133 104 66
2.46373 -2.81204 0.67053 133 107 75
2.45405 -2.82863 0.69834 99 70 20
2.43788 -2.84163 0.69302 64 31 24
2.43972 -2.83387 0.70663 72 40 19
2.44145 -2.85214 0.71272 105 85 60
2.43558 -2.86428 0.71986 131 107 69
2.43415 -2.87074 0.74028 137 108 68
2.42676 -2.87402 0.72741 136 109 67
2.41937 -2.87731 0.71453 136 111 67
2.34499 -2.87361 0.76333 132 105 59
2.34640 -2.86725 0.74321 136 109 57
2.33771 -2.87685 0.75064 133 108 55
2.33707 -2.88386 0.77067 116 82 48
2.33090 -2.89563 0.77781 102 71 44
2.31491 -2.90847 0.77255 116 94 67
2.19362 -2.98047 0.87020 151 130 88
2.19502 -2.97417 0.85027 145 113 71
2.19405 -2.99839 0.87673 205 206 180
2.18089 -3.00367 0.88452 218 210 186
2.18589 -3.02605 0.89070 186 181 156
2.17146 -3.03012 0.89859 174 174 166
2.15511 -3.03229 0.90662 182 178 169
2.11111 -3.00778 0.91684 198 199 194
2.10120 -3.01583 0.92424 208 209 195
2.09011 -3.02271 0.93171 216 213 185
2.07804 -3.02861 0.93925 193 176 130
2.03811 -3.00697 0.94875 102 73 57
2.02268 -3.01937 0.94368 77 75 70
1.73953 -2.77598 0.99388 56 62 44
1.75349 -2.76476 0.99848 88 86 63
1.74712 -2.76759 0.98738 81 83 63
1.74076 -2.77042 0.97629 80 77 66
1.74589 -2.77315 1.00498 60 59 39
1.72676 -2.77910 1.00069 97 99 85
1.66202 -2.72892 1.01044 151 143 129
1.64840 -2.73987 1.00596 164 150 132
1.43917 -2.85502 1.15606 196 190 175
1.42587 -2.86572 1.15168 207 206 198
1.42586 -2.85579 1.16222 213 215 207
1.41260 -2.86645 1.15785 199 197 197
1.17282 -3.21016 1.40676 150 154 154
1.21566 -3.29538 1.41981 113 115 126
1.22703 -3.33290 1.42887 92 99 109
1.21945 -3.34127 1.43535 85 90 93
1.21310 -3.34410 1.42428 84 105 114
1.23149 -3.42166 1.46019 80 82 82
1.24567 -3.41026 1.46485 88 82 68
1.23921 -3.41313 1.45358 79 79 65
1.23293 -3.44482 1.46824 83 87 90
1.22854 -3.45881 1.47542 86 94 97
1.22386 -3.47237 1.48257 93 99 101
1.20302 -3.48088 1.49496 104 119 117
1.19174 -3.48364 1.50097 112 132 131
1.18815 -3.49910 1.50835 126 147 143
1.15549 -3.46601 1.51035 138 161 154
1.16383 -3.50142 1.51995 155 181 177
1.14964 -3.51284 1.51528 176 200 225
1.17196 -3.53684 1.52964 180 195 188
1.16353 -3.54435 1.53618 196 207 193
1.15908 -3.55867 1.54352 208 216 198
1.14475 -3.57019 1.53880 215 226 235
1.15108 -3.56695 1.55015 218 226 214
1.13675 -3.57847 1.54543 223 232 236
1.13994 -3.56974 1.55611 223 231 226
1.12564 -3.58124 1.55141 225 231 233
1.13222 -3.57846 1.56279 220 227 230
1.11792 -3.58996 1.55808 222 225 229
1.08333 -3.60340 1.59371 235 236 238
1.08459 -3.59773 1.57578 229 230 233
1.07685 -3.60628 1.58241 233 234 237
1.05825 -3.64857 1.62172 247 248 239
1.05951 -3.64289 1.60373 250 252 252
1.04916 -3.65469 1.62802 224 211 176
1.03201 -3.64554 1.63216 168 140 87
1.83706 -1.04532 0.29144 99 105 104
1.84235 -1.03948 0.28691 104 109 101
1.83792 -1.04145 0.27919 136 143 140
1.83177 -1.05116 0.29596 102 104 106
1.82512 -1.05658 0.30093 124 125 129
1.81541 -1.06438 0.29773 155 161 176
1.83223 -1.06640 0.30143 147 151 164
1.83095 -1.07357 0.30467 154 155 177
1.83546 -1.08266 0.30605 139 118 136
1.86194 -1.09907 0.30039 115 60 65
1.85285 -1.11159 0.30909 114 61 77
1.86353 -1.12302 0.30859 180 160 165
1.90531 -1.14518 0.29828 241 251 252
2.30717 -1.53568 0.26505 24 2 30
2.29480 -1.54562 0.26098 14 10 41
2.30331 -1.56507 0.27770 8 5 17
2.30441 -1.56012 0.26204 10 7 28
2.40903 -1.62174 0.25182 113 89 72
2.37757 -1.61871 0.26467 202 182 152
2.36478 -1.62899 0.26046 248 238 189
2.40174 -1.64022 0.26194 246 229 192
2.39471 -1.64799 0.26795 240 226 199
2.40308 -1.66269 0.26970 124 91 132
2.39011 -1.67312 0.26543 93 85 77
2.38850 -1.66707 0.27781 102 82 74
2.37556 -1.67748 0.27355 100 91 82
2.93676 -2.21428 0.23785 121 101 94
2.92348 -2.22140 0.24641 118 99 90
2.90563 -2.22602 0.25605 129 108 96
2.89285 -2.23333 0.26445 135 112 102
2.89889 -2.25096 0.26833 135 112 98
2.89342 -2.26233 0.27499 133 109 96
2.88602 -2.27264 0.28212 133 111 91
2.87005 -2.28548 0.27687 118 96 70
2.88270 -2.28526 0.28829 132 115 78
2.86670 -2.29811 0.28303 116 96 69
2.87448 -2.29515 0.29563 128 112 79
2.85848 -2.30801 0.29036 117 97 67
2.85552 -2.29892 0.30546 123 107 79
2.83957 -2.31174 0.30021 120 95 72
2.84432 -2.30706 0.31346 121 102 84
2.82838 -2.31988 0.30822 120 95 76
2.83364 -2.31549 0.32134 121 100 87
2.81771 -2.32829 0.31610 122 96 72
2.82221 -2.32346 0.32939 123 102 81
2.80629 -2.33626 0.32415 120 94 66
2.81488 -2.33381 0.33650 121 95 67
2.81534 -2.34877 0.34186 90 69 71
2.82154 -2.36721 0.34597 74 56 76
2.80551 -2.38010 0.34070 81 65 67
2.80677 -2.37323 0.35478 84 73 74
2.77903 -2.38622 0.37193 107 88 73
2.76307 -2.39904 0.36668 101 87 72
2.76903 -2.39500 0.37965 109 90 76
2.75308 -2.40783 0.37440 105 89 67
2.74243 -2.39357 0.39094 110 91 74
2.72656 -2.40633 0.38571 107 89 67
2.67899 -2.47358 0.44890 87 77 65
2.66309 -2.48636 0.44367 76 61 59
2.67080 -2.49869 0.46189 87 67 52
2.66756 -2.51188 0.46824 109 91 55
2.65159 -2.52471 0.46298 114 97 70
2.46427 -2.82924 0.67669 133 105 63
2.46570 -2.82279 0.65627 132 103 72
2.45002 -2.83461 0.68502 104 78 35
2.43384 -2.84762 0.67969 54 33 29
2.43851 -2.85905 0.69923 98 78 60
2.43610 -2.87407 0.70589 129 107 67
2.41985 -2.88713 0.70055 133 110 67
2.33433 -2.89099 0.75741 128 103 54
2.33575 -2.88462 0.73725 131 106 51
2.32704 -2.89423 0.74470 125 102 52
2.33352 -2.90739 0.76388 122 98 58
2.31748 -2.92028 0.75860 104 82 59
2.19355 -2.99031 0.85693 144 122 84
2.19496 -2.98400 0.83696 144 113 62
2.19250 -3.00692 0.86358 204 206 181
2.17375 -3.00696 0.87193 222 221 192
2.18044 -3.03097 0.87789 183 175 147
2.16740 -3.03637 0.88569 169 163 149
2.15151 -3.04914 0.88047 155 143 129
2.14674 -3.03439 0.89414 156 146 134
2.13079 -3.03683 0.90214 166 167 162
2.10305 -3.02772 0.91107 177 179 163
2.09200 -3.03469 0.91857 186 182 156
2.07284 -3.03365 0.92670 170 154 126
2.03484 -3.01382 0.93621 91 65 68
2.01939 -3.02624 0.93113 74 72 67
1.72149 -2.76696 0.98357 60 61 50
1.72272 -2.76142 0.96606 80 77 71
1.65129 -2.72704 0.99990 152 144 129
1.63771 -2.73796 0.99543 164 149 123
1.33460 -2.93870 1.21941 176 189 186
1.34783 -2.92807 1.22376 182 192 196
1.34180 -2.93075 1.21325 181 194 193
1.34063 -2.93602 1.22991 181 192 191
1.32137 -2.94934 1.21505 165 172 183
1.32707 -2.94623 1.22555 166 178 183
1.32590 -2.95150 1.24222 167 178 181
1.31988 -2.95418 1.23171 159 170 178
1.31385 -2.95686 1.22120 166 177 185
1.17789 -3.21070 1.39028 151 161 161
1.19137 -3.19986 1.39471 148 159 163
1.18522 -3.20260 1.38400 147 159 163
1.17633 -3.22768 1.39729 138 146 157
1.21745 -3.31064 1.40990 98 112 134
1.20359 -3.32179 1.40533 81 110 136
1.21405 -3.32542 1.41690 87 111 128
1.20016 -3.33659 1.41233 83 109 130
1.22547 -3.40449 1.44126 79 103 112
1.23960 -3.39313 1.44591 76 77 77
1.23316 -3.39600 1.43468 76 97 104
1.21501 -3.40856 1.44742 84 107 124
1.21313 -3.42636 1.45488 89 113 133
1.19783 -3.42258 1.46028 94 123 142
1.18477 -3.44328 1.47378 113 142 154
1.17401 -3.44669 1.47983 123 148 162
1.15447 -3.47793 1.50014 149 183 203
1.16352 -3.51472 1.50981 159 193 216
1.14928 -3.52617 1.50513 177 203 235
1.07077 -3.61788 1.58943 241 246 247
1.07203 -3.61221 1.57148 231 234 237
1.06302 -3.62645 1.59606 247 250 251
1.04895 -3.64626 1.60968 250 251 250
1.05021 -3.64058 1.59172 250 251 253
1.04246 -3.64915 1.59835 250 251 252
1.03711 -3.64714 1.61527 244 241 225
1.02137 -3.64052 1.61980 206 185 142
1.01370 -3.64910 1.62640 155 128 84
1.01245 -3.65474 1.64424 133 119 98
1.00599 -3.65761 1.63299 132 116 95
1.82364 -1.04447 0.28670 134 138 135
1.82449 -1.04061 0.27449 154 163 173
1.82254 -1.05161 0.28983 132 132 136
1.82293 -1.05926 0.29248 140 144 156
1.82189 -1.07406 0.29841 152 147 163
1.84140 -1.08808 0.29486 130 92 107
1.85397 -1.09994 0.29361 112 40 52
1.84790 -1.10568 0.29845 102 24 40
1.84183 -1.11141 0.30328 108 57 92
1.85898 -1.12505 0.30065 164 159 182
1.84898 -1.13308 0.29736 236 240 240
1.89222 -1.15235 0.29586 245 250 251
1.89132 -1.15640 0.30867 254 254 254
1.88205 -1.16052 0.29251 231 235 237
2.27464 -1.51656 0.25927 143 147 179
2.27572 -1.51169 0.24386 247 247 248
2.29741 -1.53644 0.25642 29 7 16
2.28507 -1.54636 0.25236 14 11 44
2.29141 -1.56488 0.26961 20 7 22
2.29251 -1.55993 0.25398 10 7 25
2.33424 -1.59410 0.26124 142 123 93
2.37865 -1.62436 0.25255 219 196 159
2.35562 -1.63568 0.26704 210 195 163
2.37843 -1.65684 0.26464 109 85 102
2.92452 -2.22913 0.23168 98 78 77
2.90854 -2.24198 0.22642 105 84 62
2.90667 -2.23375 0.24138 106 85 76
2.89073 -2.24657 0.23613 110 87 58
2.89927 -2.24403 0.24849 112 92 74
2.88332 -2.25685 0.24324 114 90 62
2.89657 -2.25693 0.25445 116 95 78
2.88060 -2.26977 0.24920 115 92 61
2.88841 -2.26682 0.26176 116 94 76
2.87243 -2.27966 0.25650 116 93 62
2.88041 -2.27681 0.26903 116 94 73
2.86443 -2.28966 0.26377 118 95 65
2.80448 -2.34988 0.33000 121 91 62
2.80589 -2.34353 0.30990 122 95 71
2.79721 -2.35311 0.31732 123 96 65
2.78853 -2.36270 0.32475 121 91 64
2.80413 -2.36444 0.33553 101 76 63
2.78815 -2.37729 0.33027 105 76 59
2.78212 -2.38087 0.35145 86 72 63
2.77484 -2.38411 0.33876 85 65 46
2.76615 -2.39370 0.34620 82 67 62
2.76906 -2.38781 0.35986 96 82 68
2.75311 -2.40062 0.35461 89 77 71
2.71744 -2.41557 0.39321 100 85 77
2.70560 -2.42310 0.40128 70 64 95
2.68970 -2.42801 0.41022 52 51 114
2.69057 -2.44358 0.41558 58 68 135
2.69021 -2.45844 0.42123 52 64 132
2.67928 -2.46652 0.42910 56 62 106
2.66338 -2.47930 0.42388 48 54 102
2.66659 -2.50395 0.44860 87 69 48
2.46736 -2.84097 0.66224 133 106 70
2.46880 -2.83449 0.64175 127 100 69
2.45995 -2.84426 0.64932 129 105 70
2.45599 -2.84870 0.67018 112 86 54
2.44012 -2.86972 0.68505 86 73 59
2.43469 -2.88232 0.69213 124 106 66
2.41841 -2.89540 0.68678 131 106 70
2.19846 -3.00483 0.84309 139 114 73
2.19986 -2.99849 0.82304 141 113 51
2.19656 -3.02074 0.84982 201 201 177
2.17964 -3.02254 0.85805 222 221 193
2.18325 -3.04376 0.86428 187 175 149
2.15956 -3.03901 0.87312 175 165 149
2.11987 -3.03643 0.88992 158 158 140
2.10411 -3.04910 0.88474 167 161 134
2.09533 -3.03034 0.89866 165 163 140
2.07965 -3.04295 0.89350 162 160 137
2.06404 -3.03515 0.91444 161 147 120
2.02801 -3.01717 0.92392 89 63 62
2.01256 -3.02959 0.91883 72 70 67
1.69807 -2.75236 0.97374 62 62 48
1.69929 -2.74687 0.95635 78 77 70
1.69888 -2.76919 0.97959 103 104 85
1.48040 -2.90710 1.12830 171 156 139
1.48160 -2.90169 1.11119 160 143 128
1.43229 -2.86667 1.13489 202 203 184
1.41896 -2.87739 1.13050 205 205 202
1.33174 -2.94546 1.20899 170 179 181
1.33291 -2.94018 1.19229 172 183 185
1.32570 -2.94814 1.19846 168 176 183
1.19747 -3.17561 1.35408 177 181 183
1.21093 -3.16479 1.35851 180 187 191
1.20480 -3.16752 1.34781 179 186 191
1.20361 -3.17288 1.36477 176 185 185
1.19628 -3.18097 1.37104 157 163 168
1.19299 -3.18797 1.36065 162 162 165
1.19180 -3.19334 1.37763 149 155 165
1.18552 -3.19586 1.36691 158 163 165
1.17948 -3.20594 1.37333 157 167 172
1.17317 -3.21562 1.37973 161 167 170
1.18190 -3.24849 1.38797 127 136 158
1.20478 -3.30362 1.39809 89 106 135
1.19097 -3.31472 1.39354 86 109 140
1.20635 -3.36666 1.42068 84 108 128
1.20759 -3.36109 1.40305 87 111 139
1.20819 -3.39010 1.42851 85 111 137
1.19535 -3.41096 1.44196 95 123 152
1.18957 -3.42246 1.44880 100 130 161
1.17373 -3.43856 1.46183 117 150 177
1.16229 -3.44077 1.46777 126 156 190
1.15682 -3.49561 1.49047 150 186 222
1.16005 -3.52274 1.49904 163 196 231
1.06268 -3.61784 1.57774 238 239 241
1.06394 -3.61217 1.55981 231 234 237
1.05620 -3.62072 1.56643 234 237 239
1.06139 -3.63834 1.58589 244 247 250
1.04711 -3.64982 1.58119 248 249 249
1.02878 -3.64653 1.60351 247 248 248
1.03004 -3.64087 1.58560 251 251 251
1.02231 -3.64941 1.59222 248 250 251
1.01897 -3.65110 1.60959 238 232 210
0.99959 -3.63729 1.61316 191 166 123
0.99196 -3.64585 1.61973 146 120 87
0.99071 -3.65146 1.63750 132 121 108
0.98428 -3.65432 1.62630 134 115 100
1.81072 -1.04375 0.28185 157 161 168
1.81157 -1.03990 0.26968 146 157 175
1.80106 -1.05151 0.27867 153 163 175
1.81153 -1.05148 0.28432 152 155 164
1.80185 -1.05926 0.28113 157 167 175
1.81255 -1.05932 0.28673 151 156 172
1.81222 -1.06675 0.28961 157 162 180
1.81438 -1.07503 0.29167 147 134 154
1.83972 -1.09100 0.28610 123 69 87
1.84110 -1.09917 0.28848 109 29 41
1.87319 -1.17353 0.30128 243 244 247
1.87229 -1.17759 0.31410 254 254 254
1.86765 -1.17965 0.30601 252 254 254
2.26339 -1.51664 0.25123 141 141 176
2.26447 -1.51178 0.23584 247 245 244
2.29217 -1.53911 0.24650 29 5 17
2.27982 -1.54904 0.24243 13 10 20
2.28257 -1.56600 0.26068 55 26 26
2.34465 -1.60377 0.24655 162 148 107
2.34628 -1.61517 0.25000 228 204 158
2.35290 -1.62887 0.25204 250 240 202
2.35433 -1.64032 0.25559 175 151 148
2.35038 -1.64938 0.26069 87 65 66
2.34823 -1.65929 0.26529 69 66 82
2.34817 -1.67019 0.26932 81 80 79
2.34703 -1.67531 0.28552 103 92 87
2.34502 -1.67971 0.27422 89 90 78
2.34388 -1.68484 0.29044 104 90 84
2.33802 -1.68745 0.28022 97 88 81
2.33215 -1.69006 0.26999 84 86 75
2.69619 -2.39512 0.37824 87 79 78
2.70477 -2.38564 0.37090 92 84 71
2.68043 -2.40780 0.37305 39 39 110
2.69048 -2.40640 0.38495 68 63 93
2.68819 -2.41987 0.39091 46 45 116
2.68811 -2.43480 0.39642 67 84 144
2.63608 -2.41650 0.41316 90 116 165
2.68659 -2.46401 0.40781 58 75 150
2.66300 -2.50962 0.43516 82 68 52
2.66441 -2.50326 0.41504 48 49 104
2.65728 -2.52121 0.44199 102 88 59
2.64130 -2.53406 0.43673 107 92 69
2.45463 -2.85691 0.65635 118 89 59
2.45607 -2.85042 0.63584 126 102 66
2.45723 -2.87608 0.66220 54 31 25
2.44645 -2.88434 0.67009 82 68 39
2.43984 -2.89603 0.67736 120 101 63
2.42350 -2.90917 0.67198 130 105 71
2.20774 -3.02353 0.82867 136 108 63
2.20915 -3.01716 0.80851 140 112 55
2.21336 -3.04665 0.83461 194 191 169
2.17804 -3.03112 0.84484 215 218 195
2.16210 -3.04393 0.83959 187 175 171
2.18800 -3.05847 0.85038 196 188 153
2.16535 -3.05475 0.85921 187 179 154
2.13253 -3.04103 0.86897 165 151 132
2.11169 -3.03865 0.87749 165 159 136
2.05858 -3.03994 0.90190 161 151 123
2.03020 -3.02950 0.91085 86 64 66
2.01470 -3.04196 0.90575 74 68 69
1.69116 -2.75452 0.96282 61 64 52
1.69238 -2.74902 0.94544 82 81 67
1.68888 -2.76820 0.96886 103 107 85
1.68909 -2.78452 0.97475 152 146 119
1.67522 -2.79567 0.97019 165 150 126
1.47189 -2.90709 1.11754 169 157 142
1.47309 -2.90169 1.10045 156 140 125
1.43316 -2.87769 1.12422 205 208 196
1.41978 -2.88844 1.11982 207 207 198
1.38693 -2.88881 1.14913 212 214 208
1.39415 -2.88084 1.14295 215 215 212
1.38810 -2.88353 1.13241 213 216 208
1.39297 -2.88612 1.15967 213 213 209
1.37366 -2.89948 1.14476 191 196 194
1.38246 -2.90019 1.15531 195 198 196
1.38128 -2.90549 1.17205 186 191 192
1.37523 -2.90818 1.16149 185 192 193
1.36917 -2.91087 1.15094 185 193 196
1.32188 -2.96052 1.20472 173 180 190
1.30862 -2.97118 1.20035 187 197 205
1.31642 -2.97080 1.21094 179 189 194
1.31525 -2.97609 1.22768 175 186 188
1.30315 -2.98147 1.20658 190 201 204
1.24903 -3.14958 1.30684 180 191 199
1.26258 -3.13868 1.31130 182 191 195
1.25640 -3.14143 1.30054 184 193 198
1.25521 -3.14683 1.31761 180 190 196
1.24783 -3.15498 1.32392 179 189 195
1.23387 -3.16528 1.31943 179 189 192
1.23267 -3.17067 1.33650 179 188 198
1.22339 -3.16886 1.32546 177 187 201
1.22219 -3.17425 1.34251 177 187 196
1.21426 -3.17438 1.33160 175 186 197
1.20432 -3.17866 1.33765 174 185 191
1.19558 -3.18469 1.34380 172 182 185
1.18851 -3.19320 1.35011 168 176 179
1.18341 -3.20472 1.35662 169 179 181
1.17701 -3.21429 1.36301 168 181 186
1.17096 -3.22441 1.36945 168 175 181
1.18791 -3.27013 1.37857 123 129 153
1.17422 -3.28114 1.37407 97 113 138
1.19056 -3.29409 1.38616 92 106 135
1.17680 -3.30515 1.38163 94 113 144
1.19468 -3.36110 1.40887 89 112 138
1.19865 -3.40866 1.42451 95 123 158
1.18119 -3.40128 1.42967 105 133 164
1.18513 -3.42856 1.43790 112 142 171
1.16701 -3.44092 1.45060 130 164 197
1.15184 -3.43691 1.45596 139 173 201
1.15212 -3.47995 1.47161 155 189 220
1.13799 -3.49131 1.46696 185 212 238
1.15510 -3.50653 1.48001 161 199 225
1.15563 -3.52917 1.48807 171 205 236
1.14135 -3.54065 1.48338 202 224 243
1.00473 -3.63913 1.59637 246 248 244
1.00598 -3.63350 1.57856 251 250 251
0.99829 -3.64199 1.58514 251 251 251
0.99393 -3.64162 1.60215 234 224 196
0.97610 -3.63043 1.60608 182 152 115
0.97180 -3.64536 1.61349 145 117 97
0.97056 -3.65096 1.63120 132 119 105
0.96415 -3.65381 1.62003 135 115 103
0.95775 -3.65666 1.60887 136 113 98
1.80734 -1.04603 0.27383 151 159 177
1.80819 -1.04218 0.26166 121 133 154
1.80701 -1.06847 0.28214 160 167 177
1.80664 -1.07593 0.28502 144 131 148
1.83407 -1.09262 0.27865 117 70 83
1.82421 -1.10054 0.27541 90 47 55
1.83593 -1.10096 0.28084 105 43 55
1.83307 -1.10775 0.28461 134 87 103
1.85870 -1.12424 0.27898 209 195 197
1.88676 -1.14176 0.27262 245 252 250
1.88245 -1.14827 0.27694 246 251 251
1.87658 -1.15425 0.28178 246 249 248
1.87080 -1.16026 0.28659 239 244 238
1.85334 -1.16211 0.29519 210 202 216
1.83353 -1.16305 0.30452 196 172 212
1.87263 -1.18519 0.29483 230 244 254
1.87172 -1.18926 0.30770 254 254 254
1.86481 -1.19051 0.30031 249 253 254
1.86391 -1.19457 0.31317 254 254 254
1.85203 -1.20215 0.31035 251 254 254
1.85112 -1.20621 0.32320 254 254 254
1.84183 -1.21035 0.30699 235 225 231
2.23797 -1.51067 0.24746 134 116 165
2.23905 -1.50584 0.23218 248 246 246
2.26880 -1.55459 0.24945 10 6 20
2.25730 -1.55990 0.25660 93 56 60
2.33719 -1.60560 0.23698 185 166 137
2.34269 -1.61873 0.23926 239 219 178
2.34928 -1.64327 0.24520 135 101 137
2.33477 -1.64752 0.25333 74 58 55
2.32850 -1.65551 0.25908 44 37 40
2.32477 -1.66467 0.26410 46 48 70
2.33094 -1.67849 0.26633 63 66 80
2.31810 -1.68881 0.26210 73 70 74
2.69349 -2.38630 0.35930 73 66 72
2.70206 -2.37683 0.35197 83 64 62
2.69489 -2.38002 0.33945 84 66 60
2.67804 -2.39146 0.36819 57 53 90
2.67344 -2.41829 0.38003 47 56 132
2.65102 -2.41893 0.39044 81 116 161
2.62910 -2.41978 0.40069 82 114 171
2.67000 -2.46119 0.39720 46 60 155
2.65413 -2.47395 0.39197 29 44 145
2.66361 -2.47220 0.40410 30 41 136
2.64772 -2.48497 0.39888 33 45 137
2.65866 -2.51481 0.42185 68 65 84
2.66007 -2.50844 0.40171 39 50 130
2.65137 -2.51805 0.40915 52 56 117
2.64267 -2.52766 0.41659 66 67 102
2.65228 -2.52598 0.42881 91 82 73
2.45166 -2.86384 0.64272 123 92 56
2.45310 -2.85735 0.62218 128 104 65
2.45404 -2.88288 0.64856 63 35 22
2.44426 -2.89198 0.65631 79 61 27
2.43857 -2.90449 0.66344 117 98 62
2.42220 -2.91765 0.65806 131 106 71
2.21004 -3.03579 0.81488 136 107 63
2.21146 -3.02939 0.79466 140 113 57
2.21206 -3.05560 0.82118 187 180 154
2.18916 -3.05184 0.83020 200 198 179
2.16320 -3.06292 0.84600 204 201 170
2.14721 -3.07577 0.84074 204 203 176
2.14297 -3.06135 0.85461 196 187 155
2.12705 -3.07415 0.84937 207 203 176
2.11240 -3.04955 0.86419 192 182 157
2.08355 -3.03917 0.87350 182 175 146
2.06550 -3.03921 0.88170 170 163 135
2.04990 -3.04155 0.88964 164 153 123
2.02675 -3.03627 0.89821 89 60 72
2.01123 -3.04875 0.89311 71 67 67
1.68463 -2.75707 0.95188 65 65 53
1.68585 -2.75158 0.93449 80 80 69
1.68365 -2.77212 0.95779 106 107 84
1.45853 -2.90126 1.10690 161 150 139
1.45973 -2.89588 1.08987 155 139 123
1.42721 -2.88058 1.11359 203 208 194
1.41384 -2.89134 1.10919 208 210 202
1.38765 -2.89986 1.13855 207 211 202
1.38883 -2.89456 1.12178 211 216 205
1.37435 -2.91056 1.13417 188 194 195
1.32519 -2.95800 1.18804 176 188 193
1.33241 -2.95001 1.18185 178 188 191
1.31811 -2.96617 1.19422 182 193 200
1.30595 -3.03841 1.22602 190 204 212
1.31938 -3.02761 1.23044 189 200 203
1.31326 -3.03033 1.21976 190 204 210
1.31207 -3.03569 1.23669 190 200 206
1.30476 -3.04376 1.24295 191 200 206
1.30600 -3.05648 1.23256 191 205 212
1.30481 -3.06185 1.24955 191 199 207
1.30240 -3.06968 1.23900 191 204 212
1.30120 -3.07506 1.25602 190 199 204
1.29445 -3.07698 1.24526 188 202 208
1.29325 -3.08236 1.26228 189 199 202
1.28422 -3.08112 1.25141 185 199 206
1.28303 -3.08649 1.26840 189 197 199
1.27416 -3.08543 1.25754 183 196 202
1.27297 -3.09080 1.27451 189 196 199
1.26731 -3.09420 1.26384 182 193 200
1.26612 -3.09957 1.28081 186 196 202
1.26307 -3.10665 1.27029 178 192 202
1.26187 -3.11203 1.28729 184 194 200
1.25862 -3.11887 1.27675 173 187 202
1.25743 -3.12426 1.29378 182 194 198
1.25455 -3.13168 1.28326 170 181 196
1.25011 -3.14401 1.28976 167 174 193
1.24373 -3.15359 1.29614 161 169 191
1.23848 -3.16484 1.30261 158 164 187
1.23775 -3.20187 1.31641 150 148 183
1.23411 -3.21572 1.32310 148 146 179
1.22439 -3.22056 1.32927 141 143 169
1.21163 -3.22078 1.33514 136 138 157
1.21127 -3.23967 1.34218 131 132 154
1.20176 -3.24477 1.34835 131 130 152
1.19276 -3.25060 1.35455 126 123 153
1.18793 -3.26284 1.36119 129 125 160
1.18364 -3.27597 1.36791 103 117 151
1.17692 -3.32547 1.38897 94 116 146
1.18200 -3.35385 1.39699 98 120 146
1.18541 -3.40050 1.41241 112 141 170
1.17224 -3.42084 1.42578 138 166 190
1.16795 -3.43482 1.43281 150 177 204
1.16025 -3.44320 1.43936 157 186 219
1.14617 -3.45452 1.43473 201 218 236
1.15432 -3.45455 1.44618 166 194 220
1.15328 -3.47416 1.45378 173 201 227
1.13914 -3.48552 1.44913 210 228 238
1.15451 -3.49774 1.46180 178 206 231
1.14030 -3.50915 1.45712 214 229 245
0.98326 -3.63629 1.58989 250 248 236
0.98451 -3.63069 1.57216 249 249 249
0.96348 -3.62115 1.59335 221 206 173
0.96413 -3.64572 1.60200 165 134 101
1.79975 -1.05446 0.26995 135 148 167
1.79731 -1.06118 0.27349 146 157 163
1.79670 -1.06852 0.27642 152 157 154
1.79696 -1.07617 0.27906 133 117 127
1.82860 -1.09429 0.27115 105 68 78
1.81875 -1.10221 0.26790 77 42 51
1.81722 -1.11367 0.28334 158 156 167
1.85792 -1.14341 0.27548 206 193 246
1.86338 -1.15330 0.27656 224 208 248
1.86145 -1.16064 0.28008 229 211 243
1.84722 -1.16362 0.28766 194 182 208
1.81147 -1.15880 0.30225 137 133 160
1.82173 -1.17049 0.30179 168 160 184
1.81169 -1.17855 0.29848 180 177 187
1.86022 -1.19260 0.29218 222 219 245
1.83859 -1.20095 0.30508 236 224 234
1.82843 -1.20912 0.30173 215 204 205
2.22040 -1.50798 0.24148 151 149 173
2.22147 -1.50317 0.22625 248 248 248
2.26857 -1.53880 0.23059 31 8 19
2.25627 -1.54869 0.22655 17 11 16
2.25575 -1.55384 0.24187 14 8 17
2.32261 -1.59364 0.22570 115 94 77
2.32999 -1.60753 0.22734 198 179 151
2.32728 -1.61701 0.23200 244 228 176
2.31307 -1.62134 0.24005 226 207 168
2.33186 -1.64060 0.23842 96 62 99
2.32848 -1.64990 0.24332 78 59 52
2.32310 -1.65829 0.24881 67 40 50
2.31949 -1.66752 0.25379 58 43 55
2.31553 -1.67661 0.25888 54 48 59
2.30273 -1.68690 0.25467 87 78 63
2.67132 -2.38013 0.35026 58 43 68
2.67271 -2.37389 0.33050 73 66 75
2.66415 -2.39042 0.35725 57 47 91
2.66466 -2.40557 0.36248 60 58 110
2.65941 -2.41713 0.36905 63 73 124
2.66591 -2.43626 0.37299 69 89 140
2.66043 -2.44778 0.37965 48 67 151
2.64460 -2.46050 0.37444 26 43 152
2.66006 -2.46265 0.38518 27 45 154
2.64420 -2.47540 0.37996 30 46 151
2.64823 -2.54692 0.42100 87 82 87
2.64965 -2.54053 0.40078 41 51 125
2.64681 -2.55331 0.44123 114 94 61
2.63950 -2.55657 0.42848 107 92 73
2.44529 -2.86801 0.62959 127 97 59
2.44674 -2.86152 0.60905 132 107 72
2.45152 -2.89026 0.63478 74 43 30
2.44260 -2.90011 0.64241 77 54 32
2.43869 -2.91414 0.64926 114 96 64
2.42228 -2.92733 0.64386 130 107 69
2.20676 -3.04285 0.80166 135 109 60
2.20818 -3.03645 0.78140 139 111 62
2.20534 -3.05946 0.80830 181 174 143
2.18669 -3.05971 0.81691 203 203 171
2.17811 -3.06952 0.82437 192 185 171
2.15893 -3.06908 0.83298 202 201 178
2.08466 -3.05050 0.86019 203 199 162
2.06928 -3.05320 0.86820 200 190 152
2.04184 -3.04377 0.87733 183 167 127
2.03032 -3.05010 0.88488 87 59 64
2.01474 -3.06263 0.87975 71 69 66
1.45590 -2.90824 1.09608 149 140 137
1.45710 -2.90284 1.07902 155 139 127
1.38827 -2.91082 1.12791 202 209 199
1.38945 -2.90550 1.11108 212 215 208
1.37606 -2.92978 1.14033 182 193 200
1.37487 -2.93511 1.15717 185 194 197
1.37431 -2.94479 1.14654 182 195 203
1.37312 -2.95012 1.16342 186 195 199
1.37149 -2.95852 1.15278 182 196 205
1.37030 -2.96387 1.16970 184 194 198
1.33365 -2.96213 1.17138 176 193 199
1.32076 -2.96281 1.17751 176 192 201
1.31311 -2.97024 1.18369 177 190 203
1.30878 -2.98207 1.18993 179 187 205
1.30938 -3.00047 1.19630 178 185 206
1.30819 -3.00579 1.21313 190 203 207
1.30784 -3.01616 1.20266 174 181 207
1.30098 -3.06075 1.22189 167 169 194
1.29075 -3.06490 1.22806 163 160 186
1.28888 -3.08052 1.23456 158 151 181
1.28148 -3.08858 1.24084 150 141 173
1.27540 -3.09847 1.24719 141 134 162
1.27205 -3.11222 1.25369 133 127 152
1.26955 -3.12727 1.26025 128 121 145
1.26319 -3.13689 1.26663 124 113 143
1.25700 -3.14678 1.27303 117 99 134
1.25302 -3.15986 1.27957 113 94 131
1.24828 -3.17192 1.28609 107 85 128
1.23465 -3.18288 1.28160 68 20 48
1.24202 -3.18180 1.29252 102 75 120
1.22838 -3.19277 1.28803 73 23 49
1.23787 -3.19481 1.29911 101 65 118
1.23371 -3.20788 1.30572 98 55 112
1.23110 -3.22331 1.31248 95 47 103
1.22712 -3.23677 1.31916 87 41 93
1.22011 -3.24573 1.32560 82 38 78
1.21104 -3.25159 1.33185 79 34 66
1.20234 -3.25796 1.33813 73 26 59
1.19407 -3.26497 1.34444 70 22 79
1.18723 -3.27419 1.35089 70 50 107
1.17949 -3.28201 1.35725 77 97 139
1.16847 -3.28469 1.36324 102 122 138
1.16820 -3.30426 1.37043 107 126 141
1.16212 -3.31475 1.37700 113 131 152
1.17310 -3.35257 1.38563 125 143 165
1.17483 -3.37588 1.39325 137 158 182
1.16653 -3.40388 1.40715 168 190 206
1.16110 -3.41590 1.41397 178 199 214
1.15740 -3.43083 1.42105 189 208 220
1.15053 -3.44056 1.42770 196 213 232
1.13647 -3.45185 1.42307 231 239 245
0.96832 -3.62257 1.57662 249 250 248
0.96955 -3.61699 1.55898 250 252 252
0.96193 -3.62541 1.56550 249 252 252
0.95772 -3.62518 1.58240 242 238 222
0.94872 -3.63082 1.58856 199 172 142
0.94393 -3.64480 1.59579 149 118 89
0.94269 -3.65037 1.61342 132 115 104
0.93632 -3.65321 1.60230 132 111 93
1.78035 -1.04414 0.26477 103 112 127
1.78120 -1.04032 0.25269 83 90 105
1.78157 -1.05946 0.26969 129 138 146
1.77964 -1.06634 0.27305 140 142 142
1.81579 -1.08584 0.26340 110 90 105
1.82102 -1.09526 0.26437 83 47 65
1.81117 -1.10317 0.26113 68 47 41
1.81154 -1.10751 0.27311 78 51 59
1.80705 -1.10951 0.26529 74 53 53
1.82055 -1.11835 0.27286 83 63 93
1.81064 -1.12631 0.26960 84 64 72
1.82592 -1.12803 0.27385 89 71 132
1.83981 -1.14074 0.27201 108 89 143
1.81968 -1.14159 0.28158 152 133 166
1.82072 -1.14988 0.28406 171 154 178
1.80687 -1.15287 0.29150 156 142 152
1.80087 -1.15864 0.29633 111 94 116
1.78602 -1.16118 0.30407 112 95 135
1.77610 -1.16915 0.30081 170 159 157
1.79710 -1.18120 0.30614 210 196 203
1.79255 -1.18323 0.29820 205 191 188
1.78710 -1.18924 0.30285 211 197 190
2.21318 -1.50970 0.23240 182 176 182
2.21425 -1.50489 0.21719 246 248 249
2.25875 -1.53948 0.22211 42 11 20
2.24647 -1.54935 0.21806 12 9 32
2.24538 -1.55424 0.23354 26 13 20
2.30485 -1.59088 0.21931 126 113 87
2.32244 -1.60930 0.21782 204 187 157
2.31459 -1.61648 0.22399 245 228 171
2.31134 -1.62572 0.22880 196 174 136
2.31541 -1.63833 0.23145 95 67 76
2.30270 -1.64855 0.22726 88 77 69
2.31153 -1.64737 0.23646 86 71 64
2.29881 -1.65759 0.23228 92 79 61
2.31001 -1.65751 0.24080 87 73 57
2.29726 -1.66776 0.23661 94 81 67
2.31154 -1.66912 0.24425 92 78 55
2.29876 -1.67939 0.24005 93 82 71
2.67430 -2.38965 0.33541 53 43 77
2.67569 -2.38339 0.31560 58 48 101
2.66386 -2.39792 0.34317 91 95 112
2.65162 -2.40503 0.35135 111 121 131
2.65462 -2.43683 0.36136 63 80 127
2.65386 -2.45140 0.36693 33 52 140
2.63803 -2.46413 0.36172 23 41 149
2.64384 -2.55216 0.40761 54 61 110
2.64526 -2.54576 0.38737 31 44 140
2.63652 -2.55542 0.39485 31 45 129
2.64216 -2.56665 0.41357 83 80 88
2.64074 -2.57306 0.43386 116 95 64
2.63340 -2.57633 0.42107 107 93 69
2.45157 -2.89980 0.62053 84 55 32
2.44046 -2.90786 0.62853 71 50 28
2.44080 -2.92549 0.63469 108 93 60
2.20327 -3.04973 0.78842 135 110 64
2.20469 -3.04332 0.76814 141 112 61
2.20234 -3.06686 0.79498 175 169 138
2.18287 -3.06633 0.80374 213 216 184
2.16921 -3.07125 0.81179 212 205 175
2.15880 -3.07928 0.81945 190 179 161
2.13565 -3.07484 0.82851 182 179 169
2.08810 -3.06418 0.84657 201 203 181
2.07254 -3.06675 0.85464 212 210 170
2.04879 -3.06102 0.86351 195 180 132
2.03177 -3.06189 0.87165 92 65 66
2.01614 -3.07445 0.86651 73 70 61
1.43787 -2.91368 1.09174 170 169 167
1.40458 -2.90713 1.10471 210 210 202
1.39118 -2.91790 1.10030 214 216 212
1.38902 -2.92203 1.11720 200 208 203
1.38080 -2.92891 1.12344 186 192 194
1.37598 -2.94006 1.12965 168 169 191
1.37392 -2.95475 1.13586 153 147 181
1.36959 -2.96662 1.14210 146 135 175
1.36194 -2.97429 1.14836 142 131 174
1.35501 -2.98287 1.15463 137 126 166
1.34659 -2.98954 1.16089 134 126 161
1.33011 -2.98564 1.16707 129 120 156
1.32232 -2.99303 1.17330 126 112 150
1.30894 -3.00379 1.16889 93 29 75
1.31531 -3.00144 1.17953 125 103 147
1.30192 -3.01220 1.17513 96 35 72
1.30959 -3.01157 1.18579 127 103 149
1.29619 -3.02234 1.18139 96 41 71
1.30742 -3.02649 1.19213 123 98 144
1.30481 -3.05895 1.20496 120 83 129
1.30466 -3.07691 1.21146 121 78 125
1.30613 -3.09723 1.21806 117 65 115
1.29855 -3.10518 1.22439 111 52 106
1.29083 -3.11292 1.23071 104 43 94
1.27092 -3.12209 1.24316 89 30 64
1.26618 -3.13401 1.24960 81 23 49
1.26178 -3.14648 1.25609 80 19 45
1.25741 -3.15903 1.26259 76 11 39
1.25064 -3.16816 1.26898 72 12 41
1.24451 -3.17824 1.27541 69 16 48
1.23236 -3.21791 1.29520 75 23 46
1.22971 -3.23335 1.30195 79 22 43
1.22224 -3.24163 1.30835 82 25 47
1.21382 -3.24849 1.31468 88 33 48
1.20478 -3.25437 1.32094 96 37 39
1.19705 -3.26222 1.32731 102 45 46
1.18879 -3.26926 1.33363 100 44 67
1.18210 -3.27871 1.34009 60 30 68
1.17536 -3.28812 1.34656 49 61 106
1.16338 -3.28928 1.35248 104 123 145
1.16712 -3.31527 1.36007 136 149 147
1.16966 -3.33959 1.36761 156 165 173
1.15981 -3.34420 1.37379 179 186 197
1.16114 -3.36685 1.38129 195 207 216
1.15710 -3.38094 1.38819 209 220 221
1.15244 -3.39410 1.39505 219 230 233
1.13850 -3.40531 1.39046 248 250 250
1.15135 -3.41321 1.40239 225 235 238
1.13736 -3.42446 1.39779 248 250 250
1.14380 -3.42172 1.40891 229 239 240
1.12980 -3.43297 1.40431 247 248 250
1.14399 -3.44318 1.41651 230 239 245
1.12993 -3.45447 1.41189 248 248 249
0.94660 -3.61867 1.57014 249 250 245
0.94783 -3.61312 1.55257 247 248 250
0.94025 -3.62150 1.55906 248 248 249
0.93403 -3.61720 1.57539 232 221 196
0.93536 -3.64326 1.58411 179 150 110
0.92474 -3.64561 1.58984 136 110 83
0.92350 -3.65116 1.60742 133 116 99
0.91715 -3.65399 1.59633 129 111 93
0.91079 -3.65682 1.58525 131 107 86
1.76491 -1.04254 0.26101 99 106 114
1.76576 -1.03874 0.24898 74 85 100
1.77485 -1.06066 0.26285 129 136 142
1.77140 -1.06703 0.26671 140 140 141
1.78718 -1.07980 0.26394 106 85 92
1.80681 -1.09399 0.25989 75 45 44
1.79700 -1.10188 0.25667 68 52 43
1.79905 -1.11452 0.27077 77 55 64
1.79992 -1.11060 0.25838 73 57 51
1.79457 -1.11651 0.26296 79 62 63
1.80849 -1.14126 0.27591 140 126 115
1.80348 -1.14738 0.28040 144 133 121
1.79603 -1.15262 0.28571 133 119 111
1.78611 -1.16060 0.28244 137 125 120
1.79242 -1.15924 0.28973 117 97 109
1.78249 -1.16723 0.28646 140 124 132
1.78150 -1.16319 0.29620 119 103 125
1.77158 -1.17116 0.29293 174 158 158
1.73449 -1.26662 0.35470 109 89 106
1.74454 -1.25854 0.35801 215 205 202
1.73538 -1.26262 0.34204 159 140 145
1.73907 -1.26458 0.36269 130 121 155
1.73361 -1.27062 0.36737 161 148 163
1.72444 -1.27470 0.35140 91 80 113
2.20608 -1.51146 0.22331 181 179 185
2.20714 -1.50665 0.20810 200 215 231
2.24029 -1.53639 0.21632 41 11 26
2.23459 -1.55445 0.22537 48 29 36
2.27661 -1.58343 0.21621 139 126 104
2.29427 -1.61248 0.21836 240 217 170
2.27946 -1.61643 0.22662 158 127 114
2.29725 -1.63525 0.22506 93 62 63
2.28460 -1.64542 0.22090 89 79 73
2.66766 -2.39317 0.32279 65 58 124
2.66905 -2.38691 0.30297 51 36 118
2.67945 -2.41550 0.32526 133 144 168
2.66114 -2.41884 0.33493 167 179 189
2.66164 -2.43415 0.34014 143 157 177
2.64745 -2.44005 0.34880 73 91 147
2.64551 -2.45388 0.35461 27 45 142
2.62969 -2.46660 0.34941 25 41 142
2.63824 -2.57226 0.40003 52 59 106
2.63967 -2.56584 0.37973 26 42 141
2.63090 -2.57553 0.38723 35 46 123
2.63505 -2.58580 0.40632 88 81 79
2.63362 -2.59223 0.42666 115 95 59
2.62627 -2.59550 0.41384 108 92 60
2.44059 -2.88301 0.60195 133 107 58
2.44203 -2.87649 0.58134 133 107 63
2.45059 -2.90853 0.60639 92 67 30
2.43413 -2.92176 0.60098 63 35 20
2.43815 -2.91551 0.61463 66 43 22
2.43911 -2.93372 0.62065 102 86 59
2.42999 -2.94351 0.62835 128 107 72
2.42853 -2.95007 0.64913 134 105 66
2.42102 -2.95342 0.63603 133 107 69
2.41350 -2.95676 0.62293 133 109 66
2.20153 -3.05831 0.77493 136 109 65
2.20295 -3.05189 0.75461 140 113 60
2.20154 -3.07640 0.78135 169 159 132
2.17840 -3.07233 0.79062 212 217 196
2.17405 -3.08628 0.79759 219 212 187
2.14924 -3.09853 0.81343 165 155 140
2.13521 -3.10299 0.82151 163 154 144
2.11916 -3.11589 0.81623 167 159 146
2.09487 -3.08126 0.83247 174 172 168
2.07900 -3.09402 0.82725 170 164 143
2.07335 -3.07793 0.84126 192 189 169
2.05386 -3.07648 0.84977 192 179 134
2.03590 -3.07644 0.85807 95 71 63
2.02021 -3.08905 0.85291 76 77 62
1.40765 -2.90410 1.08777 191 200 194
1.40060 -2.91247 1.09400 214 218 212
1.38683 -2.92963 1.10648 198 205 202
1.37946 -2.93760 1.11272 182 187 187
1.37746 -2.95237 1.11889 143 127 154
1.36445 -2.95322 1.12522 106 62 114
1.36005 -2.96499 1.13144 96 43 102
1.35332 -2.97381 1.13769 96 40 102
1.34688 -2.98302 1.14394 96 38 93
1.34105 -2.99303 1.15020 94 36 82
1.33339 -3.00067 1.15646 93 36 77
1.31350 -2.99215 1.16265 92 32 76
1.31328 -3.06343 1.18807 98 46 72
1.32163 -3.09302 1.19472 103 44 72
1.30427 -3.10599 1.20736 113 45 72
1.29214 -3.10766 1.21357 117 49 72
1.28462 -3.11568 1.21990 118 52 69
1.27377 -3.11900 1.22611 119 56 54
1.26351 -3.12312 1.23232 119 56 57
1.25412 -3.12841 1.23855 117 61 53
1.24736 -3.13744 1.24489 120 64 55
1.23901 -3.14419 1.25115 119 62 55
1.23885 -3.16283 1.25785 117 70 67
1.23465 -3.17568 1.26436 118 82 77
1.22959 -3.18733 1.27084 118 93 91
1.22406 -3.19835 1.27731 119 98 94
1.21902 -3.21012 1.28383 119 100 91
1.21285 -3.22024 1.29028 123 104 94
1.20600 -3.22936 1.29669 130 108 94
1.20027 -3.24019 1.30319 140 126 106
1.18658 -3.25119 1.29869 169 186 185
1.19602 -3.25332 1.30983 150 140 121
1.18947 -3.26296 1.31629 158 153 128
1.18310 -3.27292 1.32277 142 130 118
1.17632 -3.28224 1.32923 60 49 59
1.16860 -3.29011 1.33560 20 22 83
1.15384 -3.32716 1.35559 216 220 213
1.14756 -3.33741 1.36214 235 238 236
1.13376 -3.34850 1.35760 252 254 253
1.14600 -3.35536 1.36924 244 246 245
1.13216 -3.36648 1.36469 251 253 254
1.14421 -3.37307 1.37636 247 249 247
1.13033 -3.38422 1.37179 251 252 254
1.14440 -3.39416 1.38376 249 250 250
1.13047 -3.40536 1.37918 251 252 253
0.91697 -3.59872 1.56175 248 246 233
0.91820 -3.59322 1.54434 247 248 249
0.91390 -3.61592 1.56928 217 197 162
0.90812 -3.62777 1.57617 160 125 87
1.76056 -1.04448 0.25343 94 103 114
1.76140 -1.04067 0.24140 71 84 94
1.76539 -1.06094 0.25698 127 138 141
1.75971 -1.06657 0.26161 129 130 135
1.77660 -1.07972 0.25837 97 78 87
1.79700 -1.09418 0.25396 73 48 44
1.78721 -1.10205 0.25074 64 51 49
1.80800 -1.14471 0.26664 117 107 103
1.80888 -1.14075 0.25410 100 84 88
1.80346 -1.14673 0.25873 117 104 109
1.79805 -1.15271 0.26336 140 122 113
1.78931 -1.15384 0.27856 136 119 104
1.77939 -1.16182 0.27530 158 145 130
1.73122 -1.26920 0.34630 105 79 87
1.72117 -1.27729 0.34299 98 85 95
2.21480 -1.52005 0.20925 122 108 138
2.21588 -1.51522 0.19398 72 106 155
2.22108 -1.53294 0.21087 31 6 16
2.22002 -1.55296 0.21842 68 53 49
2.27036 -1.58570 0.20649 150 137 120
2.28702 -1.61435 0.20882 218 195 164
2.25734 -1.61150 0.22165 125 92 109
2.24485 -1.62154 0.21754 88 69 60
2.28340 -1.63410 0.21747 89 66 60
2.27078 -1.64425 0.21331 91 78 70
2.99590 -2.26785 0.10864 78 58 41
3.00480 -2.25801 0.10102 91 87 71
3.00336 -2.26453 0.12164 81 57 42
2.99445 -2.27437 0.12926 82 60 43
2.98699 -2.27769 0.11626 78 56 46
2.97953 -2.28101 0.10325 74 54 46
2.66573 -2.39967 0.30902 80 79 159
2.66329 -2.41303 0.31486 150 169 203
2.65246 -2.42109 0.32275 166 185 215
2.65414 -2.43717 0.32763 116 136 188
2.63629 -2.44069 0.33720 52 67 149
2.63747 -2.45654 0.34223 25 40 139
2.62165 -2.46926 0.33703 26 38 132
2.62933 -2.59021 0.39313 65 63 96
2.63076 -2.58377 0.37278 26 42 134
2.62197 -2.59348 0.38030 42 49 115
2.62902 -2.60583 0.39878 95 83 68
2.62759 -2.61228 0.41918 113 95 57
2.62021 -2.61556 0.40632 107 91 57
2.44391 -2.89525 0.58707 134 108 49
2.44537 -2.88871 0.56639 133 106 61
2.44330 -2.91205 0.59328 98 76 27
2.42685 -2.92527 0.58786 58 30 26
2.43162 -2.93708 0.60755 96 78 56
2.20676 -3.07357 0.76048 136 109 63
2.20819 -3.06712 0.74007 138 111 60
2.20222 -3.08740 0.76747 162 145 125
2.18154 -3.08571 0.77651 207 209 195
2.17360 -3.09624 0.78393 217 208 184
2.16536 -3.10649 0.79138 191 176 144
2.14171 -3.10159 0.80068 180 168 129
2.05664 -3.08972 0.83616 186 176 127
2.03736 -3.08837 0.84467 102 89 61
2.02162 -3.10102 0.83949 81 81 70
1.41686 -2.90855 1.07058 151 142 144
1.41805 -2.90319 1.05362 159 141 130
1.40338 -2.90908 1.07705 181 188 197
1.39633 -2.91747 1.08329 214 221 222
1.38916 -2.92570 1.08954 214 217 212
1.38099 -2.93269 1.09581 196 202 198
1.37681 -2.94469 1.10199 178 182 181
1.37402 -2.95850 1.10816 136 113 133
1.35956 -2.95749 1.11454 98 51 86
1.35452 -2.96847 1.12076 94 43 75
1.34720 -2.97653 1.12702 103 49 74
1.34074 -2.98573 1.13326 112 59 70
1.33279 -2.99297 1.13952 120 71 74
1.32324 -2.99810 1.14578 129 83 88
1.30753 -2.99503 1.15202 138 92 99
1.30314 -3.00691 1.15826 142 97 96
1.29434 -3.04882 1.17713 158 132 122
1.29440 -3.06704 1.18352 161 134 124
1.29813 -3.09044 1.19003 168 142 134
1.29141 -3.09954 1.19637 177 150 134
1.28548 -3.10977 1.20274 181 152 134
1.27661 -3.11590 1.20904 182 160 141
1.26841 -3.12294 1.21534 181 166 137
1.26181 -3.13225 1.22170 178 169 142
1.25412 -3.13999 1.22802 174 171 145
1.24052 -3.15092 1.22354 180 192 196
1.24534 -3.14619 1.23429 175 173 149
1.23176 -3.15711 1.22982 179 189 191
1.23885 -3.15566 1.24065 176 177 153
1.23044 -3.16235 1.24693 174 182 161
1.22253 -3.16976 1.25323 174 182 166
1.21573 -3.17879 1.25959 173 180 172
1.21091 -3.19080 1.26606 172 182 175
1.20708 -3.20432 1.27262 174 181 174
1.19624 -3.22677 1.28558 167 179 177
1.19270 -3.24092 1.29222 166 184 179
1.17888 -3.25904 1.30504 175 182 174
1.17509 -3.27298 1.31172 147 140 128
1.17066 -3.28597 1.31837 75 52 51
1.14616 -3.32771 1.34449 247 250 246
1.13239 -3.33878 1.33996 252 254 254
1.14113 -3.33997 1.35117 254 254 252
1.12733 -3.35106 1.34663 252 253 254
0.89968 -3.57957 1.54816 250 250 248
0.90089 -3.57410 1.53087 248 249 250
0.89342 -3.58235 1.53726 249 248 249
0.89499 -3.59341 1.55523 240 235 216
0.89294 -3.61265 1.56297 193 165 131
0.88311 -3.61620 1.56880 143 111 85
0.88189 -3.62169 1.58615 130 113 97
0.87562 -3.62448 1.57521 127 108 89
0.86934 -3.62727 1.56427 128 106 89
0.75353 -4.41163 1.90953 117 97 80
0.76902 -4.39918 1.91462 118 99 87
0.76196 -4.40232 1.90232 119 99 82
0.75490 -4.40546 1.89001 119 98 82
1.75020 -1.05189 0.25057 95 104 122
1.74971 -1.05917 0.25335 104 111 126
1.75007 -1.06677 0.25584 95 96 107
1.78281 -1.08524 0.24693 74 63 70
1.77308 -1.09306 0.24373 54 41 49
1.77976 -1.09185 0.25067 65 48 51
1.77003 -1.09968 0.24747 57 44 52
1.70336 -1.23696 0.33725 237 228 219
1.71325 -1.22900 0.34051 237 226 223
1.70874 -1.23101 0.33265 236 225 222
1.70423 -1.23302 0.32478 235 223 220
1.70787 -1.23495 0.34512 241 232 226
1.70248 -1.24090 0.34973 227 215 205
1.70056 -1.24397 0.34102 204 194 184
1.69065 -1.25193 0.33776 108 93 97
1.72514 -1.26231 0.33589 122 110 120
1.71511 -1.27037 0.33260 96 86 79
2.20716 -1.53175 0.20384 24 10 28
2.20290 -1.54008 0.20876 25 13 30
2.21752 -1.55680 0.20774 81 70 67
2.25818 -1.58532 0.19863 154 140 122
2.24574 -1.59531 0.19454 212 192 154
2.28415 -1.60754 0.19421 212 191 161
2.27803 -1.61542 0.19983 196 175 152
2.27375 -1.62415 0.20489 107 67 96
2.26117 -1.63426 0.20075 83 73 70
2.26853 -1.66485 0.22157 88 81 78
2.28120 -1.65466 0.22574 92 78 72
2.27542 -1.65723 0.21567 91 78 76
2.27430 -1.66228 0.23164 95 78 73
2.28035 -1.68136 0.22179 70 69 55
2.27922 -1.68644 0.23786 69 63 60
2.27341 -1.68902 0.22773 60 46 40
2.26760 -1.69161 0.21760 56 50 47
3.01483 -2.27075 0.08310 79 77 52
3.03127 -2.25753 0.08851 116 117 103
3.02378 -2.26086 0.07544 87 85 60
3.01628 -2.26420 0.06238 49 51 59
2.99839 -2.28397 0.07769 62 51 39
2.98124 -2.26726 0.09765 72 58 28
2.96490 -2.28040 0.09227 71 52 42
2.69449 -2.39565 0.27711 95 83 91
2.71033 -2.38292 0.28232 118 93 85
2.70311 -2.38613 0.26974 119 94 83
2.69589 -2.38934 0.25715 120 95 83
2.68528 -2.40480 0.28463 46 35 113
2.67483 -2.41316 0.29246 92 103 162
2.65610 -2.41623 0.30232 153 177 206
2.65550 -2.43084 0.30771 134 154 202
2.64403 -2.43850 0.31577 59 79 156
2.62822 -2.45121 0.31057 19 22 113
2.63136 -2.44536 0.32412 23 30 131
2.61557 -2.45805 0.31892 22 29 118
2.62838 -2.45852 0.33012 23 31 129
2.61257 -2.47123 0.32491 25 32 123
2.62263 -2.60980 0.38570 71 67 83
2.62406 -2.60335 0.36529 26 41 129
2.61525 -2.61309 0.37283 48 54 104
2.62607 -2.62818 0.39051 95 84 60
2.62463 -2.63465 0.41099 113 93 62
2.61722 -2.63795 0.39807 106 90 62
2.43115 -2.89418 0.57498 134 109 55
2.43260 -2.88765 0.55433 132 106 62
2.43388 -2.91377 0.58054 104 83 35
2.42391 -2.94026 0.59448 89 72 54
2.42285 -2.95691 0.60080 124 106 59
2.40632 -2.97020 0.59536 134 110 59
2.21255 -3.08945 0.74584 135 107 59
2.21398 -3.08297 0.72534 138 109 64
2.20830 -3.10366 0.75280 154 134 110
2.18117 -3.09575 0.76277 205 204 189
2.16498 -3.10877 0.75744 217 211 186
2.16826 -3.11984 0.77725 203 190 158
2.14426 -3.11461 0.78668 197 185 150
2.12409 -3.11298 0.79558 192 183 144
2.09217 -3.09947 0.80584 185 171 140
2.07623 -3.11228 0.80059 195 190 160
2.08590 -3.11147 0.81297 182 176 145
2.06018 -3.10380 0.82236 189 181 133
2.04026 -3.10182 0.83102 111 97 71
2.02446 -3.11452 0.82583 87 85 76
1.73379 -2.87205 0.89455 115 110 102
1.41287 -2.91391 1.05980 153 141 141
1.41406 -2.90854 1.04282 158 143 133
1.40673 -2.91664 1.04909 154 141 139
1.39940 -2.92474 1.05537 156 149 162
1.39900 -2.91395 1.06632 169 169 185
1.39035 -2.92035 1.07262 205 212 214
1.38354 -2.92904 1.07886 209 214 209
1.37011 -2.93984 1.07444 189 199 203
1.37665 -2.93764 1.08509 193 200 199
1.37129 -2.94817 1.09129 182 188 191
1.36544 -2.95812 1.09752 162 154 163
1.35939 -2.96784 1.10375 149 133 143
1.35383 -2.97821 1.10998 154 141 141
1.34926 -2.98989 1.11621 163 152 142
1.33295 -3.00395 1.12879 179 176 153
1.31902 -3.00333 1.13511 188 189 177
1.31415 -3.01465 1.14135 197 199 186
1.30261 -3.01709 1.14762 204 209 186
1.29540 -3.02529 1.15387 209 215 188
1.29570 -3.04368 1.16015 215 222 199
1.28223 -3.05451 1.15572 225 235 240
1.29612 -3.06236 1.16649 221 229 210
1.28260 -3.07323 1.16204 227 234 240
1.29381 -3.07743 1.17284 227 232 215
1.28025 -3.08833 1.16838 230 236 241
1.29199 -3.09326 1.17923 229 234 218
1.27839 -3.10419 1.17476 234 237 240
1.28668 -3.10435 1.18560 233 236 218
1.27760 -3.11018 1.19190 233 235 218
1.26645 -3.11306 1.19814 229 232 215
1.25869 -3.12070 1.20445 220 222 203
1.25013 -3.12716 1.21073 202 209 194
1.24437 -3.13765 1.21710 182 194 200
1.22315 -3.16350 1.23609 166 179 177
1.21557 -3.17137 1.24240 151 164 172
1.20844 -3.17993 1.24874 142 153 181
1.20471 -3.19356 1.25525 137 157 181
1.20087 -3.20709 1.26179 151 169 186
1.19553 -3.21843 1.26826 134 154 179
1.19154 -3.23187 1.27483 121 138 164
1.18463 -3.24088 1.28122 110 132 167
1.17979 -3.25312 1.28777 109 134 169
1.17263 -3.26179 1.29416 132 141 171
1.16505 -3.26982 1.30053 144 142 156
1.16344 -3.28725 1.30737 140 127 120
1.14854 -3.30382 1.32016 48 60 126
1.13722 -3.32620 1.33329 234 248 253
0.88372 -3.58608 1.54312 247 244 239
0.87414 -3.59001 1.54899 222 207 189
0.87167 -3.60842 1.55659 165 137 117
0.85794 -3.61946 1.55207 141 117 91
0.75749 -4.44499 1.90261 109 91 78
1.78385 -1.05873 0.22674 61 63 82
1.78470 -1.05488 0.21455 43 36 62
1.78074 -1.06524 0.23047 59 61 81
1.77880 -1.07216 0.23378 58 60 75
1.77540 -1.07861 0.23762 55 48 58
1.76571 -1.08641 0.23443 42 32 32
1.77284 -1.08535 0.24117 52 39 47
1.76313 -1.09316 0.23798 51 38 46
1.76288 -1.11259 0.25532 75 59 61
1.77263 -1.10475 0.25853 66 52 52
1.76819 -1.10673 0.25078 61 46 57
1.76733 -1.11061 0.26306 73 55 60
1.76202 -1.11647 0.26760 85 65 67
1.77320 -1.12394 0.25438 102 84 72
1.76339 -1.13183 0.25115 143 127 111
1.67712 -1.23010 0.33658 229 216 212
1.67387 -1.23685 0.34046 177 163 164
1.66405 -1.24475 0.33723 101 84 84
2.19956 -1.53331 0.19486 32 25 41
2.20064 -1.52847 0.17957 29 28 51
2.19908 -1.54330 0.19856 47 27 47
2.19921 -1.55361 0.20207 98 82 83
2.24228 -1.58325 0.19199 161 144 126
2.22948 -1.59846 0.20331 167 150 128
2.26027 -1.62314 0.19732 94 69 79
2.26214 -1.65627 0.20793 81 78 68
2.26902 -1.64867 0.20204 85 78 75
2.24950 -1.66643 0.20377 61 39 53
2.26544 -1.66869 0.21067 74 67 73
2.27504 -1.68418 0.21151 46 47 60
2.69676 -2.40481 0.26210 83 71 95
2.69044 -2.41582 0.26891 53 47 110
2.66427 -2.41425 0.28073 110 134 169
2.65597 -2.42394 0.28801 130 151 185
2.64731 -2.43342 0.29539 76 83 157
2.63149 -2.44613 0.29019 19 22 113
2.63629 -2.44136 0.30335 28 31 121
2.63144 -2.67286 0.38590 104 90 70
2.62999 -2.67939 0.40657 116 97 68
2.62252 -2.68272 0.39354 111 95 71
2.42734 -2.90056 0.56129 134 109 61
2.42879 -2.89402 0.54061 131 106 65
2.41986 -2.90388 0.54825 133 108 62
2.43436 -2.92379 0.56603 112 88 43
2.43901 -2.94521 0.57126 62 33 25
2.42000 -2.94667 0.58074 84 68 46
2.42157 -2.96561 0.58657 121 106 57
2.40501 -2.97892 0.58112 133 110 69
2.21850 -3.10558 0.73105 136 107 63
2.21995 -3.09907 0.71046 137 109 69
2.21106 -3.10889 0.71806 138 109 67
2.20583 -3.11174 0.73917 148 127 92
2.18676 -3.11165 0.74815 202 203 184
2.17050 -3.12472 0.74280 215 213 193
2.16671 -3.12888 0.76360 212 206 179
2.15930 -3.13217 0.75069 214 212 186
2.15046 -3.14194 0.75825 218 211 183
2.15454 -3.13535 0.77159 213 203 174
2.09928 -3.11712 0.79138 198 190 158
2.08326 -3.13000 0.78611 196 187 166
2.06038 -3.11457 0.80887 187 177 136
2.05129 -3.12368 0.81633 116 99 79
2.03539 -3.13646 0.81110 93 85 75
1.72454 -2.88892 0.88932 157 148 130
1.71022 -2.90043 0.88460 164 148 122
1.38177 -2.92002 1.06206 186 192 189
1.37621 -2.93025 1.06823 198 206 201
1.36617 -2.95218 1.08058 186 201 208
1.36070 -2.96262 1.08679 189 203 208
1.35520 -2.97307 1.09300 192 207 206
1.34173 -2.98390 1.08857 182 213 232
1.34996 -2.98386 1.09923 196 212 209
1.33647 -2.99470 1.09479 187 214 231
1.34248 -2.99178 1.10551 201 215 212
1.33199 -2.99576 1.11184 205 219 215
1.32249 -3.00099 1.11814 210 221 217
1.31390 -3.00739 1.12442 215 224 223
1.30562 -3.01417 1.13069 217 225 224
1.29629 -3.01954 1.13695 220 227 225
1.29319 -3.03330 1.14319 221 230 229
1.29093 -3.04828 1.14945 223 233 235
1.27094 -3.11229 1.18109 235 237 238
1.26475 -3.11505 1.17029 241 243 250
1.26050 -3.11615 1.18736 234 233 232
1.25179 -3.12242 1.19365 226 221 215
1.24801 -3.13574 1.20005 182 182 194
1.24120 -3.14475 1.20640 128 141 192
1.23038 -3.14795 1.21262 145 156 192
1.22261 -3.15554 1.21892 163 165 186
1.21281 -3.16015 1.22515 142 132 144
