ply
format ascii 1.0
element face 0
property list uchar int vertex_indices
element vertex 1312
property float x
property float y
property float z
property uchar diffuse_red
property uchar diffuse_green
property uchar diffuse_blue
end_header
0.06200 -4.57830 1.94113 151 140 132
0.05866 -4.57936 1.92529 152 140 135
0.03393 -4.59179 1.94798 137 128 123
0.01929 -4.59605 1.95141 134 125 125
0.00658 -4.60809 1.95481 140 134 132
-0.00387 -4.61474 1.97407 153 142 135
-0.00562 -4.62237 1.95823 151 141 135
-0.01609 -4.62903 1.97751 154 143 136
-0.01943 -4.63010 1.96165 154 143 132
-0.02277 -4.63116 1.94579 152 142 136
-0.49582 -4.13422 2.04052 153 148 137
-0.48127 -4.12676 2.05107 161 152 137
-0.48410 -4.12767 2.03761 159 152 139
-0.50791 -4.13815 2.04337 155 147 141
-0.54356 -4.15381 2.05199 161 148 124
-0.53470 -4.14817 2.03566 162 151 134
-0.54639 -4.15471 2.03856 162 151 133
-0.55393 -4.17045 2.05512 157 140 118
-0.56282 -4.17611 2.07150 151 135 113
-0.56576 -4.17620 2.05801 153 132 118
-0.57464 -4.18186 2.07439 152 139 122
-0.57748 -4.18276 2.06092 150 132 120
-0.60316 -4.17700 2.06625 145 130 107
-0.61744 -4.16091 2.06855 117 97 87
-0.63217 -4.13954 2.07068 88 72 62
-0.64583 -4.12635 2.07300 69 60 46
-0.65809 -4.12521 2.07563 55 42 28
-0.67071 -4.12015 2.07813 43 26 28
-0.68488 -4.12741 2.06786 20 15 16
-0.68255 -4.12224 2.08084 32 15 25
-0.69670 -4.12950 2.07057 17 15 16
-0.69495 -4.11826 2.08335 21 13 18
-0.70906 -4.12549 2.07311 16 16 18
-0.89562 -3.63593 2.10247 141 139 140
-0.90535 -3.64138 2.10488 153 144 139
-0.93588 -3.62502 2.11073 155 140 119
-0.92857 -3.62036 2.09726 154 140 130
-0.93821 -3.62576 2.09965 155 139 123
-0.94785 -3.63116 2.10205 153 139 128
-0.94555 -3.62955 2.11308 155 146 137
-0.95512 -3.63701 2.11556 164 158 162
-0.96496 -3.63631 2.11769 172 166 174
-0.97225 -3.64096 2.13113 182 172 176
-0.97458 -3.64170 2.12007 181 173 180
-0.97691 -3.64244 2.10902 170 164 164
2.79086 -2.96417 1.24328 248 250 250
2.80769 -2.95553 1.25549 253 254 254
2.80441 -2.95658 1.23991 250 252 252
2.79414 -2.96312 1.25885 253 254 254
2.77403 -2.97280 1.23107 236 234 239
2.77993 -2.97365 1.24615 244 245 247
2.76309 -2.98229 1.23393 239 238 244
2.76584 -3.03375 1.25217 186 192 208
2.75686 -3.04494 1.25469 186 193 207
1.67027 -2.34142 1.46097 111 110 112
1.67794 -2.33654 1.44682 174 177 183
1.66782 -2.34220 1.44934 147 145 147
1.69044 -2.37097 1.45793 57 50 61
1.67576 -2.40103 1.46263 50 55 59
1.68356 -2.39606 1.44825 56 62 56
1.66297 -2.40759 1.45336 42 51 54
1.55639 -2.57974 1.49765 52 43 45
1.56956 -2.57299 1.50720 48 43 50
1.56699 -2.57380 1.49501 53 45 47
1.55895 -2.57892 1.50983 48 42 49
1.54835 -2.58486 1.51246 50 45 39
1.55331 -2.59255 1.49894 70 56 41
1.54525 -2.59769 1.51380 56 44 35
1.54371 -2.59945 1.50140 96 75 46
1.55352 -2.62433 1.50043 122 101 93
1.56076 -2.64706 1.49993 164 138 90
1.52468 -2.62940 1.50705 197 176 129
1.51358 -2.63499 1.50978 204 186 138
1.49427 -2.64894 1.51472 193 176 146
1.48129 -2.65273 1.51777 181 160 147
1.46512 -2.65340 1.52138 167 144 136
1.45877 -2.66357 1.52327 167 152 125
1.44236 -2.66393 1.52692 174 160 126
1.42868 -2.66691 1.53009 202 197 173
1.39473 -2.64968 1.53676 237 232 209
1.38288 -2.65428 1.53960 250 249 238
1.37351 -2.66135 1.54202 252 252 243
1.19863 -2.76670 1.58576 249 253 253
1.21175 -2.75997 1.59528 254 254 254
1.20920 -2.76078 1.58314 252 254 254
1.20119 -2.76588 1.59790 254 254 254
1.19186 -2.77694 1.58776 243 245 249
1.18649 -2.78885 1.58952 226 233 243
1.18389 -2.80405 1.59083 209 216 232
1.17338 -2.81017 1.59344 189 194 218
1.16630 -2.82031 1.59550 168 177 198
1.15306 -2.82710 1.58590 160 170 181
1.15527 -2.82584 1.59821 159 170 188
1.14203 -2.83263 1.58860 162 174 184
1.10705 -2.97972 1.61629 163 177 180
1.11539 -2.97441 1.60091 163 176 186
1.10319 -2.99509 1.61789 146 154 150
1.10302 -3.01537 1.61891 118 115 111
1.18474 -3.25362 1.61234 98 95 82
1.19374 -3.24789 1.59574 107 101 92
1.17328 -3.26086 1.61522 89 85 73
1.17632 -3.28804 1.61586 68 66 59
1.16110 -3.31358 1.62046 62 62 68
1.17483 -3.35651 1.61949 111 112 113
1.15975 -3.36424 1.60855 119 116 113
1.15906 -3.38227 1.62423 128 119 123
1.15611 -3.38321 1.61022 124 118 121
1.14955 -3.39296 1.62684 136 132 124
1.11348 -3.54195 1.64201 159 151 135
1.12604 -3.53491 1.63889 159 152 138
1.11652 -3.54098 1.65644 161 152 142
1.11264 -3.56707 1.64341 159 148 131
1.09926 -3.59982 1.64795 156 142 134
1.08793 -3.60910 1.65090 170 157 144
1.07618 -3.61774 1.65391 169 158 137
1.06736 -3.63110 1.65651 145 133 112
1.05575 -3.64006 1.65951 126 116 106
1.04347 -3.64795 1.66260 125 118 115
1.03381 -3.65410 1.68041 131 123 120
1.03073 -3.65508 1.66577 127 120 117
0.87643 -4.09704 1.72121 112 101 92
0.88683 -4.09041 1.70204 114 113 106
0.86730 -4.11400 1.72405 102 92 86
0.85713 -4.12900 1.72702 92 86 78
0.79803 -4.18847 1.74296 91 89 86
0.80853 -4.18178 1.72361 88 90 94
0.78255 -4.19273 1.74658 94 97 98
0.76894 -4.20098 1.74999 99 100 95
0.75150 -4.20083 1.75384 102 104 107
0.74048 -4.21476 1.75695 100 96 118
0.73088 -4.23196 1.75990 95 99 101
0.71834 -4.24274 1.76319 97 105 90
0.70983 -4.26275 1.76604 95 88 94
0.68777 -4.25179 1.77039 103 111 93
0.67056 -4.26062 1.75791 106 114 104
0.67717 -4.26713 1.77347 101 108 92
0.66451 -4.27777 1.77679 101 106 90
0.66511 -4.31991 1.77869 78 76 55
0.65098 -4.32747 1.78218 56 58 61
0.64036 -4.33423 1.80174 44 53 62
0.63697 -4.33531 1.78565 46 54 63
0.37312 -4.86277 1.86944 30 15 55
0.36093 -4.93880 1.87581 130 131 120
0.34201 -4.94850 1.86208 144 132 120
0.04386 -4.58310 1.92874 153 141 122
0.05431 -4.57645 1.90949 152 141 134
0.02454 -4.56877 1.93232 120 98 84
0.00787 -4.56448 1.93580 97 79 84
-0.00424 -4.57851 1.93915 103 100 111
-0.01110 -4.61453 1.94241 136 131 133
-0.48317 -4.15376 2.02454 152 144 133
-0.46853 -4.14625 2.03515 163 153 141
-0.47138 -4.14716 2.02161 163 154 143
-0.49693 -4.14689 2.02725 120 115 113
-0.50925 -4.14947 2.03009 118 121 127
-0.52191 -4.14941 2.03289 147 145 141
-0.55726 -4.16755 2.04158 162 149 136
-0.54838 -4.16189 2.02522 161 149 138
-0.56010 -4.16845 2.02813 163 149 138
-0.56884 -4.17517 2.04451 157 141 131
-0.58065 -4.18092 2.04740 150 135 124
-0.59319 -4.18069 2.05016 146 130 114
-0.60842 -4.15723 2.05239 126 107 92
-0.62205 -4.14602 2.05487 87 67 58
-0.63505 -4.13951 2.05743 59 44 36
-0.64728 -4.13940 2.06013 43 32 32
-0.66156 -4.14673 2.04977 19 13 19
-0.65997 -4.13457 2.06270 30 18 24
-0.67420 -4.14187 2.05237 19 14 15
-0.67314 -4.12426 2.06511 24 14 20
-0.68732 -4.13153 2.05483 18 15 12
-0.90793 -3.63758 2.09353 128 133 140
-0.91838 -3.62698 2.09533 150 142 133
-0.95726 -3.64336 2.10471 151 138 140
-0.94994 -3.63869 2.09122 155 139 127
-0.95959 -3.64410 2.09362 154 138 130
-0.96701 -3.64565 2.10698 157 148 149
2.77304 -2.93757 1.22970 244 246 248
2.78975 -2.92900 1.24182 252 253 253
2.78649 -2.93003 1.22637 251 252 253
2.78324 -2.93107 1.21091 250 250 251
2.76449 -2.94863 1.23211 238 238 240
2.74278 -2.98495 1.23858 235 235 240
2.76511 -3.01894 1.23513 196 198 212
2.72171 -3.00457 1.24416 145 146 181
2.73038 -3.02873 1.24331 149 155 186
2.74832 -3.06006 1.24072 168 174 196
2.73789 -3.06670 1.25994 187 192 201
2.73456 -3.06776 1.24413 174 182 195
1.69288 -2.37564 1.44525 75 64 79
1.70065 -2.37069 1.43093 169 160 155
1.68347 -2.38205 1.44764 54 53 61
1.67073 -2.38858 1.43840 54 62 63
1.56324 -2.55811 1.48236 52 48 54
1.57634 -2.55138 1.49187 44 48 52
1.57379 -2.55220 1.47974 47 43 53
1.56579 -2.55729 1.49448 49 45 48
1.55875 -2.56949 1.48387 75 62 51
1.55041 -2.57745 1.48609 93 83 48
1.56684 -2.60810 1.48380 132 112 82
1.56127 -2.61880 1.48553 172 153 93
1.55229 -2.62642 1.48787 199 180 143
1.53851 -2.62957 1.49108 207 186 137
1.52274 -2.63083 1.49465 205 183 148
1.51202 -2.63679 1.49731 191 174 143
1.50310 -2.64446 1.49965 180 163 153
1.48981 -2.65127 1.49001 160 142 127
1.48454 -2.64292 1.50372 169 150 131
1.47129 -2.64971 1.49411 159 141 123
1.46949 -2.64466 1.50715 157 137 130
1.45705 -2.64889 1.51011 148 133 135
1.43731 -2.64596 1.51438 203 205 185
1.40787 -2.63337 1.52038 239 238 217
1.39644 -2.63836 1.52315 250 252 238
1.38657 -2.64490 1.52565 244 248 240
1.37350 -2.65160 1.51617 224 228 232
1.37701 -2.65175 1.52809 238 238 241
1.36394 -2.65846 1.51860 226 231 236
1.36810 -2.65928 1.53041 240 242 243
1.36196 -2.66964 1.53224 243 247 249
1.34968 -2.67378 1.53517 250 251 251
1.33914 -2.67969 1.53778 252 253 254
1.21669 -2.73745 1.56768 251 254 254
1.22975 -2.73076 1.57715 254 254 254
1.22721 -2.73157 1.56507 254 254 254
1.21923 -2.73664 1.57976 254 254 254
1.20872 -2.74253 1.58237 254 254 254
1.20899 -2.74649 1.56980 249 252 252
1.19616 -2.76760 1.57361 222 230 241
1.19394 -2.78306 1.57480 204 210 226
1.19488 -2.80227 1.57546 181 186 213
1.18164 -2.80906 1.56585 158 169 180
1.18819 -2.81283 1.57742 164 174 193
1.17493 -2.81963 1.56780 161 167 172
1.17621 -2.81729 1.58029 158 169 182
1.16295 -2.82408 1.57068 158 166 176
1.16835 -2.82657 1.58246 158 168 181
1.15508 -2.83337 1.57284 157 164 179
1.11478 -2.99387 1.60193 164 177 181
1.12316 -2.98853 1.58647 164 175 182
1.11210 -2.99472 1.58922 165 177 180
1.10634 -3.00345 1.60424 152 160 158
1.10833 -3.02661 1.60484 125 121 115
1.09584 -3.03108 1.60782 111 100 90
1.08201 -3.03817 1.59779 109 104 96
1.18926 -3.26458 1.59749 103 99 85
1.19830 -3.25883 1.58084 110 102 98
1.17856 -3.27292 1.60025 90 84 73
1.18351 -3.30284 1.60049 55 47 56
1.16803 -3.30477 1.60403 37 36 43
1.15997 -3.31698 1.60638 60 60 68
1.17646 -3.36387 1.60481 109 110 115
1.16134 -3.37162 1.59385 116 116 112
1.15595 -3.40739 1.61134 132 126 123
1.16525 -3.40147 1.59421 121 120 119
1.15058 -3.42426 1.61329 138 134 131
1.14126 -3.43020 1.63047 146 138 132
1.13828 -3.43115 1.61635 144 138 132
1.12608 -3.51453 1.62281 155 149 133
1.14162 -3.50657 1.63408 158 150 140
1.13859 -3.50753 1.61971 155 149 139
1.12911 -3.51357 1.63718 159 152 141
1.12143 -3.53349 1.62470 155 145 126
1.11652 -3.55223 1.62664 148 142 119
1.11149 -3.57097 1.62861 149 137 124
1.10244 -3.58366 1.63119 159 147 141
1.09895 -3.60514 1.63294 183 178 181
1.07200 -3.58973 1.63825 216 220 213
1.06115 -3.59965 1.64112 222 226 202
1.06619 -3.63516 1.64159 181 172 130
1.04992 -3.63659 1.64528 133 116 86
1.03733 -3.64393 1.64842 114 104 103
1.02580 -3.65303 1.65140 117 112 113
1.01614 -3.65917 1.66919 127 122 116
0.90132 -4.04976 1.69698 111 103 96
0.91825 -4.04108 1.70926 124 112 98
0.90461 -4.04871 1.71265 122 110 101
0.89802 -4.05081 1.68132 96 89 94
0.89098 -4.05634 1.71603 121 110 104
0.89212 -4.06613 1.69977 111 107 102
0.87106 -4.09399 1.70572 115 111 104
0.86089 -4.10883 1.70865 111 106 100
0.84902 -4.12030 1.71182 107 105 96
0.83862 -4.13490 1.71479 101 102 92
0.82743 -4.14796 1.71787 95 94 85
0.81561 -4.15981 1.72104 89 87 82
0.78954 -4.17856 1.72769 87 88 93
0.78620 -4.17963 1.71182 72 76 87
0.77287 -4.18012 1.73148 96 100 108
0.75726 -4.18389 1.73513 109 113 109
0.74349 -4.19162 1.73855 114 121 113
0.72995 -4.19988 1.74194 115 120 119
0.71562 -4.20635 1.74542 121 127 122
0.70372 -4.21832 1.74861 123 130 116
0.69308 -4.23325 1.75166 119 123 112
0.67934 -4.24115 1.75508 115 126 111
0.65431 -4.26275 1.76163 112 121 116
0.64597 -4.28357 1.76442 95 101 84
0.64276 -4.31695 1.76664 63 67 64
0.62541 -4.32584 1.75406 44 48 55
0.63075 -4.32952 1.76988 46 54 59
0.62015 -4.33627 1.78942 44 52 53
0.61677 -4.33735 1.77335 42 50 52
0.61338 -4.33843 1.75729 42 48 53
0.37154 -4.87056 1.85199 22 10 40
0.35282 -4.88016 1.83842 84 92 89
0.37421 -4.93710 1.85439 74 82 72
0.36191 -4.95543 1.85796 133 133 120
0.34292 -4.96517 1.84418 144 132 114
0.03827 -4.57528 1.91302 154 143 118
0.04869 -4.56864 1.89381 152 140 126
0.02135 -4.57030 1.91657 124 95 67
0.00489 -4.56684 1.92008 69 46 37
-0.00786 -4.57829 1.92344 62 62 59
-0.02231 -4.58277 1.92686 114 111 108
-0.02874 -4.62109 1.93002 146 139 134
-0.03918 -4.62774 1.94925 154 144 132
-0.04251 -4.62880 1.93343 153 144 132
-0.04584 -4.62986 1.91761 152 144 126
-0.47422 -4.14817 2.00807 163 153 139
-0.45958 -4.14066 2.01869 162 151 138
-0.46243 -4.14157 2.00515 160 148 137
-0.46528 -4.14248 1.99160 161 148 133
-0.47707 -4.14908 1.99453 162 150 136
-0.48623 -4.15325 2.01098 146 129 112
-0.49727 -4.16495 2.01396 83 60 66
-0.50907 -4.17156 2.01689 66 62 87
-0.52468 -4.15078 2.01944 119 124 132
-0.53710 -4.15219 2.02227 156 149 138
-0.55163 -4.15964 2.01173 160 149 140
-0.57164 -4.17631 2.03105 162 149 133
-0.56276 -4.17066 2.01469 160 149 138
-0.58347 -4.18192 2.03394 154 141 128
-0.59592 -4.18239 2.03674 136 120 106
-0.61044 -4.18984 2.02621 71 61 48
-0.61153 -4.15550 2.03901 103 81 69
-0.62335 -4.16006 2.04185 63 38 43
-0.63565 -4.16019 2.04460 36 17 31
-0.65002 -4.16756 2.03417 17 16 17
-0.64846 -4.15513 2.04723 23 14 25
-0.66279 -4.16248 2.03683 18 13 17
-0.89929 -3.65791 2.08079 18 30 61
-0.91144 -3.61413 2.08154 67 78 111
-0.92059 -3.63063 2.08432 115 121 132
-0.93073 -3.62531 2.08634 141 139 131
-0.94038 -3.63071 2.08873 153 142 127
-0.96938 -3.64545 2.09586 155 139 131
-0.96206 -3.64080 2.08238 154 141 128
-0.97171 -3.64620 2.08478 155 139 128
-0.98136 -3.65160 2.08717 154 137 129
-0.97898 -3.65260 2.09832 154 142 140
-0.98629 -3.65726 2.11180 183 173 175
-0.98863 -3.65801 2.10072 168 157 167
2.74350 -2.93692 1.22008 240 237 241
2.72684 -2.94546 1.20800 254 254 253
2.73508 -2.94803 1.22244 245 244 248
2.71840 -2.95659 1.21034 253 254 254
2.72872 -2.96070 1.22440 252 252 252
2.71325 -2.96676 1.22813 248 247 245
2.75471 -3.01476 1.22081 200 195 204
2.72319 -3.00914 1.22766 110 103 142
2.72959 -3.03165 1.22716 102 100 132
2.71002 -3.03485 1.23169 127 131 156
2.73373 -3.07071 1.22785 145 154 174
2.72330 -3.07736 1.24708 176 183 193
2.76590 -3.11336 1.22240 157 166 180
2.75534 -3.12009 1.24185 178 182 190
2.75197 -3.12116 1.22585 166 171 182
1.67812 -2.36673 1.43583 117 100 92
1.68586 -2.36180 1.42157 175 159 134
1.67566 -2.36751 1.42410 155 131 87
1.68714 -2.38773 1.43468 59 47 52
1.67438 -2.39428 1.42542 55 58 67
1.66815 -2.41460 1.44006 52 55 58
1.67848 -2.40882 1.43750 58 61 67
1.67598 -2.40961 1.42564 59 62 71
1.66033 -2.41958 1.45448 41 46 57
1.65533 -2.42117 1.43076 47 51 65
1.56810 -2.55021 1.46820 82 63 64
1.58119 -2.54349 1.47770 50 41 49
1.57864 -2.54430 1.46559 64 55 56
1.58834 -2.58376 1.46505 98 90 87
1.59301 -2.60360 1.46483 141 122 98
1.57772 -2.60545 1.46834 180 160 99
1.56835 -2.61268 1.47075 204 181 130
1.56082 -2.62161 1.47281 207 188 134
1.54969 -2.62724 1.47555 198 180 151
1.53894 -2.63322 1.47821 188 170 146
1.52675 -2.63785 1.48115 178 157 141
1.51344 -2.64468 1.47149 162 142 134
1.51497 -2.64285 1.48400 168 149 136
1.50167 -2.64968 1.47435 163 144 127
1.50043 -2.64520 1.48737 158 145 134
1.48714 -2.65202 1.47773 166 144 126
1.45115 -2.64648 1.49850 149 132 137
1.45921 -2.64135 1.48365 163 143 121
1.42065 -2.63298 1.50480 219 219 220
1.40055 -2.62948 1.50917 251 253 252
1.39181 -2.63711 1.51145 246 247 249
1.38149 -2.64318 1.51402 230 233 236
1.35130 -2.66220 1.52160 229 232 238
1.33824 -2.66890 1.51213 224 226 232
1.33799 -2.66522 1.52472 237 239 241
1.32457 -2.66810 1.52786 240 246 248
1.31661 -2.67316 1.54251 253 254 254
1.29825 -2.67426 1.53403 250 252 253
1.29031 -2.67931 1.54865 254 254 254
1.28778 -2.68012 1.53663 252 254 254
1.22696 -2.71747 1.55185 251 254 253
1.23997 -2.71080 1.56129 254 254 254
1.23743 -2.71160 1.54925 254 254 254
1.22949 -2.71666 1.56389 254 254 254
1.22078 -2.72809 1.55368 248 249 250
1.21349 -2.73753 1.55572 234 240 243
1.21092 -2.75232 1.55691 220 228 234
1.19019 -2.78252 1.56283 158 168 191
1.17703 -2.78927 1.55328 157 169 175
1.18786 -2.79797 1.56399 153 166 184
1.17465 -2.80475 1.55441 159 171 179
1.11306 -3.01644 1.58991 158 165 164
1.12150 -3.01107 1.57437 165 176 180
1.11864 -3.04437 1.58982 131 129 122
1.10418 -3.04639 1.59315 110 102 92
1.09028 -3.05352 1.58307 108 105 101
1.19231 -3.27356 1.58280 108 101 96
1.20137 -3.26779 1.56611 111 104 105
1.18942 -3.27448 1.56907 110 104 104
1.18072 -3.28075 1.58570 96 86 80
1.17644 -3.29802 1.58739 59 43 50
1.16699 -3.30827 1.58994 45 34 39
1.15609 -3.31655 1.59273 77 72 76
1.17612 -3.36849 1.59039 114 111 115
1.16310 -3.42294 1.59559 128 124 122
1.15815 -3.44055 1.59743 135 130 128
1.15171 -3.45614 1.59953 139 136 130
1.14232 -3.46213 1.61684 149 143 136
1.14726 -3.47480 1.60131 142 140 133
1.13783 -3.48081 1.61868 152 147 137
1.14450 -3.49616 1.60282 140 138 135
1.13535 -3.50817 1.60538 140 135 133
1.13380 -3.53174 1.60671 141 133 126
1.12410 -3.54315 1.60936 145 129 124
1.11652 -3.55788 1.61168 149 140 126
1.11064 -3.57537 1.61373 169 168 163
1.09234 -3.57364 1.61777 204 206 203
1.07627 -3.57529 1.62145 234 238 234
1.06062 -3.58332 1.61010 246 249 251
1.06236 -3.58027 1.62478 248 251 248
1.04672 -3.58829 1.61344 247 250 251
1.05062 -3.58868 1.62777 248 251 244
1.04506 -3.60707 1.62979 227 227 201
1.04339 -3.63196 1.63120 174 161 121
1.03102 -3.63963 1.63430 120 101 79
1.01538 -3.64190 1.63791 102 95 95
1.00141 -3.64688 1.64126 111 109 104
0.98566 -3.65496 1.62984 107 105 97
0.94262 -3.96854 1.66787 122 113 97
0.95935 -3.95996 1.68001 131 117 103
0.95609 -3.96100 1.66453 126 117 97
0.94587 -3.96751 1.68335 128 116 102
0.93240 -3.97505 1.68670 125 116 102
0.93198 -3.98145 1.67080 119 110 95
0.92249 -3.99662 1.67357 114 106 94
0.91224 -4.00315 1.69246 123 111 97
0.90897 -4.00419 1.67692 114 109 95
0.90502 -4.03033 1.67890 107 101 91
0.88588 -4.06139 1.68449 95 95 103
0.88258 -4.06244 1.66882 79 79 90
0.87570 -4.07592 1.68739 105 114 114
0.86279 -4.08510 1.69067 123 131 127
0.84917 -4.09286 1.69405 140 145 136
0.83550 -4.10052 1.69745 138 144 135
0.82419 -4.11305 1.70051 117 125 117
0.81862 -4.13762 1.70279 106 107 100
0.80154 -4.14637 1.69040 106 105 105
0.80571 -4.14708 1.70608 102 106 104
0.79345 -4.15795 1.70929 87 95 95
0.76638 -4.17437 1.71606 79 88 106
0.74940 -4.17506 1.71991 106 121 121
0.73504 -4.18141 1.72340 119 127 125
0.72044 -4.18719 1.72692 129 136 133
0.70956 -4.20129 1.72995 146 154 142
0.69636 -4.21025 1.73330 147 155 155
0.68499 -4.22344 1.73640 139 145 145
0.67644 -4.24323 1.73915 126 135 125
0.66834 -4.26433 1.74185 106 102 100
0.65362 -4.27007 1.74539 99 104 101
0.64505 -4.29043 1.74817 73 81 78
0.63329 -4.30337 1.75135 52 53 55
0.61601 -4.31224 1.73881 41 43 56
0.80846 -5.27478 1.75243 52 58 65
0.79568 -5.28292 1.77597 54 60 67
0.79160 -5.28422 1.75661 60 68 72
0.78752 -5.28551 1.73725 70 81 79
0.39384 -4.89812 1.82995 66 64 68
0.40535 -4.89079 1.80874 86 104 95
0.39016 -4.89929 1.81250 50 42 43
0.37498 -4.90779 1.81627 16 17 27
0.37947 -4.90925 1.83364 19 13 28
0.36060 -4.91893 1.81996 93 107 94
0.36455 -4.97766 1.83984 136 134 122
0.34548 -4.98745 1.82601 144 133 112
0.03443 -4.57428 1.89725 153 143 118
0.04484 -4.56764 1.87806 153 141 123
0.03110 -4.57534 1.88147 152 141 121
0.01724 -4.56819 1.90086 137 119 90
0.00190 -4.56918 1.90435 68 53 36
-0.01178 -4.57684 1.90775 55 61 54
-0.02527 -4.58529 1.91113 106 112 107
-0.03374 -4.61507 1.91427 141 139 126
-0.48919 -4.15346 1.99743 157 139 118
-0.48025 -4.14777 1.98097 163 149 136
-0.50013 -4.16586 2.00041 113 85 70
-0.51193 -4.17247 2.00334 83 63 66
-0.52625 -4.16083 2.00607 115 112 115
-0.53892 -4.16053 2.00891 153 149 139
-0.55348 -4.16800 1.99835 160 151 142
-0.57425 -4.17898 2.01762 161 149 133
-0.56537 -4.17332 2.00125 160 150 141
-0.58671 -4.17959 2.02044 150 136 124
-0.59794 -4.19008 2.02340 116 99 85
-0.62461 -4.17461 2.02876 42 30 38
-0.63674 -4.17656 2.03156 26 16 26
-0.65117 -4.18396 2.02110 19 16 15
-0.90209 -3.65013 2.06929 12 14 22
-0.89468 -3.64542 2.05565 13 16 16
-0.90445 -3.65089 2.05807 15 16 15
-0.91421 -3.65635 2.06049 13 16 13
-0.91229 -3.64636 2.07143 12 20 37
-0.92187 -3.65531 2.07395 44 54 66
-0.93350 -3.61544 2.07491 88 108 118
-0.99111 -3.65292 2.08942 155 139 135
-0.98380 -3.64826 2.07596 155 138 129
-0.99344 -3.65366 2.07835 154 138 122
-1.00074 -3.65831 2.09181 159 149 144
-1.02084 -3.61754 2.09463 181 174 167
-1.02804 -3.62212 2.10789 183 174 160
-1.03033 -3.62285 2.09698 183 177 174
2.70609 -2.91335 1.21148 254 253 251
2.68958 -2.92182 1.19951 253 254 254
2.67538 -2.94240 1.21955 252 251 249
2.68548 -2.93597 1.20094 251 252 252
2.70905 -2.98455 1.21354 222 220 219
2.71184 -3.00420 1.21365 140 135 148
2.70330 -3.01552 1.21603 98 84 99
2.68811 -3.02190 1.21971 96 95 118
2.68387 -3.03655 1.22123 109 114 140
2.74226 -3.09899 1.21040 124 130 157
2.73505 -3.11185 1.21252 141 147 159
2.72453 -3.11855 1.23191 170 176 181
2.72117 -3.11962 1.21596 153 159 165
1.68921 -2.39215 1.42197 78 64 41
1.69702 -2.38718 1.40759 176 149 103
1.66585 -2.41555 1.42816 55 60 65
1.66335 -2.41635 1.41630 56 62 65
1.65303 -2.42213 1.41886 51 55 64
1.59584 -2.53214 1.44850 66 51 46
1.60892 -2.52543 1.45799 45 44 45
1.60637 -2.52624 1.44589 44 41 44
1.59839 -2.53133 1.46061 49 43 41
1.58785 -2.53723 1.46322 55 45 42
1.58646 -2.53906 1.45089 88 69 56
1.59587 -2.56268 1.44966 108 99 99
1.62632 -2.60532 1.44440 152 132 100
1.61292 -2.61219 1.43468 204 188 148
1.60365 -2.60067 1.44936 189 174 127
1.58580 -2.60025 1.45339 205 187 150
1.57799 -2.60888 1.45549 206 185 146
1.57160 -2.61886 1.45732 198 182 136
1.56150 -2.62546 1.45986 190 171 138
1.54816 -2.63230 1.45019 160 141 128
1.54805 -2.62895 1.46304 175 155 138
1.53473 -2.63579 1.45338 163 144 129
1.53937 -2.63688 1.46531 164 147 134
1.52604 -2.64372 1.45564 163 143 129
1.53004 -2.64422 1.46771 161 142 131
1.51670 -2.65106 1.45803 164 145 135
1.44365 -2.64250 1.48722 151 136 135
1.45169 -2.63738 1.47241 165 144 126
1.44108 -2.64332 1.47504 157 139 124
1.42114 -2.63677 1.49211 193 184 197
1.39660 -2.62890 1.49737 242 249 251
1.38672 -2.63538 1.49986 243 246 250
1.37566 -2.64071 1.50257 234 237 245
1.36263 -2.64739 1.49311 254 254 252
1.36451 -2.64592 1.50529 236 243 244
1.35389 -2.65167 1.50792 237 242 244
1.34525 -2.65943 1.51018 232 232 236
1.31711 -2.66382 1.51672 223 229 228
1.30411 -2.67049 1.50729 223 226 227
1.30377 -2.66669 1.51986 229 233 234
1.28938 -2.66843 1.52318 238 243 246
1.27638 -2.67158 1.52625 242 248 250
1.26848 -2.67662 1.54082 253 254 254
1.26845 -2.68007 1.52837 249 251 252
1.26054 -2.68512 1.54296 254 254 254
1.25801 -2.68592 1.53096 252 253 254
1.24058 -2.70135 1.53551 249 253 253
1.25357 -2.69469 1.54492 254 254 254
1.25104 -2.69549 1.53291 251 254 254
1.24311 -2.70054 1.54752 254 254 254
1.23086 -2.70800 1.53796 245 246 250
1.22448 -2.71834 1.53981 230 237 245
1.22085 -2.73179 1.54114 215 221 228
1.21543 -2.74334 1.54282 191 194 209
1.20891 -2.75373 1.54469 171 174 193
1.19581 -2.76045 1.53519 160 169 181
1.20192 -2.76366 1.54666 157 167 189
1.18880 -2.77039 1.53714 159 170 180
1.19499 -2.77372 1.54861 154 165 186
1.18185 -2.78046 1.53908 161 172 182
1.12036 -3.03021 1.57536 161 169 172
1.12883 -3.02482 1.55975 165 177 183
1.11759 -3.04741 1.57665 137 137 130
1.11100 -3.05975 1.57861 109 104 93
1.09704 -3.06691 1.56849 106 104 99
1.18363 -3.28962 1.57096 105 101 95
1.19271 -3.28383 1.55422 106 104 102
1.18073 -3.29054 1.55720 108 106 102
1.17911 -3.30664 1.57264 97 88 89
1.17530 -3.32482 1.57420 94 82 86
1.16032 -3.33250 1.56333 111 107 108
1.17869 -3.35326 1.57452 108 100 101
1.16361 -3.36100 1.56358 110 105 108
1.17722 -3.37515 1.57569 118 108 109
1.17579 -3.39733 1.57687 116 110 113
1.16055 -3.40514 1.56582 114 114 107
1.17155 -3.41572 1.57853 119 118 117
1.16929 -3.43715 1.57987 125 122 117
1.16333 -3.45340 1.58184 130 126 120
1.15488 -3.46615 1.58425 133 131 121
1.15397 -3.49015 1.58537 116 117 112
1.14384 -3.50066 1.58807 100 96 112
1.13953 -3.51995 1.58979 106 93 117
1.12957 -3.53091 1.59246 130 123 132
1.12004 -3.54257 1.59507 158 156 169
1.11756 -3.56516 1.59650 191 200 197
1.10187 -3.57321 1.58511 222 229 239
1.09456 -3.55616 1.60137 219 229 224
1.07894 -3.56417 1.59004 222 229 241
1.08411 -3.56653 1.60413 232 237 238
1.07171 -3.57389 1.60723 241 244 246
1.03592 -3.59823 1.61627 248 249 243
1.04547 -3.59214 1.59866 249 252 251
1.03287 -3.59920 1.60179 251 253 251
1.02457 -3.60732 1.61919 227 225 199
1.01932 -3.62646 1.62112 169 156 119
0.99959 -3.62185 1.62541 110 89 70
0.98520 -3.62595 1.62883 96 88 86
0.95240 -3.65566 1.63740 120 113 106
0.96809 -3.64762 1.64878 124 118 109
0.96503 -3.64859 1.63427 116 111 102
0.95545 -3.65469 1.65192 125 116 110
0.94282 -3.66176 1.65505 127 116 111
0.93976 -3.66274 1.64054 123 113 109
0.94797 -3.95299 1.64980 119 112 93
0.96466 -3.94443 1.66191 127 117 101
0.95816 -3.94650 1.63103 113 107 92
0.94471 -3.95403 1.63436 107 98 94
0.93882 -3.96858 1.65247 112 106 89
0.92209 -3.97716 1.64034 86 83 82
0.92825 -3.98161 1.65537 104 98 82
0.91941 -3.99805 1.65800 97 91 83
0.91085 -4.01516 1.66060 109 114 96
0.90032 -4.02863 1.66350 109 116 92
0.89483 -4.05207 1.66565 91 92 91
0.87094 -4.07408 1.67190 86 91 101
0.85898 -4.08514 1.67504 117 126 138
0.84597 -4.09412 1.67833 154 164 164
0.83352 -4.10429 1.68154 150 157 150
0.82118 -4.11472 1.68474 114 114 115
0.81118 -4.13010 1.68760 103 96 101
0.78602 -4.15030 1.69407 96 97 98
0.77318 -4.15991 1.69735 93 95 95
0.75891 -4.16647 1.70084 102 108 107
0.74380 -4.17115 1.70444 112 114 114
0.73041 -4.17958 1.70780 121 131 129
0.71784 -4.18986 1.71104 131 143 140
0.70564 -4.20101 1.71424 139 153 136
0.69427 -4.21413 1.71731 127 134 148
0.68190 -4.22505 1.72054 128 135 151
0.67378 -4.24589 1.72317 124 129 130
0.66405 -4.26321 1.72604 97 100 87
0.65138 -4.27378 1.72932 66 73 59
0.63968 -4.28671 1.73247 48 46 51
0.62243 -4.29555 1.71996 35 39 44
0.62883 -4.30181 1.73551 40 39 49
0.61156 -4.31067 1.72298 38 43 51
0.36812 -5.00313 1.82148 138 136 121
0.34895 -5.01296 1.80758 145 133 123
0.01522 -4.57446 1.88503 151 136 106
0.02562 -4.56783 1.86587 153 142 125
-0.00111 -4.57146 1.88862 99 73 54
-0.01511 -4.57781 1.89203 54 50 52
-0.02879 -4.58544 1.89543 81 91 93
-0.04024 -4.60261 1.89868 125 127 119
-0.05327 -4.61318 1.90204 146 141 122
-0.06367 -4.61981 1.92120 153 144 127
-0.06699 -4.62086 1.90544 151 144 127
-0.49228 -4.15274 1.98389 164 148 130
-0.48335 -4.14705 1.96744 161 149 139
-0.49513 -4.15364 1.97036 162 149 137
-0.50690 -4.16024 1.97328 162 151 134
-0.50401 -4.15963 1.98681 155 139 115
-0.51706 -4.15720 1.98968 143 131 109
-0.52924 -4.16064 1.99257 148 141 124
-0.54382 -4.16812 1.98199 162 152 145
-0.54116 -4.16587 1.99547 158 151 140
-0.55574 -4.17335 1.98490 161 152 145
-0.57656 -4.18409 2.00420 159 147 135
-0.56767 -4.17843 1.98780 162 152 140
-0.58983 -4.17806 2.00697 143 127 113
-0.59911 -4.20498 2.01011 102 88 61
-0.61083 -4.21183 2.01303 65 53 33
-0.62448 -4.20161 2.01573 42 28 34
-0.63902 -4.20906 2.00518 25 18 21
-0.63613 -4.20872 2.01864 27 18 20
-0.65067 -4.21618 2.00809 21 17 14
-0.92451 -3.64965 2.06257 8 17 16
-0.91713 -3.64495 2.04898 17 17 13
-0.92686 -3.65040 2.05139 15 19 9
-0.93441 -3.65094 2.06486 16 32 54
-0.94484 -3.63771 2.06672 71 85 105
-1.00350 -3.63859 2.08005 150 137 119
-0.99624 -3.63396 2.06667 154 140 125
-1.00582 -3.63933 2.06905 154 138 122
-1.01540 -3.64469 2.07142 154 136 131
-1.02310 -3.62074 2.08381 166 157 153
-1.03269 -3.61908 2.08592 174 174 182
-1.03987 -3.62366 2.09916 183 175 170
-1.04217 -3.62439 2.08827 179 177 172
2.74436 -2.81038 1.18309 248 250 251
2.76059 -2.80206 1.19486 254 254 254
2.75743 -2.80307 1.17984 252 253 253
2.74752 -2.80938 1.19810 253 254 254
2.74120 -2.81139 1.16807 240 236 244
2.73445 -2.81669 1.20134 252 253 253
2.75584 -2.83464 1.18131 244 244 247
2.74268 -2.84200 1.18458 239 238 243
2.80955 -2.92223 1.17211 245 245 249
2.82303 -2.91469 1.16876 237 238 244
2.81281 -2.92119 1.18759 247 246 249
2.80629 -2.92327 1.15662 254 254 253
2.79933 -2.92874 1.19093 249 247 249
2.79281 -2.93081 1.15997 254 254 254
2.63337 -2.91494 1.21211 250 250 250
2.64337 -2.90858 1.19369 251 252 252
2.63018 -2.91596 1.19696 251 251 251
2.64945 -2.96128 1.21006 175 168 177
2.68454 -3.00498 1.20357 108 94 106
2.66481 -3.00787 1.20818 89 84 98
2.64805 -3.01646 1.19603 83 80 96
2.66070 -3.02253 1.20963 90 87 106
2.66485 -3.04358 1.20942 98 101 114
2.68765 -3.07911 1.20546 112 121 128
2.70624 -3.11174 1.20235 125 136 144
2.69574 -3.11843 1.22168 159 162 171
2.69240 -3.11949 1.20578 144 147 151
2.68905 -3.12056 1.18989 142 131 129
1.68130 -2.38862 1.41123 126 106 67
1.68909 -2.38366 1.39688 180 154 116
1.67882 -2.38941 1.39942 156 134 98
1.67126 -2.39456 1.41373 60 53 49
1.65849 -2.40111 1.40448 51 54 58
1.67236 -2.40950 1.41401 54 59 58
1.65954 -2.41607 1.40471 56 60 71
1.61909 -2.51026 1.42970 43 36 39
1.62164 -2.50945 1.44178 46 43 51
1.61112 -2.51533 1.44439 38 37 38
1.60876 -2.51630 1.43228 50 34 23
1.60783 -2.54571 1.43352 122 102 96
1.63005 -2.58062 1.42967 168 151 102
1.62306 -2.58995 1.43159 197 180 141
1.60556 -2.58992 1.43559 208 186 145
1.58321 -2.60107 1.44108 195 177 153
1.57961 -2.61356 1.44234 183 164 143
1.56628 -2.62040 1.43267 159 139 128
1.57329 -2.62362 1.44414 170 155 121
1.55993 -2.63047 1.43445 162 144 129
1.56135 -2.62855 1.44704 163 144 129
1.54800 -2.63539 1.43736 164 146 126
1.41705 -2.63608 1.48028 158 146 150
1.42504 -2.63099 1.46554 159 142 123
1.39360 -2.62925 1.48540 223 233 239
1.38380 -2.63581 1.48787 252 253 253
1.37076 -2.64250 1.47841 253 254 254
1.37124 -2.63963 1.49087 254 254 252
1.35821 -2.64631 1.48142 254 254 254
1.34811 -2.64919 1.49649 254 254 252
1.34557 -2.65000 1.48445 254 254 254
1.33509 -2.65586 1.48705 254 254 254
1.33924 -2.65670 1.49878 249 251 249
1.32420 -2.65789 1.50226 236 241 239
1.31401 -2.66404 1.50480 230 232 215
1.28325 -2.66546 1.51188 221 228 233
1.27133 -2.66971 1.51475 224 232 236
1.26259 -2.67733 1.51702 233 239 242
1.25416 -2.68530 1.51922 238 244 248
1.24466 -2.69216 1.52163 232 240 248
1.23694 -2.70095 1.52371 220 231 239
1.22990 -2.71052 1.52565 205 207 226
1.22437 -2.72181 1.52731 182 183 215
1.21134 -2.72849 1.51786 154 164 176
1.22031 -2.73482 1.52869 162 170 193
1.20725 -2.74151 1.51922 154 164 175
1.21302 -2.74430 1.53069 154 163 184
1.20696 -2.75522 1.53246 155 165 181
1.19385 -2.76194 1.52295 160 172 181
1.11648 -3.05036 1.56347 144 146 138
1.11744 -3.07266 1.56403 110 108 94
1.10342 -3.07985 1.55386 105 103 98
1.18390 -3.31823 1.55744 108 108 107
1.19305 -3.31240 1.54059 106 105 105
1.18098 -3.31916 1.54358 106 107 108
1.16892 -3.32591 1.54657 105 108 110
1.18479 -3.34305 1.55811 112 109 112
1.16972 -3.35078 1.54718 105 106 104
1.17751 -3.40497 1.56194 110 106 107
1.17128 -3.44531 1.56478 117 118 108
1.16790 -3.46541 1.56625 118 116 107
1.15734 -3.47515 1.56901 115 109 99
1.16660 -3.51430 1.56826 77 65 57
1.14686 -3.51063 1.57264 67 59 84
1.13484 -3.51843 1.57566 102 106 140
1.13319 -3.54198 1.57686 167 185 193
1.11754 -3.55001 1.56551 216 224 233
1.11574 -3.54162 1.58084 209 221 221
1.10013 -3.54963 1.56951 216 223 233
1.10299 -3.54838 1.58399 220 229 231
1.08737 -3.55639 1.57267 219 227 239
1.06711 -3.57240 1.59303 231 238 244
1.07665 -3.56632 1.57545 224 230 241
1.05531 -3.58068 1.59602 243 247 249
1.01693 -3.60082 1.60549 249 250 243
1.02647 -3.59474 1.58791 250 252 252
1.01388 -3.60179 1.59103 249 251 251
1.00309 -3.60581 1.60883 227 224 202
1.00073 -3.62977 1.61021 166 149 119
0.98178 -3.62630 1.61441 105 76 67
0.96619 -3.62832 1.61805 91 83 91
0.95532 -3.63827 1.62088 101 97 98
0.94298 -3.64574 1.62396 110 106 100
0.92708 -3.64709 1.62764 114 108 103
0.91755 -3.65316 1.64521 125 113 109
0.92039 -3.66437 1.62978 117 109 105
0.91083 -3.67046 1.64739 125 115 113
0.90778 -3.67143 1.63290 120 112 106
0.90473 -3.67240 1.61842 112 105 97
0.93645 -3.97128 1.63685 99 90 93
0.94666 -3.96477 1.61803 95 93 97
0.91829 -4.00320 1.64212 83 86 79
0.90757 -4.01619 1.64503 107 123 115
0.89073 -4.02483 1.63282 119 122 130
0.89016 -4.01630 1.64901 122 134 130
0.88644 -4.04312 1.65080 110 110 110
0.87765 -4.06026 1.65341 96 92 93
0.86072 -4.06894 1.64113 105 113 109
0.86367 -4.06720 1.65684 91 93 103
0.85236 -4.07950 1.65986 107 116 138
0.84456 -4.09905 1.66232 138 151 167
0.83031 -4.10554 1.66581 139 148 149
0.81507 -4.10998 1.66945 115 113 114
0.80371 -4.12247 1.67248 107 98 98
0.79178 -4.13384 1.67560 108 99 98
0.77476 -4.14257 1.66326 106 109 113
0.77939 -4.14432 1.67880 105 106 103
0.76514 -4.15083 1.68229 114 125 112
0.74812 -4.15956 1.66994 143 149 158
0.75186 -4.15942 1.68562 132 139 126
0.73878 -4.16848 1.68893 125 119 95
0.72606 -4.17838 1.69218 115 126 121
0.71268 -4.18682 1.69553 125 140 129
0.70562 -4.20953 1.69794 105 110 96
0.70498 -4.24718 1.69941 73 73 98
0.68686 -4.24519 1.70348 87 96 119
0.67156 -4.24956 1.70713 88 90 105
0.66773 -4.28076 1.70910 66 71 59
0.65367 -4.28821 1.71257 53 49 49
0.63639 -4.29707 1.70004 38 38 41
0.64255 -4.30269 1.71562 42 38 43
0.62524 -4.31156 1.70306 29 36 43
0.79415 -5.26069 1.71452 69 81 76
0.80688 -5.25258 1.69105 60 70 73
0.79008 -5.26199 1.69522 68 77 79
0.77620 -5.26696 1.71884 77 86 83
0.76347 -5.27506 1.74230 76 84 89
0.75941 -5.27636 1.72301 81 90 91
0.37061 -5.02511 1.80305 139 136 124
0.35136 -5.03499 1.78909 144 133 119
0.01176 -4.57490 1.86929 154 142 118
0.02215 -4.56828 1.85013 153 143 131
0.00844 -4.57596 1.85353 154 142 128
-0.00326 -4.57724 1.87280 137 116 93
-0.01790 -4.58101 1.87628 68 54 44
-0.03220 -4.58609 1.87972 52 56 56
-0.04623 -4.59221 1.88314 91 98 97
-0.05928 -4.60256 1.88649 127 129 117
-0.07376 -4.60668 1.88994 144 140 126
-0.08413 -4.61328 1.90904 152 145 129
-0.08743 -4.61433 1.89333 149 144 129
-0.51915 -4.16350 1.97619 163 152 132
-0.51023 -4.15781 1.95976 160 151 135
-0.52199 -4.16440 1.96268 159 151 136
-0.53376 -4.17099 1.96560 160 151 141
-0.53090 -4.17015 1.97911 163 152 137
-0.54552 -4.17764 1.96851 160 151 144
-0.57900 -4.18825 1.99074 158 146 133
-0.57010 -4.18258 1.97433 164 152 140
-0.59425 -4.16589 1.99344 133 117 96
-0.60174 -4.20772 1.99661 90 81 44
-0.61296 -4.21898 1.99957 57 49 30
-0.62462 -4.22664 2.00251 38 25 33
-0.63924 -4.23415 1.99190 21 20 19
-0.93677 -3.65160 2.05370 11 15 20
-0.92940 -3.64690 2.04012 14 19 12
-0.93912 -3.65234 2.04253 14 18 18
-0.94884 -3.65779 2.04494 13 16 21
-0.94640 -3.65921 2.05616 13 20 40
-0.95567 -3.67796 2.05894 49 58 70
-1.02535 -3.62439 2.07299 154 138 141
-1.01815 -3.61980 2.05970 154 137 133
-1.02765 -3.62512 2.06206 154 137 133
-1.03502 -3.61672 2.07493 162 152 153
-1.04455 -3.61578 2.07707 171 168 162
-1.05171 -3.62034 2.09028 185 176 169
2.74637 -2.83131 1.16751 238 236 243
2.73006 -2.83967 1.15568 254 254 253
2.76371 -2.85984 1.16442 246 246 248
2.74727 -2.86827 1.15250 254 254 254
2.59290 -2.90551 1.20522 242 242 242
2.60283 -2.89919 1.18692 251 251 251
2.57136 -2.90656 1.21021 191 189 188
2.64337 -2.97762 1.19588 121 111 115
2.64544 -2.99676 1.19601 89 83 98
2.63646 -3.02546 1.19899 83 83 94
2.61607 -3.02771 1.20376 88 93 101
2.64405 -3.06731 1.19857 103 107 115
2.62713 -3.07599 1.18629 146 130 115
1.68046 -2.40474 1.39953 79 71 58
1.68829 -2.39976 1.38511 175 149 109
1.65599 -2.47067 1.40726 40 46 57
1.66899 -2.46401 1.41668 44 47 63
1.66646 -2.46481 1.40466 41 41 54
1.65852 -2.46987 1.41928 52 57 69
1.64806 -2.47572 1.42188 57 61 65
1.63777 -2.48467 1.41190 50 50 60
1.62693 -2.49023 1.41457 43 28 45
1.62124 -2.50019 1.41620 69 54 52
1.61226 -2.50737 1.41850 89 80 55
1.60330 -2.51458 1.42079 138 116 69
1.64128 -2.56278 1.41357 181 164 103
1.62571 -2.57991 1.41770 208 191 139
1.61773 -2.58835 1.41980 202 185 153
1.61089 -2.59784 1.42168 191 173 157
1.59698 -2.60099 1.42498 179 161 140
1.58365 -2.60783 1.41532 157 136 134
1.58644 -2.60718 1.42761 164 147 141
1.57311 -2.61401 1.41794 160 140 133
1.57682 -2.61420 1.43005 160 139 133
1.56349 -2.62104 1.42038 162 141 131
1.41290 -2.63533 1.46848 153 137 130
1.42090 -2.63024 1.45375 162 143 128
1.39827 -2.63719 1.47191 199 196 204
1.37382 -2.62922 1.47729 242 247 249
1.31592 -2.65279 1.49137 254 254 251
1.32384 -2.64775 1.47678 254 254 254
1.31340 -2.65359 1.47937 253 254 254
1.30543 -2.65858 1.49397 252 252 244
1.29363 -2.66300 1.49683 238 244 243
1.28052 -2.66605 1.49995 227 230 230
1.27111 -2.67295 1.50233 217 225 222
1.25991 -2.67796 1.50507 203 211 219
1.25129 -2.68574 1.50730 190 199 219
1.24250 -2.69334 1.50957 178 181 214
1.24162 -2.70958 1.51029 160 162 191
1.23191 -2.71630 1.51274 145 153 180
1.22434 -2.72539 1.51477 146 157 179
1.20655 -2.75844 1.51992 152 165 177
1.12643 -3.04681 1.54751 168 177 179
1.13494 -3.04139 1.53182 168 178 189
1.11823 -3.05706 1.54973 148 154 149
1.12389 -3.08560 1.54933 113 113 106
1.17938 -3.38846 1.54615 106 103 104
1.17599 -3.40798 1.54755 104 101 101
1.17466 -3.43068 1.54857 104 102 98
1.16995 -3.44868 1.55023 104 100 97
1.17088 -3.47512 1.55085 95 92 94
1.15798 -3.48148 1.55403 95 87 90
1.15309 -3.49973 1.55573 96 92 103
1.15462 -3.52776 1.55627 132 147 152
1.13596 -3.52567 1.56050 185 206 203
1.12036 -3.53367 1.54918 217 232 240
1.12389 -3.53345 1.56353 213 227 230
1.06248 -3.57086 1.57886 228 233 242
1.07201 -3.56479 1.56129 223 230 240
1.05944 -3.57183 1.56441 226 233 242
1.05077 -3.57928 1.58182 238 242 246
1.03871 -3.58715 1.58485 248 250 250
1.02309 -3.59517 1.57352 245 251 252
0.99948 -3.60583 1.59448 248 249 244
1.00901 -3.59976 1.57692 248 251 251
0.99643 -3.60680 1.58004 247 251 251
0.98569 -3.61085 1.59782 227 224 202
0.98027 -3.62984 1.59967 164 147 116
0.95842 -3.62132 1.60443 97 69 64
0.94904 -3.63374 1.60698 82 79 89
0.93543 -3.63900 1.61029 95 94 92
0.92050 -3.64194 1.61382 103 99 99
0.91569 -3.66246 1.61558 107 102 101
0.90004 -3.67049 1.60423 100 98 82
0.93092 -3.96805 1.62176 94 95 102
0.94112 -3.96155 1.60295 91 92 90
0.92126 -3.98281 1.62445 86 88 100
0.91220 -3.99884 1.62705 91 97 104
0.90121 -4.01129 1.62997 111 120 126
0.87483 -4.02781 1.63657 120 119 117
0.86499 -4.04274 1.63931 116 123 110
0.84634 -4.07507 1.64463 99 106 118
0.83630 -4.09001 1.64742 109 121 136
0.81935 -4.09871 1.63512 106 112 116
0.82153 -4.09534 1.65099 119 127 144
0.80827 -4.10377 1.65431 123 130 144
0.79956 -4.12176 1.65689 137 148 147
0.78298 -4.12330 1.66076 133 136 127
0.76026 -4.14852 1.66679 107 124 130
0.73524 -4.16905 1.67321 129 132 132
0.72630 -4.18731 1.67585 91 93 101
0.70929 -4.18772 1.67978 99 114 112
0.71116 -4.23066 1.68071 85 80 82
0.69397 -4.23948 1.66824 47 58 46
0.70335 -4.25217 1.68319 44 52 61
0.68609 -4.26102 1.67068 52 60 66
0.69334 -4.26890 1.68603 45 58 70
0.68149 -4.28154 1.68915 48 55 65
0.66418 -4.29041 1.67660 47 50 36
0.67076 -4.29689 1.69211 50 56 48
0.65342 -4.30579 1.67953 44 48 38
0.65643 -4.30384 1.69563 47 47 45
0.63909 -4.31273 1.68306 38 38 36
0.78027 -5.29059 1.69839 74 85 89
0.79306 -5.28245 1.67483 57 57 68
0.75704 -5.28233 1.70348 81 94 97
0.74023 -5.29174 1.70765 87 96 93
0.72134 -5.29521 1.71211 87 91 85
0.72540 -5.29392 1.73140 68 80 84
0.37607 -5.05718 1.78410 139 135 123
0.35670 -5.06712 1.77005 141 133 115
-0.00805 -4.57226 1.85721 155 137 117
0.00232 -4.56565 1.83811 154 143 133
-0.02273 -4.57572 1.86071 111 94 65
-0.03568 -4.58639 1.86403 57 41 39
-0.05044 -4.58940 1.86752 58 57 59
-0.06838 -4.57840 1.87131 94 102 101
-0.07942 -4.59737 1.87445 128 131 127
-0.09596 -4.59196 1.87809 143 139 127
-0.10626 -4.59853 1.89708 154 145 132
-0.11111 -4.59247 1.88160 152 143 127
-0.12140 -4.59902 1.90056 155 145 128
-0.12468 -4.60007 1.88496 155 146 129
-0.57976 -4.20599 1.97730 156 140 131
-0.59237 -4.20579 1.98020 122 105 88
-0.60263 -4.22524 1.98318 79 69 47
-0.61426 -4.23349 1.98612 50 41 41
-0.62606 -4.24017 1.98905 31 24 30
-0.64074 -4.24769 1.97841 19 20 13
-0.95854 -3.66371 2.04736 10 14 28
-0.95117 -3.65902 2.03379 14 20 13
-0.96089 -3.66446 2.03620 16 17 11
-0.97831 -3.66259 2.05189 72 93 112
-0.98566 -3.66727 2.06542 151 140 131
-0.98800 -3.66801 2.05429 127 129 135
-0.99848 -3.63826 2.05576 148 140 132
-1.00807 -3.64363 2.05814 154 138 129
-1.03730 -3.61848 2.06407 151 134 132
-1.03011 -3.61390 2.05084 155 135 133
-1.03959 -3.61921 2.05319 151 135 132
-1.04678 -3.62292 2.06640 158 143 145
-1.06579 -3.61168 2.07042 175 170 177
-1.07292 -3.61623 2.08357 182 173 164
-1.07520 -3.61695 2.07276 179 173 168
2.71902 -2.79933 1.15710 248 246 249
2.70287 -2.80761 1.14539 254 254 254
2.72597 -2.82041 1.15609 253 253 251
2.70974 -2.82873 1.14431 254 254 254
2.54562 -2.87384 1.19948 245 245 242
2.50663 -2.86167 1.20819 202 200 197
2.55176 -2.91235 1.19915 129 123 126
2.59767 -2.96418 1.18996 99 101 104
2.61041 -2.99137 1.18778 85 78 94
2.60178 -3.00248 1.19010 78 77 88
2.58822 -3.00983 1.19345 81 77 89
2.57979 -3.02116 1.19573 100 89 98
1.68171 -2.40855 1.38689 129 109 76
1.68954 -2.40356 1.37245 183 152 114
1.67921 -2.40935 1.37502 164 138 98
1.68490 -2.42529 1.38662 59 54 54
1.67452 -2.43110 1.38920 54 58 67
1.67091 -2.44247 1.39036 54 56 65
1.67343 -2.44167 1.40232 55 56 69
1.66301 -2.44750 1.40491 47 46 58
1.66950 -2.45573 1.39106 48 46 55
1.65150 -2.46984 1.39564 29 26 32
1.64019 -2.47498 1.39842 59 46 56
1.62959 -2.48071 1.40104 83 66 66
1.60843 -2.47744 1.40586 108 83 83
1.63596 -2.51580 1.40056 155 127 94
1.62285 -2.52252 1.39105 210 192 153
1.63575 -2.53064 1.40103 194 173 113
1.62975 -2.54057 1.40270 212 190 136
1.62977 -2.55581 1.40313 209 192 145
1.62372 -2.58126 1.40526 189 172 144
1.61202 -2.58640 1.40812 175 151 137
1.59871 -2.59322 1.39847 156 131 121
1.60077 -2.59191 1.41089 159 136 132
1.58746 -2.59874 1.40124 158 137 120
1.59599 -2.60328 1.41232 156 138 126
1.58266 -2.61012 1.40265 158 139 129
1.39308 -2.63538 1.46035 170 167 161
1.37258 -2.63131 1.46500 215 225 226
1.35694 -2.63199 1.46865 247 252 253
1.34649 -2.63784 1.47124 254 254 254
1.30159 -2.65802 1.48224 251 253 253
1.28879 -2.66140 1.48531 248 249 249
1.27747 -2.66629 1.48808 235 240 237
1.26706 -2.67214 1.49066 206 212 211
1.26522 -2.68712 1.49151 166 160 176
1.26024 -2.69886 1.49300 133 133 157
1.24722 -2.70554 1.48356 133 138 144
1.25241 -2.70759 1.49507 126 131 158
1.24110 -2.71259 1.49784 132 143 159
1.23227 -2.72028 1.50011 148 156 162
1.22406 -2.72869 1.50225 155 165 173
1.21779 -2.73928 1.50401 161 173 177
1.21470 -2.75350 1.50513 153 163 167
1.20158 -2.76023 1.49562 135 139 148
1.20833 -2.76414 1.50691 143 150 156
1.20222 -2.77515 1.50864 158 171 180
1.19162 -2.78108 1.51127 168 178 189
1.18905 -2.78190 1.49909 166 178 186
1.13227 -3.05879 1.53294 169 179 184
1.12303 -3.06777 1.53534 151 158 154
1.12995 -3.09808 1.53459 117 115 113
1.12125 -3.10802 1.53689 107 99 100
1.11261 -3.11352 1.55281 108 106 102
1.10986 -3.11440 1.53972 105 103 102
1.10710 -3.11527 1.52663 101 97 99
1.18745 -3.35685 1.52859 101 104 99
1.19963 -3.35003 1.52556 102 103 104
1.18525 -3.37774 1.52969 100 103 93
1.18297 -3.39871 1.53081 97 97 90
1.17489 -3.41161 1.53306 94 92 87
1.17030 -3.42965 1.53463 87 84 88
1.16905 -3.45270 1.53558 92 76 95
1.16684 -3.47459 1.53671 96 93 110
1.15439 -3.48160 1.53980 135 144 157
1.14601 -3.49467 1.54212 173 196 195
1.14383 -3.51712 1.54326 197 218 222
1.12824 -3.52512 1.53196 206 224 243
1.13390 -3.52811 1.54588 212 228 238
1.10841 -3.54163 1.55219 218 228 237
1.09503 -3.54742 1.55546 220 225 236
1.08247 -3.55446 1.55857 220 227 239
1.04507 -3.57600 1.56787 232 237 244
1.05459 -3.56994 1.55032 223 230 241
1.04203 -3.57697 1.55344 228 234 241
1.03310 -3.58399 1.57088 239 245 248
0.97210 -3.59429 1.58533 246 250 243
0.98157 -3.58825 1.56787 249 251 251
0.96907 -3.59525 1.57097 248 251 250
0.95435 -3.62053 1.59020 149 138 105
0.92704 -3.63079 1.59683 82 78 79
0.91299 -3.63516 1.60022 91 89 87
0.92496 -3.96400 1.60677 102 111 105
0.93516 -3.95751 1.58799 96 97 103
0.91506 -3.97826 1.60948 102 109 109
0.90585 -3.99397 1.61206 117 119 113
0.88909 -4.00257 1.59991 147 156 152
0.89077 -3.99846 1.61569 133 137 135
0.87896 -4.00929 1.61874 128 137 140
0.86853 -4.02289 1.62155 123 134 135
0.86000 -4.04038 1.62403 113 118 113
0.84918 -4.05345 1.62691 93 94 91
0.83634 -4.06254 1.63015 92 96 96
0.82752 -4.07986 1.63269 107 113 113
0.80531 -4.10555 1.63858 109 113 121
0.79590 -4.12208 1.64123 130 137 146
0.78006 -4.12516 1.64500 129 136 135
0.76905 -4.13850 1.64793 103 107 104
0.75670 -4.14902 1.65110 93 95 115
0.74536 -4.16184 1.65410 123 135 149
0.73206 -4.17041 1.65743 112 107 125
0.72682 -4.19692 1.65940 76 77 73
0.71786 -4.21545 1.66201 66 77 76
0.71057 -4.23798 1.66434 66 62 61
0.69335 -4.24681 1.65185 58 65 56
0.68455 -4.29760 1.67207 53 55 51
0.69515 -4.29084 1.65253 60 64 63
0.76684 -5.26613 1.68046 58 56 84
0.75088 -5.27780 1.68449 69 72 96
0.72652 -5.26587 1.68981 81 92 101
0.71589 -5.29256 1.69304 90 100 95
0.40070 -5.09213 1.76054 116 120 102
0.41643 -5.08332 1.75664 38 40 31
0.38115 -5.10216 1.74637 143 133 120
0.37790 -5.07721 1.76541 141 132 125
0.35845 -5.08718 1.75131 141 132 118
-0.01259 -4.56825 1.84164 154 143 131
-0.00223 -4.56165 1.82256 153 143 131
-0.01589 -4.56930 1.82595 153 144 136
-0.02682 -4.57349 1.84510 154 135 111
-0.04068 -4.58027 1.84851 104 83 58
-0.05389 -4.58984 1.85185 56 40 26
-0.06835 -4.59396 1.85532 52 57 48
-0.08311 -4.59667 1.85882 89 99 98
-0.10102 -4.58499 1.86265 124 127 117
-0.11628 -4.58489 1.86619 142 137 120
-0.13278 -4.57874 1.86985 150 143 126
-0.14302 -4.58526 1.88872 155 145 136
-0.14628 -4.58630 1.87320 153 144 131
-0.57056 -4.20231 1.96083 163 150 138
-0.55591 -4.19479 1.97145 161 151 143
-0.55877 -4.19570 1.95790 161 150 140
-0.56162 -4.19661 1.94434 160 150 136
-0.59281 -4.22681 1.96669 109 89 71
-0.60162 -4.25933 1.96966 70 54 51
-0.61514 -4.25183 1.97258 45 32 42
-0.62699 -4.25856 1.97553 26 22 22
-0.64173 -4.26612 1.96484 17 20 9
-0.97100 -3.65709 2.03834 12 13 16
-0.96365 -3.65241 2.02481 15 19 8
-0.97334 -3.65784 2.02721 16 18 12
-0.98302 -3.66326 2.02961 12 16 25
-0.98066 -3.66336 2.04076 11 21 45
-0.99067 -3.65548 2.04286 55 62 80
-1.00073 -3.64201 2.04481 101 115 128
-1.04907 -3.62397 2.05553 153 135 133
-1.04189 -3.61939 2.04229 154 138 136
-1.05136 -3.62470 2.04464 154 135 123
-1.06083 -3.63000 2.04699 154 133 117
-1.05856 -3.62550 2.05777 155 136 142
-1.06806 -3.61546 2.05969 160 153 163
-1.07976 -3.62146 2.05121 160 145 148
-1.07747 -3.60793 2.06167 171 168 175
-1.08459 -3.61246 2.07478 182 172 169
-1.08685 -3.61078 2.06392 178 174 173
-1.09396 -3.61531 2.07703 184 172 168
-1.09623 -3.61603 2.06625 183 174 175
2.49963 -2.84305 1.19385 243 245 244
2.49198 -2.85404 1.19592 200 201 201
2.53902 -2.90616 1.18621 123 121 132
2.54136 -2.92507 1.18614 113 112 109
2.52511 -2.93340 1.17436 103 101 95
2.57125 -2.96508 1.18015 91 87 97
2.58246 -2.99120 1.17818 74 73 80
2.56357 -2.99437 1.18268 81 73 85
2.55383 -3.00458 1.18521 110 94 82
2.60123 -3.05940 1.17549 149 131 89
2.59096 -3.06594 1.19441 172 149 115
2.58769 -3.06698 1.17885 168 145 108
1.68514 -2.42832 1.37410 84 76 58
1.69303 -2.42330 1.35958 176 151 104
1.67774 -2.43657 1.37604 54 52 55
1.66969 -2.44434 1.37812 48 53 60
1.66517 -2.45505 1.37945 48 43 51
1.65451 -2.46070 1.38209 55 32 35
1.64506 -2.46737 1.38447 73 48 44
1.65216 -2.48799 1.38332 121 101 95
1.66332 -2.51224 1.38132 174 152 109
1.64882 -2.51484 1.38478 206 183 150
1.63815 -2.52068 1.38742 214 190 147
1.62718 -2.54138 1.39051 199 183 158
1.62802 -2.55736 1.39071 189 168 144
1.62716 -2.57196 1.39128 175 152 134
1.61387 -2.57878 1.38164 158 137 126
1.61538 -2.57700 1.39416 158 138 125
1.60210 -2.58381 1.38453 158 137 124
1.60749 -2.58549 1.39622 151 129 117
1.59419 -2.59231 1.38658 160 138 124
1.39513 -2.64075 1.44731 162 154 136
1.40312 -2.63566 1.43260 164 146 120
1.38202 -2.64407 1.45047 178 183 192
1.35531 -2.63370 1.45646 231 239 245
1.34221 -2.63687 1.45960 252 254 254
1.33429 -2.64191 1.47419 254 254 254
1.33177 -2.64272 1.46220 252 253 254
1.32099 -2.64822 1.46486 250 251 253
1.31064 -2.65415 1.46743 242 247 251
1.29883 -2.65858 1.47030 229 240 243
1.28670 -2.66265 1.47324 217 218 230
1.27948 -2.67186 1.47517 194 190 211
1.26651 -2.67851 1.46576 172 180 186
1.26979 -2.67851 1.47760 173 177 189
1.26102 -2.68615 1.47984 158 166 172
1.25785 -2.69982 1.48093 142 142 141
1.24180 -2.71692 1.48512 131 138 147
1.23211 -2.72370 1.48755 143 156 153
1.22367 -2.73188 1.48973 160 175 184
1.21839 -2.74360 1.49126 172 183 189
1.21556 -2.75814 1.49229 154 163 167
1.20506 -2.78210 1.49535 153 166 178
1.14657 -3.06077 1.51603 165 179 188
1.16061 -3.05357 1.52621 167 178 186
1.15788 -3.05444 1.51322 167 180 188
1.13682 -3.06913 1.51852 163 174 183
1.13612 -3.08937 1.51919 146 150 153
1.13354 -3.10733 1.52024 115 111 110
1.12569 -3.11846 1.52236 104 93 95
1.11149 -3.12574 1.51206 97 94 95
1.20988 -3.34555 1.50835 98 98 97
1.22502 -3.33779 1.51932 103 101 100
1.22207 -3.33873 1.50532 100 100 96
1.21912 -3.33967 1.49132 94 95 91
