ply
format ascii 1.0
element face 0
property list uchar int vertex_indices
element vertex 1311
property float x
property float y
property float z
property uchar diffuse_red
property uchar diffuse_green
property uchar diffuse_blue
end_header
2.30366 -3.43307 0.45596 186 181 175
2.29432 -3.44520 0.45556 175 168 168
2.29899 -3.47431 0.44856 165 155 137
2.29580 -3.49417 0.44521 149 144 138
2.27495 -3.51669 0.44525 153 149 134
2.25491 -3.51614 0.44983 164 156 152
2.23576 -3.51661 0.45400 146 137 135
2.19492 -3.48976 0.46859 109 103 102
2.18991 -3.50777 0.46602 99 92 89
2.18982 -3.53220 0.46105 95 90 87
2.17686 -3.53699 0.47893 98 99 104
2.17520 -3.53827 0.46306 95 96 96
2.17354 -3.53955 0.44719 104 101 100
1.57516 -3.43485 0.61793 160 135 142
1.58716 -3.43042 0.60137 158 135 128
1.55981 -3.43756 0.62080 169 156 161
1.53019 -3.44457 0.62596 169 159 170
1.50872 -3.43714 0.63227 141 114 150
1.50321 -3.45582 0.62967 154 162 173
1.20351 -3.27243 0.73398 157 161 161
1.21464 -3.26832 0.71862 153 158 177
1.18306 -3.26314 0.74044 84 85 106
1.19304 -3.30995 0.72864 49 44 78
1.18182 -3.31410 0.74412 45 47 81
1.18038 -3.31521 0.73038 47 45 77
1.17895 -3.31631 0.71664 47 45 74
1.18069 -3.37442 0.71820 46 45 78
1.19208 -3.37021 0.70249 47 46 71
1.18440 -3.41147 0.70979 68 73 96
1.18576 -3.44455 0.70272 90 97 107
1.17421 -3.45292 0.70358 91 94 101
1.15965 -3.45949 0.69119 102 106 122
1.16850 -3.47285 0.70077 82 78 99
1.17145 -3.54229 0.68590 90 98 115
1.15659 -3.54899 0.67325 118 122 136
1.16815 -3.56814 0.68135 98 109 122
1.16388 -3.59238 0.67734 113 121 134
1.14250 -3.58172 0.68429 114 119 132
1.13173 -3.59284 0.68441 87 93 105
1.13449 -3.63243 0.67570 60 63 85
1.11937 -3.63925 0.66283 50 51 74
1.10229 -3.70313 0.66840 50 48 66
1.11604 -3.69743 0.66650 47 51 62
1.11448 -3.69863 0.65157 49 50 68
1.10385 -3.70193 0.68333 47 48 71
1.10186 -3.73816 0.66133 57 54 82
1.10171 -3.77435 0.65396 67 71 97
1.08615 -3.78137 0.64071 76 87 105
1.10249 -3.81322 0.64583 71 81 101
1.07991 -3.83776 0.64584 70 78 97
1.07281 -3.85987 0.64290 72 79 90
1.05700 -3.86700 0.62944 47 50 86
1.06530 -3.88138 0.64017 59 63 89
1.04185 -3.90525 0.64051 41 49 85
1.04276 -4.03056 0.61466 116 129 129
1.01685 -4.05144 0.61616 101 101 128
1.01000 -4.07748 0.61236 114 119 134
0.99724 -4.08880 0.61289 117 126 138
0.98685 -4.10638 0.61161 123 134 142
0.96389 -4.13653 0.61056 145 148 146
0.96220 -4.13783 0.59436 142 148 146
0.94728 -4.14402 0.59642 142 143 136
0.93757 -4.15839 0.61194 140 141 153
0.93588 -4.15970 0.59572 135 139 143
0.92450 -4.16972 0.61254 146 147 155
0.90953 -4.17593 0.61460 151 146 161
0.89880 -4.19396 0.61331 153 153 166
0.89710 -4.19528 0.59701 161 166 174
0.88640 -4.20757 0.61328 151 150 161
0.87329 -4.21932 0.61380 155 153 155
0.85653 -4.22688 0.59953 145 149 156
0.85982 -4.23014 0.61459 156 159 163
0.84620 -4.24063 0.61548 153 156 156
0.80132 -4.26052 0.62141 138 139 139
0.79960 -4.26184 0.60503 133 131 138
0.77204 -4.27584 0.62480 134 131 127
0.75523 -4.28342 0.61049 139 140 142
0.75623 -4.27987 0.62749 131 134 139
0.73943 -4.28746 0.61319 132 139 142
0.73868 -4.27830 0.63173 136 146 141
0.72191 -4.28587 0.61745 132 141 148
0.70541 -4.28050 0.63869 138 137 152
0.68868 -4.28805 0.62445 124 126 138
0.63750 -4.27856 0.65422 146 149 140
0.62087 -4.28607 0.64007 131 134 135
0.62317 -4.28689 0.65571 136 139 137
0.60654 -4.29439 0.64155 130 128 136
0.60927 -4.29676 0.65679 133 132 137
0.59262 -4.30427 0.64261 129 133 130
0.56424 -4.31476 0.66314 121 124 120
0.57750 -4.30987 0.64484 128 135 136
0.56255 -4.31607 0.64690 124 127 130
0.53354 -4.32413 0.66806 114 117 122
0.51924 -4.33280 0.66947 112 116 130
0.47362 -4.34834 0.67646 135 128 125
0.44614 -4.37068 0.67801 114 118 126
0.44444 -4.37199 0.66175 112 113 126
0.42947 -4.37820 0.66382 117 118 129
0.43216 -4.38109 0.67900 124 124 129
0.24138 -4.39916 0.71781 121 128 133
0.25618 -4.39302 0.71577 112 118 123
0.23970 -4.40045 0.70174 125 135 129
0.22658 -4.40530 0.71985 133 134 140
-0.33709 -4.61679 0.80218 117 119 116
-0.32236 -4.61068 0.80015 123 126 127
-0.32403 -4.61196 0.78415 133 126 116
-0.35146 -4.62926 0.80283 115 115 103
-0.36789 -4.63667 0.78885 116 123 123
-0.39488 -4.66523 0.80514 105 104 106
-0.39656 -4.66652 0.78907 110 109 105
-0.41137 -4.67267 0.79111 103 107 102
2.49064 -3.03214 0.48163 123 99 56
2.50257 -3.02773 0.46516 125 101 75
2.49907 -3.07872 0.47005 77 62 52
2.49225 -3.09121 0.46898 75 63 52
2.47206 -3.09024 0.47371 103 84 59
2.46548 -3.10307 0.47252 94 74 52
2.54413 -3.20349 0.43399 55 42 46
2.52848 -3.21055 0.42067 31 24 20
2.54915 -3.22903 0.42755 35 21 33
2.53341 -3.23614 0.41415 29 27 22
2.42900 -3.22636 0.45505 96 88 115
2.42742 -3.22758 0.43987 46 55 75
2.45022 -3.27017 0.44118 181 190 205
2.41456 -3.31681 0.43948 198 195 202
2.42719 -3.31215 0.42205 197 196 209
2.41295 -3.31806 0.42401 199 195 206
2.40997 -3.33348 0.43704 198 189 147
2.41069 -3.35625 0.43214 198 169 40
2.39639 -3.36227 0.43410 187 159 22
2.38203 -3.36822 0.43608 180 152 20
2.38040 -3.36948 0.42049 180 155 33
2.33812 -3.38512 0.44241 164 137 44
2.35085 -3.38042 0.42484 198 165 28
2.32032 -3.38705 0.44600 149 118 61
2.31984 -3.40928 0.44148 185 170 149
2.31227 -3.42335 0.44025 182 180 174
2.30415 -3.43686 0.43926 167 163 158
2.28834 -3.44126 0.44189 182 186 175
2.29181 -3.46891 0.43536 187 179 163
2.28500 -3.48435 0.43368 159 155 144
2.29183 -3.51662 0.42543 133 123 93
2.27722 -3.52282 0.42742 118 109 112
2.26054 -3.52647 0.43040 143 135 157
2.23544 -3.51956 0.43747 163 156 168
2.22871 -3.53557 0.43565 143 133 144
2.21336 -3.54082 0.43800 134 130 130
1.57776 -3.44259 0.60095 158 135 135
1.58978 -3.43815 0.58436 157 136 132
1.57622 -3.44378 0.58623 156 136 134
1.56033 -3.44201 0.60498 162 146 152
1.54489 -3.44456 0.60791 183 183 188
1.52843 -3.44540 0.61143 174 168 174
1.51770 -3.45554 0.61172 117 94 128
1.49558 -3.44694 0.61847 136 128 155
1.46790 -3.42887 0.62844 159 165 186
1.21204 -3.29167 0.71435 158 163 168
1.22323 -3.28753 0.69890 153 158 180
1.20623 -3.30943 0.71196 110 112 124
1.19316 -3.31394 0.71395 59 48 76
1.17905 -3.32031 0.70194 45 46 73
1.17639 -3.37013 0.70602 44 45 77
1.18776 -3.36593 0.69033 44 48 65
1.19152 -3.42910 0.69036 71 76 103
1.19520 -3.46684 0.68169 97 105 120
1.18945 -3.48674 0.67884 106 114 124
1.17713 -3.52567 0.67350 103 104 118
1.16232 -3.53235 0.66090 110 111 129
1.17517 -3.55395 0.66806 111 114 129
1.15965 -3.58804 0.66445 111 114 130
1.14033 -3.58158 0.67012 86 90 107
1.14476 -3.62431 0.66024 60 66 87
1.12966 -3.63113 0.64739 47 51 74
1.13818 -3.64461 0.65749 49 54 81
1.12302 -3.65145 0.64459 49 49 67
1.11116 -3.72709 0.64640 56 56 77
1.12187 -3.78690 0.63156 69 74 99
1.10624 -3.79395 0.61825 80 89 108
1.11503 -3.80872 0.62855 78 89 110
1.09206 -3.83225 0.62881 70 80 103
1.08273 -3.84912 0.62739 63 66 90
1.07347 -3.86636 0.62588 61 63 79
1.05777 -3.90822 0.62069 51 57 95
1.05639 -3.94502 0.61335 71 87 110
1.04031 -3.95227 0.59966 109 116 125
1.06193 -3.99912 0.60085 102 118 134
1.04566 -4.00646 0.58700 101 101 123
1.04159 -4.03307 0.59835 109 106 110
1.01943 -4.06340 0.59701 112 122 142
1.00300 -4.07081 0.58303 134 136 146
1.00976 -4.08241 0.59523 129 135 149
0.99690 -4.09354 0.59579 129 128 144
0.98605 -4.10998 0.59481 135 138 144
0.97418 -4.12397 0.59456 134 145 149
0.92197 -4.16876 0.59695 136 135 146
0.93523 -4.16386 0.57865 133 139 144
0.90816 -4.17815 0.59809 147 150 163
0.88217 -4.20173 0.59902 158 159 166
0.86546 -4.20927 0.58479 144 147 154
0.86691 -4.20725 0.60129 147 149 156
0.85021 -4.21479 0.58707 141 148 153
0.83934 -4.22687 0.60339 145 148 150
0.82425 -4.23291 0.60552 147 147 142
0.80751 -4.24047 0.59127 137 142 139
0.80748 -4.23392 0.60907 144 142 138
0.77883 -4.25062 0.61202 133 134 139
0.77713 -4.25193 0.59570 145 143 145
0.76210 -4.25817 0.59778 141 143 145
0.76486 -4.26014 0.61317 142 143 140
0.69962 -4.26845 0.62607 129 133 148
0.69792 -4.26976 0.60981 135 146 143
0.68294 -4.27598 0.61187 133 134 133
0.66432 -4.26292 0.63514 136 145 147
0.65042 -4.27257 0.63625 138 147 146
0.63350 -4.27193 0.64017 130 135 134
0.54370 -4.30770 0.65287 125 128 126
0.52847 -4.31261 0.65526 108 107 112
0.51477 -4.32344 0.65608 112 116 129
0.50033 -4.33145 0.65765 129 133 125
0.48485 -4.33541 0.66030 125 127 135
0.47008 -4.34217 0.66221 129 126 126
0.45648 -4.35375 0.66285 115 116 118
0.41423 -4.38330 0.66617 126 126 127
0.42751 -4.37840 0.64786 123 122 130
0.41254 -4.38461 0.64992 130 132 128
0.40096 -4.38820 0.68449 115 116 123
0.22441 -4.40398 0.70444 128 121 133
0.23752 -4.39914 0.68634 130 136 134
0.20962 -4.41012 0.70648 123 116 128
0.20794 -4.41141 0.69042 118 115 125
-0.14263 -4.58397 0.74930 115 108 109
-0.12606 -4.57650 0.76340 109 105 106
-0.12775 -4.57780 0.74725 110 111 105
-0.12944 -4.57910 0.73110 110 108 111
-0.15750 -4.59014 0.75135 117 111 120
-0.15919 -4.59145 0.73520 122 120 128
-0.33959 -4.60428 0.78924 113 111 112
-0.35594 -4.61166 0.77532 96 98 103
-0.35410 -4.61348 0.79058 107 115 106
-0.38265 -4.64259 0.79093 114 116 109
-0.38432 -4.64388 0.77491 111 113 108
-0.39907 -4.65000 0.77695 110 113 103
-0.47026 -4.70786 0.79699 114 119 109
-0.45374 -4.70041 0.81106 100 100 97
-0.45711 -4.70300 0.77884 118 114 107
-0.47195 -4.70916 0.78088 119 119 113
-0.48342 -4.71272 0.81515 111 120 112
-0.48510 -4.71402 0.79904 113 119 112
-0.49963 -4.73266 0.79842 114 117 98
-0.51282 -4.73754 0.81663 106 105 97
-0.51620 -4.74014 0.78432 96 99 86
-0.51442 -4.74325 0.79954 108 111 90
-0.52762 -4.74812 0.81776 103 99 107
-0.52931 -4.74942 0.80159 105 105 101
2.50385 -3.04791 0.46061 125 98 65
2.51584 -3.04348 0.44406 127 100 79
2.50232 -3.04910 0.44592 128 99 75
2.50761 -3.07074 0.45493 120 95 54
2.50771 -3.09012 0.45081 102 80 47
2.51939 -3.12135 0.44158 77 59 43
2.53158 -3.15340 0.43205 65 49 40
2.55564 -3.19791 0.41721 45 32 29
2.55873 -3.22136 0.41156 33 21 30
2.54299 -3.22845 0.39817 32 23 19
2.42433 -3.24515 0.43686 142 152 166
2.44882 -3.29288 0.42124 194 199 211
2.43622 -3.29753 0.43863 196 196 215
2.43461 -3.29877 0.42320 197 197 211
2.40893 -3.33537 0.42126 197 194 186
2.42159 -3.33069 0.40378 198 198 202
2.41484 -3.36399 0.41388 194 174 100
2.39763 -3.36677 0.41717 182 153 19
2.38163 -3.37399 0.40355 180 154 42
2.33448 -3.38404 0.42777 182 156 41
2.34720 -3.37934 0.41022 201 164 24
2.31848 -3.38806 0.43053 153 116 41
2.30947 -3.40027 0.42998 175 149 97
2.31172 -3.42590 0.42406 194 185 158
2.30301 -3.43873 0.42331 166 158 158
2.28690 -3.44600 0.40960 173 150 163
2.29168 -3.44850 0.42380 176 172 174
2.29588 -3.47709 0.41681 188 186 179
2.28738 -3.49054 0.41589 178 174 140
2.28655 -3.51347 0.41123 148 144 118
2.28948 -3.54128 0.40469 114 107 105
2.27304 -3.54870 0.39069 133 132 125
2.26708 -3.53794 0.41045 128 123 126
2.23510 -3.52250 0.42093 158 151 162
2.21990 -3.52787 0.42322 162 155 167
2.19901 -3.52603 0.42833 151 147 148
1.55716 -3.44058 0.59121 158 139 147
1.56915 -3.43615 0.57466 155 135 133
1.53652 -3.43470 0.59711 178 172 180
1.52305 -3.44031 0.59896 180 178 184
1.50489 -3.43823 0.60350 122 109 134
1.48358 -3.43080 0.60988 101 81 123
1.46573 -3.42895 0.61429 140 145 169
1.43832 -3.41090 0.62429 152 162 181
1.42655 -3.41525 0.64054 160 167 187
1.42504 -3.41641 0.62613 159 160 182
1.35307 -3.34925 0.65656 165 169 188
1.36753 -3.34273 0.66886 178 176 190
1.36605 -3.34387 0.65477 178 177 187
1.36458 -3.34500 0.64068 176 178 183
1.35455 -3.34812 0.67065 152 158 190
1.34157 -3.35350 0.67244 142 148 180
1.33680 -3.34892 0.66030 140 149 187
1.32531 -3.35317 0.67616 151 159 183
1.32384 -3.35430 0.66209 150 157 181
1.32237 -3.35543 0.64802 147 156 176
1.22124 -3.31217 0.69414 156 161 174
1.23249 -3.30801 0.67861 153 158 181
1.20650 -3.31368 0.69715 136 135 140
1.19735 -3.32551 0.69671 69 58 77
1.17479 -3.37096 0.69220 42 47 73
1.18615 -3.36676 0.67651 44 48 65
1.19519 -3.44012 0.67297 70 75 107
1.19476 -3.47003 0.66675 95 99 127
1.19055 -3.49298 0.66285 109 113 132
1.18767 -3.51886 0.65803 114 120 132
1.17931 -3.53419 0.65667 111 114 125
1.16277 -3.56575 0.65374 100 104 128
1.16140 -3.59593 0.64766 79 82 107
1.16151 -3.62962 0.64052 59 58 82
1.14637 -3.63645 0.62763 47 51 71
1.15068 -3.64103 0.64055 48 49 74
1.13551 -3.64788 0.62764 47 51 71
1.11569 -3.70581 0.63475 55 53 80
1.13102 -3.69889 0.64781 49 51 67
1.12946 -3.70009 0.63285 51 48 68
1.12091 -3.75302 0.62359 65 69 98
1.12461 -3.79767 0.61332 76 88 113
1.10414 -3.82659 0.61183 74 85 103
1.09461 -3.84291 0.61053 65 76 101
1.08423 -3.85749 0.60979 53 54 83
1.07749 -3.88066 0.60641 51 51 76
1.06594 -3.89293 0.60642 53 64 105
1.05003 -3.90011 0.59288 108 124 141
1.08011 -3.96608 0.58777 80 101 125
1.07788 -4.00148 0.58079 106 126 133
1.06158 -4.00883 0.56691 98 98 125
1.04048 -4.07837 0.57297 120 123 152
1.02397 -4.08582 0.55892 134 137 147
0.99788 -4.10168 0.57765 142 144 148
0.98622 -4.11609 0.57724 151 159 148
0.96966 -4.12356 0.56314 155 159 163
0.97286 -4.12624 0.57811 135 143 146
0.95628 -4.13372 0.56400 156 159 159
0.95983 -4.13735 0.57870 146 148 152
0.94492 -4.14353 0.58076 142 154 143
0.91992 -4.16909 0.58100 140 146 149
0.91822 -4.17040 0.56476 151 157 152
0.90327 -4.17660 0.56682 152 147 157
0.90532 -4.17628 0.58277 149 154 160
0.89186 -4.18670 0.58361 157 161 164
0.87796 -4.19593 0.58479 154 155 161
0.86127 -4.20346 0.57059 151 153 153
0.83263 -4.21349 0.59131 137 144 147
0.81596 -4.22101 0.57711 127 126 125
0.81732 -4.21871 0.59366 134 139 139
0.78682 -4.22948 0.59826 144 145 145
0.78513 -4.23079 0.58201 153 155 151
0.66133 -4.25988 0.62015 132 136 148
0.67454 -4.25500 0.60192 130 134 137
0.65964 -4.26118 0.60397 134 136 144
0.64805 -4.27159 0.62067 131 142 147
0.63143 -4.27908 0.60653 128 125 125
0.63145 -4.27200 0.62433 119 121 127
0.61486 -4.27948 0.61021 129 132 134
0.55187 -4.28414 0.63972 121 122 135
0.56671 -4.27799 0.63767 129 133 137
0.56503 -4.27928 0.62156 136 132 130
0.53535 -4.29160 0.62566 121 114 119
0.53803 -4.29406 0.64075 117 119 129
0.52393 -4.30306 0.64203 110 107 105
0.50738 -4.31053 0.62794 138 135 128
0.51003 -4.31293 0.64308 129 128 127
0.49589 -4.32200 0.64435 125 127 125
0.47932 -4.32948 0.63024 107 103 115
0.48088 -4.32767 0.64654 108 110 117
0.46622 -4.33472 0.64835 117 115 129
0.39091 -4.36175 0.65963 126 125 133
0.38923 -4.36305 0.64349 123 126 139
0.37773 -4.36662 0.67783 115 123 121
0.37604 -4.36792 0.66168 116 117 122
0.22035 -4.39262 0.69159 121 114 125
0.23342 -4.38779 0.67355 124 129 137
0.02148 -4.42225 0.73020 120 123 116
0.03772 -4.41492 0.74402 122 121 118
0.03607 -4.41620 0.72819 121 120 123
0.02314 -4.42097 0.74603 117 124 125
0.00855 -4.42702 0.74805 121 127 123
0.00795 -4.43589 0.73037 117 117 113
-0.00666 -4.44195 0.73238 113 102 118
-0.05665 -4.53527 0.72394 123 118 120
-0.04013 -4.52782 0.73800 124 122 116
-0.04181 -4.52911 0.72189 123 116 117
-0.05496 -4.53397 0.74004 125 122 122
-0.05833 -4.53656 0.70783 108 102 110
-0.06980 -4.54013 0.74209 121 117 128
-0.07068 -4.54813 0.72439 117 114 124
-0.08385 -4.55300 0.74256 123 126 130
-0.08554 -4.55429 0.72643 124 122 129
-0.34229 -4.58810 0.77722 103 98 113
-0.35858 -4.59545 0.76335 105 110 108
-0.48697 -4.70843 0.78443 106 108 110
-0.48865 -4.70973 0.76834 101 106 104
-0.50347 -4.71588 0.77039 99 104 97
-0.50159 -4.72280 0.78469 100 100 97
-0.51812 -4.73026 0.77062 98 102 92
2.52334 -3.08916 0.43255 124 99 66
2.53547 -3.08468 0.41582 128 98 72
2.52179 -3.09036 0.41770 125 98 71
2.50812 -3.09603 0.41959 121 97 68
2.52920 -3.11443 0.42579 116 96 57
2.51388 -3.12134 0.41275 113 94 56
2.52211 -3.12687 0.42473 101 81 45
2.53268 -3.15734 0.41579 79 55 41
2.56019 -3.20542 0.39922 54 31 33
2.56298 -3.22861 0.39360 38 22 27
2.54722 -3.23573 0.38019 34 24 27
2.53255 -3.30080 0.38501 42 38 36
2.54852 -3.29360 0.39860 34 30 30
2.54689 -3.29485 0.38303 38 32 36
2.54526 -3.29611 0.36746 40 31 39
2.52181 -3.33198 0.38075 47 51 63
2.50575 -3.33922 0.36708 65 64 98
2.45882 -3.30677 0.40047 174 178 202
2.45000 -3.31864 0.39992 200 198 215
2.43571 -3.32457 0.40189 199 196 207
2.43409 -3.32582 0.38638 202 198 210
2.41760 -3.34812 0.40094 199 200 203
2.43031 -3.34343 0.38340 200 200 208
2.41597 -3.34938 0.38538 201 201 208
2.40640 -3.35760 0.40145 197 192 165
2.40066 -3.37329 0.39938 181 154 68
2.34248 -3.39648 0.40761 199 162 37
2.32024 -3.39327 0.41335 183 148 34
2.32453 -3.42117 0.40638 191 167 109
2.31071 -3.42791 0.40807 197 188 176
2.30427 -3.44345 0.40620 184 184 182
2.29757 -3.48240 0.39936 190 185 185
2.29079 -3.49798 0.39755 198 193 177
2.28002 -3.50879 0.39767 195 190 173
2.27937 -3.53217 0.39280 146 141 138
2.24437 -3.53745 0.39961 148 146 161
2.23139 -3.54571 0.40079 159 154 164
2.20508 -3.56189 0.40328 111 65 59
1.55105 -3.43443 0.57914 158 135 137
1.56301 -3.43001 0.56263 157 134 130
1.54952 -3.43561 0.56449 158 134 129
1.53521 -3.43624 0.58235 170 155 161
1.52540 -3.44781 0.58209 182 185 185
1.49176 -3.42035 0.59562 141 135 147
1.45634 -3.41698 0.60439 104 107 128
1.43304 -3.40572 0.61209 143 142 163
1.40292 -3.38262 0.62389 160 167 187
1.35559 -3.35726 0.64008 175 177 185
1.35412 -3.35840 0.62596 180 178 187
1.34200 -3.36164 0.64223 145 157 188
1.32752 -3.36817 0.62991 145 154 176
1.23220 -3.33594 0.67268 153 158 175
1.24353 -3.33175 0.65704 153 157 176
1.23075 -3.33706 0.65880 151 157 174
1.22156 -3.34519 0.67311 150 151 156
1.20534 -3.34413 0.67702 75 70 99
1.20021 -3.36377 0.67396 45 45 76
1.18593 -3.37021 0.66181 46 45 74
1.18156 -3.38777 0.67304 41 45 75
1.19765 -3.44885 0.65627 69 75 107
1.20217 -3.48847 0.64674 94 102 130
1.19406 -3.50393 0.64526 111 118 137
1.17930 -3.51059 0.63270 121 123 147
1.18671 -3.52109 0.64325 123 128 144
1.17595 -3.53166 0.64342 124 130 140
1.16731 -3.54660 0.64217 117 121 131
1.16402 -3.57254 0.63735 87 90 115
1.17190 -3.62177 0.62498 58 58 89
1.16246 -3.63598 0.62408 49 48 72
1.13066 -3.67217 0.62353 52 49 67
1.12687 -3.69909 0.61861 59 54 73
1.11154 -3.70600 0.60556 77 85 93
1.12723 -3.73541 0.61072 68 69 91
1.12993 -3.77742 0.60109 75 79 105
1.12181 -3.79624 0.59889 75 85 111
1.11361 -3.81514 0.59669 71 81 98
1.09790 -3.82223 0.58332 53 55 80
1.10560 -3.83473 0.59430 63 70 88
1.09756 -3.85451 0.59188 52 60 83
1.08755 -3.87005 0.59082 50 53 89
1.07820 -3.88730 0.58924 68 73 104
1.09168 -3.95825 0.57094 93 113 138
1.04442 -4.09368 0.55259 127 128 149
1.00857 -4.09053 0.56140 138 147 139
0.99760 -4.10659 0.56044 152 151 139
0.98541 -4.11967 0.56040 157 159 157
0.94400 -4.14691 0.56395 142 149 142
0.94231 -4.14822 0.54776 137 135 139
0.92740 -4.15441 0.54982 147 151 137
0.93062 -4.15727 0.56477 138 142 139
0.88784 -4.18147 0.56928 148 146 151
0.90109 -4.17657 0.55099 148 146 160
0.88614 -4.18278 0.55305 144 143 144
0.87119 -4.18898 0.55511 151 147 144
0.87332 -4.18891 0.57098 152 152 151
0.85667 -4.19642 0.55681 157 157 150
0.84038 -4.19249 0.57769 146 153 153
0.82592 -4.20003 0.57935 135 140 141
0.79176 -4.19948 0.58723 139 143 134
0.77519 -4.20696 0.57312 146 155 151
0.74805 -4.22092 0.59255 136 131 140
0.73316 -4.22710 0.59460 130 132 146
0.73147 -4.22840 0.57843 131 133 143
0.64277 -4.26065 0.60792 131 133 140
0.65596 -4.25578 0.58971 133 133 139
0.64108 -4.26195 0.59176 133 131 138
0.62620 -4.26812 0.59381 132 126 132
0.54417 -4.26311 0.62977 123 119 124
0.51829 -4.28926 0.63003 122 123 120
0.50180 -4.29669 0.61600 136 133 130
0.49139 -4.31226 0.63120 131 132 129
0.46229 -4.32694 0.63466 122 117 131
0.44712 -4.33181 0.63705 126 125 137
0.41668 -4.34101 0.64199 120 122 134
0.37038 -4.35153 0.65024 124 126 119
0.36870 -4.35283 0.63416 130 132 126
0.35725 -4.35638 0.66836 121 126 128
0.35557 -4.35768 0.65228 125 126 122
0.31676 -4.32697 0.66769 121 124 131
0.33309 -4.31960 0.68159 124 124 127
0.33143 -4.32088 0.66566 122 118 118
0.32976 -4.32217 0.64974 114 115 116
0.31842 -4.32569 0.68361 122 126 129
0.30376 -4.33177 0.68563 123 122 129
0.30157 -4.33057 0.67036 124 130 140
0.28858 -4.33537 0.68830 124 122 129
0.28691 -4.33666 0.67238 138 139 143
0.28525 -4.33794 0.65647 138 136 147
0.21744 -4.38738 0.67726 120 119 128
0.23050 -4.38256 0.65924 119 120 124
0.20104 -4.39478 0.66330 125 130 135
0.20332 -4.39675 0.67846 123 124 128
0.19025 -4.40158 0.69649 125 124 129
0.18858 -4.40287 0.68049 124 128 132
0.18691 -4.40416 0.66449 122 128 135
0.04994 -4.41772 0.70877 113 114 113
0.06620 -4.41039 0.72262 129 129 126
0.06454 -4.41166 0.70676 117 114 119
0.06289 -4.41294 0.69090 112 110 120
0.04828 -4.41900 0.69292 113 115 113
0.03422 -4.41614 0.71268 110 115 110
0.01981 -4.42342 0.71439 104 107 95
0.00609 -4.43569 0.71487 107 104 99
-0.00800 -4.44557 0.71595 121 118 124
-0.02427 -4.45292 0.70209 129 125 131
-0.07508 -4.52651 0.71380 104 104 117
-0.06198 -4.52167 0.69571 113 117 123
-0.07676 -4.52780 0.69775 115 119 122
-0.09154 -4.53394 0.69979 129 127 137
-0.34470 -4.57657 0.76426 104 106 120
-0.34636 -4.57784 0.74842 122 117 121
-0.36095 -4.58390 0.75043 117 111 107
2.54663 -3.17433 0.39371 96 76 47
2.55901 -3.16976 0.37662 119 95 61
2.56344 -3.21162 0.38174 74 47 36
2.56800 -3.23667 0.37523 47 26 28
2.55077 -3.32314 0.36031 45 40 39
2.56356 -3.31841 0.34265 41 31 40
2.54645 -3.33993 0.35763 53 45 59
2.54337 -3.35820 0.35435 59 53 99
2.47565 -3.32811 0.37638 135 136 171
2.46035 -3.33303 0.37881 195 197 216
2.40744 -3.36186 0.38460 200 199 197
2.42018 -3.35716 0.36703 202 200 210
2.41548 -3.39320 0.37593 197 178 127
2.38957 -3.38616 0.38338 197 162 26
2.37679 -3.39088 0.40102 196 162 18
2.37515 -3.39214 0.38537 203 161 21
2.35473 -3.39119 0.39025 202 165 25
2.34410 -3.40152 0.39042 201 170 59
2.32432 -3.40121 0.39501 198 180 119
2.32871 -3.42929 0.38788 197 189 172
2.31259 -3.43656 0.37416 195 196 202
2.31784 -3.43957 0.38812 195 192 198
2.30170 -3.44685 0.37439 197 198 209
2.30799 -3.45113 0.38785 197 198 200
2.29924 -3.46407 0.38703 185 177 181
2.28305 -3.47138 0.37324 200 197 200
2.29916 -3.48762 0.38191 193 189 196
2.28289 -3.49496 0.36806 202 198 201
2.29422 -3.50546 0.37914 200 197 200
2.27789 -3.51283 0.36525 204 201 200
2.28151 -3.51394 0.38020 205 202 199
2.27365 -3.52846 0.37883 179 175 172
2.27143 -3.55008 0.37462 133 127 129
2.27979 -3.58518 0.36505 101 88 122
2.26136 -3.58689 0.36889 116 107 130
2.24751 -3.59436 0.37042 123 116 110
2.23093 -3.59836 0.37334 124 116 101
1.53187 -3.43449 0.56876 162 143 147
1.54381 -3.43008 0.55228 158 137 129
1.52877 -3.45699 0.56456 183 184 180
1.50321 -3.44283 0.57349 161 152 156
1.46670 -3.41021 0.58895 104 83 100
1.45014 -3.41030 0.59271 90 85 102
1.43096 -3.40591 0.59805 111 110 133
1.41725 -3.41062 0.60015 143 151 163
1.37238 -3.36201 0.62100 173 177 191
1.34330 -3.36760 0.62643 158 166 189
1.22220 -3.35016 0.65789 155 157 167
1.23355 -3.34597 0.64222 150 156 172
1.21306 -3.36232 0.65733 86 92 123
1.20231 -3.37156 0.65777 51 46 83
1.18800 -3.37802 0.64559 45 42 76
1.18826 -3.43476 0.64719 61 64 95
1.20490 -3.49782 0.62964 94 106 132
1.19644 -3.51271 0.62832 115 126 144
1.17492 -3.53379 0.62864 121 123 140
1.16546 -3.54708 0.62790 114 117 130
1.15917 -3.56696 0.62500 87 88 114
1.17030 -3.62282 0.61028 59 58 87
1.16098 -3.63730 0.60925 51 49 69
1.14997 -3.64839 0.60934 50 52 73
1.14256 -3.66718 0.60694 54 60 83
1.12732 -3.67406 0.59397 77 89 99
1.13625 -3.68857 0.60371 64 69 86
1.13329 -3.71744 0.59810 73 78 90
1.12551 -3.77245 0.58787 75 81 94
1.11968 -3.79628 0.58401 67 73 97
1.09565 -3.85507 0.57667 53 60 85
1.09405 -3.88995 0.56943 75 83 121
1.09926 -3.94120 0.55706 100 113 139
1.09138 -3.96266 0.55418 113 124 140
1.07721 -3.96956 0.55591 103 97 127
1.04389 -4.09785 0.53554 143 143 148
1.02731 -4.10533 0.52143 155 150 157
1.02403 -4.09151 0.54146 145 145 142
1.00964 -4.09883 0.54315 143 158 155
0.99718 -4.11113 0.54331 167 172 167
0.98357 -4.12058 0.54436 161 162 171
0.96984 -4.12978 0.54549 149 150 167
0.95325 -4.13726 0.53138 137 134 153
0.95406 -4.13361 0.54826 144 144 161
0.93749 -4.14109 0.53415 134 134 141
0.83247 -4.17569 0.56686 148 153 154
0.84564 -4.17083 0.54868 150 151 152
0.83078 -4.17699 0.55073 141 142 152
0.81592 -4.18316 0.55277 141 145 151
0.81822 -4.18367 0.56837 141 145 147
0.80167 -4.19114 0.55428 141 147 151
0.80399 -4.19173 0.56987 136 139 138
0.78743 -4.19920 0.55577 130 140 150
0.78558 -4.18722 0.57505 134 144 144
0.75717 -4.20343 0.57801 146 147 145
0.74064 -4.21089 0.56393 131 131 131
0.55396 -4.24622 0.61509 138 140 138
0.57035 -4.23883 0.62904 128 127 127
0.56868 -4.24011 0.61306 126 121 131
0.54086 -4.25835 0.61544 117 113 122
0.52601 -4.26406 0.61758 124 119 117
0.50960 -4.27146 0.60362 120 126 132
0.51381 -4.27987 0.61692 127 129 132
0.49736 -4.28729 0.60292 132 134 133
0.48761 -4.30531 0.61736 132 130 128
0.48593 -4.30661 0.60127 130 128 129
0.47309 -4.31262 0.61908 115 110 122
0.45658 -4.32007 0.60504 129 125 130
0.45852 -4.31981 0.62084 127 120 127
0.44201 -4.32725 0.60679 117 120 128
0.42605 -4.32029 0.62816 125 131 142
0.40958 -4.32771 0.61414 111 115 113
0.41007 -4.32134 0.63158 115 113 127
0.39362 -4.32876 0.61758 115 112 116
0.37822 -4.32345 0.63839 120 127 139
0.36181 -4.33085 0.62443 124 123 134
0.31231 -4.31517 0.65525 115 120 124
0.32527 -4.31038 0.63736 112 119 119
0.29743 -4.32002 0.65759 127 131 140
0.28115 -4.32737 0.64374 140 139 143
0.03246 -4.41670 0.69703 120 120 108
0.04538 -4.41192 0.67919 119 122 127
0.03080 -4.41797 0.68121 127 126 130
0.01793 -4.42313 0.69895 111 109 103
0.00406 -4.43429 0.69968 114 113 110
-0.01219 -4.44162 0.68585 134 133 129
-0.01004 -4.44398 0.70079 134 131 126
-0.02631 -4.45132 0.68695 132 130 133
-0.28806 -4.55265 0.74059 126 125 124
-0.27182 -4.54533 0.75442 125 120 124
-0.27348 -4.54660 0.73858 127 125 124
-0.28641 -4.55138 0.75643 125 120 129
-0.30100 -4.55743 0.75844 110 112 112
-0.30317 -4.55115 0.74437 110 100 108
-0.31773 -4.55719 0.74638 114 116 104
-0.31938 -4.55847 0.73057 112 113 111
2.56265 -3.19347 0.37054 113 92 49
2.57510 -3.18887 0.35335 124 96 56
2.55803 -3.20895 0.36817 94 75 40
2.57309 -3.24482 0.35676 57 43 41
2.56971 -3.26195 0.35374 35 27 37
2.55707 -3.26662 0.37120 35 28 30
2.55545 -3.26787 0.35571 37 30 33
2.55383 -3.26912 0.34023 40 32 33
2.54750 -3.34408 0.34066 55 45 57
2.54009 -3.35771 0.33934 65 55 89
2.50311 -3.36110 0.34709 96 97 132
2.47661 -3.35391 0.35477 171 176 195
2.45249 -3.34920 0.36136 201 200 214
2.43811 -3.35516 0.36335 202 202 210
2.43648 -3.35642 0.34773 202 202 211
2.40973 -3.36753 0.36713 201 199 210
2.42248 -3.36281 0.34953 200 199 209
2.40810 -3.36878 0.35152 200 199 209
2.39731 -3.37572 0.36817 203 196 171
2.39193 -3.39198 0.36581 201 173 69
2.36890 -3.38809 0.37196 200 164 35
2.36367 -3.40466 0.36949 200 177 109
2.37634 -3.44222 0.35826 199 188 155
2.36012 -3.44954 0.34445 196 196 204
2.35365 -3.43875 0.36424 198 194 191
2.33747 -3.44605 0.35047 196 197 204
2.33469 -3.43955 0.36842 196 195 201
2.31853 -3.44684 0.35467 195 197 203
2.30368 -3.47268 0.36821 198 196 199
2.31660 -3.46790 0.35038 194 195 209
2.30203 -3.47395 0.35239 198 196 205
2.28745 -3.48000 0.35440 201 198 203
2.27053 -3.52794 0.36359 196 193 188
2.27418 -3.55688 0.35634 140 135 133
2.27177 -3.57854 0.35210 93 71 75
2.26851 -3.59934 0.34824 116 109 108
2.24753 -3.59783 0.35340 135 137 135
2.23096 -3.60531 0.33929 147 145 133
2.22982 -3.60039 0.35690 138 137 135
1.86250 -3.33765 0.49951 146 131 126
1.85045 -3.34210 0.51614 151 130 123
1.84891 -3.34329 0.50139 151 131 123
1.84737 -3.34448 0.48663 150 132 122
1.52897 -3.43343 0.55495 156 138 143
1.54090 -3.42903 0.53848 157 136 131
1.50550 -3.45028 0.55661 175 168 170
1.45684 -3.39753 0.57948 118 109 121
1.44557 -3.40635 0.58012 95 77 96
1.43123 -3.41006 0.58259 92 89 114
1.40770 -3.39810 0.59065 101 106 124
1.35885 -3.37026 0.60804 180 175 189
1.34614 -3.37627 0.60963 171 175 193
1.32808 -3.37289 0.61453 144 156 182
1.31654 -3.37715 0.63046 149 158 176
1.31507 -3.37829 0.61633 148 159 171
1.31359 -3.37943 0.60219 152 157 169
1.22961 -3.36766 0.63832 153 157 171
1.24102 -3.36345 0.62257 150 155 174
1.21870 -3.37666 0.63883 112 119 135
1.20509 -3.38066 0.64108 61 52 84
1.19139 -3.44480 0.63002 49 47 79
1.20297 -3.44052 0.61403 45 45 72
1.18991 -3.44594 0.61584 45 43 75
1.19587 -3.48434 0.62023 79 85 115
1.19597 -3.51590 0.61322 108 118 140
1.18519 -3.52638 0.61337 116 119 140
1.17542 -3.53898 0.61283 111 112 133
1.16500 -3.55037 0.61270 105 106 130
1.15690 -3.56660 0.61097 93 95 120
1.15508 -3.59593 0.60489 78 79 97
1.15281 -3.62476 0.59903 71 71 79
1.13770 -3.63157 0.58617 85 91 98
1.14937 -3.65157 0.59388 72 75 87
1.14297 -3.67252 0.59071 74 83 97
1.13362 -3.72273 0.58174 77 88 100
1.13173 -3.75444 0.57515 69 76 86
1.11620 -3.76144 0.56194 48 50 76
1.12312 -3.77192 0.57326 59 64 81
1.11639 -3.79377 0.56996 54 53 86
1.11022 -3.81719 0.56619 54 52 90
1.10991 -3.89249 0.54959 84 97 120
1.10578 -3.92193 0.54402 110 121 142
1.08972 -3.92917 0.53035 95 101 118
1.09510 -3.93662 0.54322 106 117 129
1.08455 -3.95177 0.54229 97 100 124
1.07321 -3.96525 0.54191 102 100 133
1.07287 -4.00524 0.53313 112 119 139
1.07226 -4.04526 0.52441 116 130 153
1.05582 -4.05267 0.51042 135 136 153
1.05306 -4.08303 0.52045 138 146 157
1.00765 -4.09936 0.52727 146 154 167
0.98055 -4.11841 0.52928 150 156 168
0.96563 -4.12445 0.53137 136 143 156
0.88649 -4.14198 0.54568 143 141 152
0.90132 -4.13583 0.54363 145 137 143
0.88481 -4.14327 0.52958 143 137 140
0.87167 -4.14813 0.54772 137 144 148
0.76681 -4.18779 0.56304 137 146 149
0.77994 -4.18294 0.54491 129 132 142
0.76513 -4.18908 0.54696 132 135 148
0.75032 -4.19523 0.54900 134 135 138
0.56370 -4.22941 0.60050 123 125 137
0.58004 -4.22203 0.61441 131 131 133
0.57838 -4.22332 0.59847 126 128 134
0.57671 -4.22460 0.58254 123 127 129
0.54735 -4.23678 0.58659 133 143 150
0.53425 -4.24125 0.60464 113 112 131
0.51791 -4.24862 0.59073 131 131 137
0.52131 -4.25390 0.60481 119 123 127
0.50494 -4.26129 0.59088 125 132 139
0.46990 -4.30788 0.60467 118 120 129
0.48302 -4.30304 0.58656 128 131 134
0.46822 -4.30918 0.58861 121 125 135
0.45342 -4.31532 0.59065 131 131 136
0.42064 -4.30596 0.61642 120 124 131
0.43370 -4.30113 0.59840 118 124 126
0.41897 -4.30725 0.60043 120 130 122
0.30427 -4.28646 0.64749 110 115 112
0.31714 -4.28170 0.62972 116 122 118
0.29029 -4.29512 0.64878 130 132 131
0.27411 -4.30242 0.63501 134 138 144
0.01585 -4.42137 0.68389 121 119 130
0.02877 -4.41660 0.66606 127 124 135
0.01420 -4.42265 0.66807 124 120 135
-0.00037 -4.42869 0.67008 116 117 127
0.00144 -4.42854 0.68561 120 122 128
-0.26085 -4.53788 0.72168 110 118 119
-0.24462 -4.53055 0.73549 112 113 111
-0.24628 -4.53183 0.71967 114 113 113
-0.27594 -4.53703 0.72533 126 126 122
-0.29214 -4.54434 0.71154 118 126 108
-0.29045 -4.54365 0.72720 124 128 112
-0.30666 -4.55096 0.71341 111 109 110
-0.30509 -4.54841 0.72951 112 105 109
-0.32129 -4.55572 0.71572 105 112 112
-0.56688 -4.66968 0.76282 102 97 110
-0.55063 -4.66235 0.77665 106 104 113
-0.55229 -4.66362 0.76081 106 105 108
-0.56522 -4.66840 0.77866 112 110 118
-0.57981 -4.67446 0.78067 107 100 113
-0.58312 -4.67701 0.74899 91 92 86
2.57288 -3.20674 0.34985 123 95 54
2.58537 -3.20212 0.33260 124 97 63
2.57128 -3.20797 0.33455 124 95 67
2.57388 -3.22806 0.34482 110 86 53
2.57004 -3.24458 0.34200 76 59 56
2.57819 -3.27367 0.33357 46 35 44
2.57048 -3.32872 0.32298 42 34 40
2.58659 -3.32145 0.33669 39 29 38
2.58494 -3.32272 0.32098 40 33 35
2.58330 -3.32398 0.30528 41 35 28
2.56025 -3.33924 0.32298 48 38 46
2.54945 -3.34919 0.32324 57 44 53
2.52420 -3.38719 0.32053 98 101 114
2.52332 -3.40830 0.31599 141 138 152
2.47609 -3.37835 0.33364 190 195 204
2.40684 -3.38965 0.34711 201 198 197
2.41965 -3.38492 0.32944 199 197 208
2.40520 -3.39092 0.33143 200 197 207
2.39693 -3.40083 0.34689 198 189 158
2.39828 -3.42502 0.34114 198 185 136
2.38209 -3.43232 0.32736 197 198 206
2.37744 -3.44670 0.34109 197 195 200
2.36120 -3.45402 0.32726 197 195 204
2.28300 -3.52243 0.34589 203 201 202
2.29769 -3.51633 0.34387 202 199 200
2.27009 -3.53074 0.34701 188 192 187
2.28235 -3.57045 0.33525 135 123 125
2.27021 -3.58000 0.33591 112 94 97
2.25620 -3.58724 0.33752 141 131 135
2.23965 -3.59470 0.32343 155 155 150
2.23632 -3.58702 0.34216 152 150 150
2.21980 -3.59447 0.32810 146 150 135
2.20875 -3.60204 0.34516 153 150 136
2.20707 -3.60334 0.32904 153 145 142
1.88884 -3.35256 0.47522 97 92 104
1.86083 -3.33866 0.48483 139 129 126
1.84570 -3.34549 0.47195 148 134 124
1.52085 -3.45142 0.53808 169 159 163
1.50822 -3.45847 0.53942 179 182 186
1.49161 -3.45892 0.54316 147 143 160
1.43847 -3.39814 0.56911 109 100 118
1.42346 -3.40064 0.57202 90 84 103
1.40510 -3.39738 0.57700 82 80 113
1.39964 -3.41611 0.57405 122 118 155
1.35944 -3.37499 0.59259 172 175 188
1.34490 -3.38155 0.58021 182 184 195
1.35010 -3.38689 0.59207 179 181 193
1.33417 -3.38733 0.59566 151 164 190
1.23431 -3.38018 0.62036 153 156 176
1.24576 -3.37595 0.60455 151 155 177
1.23285 -3.38131 0.60633 152 155 179
1.22051 -3.38389 0.62271 137 140 147
1.21312 -3.39963 0.62088 71 64 82
1.20899 -3.42174 0.61687 44 43 75
1.19450 -3.42828 0.60453 45 47 78
1.19184 -3.48056 0.60761 51 57 89
1.20351 -3.47624 0.59149 47 47 77
1.19148 -3.51121 0.60080 77 88 117
1.18303 -3.52625 0.59937 96 107 130
1.17476 -3.54185 0.59777 98 108 131
1.16398 -3.55255 0.59786 100 106 130
1.15416 -3.56529 0.59727 101 102 120
1.14637 -3.58236 0.59523 94 98 108
1.14350 -3.60982 0.58972 87 95 98
1.14249 -3.67601 0.57507 80 83 97
1.14304 -3.71212 0.56682 71 71 89
1.12765 -3.71906 0.55372 51 49 82
1.13594 -3.73233 0.56392 65 64 87
1.13070 -3.75687 0.55961 55 56 78
1.11439 -3.79410 0.55501 53 52 88
1.10839 -3.81791 0.55105 69 74 109
1.09268 -3.82499 0.53768 107 123 143
1.12170 -3.88570 0.53273 93 110 134
1.11591 -3.91113 0.52835 111 123 140
1.10456 -3.92415 0.52804 107 112 135
1.08385 -3.95526 0.52584 102 110 133
1.07696 -3.97935 0.52201 116 127 150
1.07576 -4.01744 0.51373 124 139 155
1.06937 -4.04361 0.50932 130 139 158
1.05295 -4.05103 0.49534 132 128 151
1.02177 -4.09689 0.50835 144 146 149
1.00523 -4.10436 0.49427 145 146 153
1.00541 -4.09923 0.51160 143 145 161
0.99112 -4.10681 0.51320 152 146 169
0.96331 -4.12409 0.51575 144 151 154
0.96163 -4.12539 0.49961 154 158 160
0.94634 -4.12464 0.51955 151 148 151
0.93150 -4.13080 0.52159 145 140 143
0.92981 -4.13210 0.50548 149 147 149
0.89609 -4.12736 0.53055 145 141 135
0.91256 -4.11993 0.54457 146 146 143
0.91088 -4.12123 0.52851 148 151 145
0.90920 -4.12252 0.51246 142 154 153
0.86468 -4.13446 0.53622 132 138 149
0.86301 -4.13575 0.52018 136 134 141
0.85159 -4.13930 0.55429 146 150 150
0.85032 -4.14174 0.53791 141 154 156
0.83554 -4.14787 0.53994 147 150 154
0.55741 -4.21393 0.58940 119 128 135
0.52955 -4.23123 0.59195 133 132 140
0.52789 -4.23251 0.57606 142 143 142
0.51325 -4.23859 0.57808 138 135 134
0.29984 -4.27466 0.63530 115 119 110
0.31268 -4.26992 0.61758 112 118 125
0.28372 -4.28194 0.62158 125 125 140
0.28585 -4.28299 0.63666 128 130 132
0.26972 -4.29027 0.62293 125 125 136
-0.02986 -4.43815 0.67477 127 129 127
-0.04277 -4.44292 0.69259 133 129 129
-0.04607 -4.44547 0.66097 119 123 129
-0.24803 -4.53180 0.70416 112 107 110
-0.23181 -4.52448 0.71797 120 118 118
-0.23346 -4.52576 0.70215 115 117 120
-0.23512 -4.52703 0.68633 119 118 120
-0.26300 -4.53268 0.70742 104 104 104
-0.27921 -4.53999 0.69363 115 115 121
-0.27795 -4.53342 0.71071 114 114 118
-0.29414 -4.54072 0.69694 119 119 110
-0.55401 -4.65976 0.74614 110 106 112
-0.53778 -4.65244 0.75995 103 107 105
-0.53944 -4.65371 0.74413 109 109 115
-0.54109 -4.65499 0.72830 110 108 116
-0.55566 -4.66103 0.73031 112 110 109
-0.56867 -4.65771 0.74999 101 99 98
2.58658 -3.24397 0.32277 117 93 64
2.59919 -3.23931 0.30537 124 97 72
2.58497 -3.24522 0.30733 122 96 71
2.57899 -3.29836 0.31213 45 34 35
2.56298 -3.30558 0.29849 43 40 33
2.57561 -3.33715 0.30406 45 41 42
2.56723 -3.34969 0.30315 50 45 49
2.55105 -3.35699 0.28938 64 56 68
2.56310 -3.36687 0.30019 59 49 56
2.57121 -3.41941 0.28631 109 101 109
2.55479 -3.42682 0.27234 122 119 131
2.54817 -3.41647 0.29234 115 113 117
2.54200 -3.43196 0.29024 132 128 129
2.46278 -3.38880 0.31852 198 202 216
2.44827 -3.39482 0.32052 200 201 207
2.44662 -3.39609 0.30476 199 201 207
2.40254 -3.41039 0.32760 199 195 200
2.41540 -3.40564 0.30986 197 197 208
2.40090 -3.41166 0.31186 199 197 207
2.38640 -3.41767 0.31386 199 196 209
2.38933 -3.41789 0.32897 199 198 196
2.37318 -3.42518 0.31521 198 197 208
2.29483 -3.51616 0.32852 199 203 199
2.30952 -3.51006 0.32650 200 198 202
2.28644 -3.53001 0.32731 189 182 180
2.27005 -3.53741 0.31336 136 123 135
2.29868 -3.56952 0.31545 148 144 142
2.28314 -3.57483 0.31785 121 108 125
2.26838 -3.58111 0.31985 131 121 130
2.25183 -3.58858 0.30577 157 154 162
2.25198 -3.58534 0.32270 153 144 152
1.91720 -3.36996 0.44973 75 71 91
1.93096 -3.36425 0.44783 106 103 97
1.90527 -3.37814 0.45064 81 80 102
1.52744 -3.49387 0.51211 181 182 190
1.50878 -3.49118 0.51707 168 164 181
1.47467 -3.46247 0.53156 131 132 151
1.42164 -3.40125 0.55787 102 106 119
1.40688 -3.40412 0.56064 93 87 107
1.39379 -3.40980 0.56239 94 95 129
1.36029 -3.38016 0.57695 163 172 188
1.33688 -3.39584 0.57881 163 172 192
1.32758 -3.40801 0.57820 152 156 172
1.31595 -3.41230 0.59426 153 156 172
1.31446 -3.41345 0.58001 152 155 172
1.31297 -3.41460 0.56577 151 157 176
1.22676 -3.39941 0.60362 150 154 160
1.23825 -3.39517 0.58775 151 155 176
1.22439 -3.42475 0.59839 83 76 97
1.21726 -3.44138 0.59625 47 44 80
1.20269 -3.44795 0.58385 45 46 79
1.19726 -3.49519 0.58862 41 47 79
1.20898 -3.49086 0.57244 46 50 79
1.19576 -3.49634 0.57427 47 49 77
1.18253 -3.50183 0.57609 46 49 73
1.18954 -3.51152 0.58669 49 54 85
1.18156 -3.52749 0.58490 59 66 102
1.17627 -3.54906 0.58121 71 82 114
1.16577 -3.56039 0.58107 81 90 113
1.15668 -3.57470 0.57991 81 88 108
1.15088 -3.59593 0.57642 75 82 101
1.15272 -3.63333 0.56746 70 75 93
1.13758 -3.64016 0.55457 53 50 86
1.15346 -3.66902 0.55914 67 66 89
1.13820 -3.67590 0.54615 52 51 87
1.15077 -3.69801 0.55315 61 57 88
1.13542 -3.70494 0.54008 52 51 87
1.12962 -3.75916 0.54411 47 52 86
1.11408 -3.76617 0.53089 77 92 127
1.11765 -3.76930 0.54458 54 60 93
1.12272 -3.81734 0.53244 74 83 113
1.13283 -3.87749 0.51636 95 112 135
1.10960 -3.90172 0.51623 102 107 134
1.10062 -3.92009 0.51413 99 102 135
1.09166 -3.93876 0.51196 107 118 137
1.08623 -3.96601 0.50700 124 133 152
1.07599 -3.98224 0.50568 130 136 149
1.05977 -3.98956 0.49187 141 150 144
1.06898 -4.00645 0.50178 134 148 152
1.05269 -4.01380 0.48791 135 133 149
1.05847 -4.02251 0.50056 140 148 160
1.03902 -4.05918 0.49672 131 140 156
0.98727 -4.10250 0.49887 140 135 151
1.00041 -4.09765 0.48073 154 158 160
0.88617 -4.10589 0.52161 143 154 147
0.88450 -4.10717 0.50565 142 155 162
0.86861 -4.10403 0.52612 147 147 139
0.84331 -4.12780 0.52658 135 141 144
0.84164 -4.12909 0.51060 129 127 143
0.82692 -4.13520 0.51263 133 130 149
0.59799 -4.19134 0.56915 132 137 135
0.61425 -4.18401 0.58299 123 128 135
0.61259 -4.18528 0.56713 126 127 126
0.59633 -4.19262 0.55329 124 122 136
0.58360 -4.19814 0.57094 131 138 139
0.56825 -4.20155 0.57373 128 128 119
0.53965 -4.21584 0.57712 128 141 141
0.29471 -4.25944 0.62415 123 125 128
0.30750 -4.25471 0.60651 102 109 126
0.27865 -4.26668 0.61048 123 126 141
0.24088 -4.30296 0.62674 132 131 133
0.25701 -4.29568 0.64048 136 139 142
0.25537 -4.29694 0.62475 128 130 137
0.25372 -4.29821 0.60902 126 129 132
0.24252 -4.30169 0.64248 137 135 139
0.22803 -4.30770 0.64447 129 124 124
0.22617 -4.30785 0.62905 123 120 117
0.21333 -4.31259 0.64677 122 124 123
0.21169 -4.31386 0.63105 116 119 120
0.21004 -4.31512 0.61532 115 120 116
0.14998 -4.31650 0.64480 120 120 122
0.16603 -4.30926 0.65846 133 129 130
0.16440 -4.31052 0.64281 126 127 129
0.14835 -4.31776 0.62915 121 123 118
0.13720 -4.32122 0.66244 115 113 119
0.13557 -4.32248 0.64679 113 113 115
0.01063 -4.41037 0.65579 123 119 125
0.02516 -4.40434 0.65379 125 124 126
-0.01781 -4.42693 0.65863 117 113 117
-0.01946 -4.42820 0.64284 115 108 99
-0.25106 -4.51597 0.69256 116 109 113
-0.23819 -4.51121 0.67480 126 121 121
-0.25271 -4.51724 0.67680 119 117 119
-0.26600 -4.51651 0.69592 110 108 109
-0.28214 -4.52379 0.68217 123 123 121
-0.30973 -4.53104 0.70277 112 107 107
-0.32586 -4.53832 0.68904 103 101 103
-0.32426 -4.53636 0.70494 107 107 101
-0.33710 -4.54110 0.72266 116 117 115
-0.33875 -4.54237 0.70694 117 118 119
-0.57050 -4.64037 0.73848 105 103 98
-0.55765 -4.63563 0.72075 109 110 110
-0.57214 -4.64164 0.72275 107 107 110
-0.58499 -4.64716 0.74030 99 99 88
-0.59784 -4.65191 0.75804 95 102 91
-0.59948 -4.65317 0.74230 100 105 93
-0.60112 -4.65444 0.72656 106 105 95
2.59065 -3.27169 0.29987 109 89 70
2.60334 -3.26700 0.28235 121 98 70
2.58024 -3.28169 0.29999 85 70 59
2.58555 -3.30817 0.29261 52 42 46
2.58094 -3.34581 0.28498 47 44 41
2.57929 -3.34708 0.26920 46 44 45
2.57277 -3.35862 0.28392 54 48 53
2.55677 -3.40683 0.27650 111 104 109
2.55486 -3.44924 0.26713 146 142 138
2.55318 -3.45053 0.25104 147 145 146
2.47534 -3.40591 0.29577 186 191 192
2.32230 -3.50495 0.30865 196 198 204
2.33865 -3.49757 0.32257 196 196 208
2.33699 -3.49886 0.30662 198 198 205
2.32396 -3.50367 0.32459 198 195 204
2.30956 -3.51342 0.30967 189 195 197
2.28425 -3.57962 0.30026 145 138 143
2.26769 -3.58709 0.28617 157 155 157
2.26954 -3.58600 0.30222 151 143 152
2.23976 -3.59828 0.30635 153 152 157
2.23807 -3.59958 0.29020 150 140 156
2.22488 -3.60445 0.30840 141 143 151
1.93776 -3.42557 0.41702 76 69 88
1.92267 -3.42981 0.41957 107 101 109
1.88251 -3.39949 0.43599 143 134 126
1.87027 -3.40401 0.45287 148 132 124
1.86871 -3.40522 0.43789 149 133 123
1.86714 -3.40643 0.42290 149 134 127
1.42407 -3.43712 0.53455 111 112 127
1.39319 -3.41251 0.54748 87 89 129
1.40003 -3.45274 0.53656 145 153 174
1.35315 -3.39970 0.55981 179 184 198
1.34257 -3.40964 0.55999 174 181 193
1.33276 -3.42100 0.55965 153 159 178
1.31810 -3.42761 0.54718 152 158 178
1.23395 -3.41674 0.58376 154 157 169
1.24550 -3.41247 0.56782 151 155 175
1.23484 -3.44838 0.57623 101 97 125
1.18367 -3.53585 0.56795 42 50 82
1.19548 -3.53148 0.55164 48 52 78
1.18216 -3.53702 0.55348 44 53 80
1.16883 -3.54255 0.55531 45 53 81
1.17660 -3.55393 0.56541 45 56 88
1.16171 -3.56065 0.55274 49 53 80
1.16736 -3.56784 0.56435 53 60 87
1.15243 -3.57458 0.55165 49 53 81
1.16263 -3.59113 0.56007 51 59 86
1.14763 -3.59790 0.54730 48 54 80
1.16427 -3.62787 0.55118 49 56 84
1.14914 -3.63469 0.53830 49 53 81
1.16356 -3.66028 0.54383 51 52 84
1.14832 -3.66716 0.53086 49 52 85
1.13323 -3.73570 0.53347 51 54 91
1.12714 -3.75844 0.52962 55 68 105
1.14203 -3.86503 0.50146 98 115 141
1.12612 -3.87221 0.48791 94 101 124
1.13169 -3.87983 0.50045 102 115 130
1.10888 -3.90505 0.49995 95 104 137
1.10218 -3.92875 0.49603 109 120 145
1.09423 -3.94985 0.49300 129 139 159
1.07809 -3.95713 0.47927 149 155 162
1.08527 -3.96889 0.49069 137 148 155
1.07434 -3.98352 0.48986 141 146 139
1.04407 -4.03463 0.48511 135 130 156
1.04240 -4.03591 0.46916 144 142 162
1.02771 -4.04201 0.47119 150 155 160
1.03250 -4.04847 0.48461 135 142 156
1.02299 -4.06762 0.48240 149 154 157
1.00823 -4.07374 0.48443 136 144 142
1.00655 -4.07503 0.46841 135 132 140
0.97984 -4.08892 0.48756 142 146 152
0.97816 -4.09022 0.47152 150 160 160
0.96486 -4.09452 0.48977 145 147 162
0.95029 -4.10119 0.49164 153 155 162
0.93668 -4.11042 0.49268 158 161 163
0.91471 -4.09713 0.50090 143 135 146
0.86112 -4.08903 0.51532 150 154 157
0.84733 -4.09746 0.51659 136 132 143
0.83104 -4.10481 0.50273 141 140 143
0.65304 -4.16276 0.54694 130 139 146
0.66928 -4.15543 0.56076 132 131 147
0.66597 -4.15798 0.52910 126 132 131
0.65469 -4.16148 0.56277 136 138 148
0.64011 -4.16754 0.56478 137 143 148
0.63846 -4.16881 0.54895 135 144 147
0.60848 -4.17813 0.55381 133 125 135
0.57964 -4.19127 0.55751 121 121 123
0.56341 -4.19860 0.54370 114 112 115
0.56536 -4.19841 0.55920 125 120 113
0.55118 -4.20591 0.56078 115 115 121
0.53742 -4.21499 0.56190 121 123 134
0.33443 -4.23415 0.60496 127 127 127
0.34883 -4.22818 0.60298 126 127 129
0.34719 -4.22944 0.58735 128 131 133
0.33607 -4.23289 0.62059 129 128 138
0.33280 -4.23541 0.58934 126 123 125
0.32004 -4.24013 0.60695 118 117 124
0.29065 -4.24924 0.61172 115 120 140
0.30340 -4.24453 0.59411 105 110 123
0.23628 -4.28921 0.61518 124 127 129
0.23464 -4.29047 0.59951 118 124 130
0.22142 -4.29302 0.61778 123 119 114
0.16128 -4.30351 0.62942 114 119 121
0.17567 -4.29754 0.62744 110 116 121
0.17403 -4.29879 0.61182 105 110 122
0.15965 -4.30476 0.61380 102 106 122
0.13357 -4.32167 0.63170 124 125 118
0.13194 -4.32293 0.61606 132 130 123
0.11917 -4.32764 0.63369 123 125 125
0.11753 -4.32890 0.61805 126 122 130
0.03543 -4.38189 0.64072 124 120 121
0.05154 -4.37462 0.65443 128 126 123
0.04990 -4.37589 0.63872 127 129 126
0.03707 -4.38063 0.65643 126 124 121
0.01932 -4.38916 0.62701 110 103 120
0.02052 -4.38483 0.64353 117 116 124
0.00442 -4.39209 0.62983 110 109 120
0.00714 -4.39852 0.64349 116 116 119
-0.03458 -4.42980 0.64601 115 112 100
-0.05075 -4.43710 0.63224 120 117 114
-0.04835 -4.44180 0.64645 127 131 119
-0.06124 -4.44657 0.66425 118 118 124
-0.06289 -4.44784 0.64846 123 124 116
-0.06454 -4.44911 0.63267 117 114 106
-0.26848 -4.50678 0.68292 126 124 119
-0.25566 -4.50205 0.66522 112 113 130
-0.27012 -4.50805 0.66721 122 129 133
-0.29735 -4.51969 0.68668 120 118 117
-0.31207 -4.52183 0.68963 109 104 108
-0.32817 -4.52909 0.67593 103 98 114
2.59485 -3.27896 0.28154 118 97 71
2.60757 -3.27427 0.26399 119 100 73
2.59323 -3.28022 0.26597 121 99 79
2.58209 -3.28655 0.28276 104 86 59
2.58488 -3.31045 0.27649 66 61 51
2.58724 -3.33412 0.27038 43 42 47
2.57109 -3.34140 0.25663 48 43 48
2.57529 -3.36435 0.26609 52 48 57
2.58062 -3.39178 0.25838 60 56 77
2.59650 -3.43088 0.24546 86 75 92
2.55030 -3.42502 0.25771 136 129 130
2.53389 -3.43242 0.24375 152 148 154
2.53720 -3.45539 0.25366 155 161 159
2.51079 -3.44859 0.26148 168 172 165
2.45844 -3.41248 0.28228 192 198 211
2.44552 -3.41726 0.30012 199 197 207
2.44386 -3.41853 0.28429 199 199 206
2.33733 -3.50255 0.28963 194 197 201
2.35369 -3.49516 0.30357 198 197 208
2.35202 -3.49645 0.28761 197 198 204
2.33191 -3.51986 0.28684 179 177 180
2.33214 -3.54420 0.28107 147 133 145
2.31888 -3.55225 0.28230 125 105 136
2.31220 -3.56845 0.28006 130 122 128
2.29564 -3.57592 0.26597 148 143 139
2.29948 -3.57729 0.28098 147 138 143
2.28690 -3.58634 0.28182 158 153 158
2.27032 -3.59383 0.26770 154 152 155
2.25822 -3.60010 0.28534 152 146 161
2.22250 -3.60486 0.29263 146 145 156
2.20763 -3.61103 0.29468 147 150 154
1.94072 -3.43297 0.39935 77 72 89
1.93289 -3.44717 0.39785 89 84 103
1.89736 -3.42333 0.41182 133 125 124
1.88189 -3.43031 0.39865 144 135 122
1.41802 -3.45895 0.51629 103 109 144
1.41650 -3.46012 0.50175 131 144 168
1.43583 -3.51865 0.49807 127 132 149
1.34713 -3.42146 0.54179 181 186 197
1.33765 -3.43351 0.54119 155 163 188
1.24741 -3.44583 0.55954 155 158 174
1.25905 -3.44153 0.54347 151 155 176
1.24592 -3.44698 0.54528 156 157 176
1.23179 -3.44657 0.56304 126 126 143
1.22433 -3.46279 0.56099 66 58 90
1.15321 -3.71223 0.51912 52 54 88
1.14788 -3.73618 0.51475 59 61 96
1.13917 -3.75317 0.51281 69 78 110
1.12365 -3.76017 0.49960 100 117 137
1.15591 -3.82589 0.49178 84 104 127
1.14853 -3.84676 0.48862 99 117 141
1.11796 -3.89204 0.48518 95 109 133
1.10317 -3.93607 0.47831 125 135 156
1.09479 -3.95627 0.47554 143 149 166
1.07237 -3.98403 0.47429 156 157 142
1.07071 -3.98531 0.45848 162 170 167
1.06034 -3.99619 0.47427 148 159 157
1.04779 -4.00720 0.47464 146 149 145
1.03152 -4.01453 0.46080 138 142 147
1.01611 -4.05584 0.47067 148 158 158
1.02915 -4.05102 0.45266 143 146 157
0.99972 -4.06323 0.45672 141 138 127
0.95727 -4.08032 0.47877 138 141 150
0.95560 -4.08161 0.46279 139 142 156
0.94089 -4.08771 0.46482 143 143 157
0.94193 -4.08478 0.48133 143 145 155
0.92555 -4.09217 0.46739 145 142 149
0.92724 -4.09092 0.48335 150 150 151
0.90818 -4.08526 0.48916 143 146 153
0.89185 -4.09263 0.47526 127 127 142
0.88843 -4.07742 0.49565 122 129 154
0.87215 -4.08477 0.48180 136 142 157
0.87440 -4.08513 0.49714 135 149 165
0.85690 -4.08315 0.50173 149 154 161
0.84276 -4.09049 0.50334 148 144 150
0.82650 -4.09782 0.48950 148 145 139
0.80007 -4.11191 0.50835 135 145 149
0.81302 -4.10713 0.49047 145 149 146
0.80172 -4.11063 0.52422 135 134 146
0.78711 -4.11670 0.52623 133 133 146
0.78545 -4.11797 0.51037 130 137 147
0.75341 -4.12153 0.51708 141 141 134
0.76965 -4.11420 0.53090 133 133 145
0.76799 -4.11548 0.51506 138 140 145
