ply
format ascii 1.0
element face 0
property list uchar int vertex_indices
element vertex 1322
property float x
property float y
property float z
property uchar diffuse_red
property uchar diffuse_green
property uchar diffuse_blue
end_header
1.18516 -3.29899 1.73497 126 111 88
1.17961 -3.30220 1.72335 121 108 85
1.11934 -3.29863 1.75773 129 111 93
1.12208 -3.29373 1.74010 128 113 87
1.11180 -3.30788 1.76413 112 89 67
1.10011 -3.30996 1.76905 41 25 16
1.09245 -3.31897 1.77540 48 47 38
1.08834 -3.33421 1.78305 97 91 82
1.08187 -3.34540 1.78987 119 103 90
1.06814 -3.35666 1.78454 128 115 91
3.20951 -1.98625 0.47763 185 185 184
3.21894 -1.97699 0.47056 196 195 194
3.21266 -1.98063 0.45740 194 193 195
3.17308 -2.01007 0.50006 163 168 182
3.13347 -2.00455 0.51173 188 195 216
3.12625 -2.01476 0.51840 177 181 205
3.15754 -2.04407 0.51930 134 134 152
3.13365 -2.04612 0.52852 110 103 113
3.12424 -2.05535 0.53556 96 94 105
3.11939 -2.08095 0.54764 183 186 180
3.26467 -2.41418 0.63174 95 95 97
3.28170 -2.40021 0.63835 90 89 89
3.27489 -2.40415 0.62409 89 88 90
3.26809 -2.40810 0.60982 88 87 82
2.76260 -2.25385 0.74292 139 144 143
2.76566 -2.24840 0.72329 133 137 140
2.75674 -2.27952 0.75538 72 62 64
2.78951 -2.42108 0.80127 73 68 72
2.79268 -2.41544 0.78096 61 59 65
2.78755 -2.43531 0.80773 103 103 101
2.81554 -2.46945 0.81174 124 125 120
2.79956 -2.48256 0.80554 128 129 119
2.83820 -2.54861 0.83588 129 133 132
2.84146 -2.54280 0.81496 126 126 123
2.83170 -2.55237 0.82226 127 129 129
2.81998 -2.55238 0.84380 135 140 149
2.79469 -2.56744 0.85878 116 118 150
2.71363 -2.55931 0.88393 83 69 109
2.66362 -2.53989 0.89361 69 61 98
2.65469 -2.54956 0.90066 54 57 99
2.61535 -2.55330 0.91598 47 38 45
2.60594 -2.56253 0.92302 40 30 44
2.59617 -2.57149 0.93008 52 58 94
2.58418 -2.57880 0.93725 202 223 180
2.58075 -2.59248 0.94400 254 243 92
2.57258 -2.60265 0.95099 252 233 71
2.56517 -2.61341 0.95795 253 239 68
2.55132 -2.61929 0.96520 252 238 75
2.50596 -2.63371 0.98696 252 229 72
2.50908 -2.62814 0.96688 248 224 84
2.49972 -2.63733 0.97389 243 224 87
2.48914 -2.63708 0.99423 253 237 61
2.48081 -2.64704 1.00119 254 242 47
2.46524 -2.65981 0.99514 242 243 82
2.46988 -2.65496 1.00823 254 242 61
2.45475 -2.65951 1.01538 254 241 81
2.45706 -2.67798 1.02206 253 249 187
2.45602 -2.69387 1.02887 156 148 160
2.45962 -2.71361 1.03561 115 95 93
2.45912 -2.73014 1.04248 126 123 116
2.44338 -2.74305 1.03637 138 138 145
2.45686 -2.74531 1.04943 132 139 139
2.44961 -2.77362 1.06345 139 137 129
2.44553 -2.78749 1.07050 135 126 122
2.43981 -2.80003 1.07759 146 146 145
2.42393 -2.81306 1.07143 150 152 134
2.43726 -2.81531 1.08468 161 162 156
2.42309 -2.82073 1.09185 155 141 141
2.42244 -2.83773 1.09897 153 131 141
2.42342 -2.85624 1.10613 174 158 164
2.41220 -2.86424 1.11331 170 148 150
2.45940 -2.92346 1.12075 130 86 78
2.45064 -2.95219 1.13547 123 99 68
2.47001 -2.98787 1.14314 143 115 80
2.47560 -3.01150 1.15075 155 131 86
2.45905 -3.02507 1.14433 163 138 91
2.26249 -2.94455 1.19839 180 151 99
2.26566 -2.93890 1.17806 175 149 99
2.25617 -2.94820 1.18516 178 154 102
2.23721 -2.93888 1.20497 146 116 55
2.22666 -2.94707 1.21199 91 66 32
2.20907 -2.94848 1.21873 87 83 64
2.20593 -2.95408 1.23889 90 83 68
2.19967 -2.95771 1.22577 91 83 71
2.19341 -2.96133 1.21265 90 85 72
1.66113 -2.49821 1.22847 83 83 72
1.66373 -2.49358 1.21178 89 87 74
1.65595 -2.50122 1.21761 85 82 65
1.66102 -2.51351 1.23471 50 40 40
1.65321 -2.52117 1.24056 59 47 41
1.65874 -2.54232 1.24719 121 116 99
1.64566 -2.55305 1.24211 151 141 113
1.65089 -2.55002 1.25307 152 138 113
1.63780 -2.56076 1.24799 156 134 108
1.37073 -2.67574 1.40234 167 159 153
1.37834 -2.66827 1.39664 184 179 167
1.35805 -2.68614 1.39741 174 173 169
1.34514 -2.66131 1.40547 162 159 154
1.31294 -2.63850 1.40752 192 200 187
1.30483 -2.64500 1.41300 201 202 191
1.29514 -2.64954 1.41824 178 173 168
1.28273 -2.65972 1.41343 164 167 161
1.24136 -2.69854 1.45698 162 165 156
1.24384 -2.69411 1.44102 161 167 163
1.23640 -2.70141 1.44659 162 166 159
1.23638 -2.70906 1.46299 148 148 139
1.23167 -2.71999 1.46907 127 127 126
1.22526 -2.72870 1.47485 125 129 130
1.22351 -2.74365 1.48152 144 151 145
1.21104 -2.75388 1.47668 153 161 152
1.21330 -2.76478 1.49367 149 151 144
1.20080 -2.77504 1.48882 126 130 129
1.20766 -2.77468 1.49966 131 135 134
1.19993 -2.78175 1.50524 142 148 149
1.19742 -2.78622 1.52134 154 160 156
1.18742 -2.79201 1.50038 155 164 162
1.10104 -2.98988 1.62431 155 159 147
1.11385 -2.97937 1.62929 154 158 156
1.10873 -2.98233 1.61856 154 159 156
1.10361 -2.98530 1.60782 155 158 154
1.09377 -2.99809 1.63019 137 130 119
1.08095 -3.00860 1.62522 101 80 61
1.18000 -3.25932 1.70583 54 59 60
1.18631 -3.29135 1.71660 101 100 82
1.11901 -3.31063 1.74803 129 113 91
1.12177 -3.30572 1.73035 126 114 92
1.10875 -3.31524 1.75350 104 85 70
1.09503 -3.32650 1.74817 31 21 28
1.09461 -3.31307 1.75758 34 21 22
1.08714 -3.32242 1.76399 60 55 42
1.08418 -3.33973 1.77205 102 92 80
1.07046 -3.35099 1.76672 118 102 87
1.07750 -3.35056 1.77878 119 103 88
1.06376 -3.36183 1.77345 127 111 91
3.20314 -1.98984 0.46448 195 190 191
3.20629 -1.98423 0.44425 193 193 192
3.19685 -1.99348 0.45131 194 193 194
3.19416 -1.99932 0.47146 168 164 162
3.16688 -1.99995 0.48137 137 134 166
3.17300 -2.01671 0.48595 144 151 197
3.13190 -2.01043 0.49796 173 193 223
3.13130 -2.02393 0.50361 153 161 168
3.12546 -2.03489 0.51008 117 118 122
3.12226 -2.04719 0.51616 105 99 106
3.11305 -2.05650 0.52317 115 107 102
3.14560 -2.08704 0.52395 169 176 168
3.12977 -2.10003 0.51780 185 187 183
3.24577 -2.41115 0.61895 95 94 93
2.76032 -2.25972 0.72974 139 141 143
2.76338 -2.25427 0.71009 142 151 146
2.73374 -2.25796 0.73843 123 120 112
2.75264 -2.29909 0.74830 51 52 49
2.74956 -2.30458 0.76806 48 51 47
2.74342 -2.30813 0.75520 48 49 42
2.73728 -2.31169 0.74234 51 50 53
2.77473 -2.41918 0.78881 73 72 72
2.77788 -2.41355 0.76856 61 60 60
2.78379 -2.44067 0.79426 107 111 103
2.79842 -2.46602 0.79928 129 132 124
2.78249 -2.47909 0.79310 135 134 124
2.80248 -2.54857 0.83107 121 122 129
2.80572 -2.54279 0.81026 132 133 129
2.79476 -2.55946 0.83818 107 103 118
2.78117 -2.56629 0.84574 93 87 104
2.75210 -2.56223 0.85439 85 81 98
2.69123 -2.55163 0.87165 75 69 78
2.65784 -2.54392 0.88037 71 68 75
2.65632 -2.55892 0.88694 73 71 88
2.61428 -2.56071 0.90254 87 83 72
2.59753 -2.56459 0.91002 78 72 68
2.59797 -2.58108 0.91650 68 76 102
2.57832 -2.58273 0.92412 200 221 187
2.57985 -2.60013 0.93058 252 250 127
2.56545 -2.60564 0.93789 254 246 73
2.55904 -2.61716 0.94479 254 249 75
2.54406 -2.62217 0.95211 253 248 82
2.53356 -2.63057 0.95920 246 224 64
2.48026 -2.63860 0.98129 243 228 84
2.46913 -2.64635 0.98834 242 241 84
2.44596 -2.66105 1.00246 231 236 87
2.44343 -2.67564 1.00923 219 215 143
2.46541 -2.71014 1.01534 121 111 123
2.46071 -2.72324 1.02227 112 115 122
2.45218 -2.73325 1.02932 134 141 157
2.44476 -2.76130 1.04323 136 133 128
2.44312 -2.77715 1.05019 132 111 116
2.43646 -2.78886 1.05726 139 121 127
2.42061 -2.80186 1.05111 175 174 153
2.43127 -2.80186 1.06432 149 146 135
2.41676 -2.82443 1.07854 143 138 135
2.42039 -2.84515 1.08560 159 153 160
2.42817 -2.86963 1.09269 191 189 192
2.41593 -2.87679 1.09991 197 187 180
2.42826 -2.90554 1.10712 148 121 95
2.44914 -2.94213 1.11445 101 70 35
2.43573 -2.94848 1.12176 115 94 58
2.45130 -2.98081 1.12926 145 118 66
2.45499 -3.00270 1.13676 158 134 87
2.43852 -3.01621 1.13036 165 137 78
2.19907 -2.93032 1.19816 89 64 52
2.18348 -2.94311 1.19211 85 83 58
2.18613 -2.93605 1.20505 84 83 66
2.17055 -2.94883 1.19900 89 86 71
1.68099 -2.54172 1.22505 44 36 48
1.68363 -2.53702 1.20812 83 81 65
1.67310 -2.54946 1.23095 56 47 49
1.65472 -2.54657 1.23629 119 119 100
1.44068 -2.71842 1.38117 147 123 90
1.44328 -2.71377 1.36445 148 126 94
1.38111 -2.68066 1.38705 185 182 172
1.37602 -2.68361 1.37639 189 187 175
1.36838 -2.69110 1.38211 172 170 169
1.36670 -2.67994 1.39186 166 164 165
1.31062 -2.64463 1.39749 201 206 190
1.30564 -2.64751 1.38706 204 208 196
1.30293 -2.65168 1.40304 197 196 182
1.29236 -2.65513 1.40817 174 171 162
1.27993 -2.66532 1.40335 161 167 161
1.23430 -2.71572 1.45310 155 154 143
1.23679 -2.71128 1.43710 161 166 161
1.23210 -2.73000 1.45962 133 131 126
1.21964 -2.74022 1.45478 122 120 123
1.22668 -2.74009 1.46560 121 123 124
1.22270 -2.75212 1.47185 136 144 142
1.21264 -2.77356 1.48403 143 143 137
1.19905 -2.79030 1.49558 144 154 151
1.18651 -2.80059 1.49071 156 163 161
1.10142 -3.00145 1.61509 157 157 145
1.10400 -2.99685 1.59855 156 158 152
1.08543 -2.99601 1.61856 122 110 105
1.07263 -3.00650 1.61359 97 81 65
1.18347 -3.25557 1.68834 44 29 44
1.18623 -3.25065 1.67062 95 78 43
1.17521 -3.26367 1.69452 23 33 44
1.17898 -3.29163 1.70444 83 85 83
1.17267 -3.30311 1.71129 119 108 83
1.16989 -3.30806 1.72914 127 112 93
1.16435 -3.31127 1.71752 129 112 92
1.15881 -3.31449 1.70591 128 112 88
1.12469 -3.33299 1.74029 128 114 93
1.12746 -3.32805 1.72251 124 113 90
1.10673 -3.32441 1.74319 94 74 69
1.08727 -3.33541 1.75450 73 70 41
1.08178 -3.34836 1.76165 107 94 74
1.06803 -3.35963 1.75632 120 103 88
3.18645 -2.00227 0.45853 192 188 178
3.18960 -1.99666 0.43831 190 191 193
3.18042 -2.01317 0.46504 134 124 127
3.14702 -2.01073 0.47597 103 89 115
3.14816 -2.02511 0.48131 116 124 161
3.12497 -2.02751 0.49054 125 124 149
3.11819 -2.03800 0.49715 109 103 107
3.10956 -2.04757 0.50405 100 92 103
3.11888 -2.06625 0.50819 151 143 128
3.10317 -2.07914 0.50209 187 187 185
3.14462 -2.09344 0.50987 185 188 185
3.12877 -2.10644 0.50372 182 184 181
3.26541 -2.41441 0.59504 95 94 77
3.23848 -2.41479 0.60479 101 101 94
3.23508 -2.42874 0.61158 108 105 106
2.75798 -2.26557 0.71653 152 158 150
2.76104 -2.26011 0.69686 141 149 151
2.75187 -2.26911 0.70373 148 155 154
2.74546 -2.27250 0.72377 135 135 124
2.74530 -2.28711 0.72966 85 84 77
2.75730 -2.30943 0.73430 56 55 55
2.74190 -2.32206 0.72831 52 48 53
2.75960 -2.41701 0.77646 70 72 70
2.76275 -2.41140 0.75625 64 61 54
2.75558 -2.42983 0.78301 105 111 103
2.78738 -2.46660 0.78636 134 138 130
2.79010 -2.54823 0.81801 129 128 128
2.79333 -2.54247 0.79724 138 140 131
2.78043 -2.55775 0.82526 121 117 116
2.77487 -2.57014 0.83219 111 106 104
2.75212 -2.57048 0.84044 106 103 102
2.73781 -2.57667 0.84802 107 99 102
2.71792 -2.57884 0.85598 110 107 93
2.67285 -2.56286 0.86566 105 102 87
2.65262 -2.56447 0.87352 100 96 96
2.63283 -2.56630 0.88131 97 93 96
2.61120 -2.56669 0.88918 103 99 94
2.59474 -2.57077 0.89668 102 102 95
2.59107 -2.58426 0.90338 103 111 128
2.57642 -2.60591 0.91726 234 247 157
2.56102 -2.61066 0.92465 236 248 105
2.55472 -2.62229 0.93154 229 243 114
2.52149 -2.62972 0.94636 225 226 104
2.50090 -2.63024 0.95391 211 209 121
2.48239 -2.63227 0.96132 195 195 139
2.47232 -2.64085 0.96834 184 186 129
2.46821 -2.65413 0.97511 183 180 134
2.45665 -2.66153 0.98219 191 200 142
2.47551 -2.69330 0.98815 152 149 109
2.47213 -2.70741 0.99500 122 108 109
2.46086 -2.71518 1.00212 101 94 108
2.45259 -2.72539 1.00915 113 119 117
2.44597 -2.73696 1.01613 128 133 134
2.44011 -2.74920 1.02311 139 142 137
2.42436 -2.76212 1.01700 159 162 161
2.43541 -2.76244 1.03008 149 153 147
2.43227 -2.77703 1.03703 153 150 140
2.41646 -2.79000 1.03089 159 158 148
2.42990 -2.79235 1.04399 166 163 151
2.41406 -2.80535 1.03784 162 162 148
2.41447 -2.81407 1.05818 169 167 146
2.40813 -2.81774 1.04489 160 160 150
2.40677 -2.82498 1.06528 166 163 151
2.39090 -2.83800 1.05912 181 180 176
2.40739 -2.84312 1.07230 181 181 179
2.41305 -2.86575 1.07933 201 203 204
2.40345 -2.87517 1.08652 204 203 191
2.41899 -2.90679 1.09361 162 143 123
2.43102 -2.93559 1.10082 108 80 58
2.43022 -2.95314 1.10812 117 95 54
2.43412 -2.97504 1.11548 150 123 61
2.43790 -2.99699 1.12290 164 136 75
2.42148 -3.01047 1.11652 164 136 76
2.18331 -2.90673 1.17763 179 155 96
2.17861 -2.92027 1.18472 98 97 74
1.68544 -2.57028 1.22077 61 49 46
1.65926 -2.55955 1.22581 116 114 98
1.65038 -2.56627 1.23167 150 139 113
1.64249 -2.57401 1.23757 154 136 110
1.63723 -2.57705 1.22657 152 135 109
1.44448 -2.73217 1.37138 152 130 101
1.33566 -2.66784 1.38448 183 181 182
1.33818 -2.66335 1.36830 178 175 170
1.32308 -2.67816 1.37960 204 207 197
1.29834 -2.65504 1.39268 192 190 179
1.28775 -2.65845 1.39782 168 169 161
1.27532 -2.66865 1.39300 161 167 159
1.23699 -2.72870 1.44399 158 159 150
1.23949 -2.72424 1.42793 160 165 161
1.23114 -2.73823 1.44988 141 138 132
1.22143 -2.76003 1.46205 128 135 139
1.21685 -2.77137 1.46822 146 154 149
1.20430 -2.78166 1.46335 141 151 149
1.21099 -2.78103 1.47417 143 145 139
1.19843 -2.79133 1.46929 145 153 152
1.20517 -2.79077 1.48013 137 141 137
1.19260 -2.80107 1.47526 155 164 158
1.10081 -3.01152 1.60555 153 154 141
1.10339 -3.00691 1.58896 157 160 151
1.09176 -3.01704 1.61098 109 95 96
1.07889 -3.02760 1.60598 93 81 70
1.17906 -3.26053 1.67713 56 42 37
1.17355 -3.26372 1.66559 76 66 33
1.16528 -3.27183 1.67178 28 17 33
1.17163 -3.27002 1.68357 26 23 37
1.16754 -3.28507 1.69104 73 76 77
1.16864 -3.30885 1.70014 116 107 81
1.15477 -3.32023 1.69476 126 115 88
1.12279 -3.34244 1.72992 126 111 86
1.10965 -3.34222 1.73452 76 50 53
1.09845 -3.34527 1.73973 34 23 24
1.08531 -3.34481 1.74423 86 85 57
1.07156 -3.35610 1.73889 118 104 82
1.08113 -3.36014 1.75185 113 98 77
1.06735 -3.37145 1.74650 122 105 87
2.81492 -1.62481 0.42553 204 196 198
2.82862 -1.61357 0.43085 200 195 200
2.82040 -1.62164 0.43700 199 195 196
2.80944 -1.62798 0.41406 235 229 225
2.81217 -1.62970 0.44316 199 196 197
2.80122 -1.63604 0.42022 238 232 225
3.18747 -2.02330 0.44965 184 178 145
3.14101 -2.01446 0.46284 118 94 51
3.14389 -2.02972 0.46786 77 59 71
3.12711 -2.03529 0.47610 72 74 94
3.11033 -2.04081 0.48432 87 85 94
3.10244 -2.05076 0.49110 116 109 99
3.09686 -2.06189 0.49752 171 177 167
3.08122 -2.07472 0.49145 182 184 188
3.25871 -2.38671 0.56816 106 105 90
3.24885 -2.39689 0.57574 112 114 104
2.75218 -2.28401 0.70953 136 139 132
2.75525 -2.27853 0.68980 143 150 157
2.74148 -2.29210 0.71658 92 93 85
2.77309 -2.32682 0.71899 60 55 54
2.75759 -2.33953 0.71297 56 49 54
2.75935 -2.42462 0.76272 69 66 63
2.76250 -2.41900 0.74248 70 64 58
2.75306 -2.42827 0.74954 71 65 63
2.75373 -2.43643 0.76942 96 99 91
2.76151 -2.45723 0.77487 124 127 124
2.76687 -2.47655 0.78061 130 132 131
2.76369 -2.48223 0.80106 130 129 122
2.75734 -2.48591 0.78775 130 131 127
2.76872 -2.54165 0.80576 140 137 132
2.75978 -2.55161 0.81292 139 136 125
2.75124 -2.56185 0.82006 133 131 122
2.72868 -2.56221 0.82831 134 130 127
2.71045 -2.56553 0.83618 148 142 135
2.68764 -2.56549 0.84436 151 149 122
2.68502 -2.57986 0.85100 133 131 99
2.65556 -2.57485 0.85961 116 112 100
2.63759 -2.57802 0.86733 109 103 106
2.61509 -2.57780 0.87533 112 113 103
2.59890 -2.58210 0.88285 111 112 102
2.58479 -2.58790 0.89022 106 109 124
2.56909 -2.60078 0.88412 123 120 117
2.58905 -2.60739 0.89642 135 147 148
2.54480 -2.62315 0.91858 147 141 134
2.53496 -2.63207 0.92566 144 147 145
2.48620 -2.64373 0.94781 79 90 118
2.47060 -2.65652 0.94176 81 80 80
2.47827 -2.65404 0.95475 82 86 105
2.47843 -2.67079 0.96134 104 112 125
2.46125 -2.67378 0.96870 134 148 151
2.47704 -2.70321 0.97469 120 114 121
2.46513 -2.71047 0.98186 99 87 101
2.45117 -2.71605 0.98908 95 91 101
2.44844 -2.73078 0.99591 111 115 113
2.44541 -2.74534 1.00277 137 138 131
2.44007 -2.75804 1.00973 153 155 146
2.42428 -2.77099 1.00360 166 164 161
2.42919 -2.78342 1.02370 157 156 155
2.42286 -2.78708 1.01045 166 161 157
2.41337 -2.79640 1.01756 163 158 149
2.39764 -2.82625 1.05203 164 162 157
2.40082 -2.82059 1.03163 162 157 150
2.40437 -2.86746 1.06596 197 197 195
2.39478 -2.87687 1.07314 204 202 189
2.41102 -2.90918 1.08011 172 156 130
2.43656 -2.95007 1.08715 117 88 57
2.42442 -2.95756 1.09448 117 90 47
2.42230 -2.97406 1.10179 146 121 68
2.40597 -2.98745 1.09545 161 131 70
2.41394 -2.98498 1.10913 163 133 70
2.39760 -2.99838 1.10279 164 136 78
2.17913 -2.89427 1.15756 178 155 111
2.19459 -2.88159 1.16356 175 150 102
2.18841 -2.88516 1.15062 177 151 102
2.16889 -2.90245 1.16449 146 131 91
2.16551 -2.91722 1.17156 72 62 43
2.15325 -2.92347 1.17845 70 71 66
2.13779 -2.93616 1.17244 70 76 65
1.70118 -2.57874 1.20425 51 36 42
1.70385 -2.57399 1.18711 81 80 70
1.69650 -2.58994 1.21037 65 54 41
1.66161 -2.57036 1.21515 116 113 93
1.65093 -2.57528 1.22094 147 135 112
1.63775 -2.58609 1.21583 153 134 114
1.47384 -2.74223 1.35081 155 131 100
1.48699 -2.73143 1.35592 160 137 111
1.48174 -2.73448 1.34490 159 137 112
1.47648 -2.73753 1.33388 158 136 107
1.46593 -2.74996 1.35672 145 120 96
1.45344 -2.75219 1.36210 159 137 126
1.42853 -2.73937 1.36597 195 195 180
1.34147 -2.68410 1.37534 190 191 189
1.34401 -2.67958 1.35907 186 182 176
1.29490 -2.65983 1.38246 186 185 176
1.28245 -2.67005 1.37763 164 167 161
1.28493 -2.66403 1.38771 166 167 160
1.27249 -2.67423 1.38288 162 167 160
1.24140 -2.74402 1.43509 160 164 155
1.24391 -2.73954 1.41895 160 164 158
1.23638 -2.74692 1.42458 161 165 156
1.23331 -2.75065 1.44062 147 146 135
1.22753 -2.76036 1.44656 126 123 124
1.21498 -2.77066 1.44168 119 122 129
1.22183 -2.77022 1.45251 124 128 137
1.21643 -2.78051 1.45854 135 147 148
1.10380 -3.02731 1.59690 145 145 133
1.09088 -3.02678 1.60134 101 87 81
1.07798 -3.03736 1.59633 92 82 70
1.15968 -3.28437 1.67877 63 61 54
1.16678 -3.31822 1.68964 110 105 83
1.15287 -3.32962 1.68424 124 115 93
1.14438 -3.34729 1.70922 124 109 90
1.15830 -3.33586 1.71463 130 114 96
1.15274 -3.33909 1.70296 131 115 96
1.14995 -3.34406 1.72088 128 113 92
1.13510 -3.35391 1.71518 116 107 81
1.12400 -3.35733 1.72053 110 99 70
1.10648 -3.34952 1.72373 52 29 38
1.09457 -3.35132 1.72872 56 51 33
1.09040 -3.36673 1.73633 101 100 75
1.07657 -3.37808 1.73096 123 106 83
2.87407 -1.57439 0.36955 209 205 198
2.88779 -1.56314 0.37488 200 197 199
2.87682 -1.56949 0.35189 237 230 214
2.87955 -1.57122 0.38104 202 197 195
2.86858 -1.57757 0.35806 230 222 218
2.87132 -1.57930 0.38721 199 196 200
2.86676 -1.58286 0.37553 212 204 206
2.86401 -1.58776 0.39319 201 195 197
2.85414 -1.58914 0.38257 218 210 210
2.85140 -1.59403 0.40022 202 194 192
2.84588 -1.59719 0.38874 219 212 210
2.84313 -1.60209 0.40638 201 193 191
2.83765 -1.60527 0.39490 219 208 207
3.21419 -2.04309 0.43081 191 193 185
3.21738 -2.03740 0.41034 188 187 188
3.20782 -2.04677 0.41748 186 186 190
3.17374 -2.03726 0.44317 178 166 145
3.13102 -2.03009 0.45583 100 87 88
3.11936 -2.03817 0.46324 57 39 45
3.10372 -2.05101 0.45716 181 179 159
3.10787 -2.04633 0.47061 91 80 92
3.09985 -2.05622 0.47742 161 160 155
3.08420 -2.06906 0.47134 183 184 182
3.09087 -2.06565 0.48438 184 187 185
3.07523 -2.07848 0.47830 181 180 182
3.02542 -2.20239 0.56193 136 123 115
2.76570 -2.29981 0.69439 138 142 138
2.76879 -2.29430 0.67456 137 146 153
2.75534 -2.30818 0.70145 101 105 92
2.76916 -2.33184 0.70575 66 59 56
2.75365 -2.34456 0.69973 55 50 56
2.75287 -2.44370 0.75569 82 77 73
2.75603 -2.43806 0.73539 71 63 57
2.74691 -2.45533 0.76243 101 97 98
2.75351 -2.47550 0.76797 117 114 119
2.76067 -2.49618 0.77352 126 125 122
2.75747 -2.50187 0.79403 134 136 128
2.76336 -2.51396 0.77954 137 138 127
2.75488 -2.52414 0.78663 145 148 134
2.74100 -2.53059 0.79420 156 154 141
2.70753 -2.53936 0.80977 170 170 161
2.69359 -2.54561 0.81729 170 172 161
2.67770 -2.55865 0.81112 168 170 174
2.67958 -2.55178 0.82480 177 180 170
2.67643 -2.56570 0.83142 175 178 160
2.65796 -2.56862 0.83926 158 158 137
2.64352 -2.57437 0.84676 129 128 125
2.62787 -2.57920 0.85433 126 125 127
2.61083 -2.58295 0.86198 129 128 119
2.59109 -2.58462 0.86979 131 127 119
2.57883 -2.59177 0.87704 124 117 122
2.56163 -2.61152 0.89105 131 127 119
2.56558 -2.63096 0.89727 119 102 115
2.55744 -2.64127 0.90428 115 98 127
2.54165 -2.65422 0.89815 124 123 137
2.51808 -2.64402 0.91963 116 115 115
2.50239 -2.65689 0.91354 127 126 108
2.48820 -2.68718 0.94745 92 100 93
2.46822 -2.68799 0.95501 97 100 103
2.48000 -2.71431 0.96110 93 83 85
2.46422 -2.72726 0.95497 88 64 50
2.46599 -2.71992 0.96838 91 72 67
2.45024 -2.73285 0.96227 86 68 47
2.45463 -2.72764 0.97554 82 72 62
2.44122 -2.75073 0.98949 124 124 129
2.43724 -2.76459 0.99639 155 156 153
2.42144 -2.77756 0.99025 173 166 157
2.39364 -2.83195 1.03870 168 165 156
2.39371 -2.84966 1.04565 185 183 172
2.40215 -2.91076 1.06664 183 165 139
2.42653 -2.95071 1.07354 127 89 60
2.41289 -2.95681 1.08088 114 76 43
2.40294 -2.96621 1.08819 144 117 73
2.38668 -2.97955 1.08188 162 132 71
2.18954 -2.89568 1.13775 172 152 101
2.20504 -2.88297 1.14377 173 148 96
2.19885 -2.88656 1.13079 174 147 95
2.17532 -2.90010 1.14465 137 115 85
2.18706 -2.92941 1.15193 56 56 43
2.17608 -2.93701 1.15890 26 20 35
2.14698 -2.92696 1.16549 49 54 57
2.13151 -2.93965 1.15948 60 66 59
1.71039 -2.59652 1.19361 47 33 47
1.71307 -2.59173 1.17637 77 77 61
1.69751 -2.59948 1.19944 65 57 40
1.65949 -2.57664 1.20423 118 117 92
1.65156 -2.58441 1.21016 148 137 114
1.63836 -2.59525 1.20503 154 135 113
1.47107 -2.74823 1.34006 153 129 94
1.47371 -2.74352 1.32311 158 135 106
1.46368 -2.75661 1.34603 142 116 95
1.45846 -2.76759 1.35225 166 151 143
1.42567 -2.74523 1.35533 200 202 188
1.41263 -2.75592 1.35026 203 204 191
1.39368 -2.72345 1.35834 198 197 185
1.33651 -2.68713 1.36477 198 200 193
1.30802 -2.66859 1.36779 205 206 195
1.28983 -2.66259 1.37202 181 179 173
1.27737 -2.67281 1.36719 162 165 160
1.23554 -2.76323 1.43131 153 155 141
1.23806 -2.75873 1.41512 160 165 159
1.23018 -2.77358 1.43733 132 131 127
1.21793 -2.79233 1.44915 119 130 134
1.21289 -2.79525 1.43858 116 122 122
1.20532 -2.80268 1.44425 116 121 120
1.21358 -2.80417 1.45538 124 134 136
1.20587 -2.81143 1.46104 130 138 143
1.20180 -2.82376 1.46736 146 154 154
1.19927 -2.82828 1.48365 158 163 160
1.19421 -2.83121 1.47305 157 163 160
1.11106 -3.03000 1.58144 159 162 151
1.12403 -3.01936 1.58648 153 159 151
1.11885 -3.02236 1.57561 154 159 153
1.11366 -3.02537 1.56474 155 159 154
1.09955 -3.03177 1.58631 132 121 112
1.08983 -3.03629 1.59161 97 79 65
1.07689 -3.04690 1.58659 93 82 70
1.17766 -3.28273 1.65680 87 75 51
1.18597 -3.27458 1.65058 93 84 61
1.18043 -3.27779 1.63898 95 83 68
1.17289 -3.29674 1.66404 26 15 17
1.15864 -3.29503 1.66853 55 53 34
1.16485 -3.32755 1.67908 107 103 86
1.15092 -3.33897 1.67367 123 112 92
1.15019 -3.34745 1.69223 133 117 100
1.14446 -3.36020 1.69932 112 92 85
1.13318 -3.36341 1.70468 92 75 61
1.12148 -3.36584 1.70987 72 63 29
1.10234 -3.35515 1.71260 52 43 30
1.09856 -3.37128 1.72032 96 91 67
1.08992 -3.37890 1.72645 121 110 80
1.07605 -3.39028 1.72106 126 107 76
2.85685 -1.58422 0.36494 224 219 220
2.84861 -1.59229 0.37110 226 226 227
2.83117 -1.59653 0.37913 221 223 226
2.83040 -1.60770 0.38377 217 219 218
2.81670 -1.61894 0.37845 155 144 177
2.81615 -1.61322 0.39114 214 219 221
2.80541 -1.62020 0.39779 211 217 220
2.79129 -1.62571 0.40510 206 211 218
2.77764 -1.63691 0.39980 114 121 142
2.78996 -1.63671 0.40988 194 199 215
2.78722 -1.64160 0.42748 229 220 226
2.77671 -1.64257 0.41701 187 189 217
2.77397 -1.64745 0.43458 239 234 239
3.09772 -2.06194 0.46363 185 186 178
3.09146 -2.06557 0.45051 184 184 179
3.08206 -2.07479 0.45755 182 183 187
3.03654 -2.20113 0.54036 188 197 186
3.02067 -2.21415 0.53419 207 214 211
3.05712 -2.22724 0.54304 205 207 189
3.04112 -2.24037 0.53683 200 204 204
2.78751 -2.32088 0.67811 136 143 143
2.79062 -2.31533 0.65811 133 143 148
2.78375 -2.33353 0.68442 109 110 99
2.78911 -2.35202 0.68969 71 63 58
2.77349 -2.36483 0.68362 51 47 54
2.76672 -2.46083 0.74039 74 65 66
2.76990 -2.45517 0.71997 67 60 52
2.74834 -2.46421 0.74842 91 80 76
2.75772 -2.48633 0.75363 118 103 89
2.75181 -2.49817 0.76042 133 121 104
2.74994 -2.51283 0.76683 141 135 118
2.74089 -2.52259 0.77395 148 146 133
2.72025 -2.52429 0.78215 166 166 154
2.71309 -2.53533 0.78908 191 192 187
2.69717 -2.54839 0.78290 182 181 192
2.69761 -2.54053 0.79677 192 192 193
2.68659 -2.54884 0.80404 182 180 175
2.66968 -2.56910 0.81813 166 169 178
2.65484 -2.57462 0.82571 164 162 164
2.63712 -2.57799 0.83350 152 148 151
2.63879 -2.59552 0.83974 154 154 148
2.60341 -2.58577 0.84885 159 155 147
2.57957 -2.60066 0.86338 173 168 155
2.58278 -2.61947 0.86955 167 160 146
2.55448 -2.63095 0.88438 131 130 125
2.54294 -2.63863 0.89159 129 125 130
2.49162 -2.66506 0.92067 107 98 93
2.49476 -2.65946 0.90048 107 102 88
2.48684 -2.67798 0.92746 99 96 82
2.49071 -2.69785 0.93381 95 88 75
2.47494 -2.71078 0.92769 88 73 50
2.47752 -2.70414 0.94108 84 73 61
2.46177 -2.71706 0.93497 91 73 56
2.48083 -2.72375 0.94754 84 69 57
2.44112 -2.74241 0.96933 83 70 61
2.44248 -2.76067 0.97597 123 119 123
2.43574 -2.77228 0.98297 160 157 153
2.41499 -2.80684 1.00405 176 169 152
2.42451 -2.79750 0.99692 175 169 156
2.41181 -2.81251 1.02447 161 157 147
2.40012 -2.81160 1.01134 177 168 150
2.39335 -2.82328 1.01838 177 168 150
2.38396 -2.83273 1.02550 182 176 156
2.38982 -2.87330 1.03922 209 200 183
2.38075 -2.88317 1.04638 214 206 181
2.41264 -2.94785 1.06001 136 98 69
2.40239 -2.95696 1.06731 114 76 43
2.38860 -2.96284 1.07465 146 122 75
2.21344 -2.90980 1.11789 163 144 99
2.22905 -2.89699 1.12395 170 142 88
2.22281 -2.90061 1.11088 171 147 100
2.17794 -2.89412 1.12474 122 105 75
2.20907 -2.94193 1.13205 52 44 32
2.19339 -2.95479 1.12596 12 9 11
2.20105 -2.95250 1.13911 16 14 14
2.17496 -2.94557 1.14593 20 18 31
2.14644 -2.93605 1.15263 43 47 43
2.13094 -2.94876 1.14661 53 60 55
1.70440 -2.59898 1.18237 42 31 37
1.70708 -2.59419 1.16514 73 76 58
1.69904 -2.60208 1.17115 37 33 45
1.69453 -2.60499 1.18833 65 55 46
1.66199 -2.58769 1.19345 119 117 97
1.65603 -2.59756 1.19948 148 138 115
1.64277 -2.60844 1.19433 152 135 108
1.46976 -2.75599 1.32942 153 129 93
1.47240 -2.75128 1.31245 157 132 107
1.46380 -2.76612 1.33556 141 114 91
1.46847 -2.78911 1.34283 173 163 155
1.43388 -2.76457 1.34588 201 204 193
1.42076 -2.77533 1.34078 206 207 197
1.33517 -2.69467 1.35462 204 205 191
1.30758 -2.67719 1.35787 202 204 191
1.28906 -2.67076 1.36212 176 176 169
1.27658 -2.68100 1.35728 163 166 159
1.23952 -2.77823 1.42220 157 161 153
1.24206 -2.77372 1.40594 158 165 161
1.23447 -2.78116 1.41162 158 164 159
1.22909 -2.78183 1.42742 141 143 139
1.22107 -2.78865 1.43302 120 122 124
1.20845 -2.79900 1.42812 117 119 118
1.20544 -2.82076 1.45127 120 123 126
1.20798 -2.81624 1.43498 118 123 120
1.20176 -2.83369 1.45767 139 144 145
1.18907 -2.84410 1.45274 157 164 159
1.19531 -2.84280 1.46358 156 163 161
1.19277 -2.84734 1.47992 159 163 159
1.18769 -2.85028 1.46929 159 162 160
1.18262 -2.85322 1.45865 159 162 160
1.11536 -3.04794 1.57294 158 158 143
1.11797 -3.04328 1.55616 156 161 152
1.10231 -3.05864 1.56788 110 97 83
1.10702 -3.05481 1.57867 119 100 92
1.09398 -3.06550 1.57361 99 83 75
1.09964 -3.06319 1.58464 98 79 67
1.08659 -3.07389 1.57958 95 81 71
1.17554 -3.29158 1.64616 89 75 60
1.17832 -3.28662 1.62831 98 85 67
1.17188 -3.30750 1.65372 28 16 23
1.15630 -3.30357 1.65787 55 57 31
1.16117 -3.33395 1.66797 107 102 88
1.14723 -3.34539 1.66255 123 109 89
1.14685 -3.35451 1.68123 132 115 91
1.14127 -3.35775 1.66953 133 116 88
1.14442 -3.37297 1.68933 96 75 59
1.12660 -3.36491 1.69269 69 38 34
1.11593 -3.36909 1.69822 56 41 43
1.11096 -3.38323 1.70556 92 85 56
1.09701 -3.39467 1.70015 134 122 105
1.10549 -3.39658 1.71277 130 120 97
1.09153 -3.40804 1.70735 132 116 92
1.09129 -3.39443 1.71712 133 115 85
1.07737 -3.40585 1.71171 128 109 85
2.85268 -1.57650 0.34875 198 193 219
2.86089 -1.56844 0.34260 210 208 226
2.85542 -1.57161 0.33114 114 123 152
2.83895 -1.58229 0.35605 184 180 213
2.80733 -1.58063 0.36704 179 178 206
2.80114 -1.58944 0.37274 171 167 197
2.81324 -1.60596 0.37469 163 154 183
2.70268 -1.61576 0.41919 106 115 144
2.68929 -1.62675 0.41399 93 96 109
2.71373 -1.63205 0.42144 91 110 155
2.92522 -1.73740 0.38444 148 138 180
2.92235 -1.74251 0.40286 205 194 225
3.10358 -2.18644 0.49293 184 188 182
3.08407 -2.19050 0.50168 191 200 194
3.06809 -2.20361 0.49548 154 151 127
3.02449 -2.20164 0.52793 187 203 205
2.81358 -2.34475 0.66107 135 144 147
2.81673 -2.33914 0.64090 132 139 148
2.79350 -2.34723 0.66943 116 117 111
2.80587 -2.37027 0.67381 71 64 62
2.77175 -2.47214 0.72588 71 64 59
2.77494 -2.46646 0.70540 65 59 52
2.75663 -2.47775 0.73362 91 81 63
2.74617 -2.48647 0.74085 125 109 71
2.74544 -2.50186 0.74708 142 125 89
2.73903 -2.51340 0.75392 144 130 108
2.72694 -2.52104 0.76133 147 140 128
2.71503 -2.52877 0.76872 162 162 153
2.71040 -2.54160 0.77540 180 181 182
2.68338 -2.55475 0.79044 181 179 182
2.67702 -2.55843 0.77712 187 193 193
2.66748 -2.56780 0.78427 192 197 197
2.66956 -2.56105 0.79797 176 176 183
2.65368 -2.57408 0.79181 198 203 201
2.65705 -2.56825 0.80537 181 183 191
2.64118 -2.58126 0.79921 202 203 194
2.64679 -2.57706 0.81256 185 180 178
2.63093 -2.59007 0.80640 205 204 196
2.63307 -2.58333 0.82005 187 180 174
2.61722 -2.59633 0.81389 202 204 198
2.62909 -2.59673 0.82671 192 190 177
2.61322 -2.60975 0.82055 195 198 196
2.61700 -2.60417 0.83405 190 192 184
2.60114 -2.61718 0.82789 190 190 190
2.60227 -2.60963 0.84158 192 195 189
2.58644 -2.62262 0.83543 191 194 192
2.58789 -2.61528 0.84907 196 199 187
2.59155 -2.63454 0.85519 193 196 184
2.56645 -2.63203 0.86346 168 166 161
2.54933 -2.63549 0.87110 142 144 140
2.54434 -2.64821 0.87787 133 133 129
2.50214 -2.68198 0.90650 92 82 67
2.49583 -2.68563 0.89330 92 79 48
2.48637 -2.69491 0.90038 96 80 39
2.49604 -2.69395 0.91339 92 82 54
2.48026 -2.70689 0.90726 97 81 52
2.48887 -2.70508 0.92035 91 76 60
2.46038 -2.73293 0.94163 96 73 56
2.44781 -2.73968 0.94888 99 79 58
2.44659 -2.77303 0.96226 134 131 114
2.43559 -2.78113 0.96945 167 160 153
2.42644 -2.79078 0.97656 179 170 158
2.42098 -2.80356 0.98353 185 177 159
2.41543 -2.81632 0.99052 191 181 164
2.40089 -2.82137 0.99783 196 186 168
2.39251 -2.83172 1.00493 199 190 172
2.39444 -2.85106 1.01172 203 196 178
2.37850 -2.86414 1.00553 213 215 208
2.38556 -2.86105 1.01886 210 204 188
2.37785 -2.87208 1.02597 214 208 194
2.36684 -2.88019 1.03317 219 213 191
2.36597 -2.89736 1.04015 201 187 155
2.39246 -2.93928 1.04666 148 112 77
2.39299 -2.95808 1.05376 126 86 45
2.36090 -2.96561 1.06849 166 135 78
2.35766 -2.97138 1.08928 165 137 81
2.35120 -2.97512 1.07575 168 139 85
2.34474 -2.97886 1.06221 171 143 89
2.28744 -2.95262 1.09049 167 146 96
2.30337 -2.93955 1.09668 167 140 86
2.29700 -2.94324 1.08334 170 142 90
2.29381 -2.94893 1.10383 169 143 90
2.25323 -2.93876 1.09771 150 135 97
2.24612 -2.95032 1.10481 102 85 62
2.22750 -2.95091 1.11190 44 34 30
2.21173 -2.96384 1.10578 20 17 13
2.21426 -2.95656 1.11896 18 13 11
2.17397 -2.95429 1.13291 20 22 28
2.15061 -2.94980 1.13977 38 43 41
2.13506 -2.96256 1.13373 47 54 49
1.68916 -2.60807 1.17712 64 59 55
1.69184 -2.60329 1.15989 33 35 37
1.66359 -2.59787 1.18257 117 114 100
1.65562 -2.60570 1.18854 145 134 112
1.64233 -2.61660 1.18338 151 135 109
1.47016 -2.76584 1.31892 151 126 98
1.47281 -2.76111 1.30190 156 132 105
1.46487 -2.76890 1.30784 147 124 100
1.46317 -2.77477 1.32495 140 113 95
1.45698 -2.78469 1.33108 178 171 158
1.42895 -2.76799 1.33492 202 204 194
1.41583 -2.77875 1.32983 207 207 200
1.31135 -2.69109 1.34839 198 199 184
1.29417 -2.68639 1.35289 174 173 165
1.28163 -2.69668 1.34802 162 166 159
1.23144 -2.79476 1.41801 148 151 144
1.23397 -2.79024 1.40171 159 164 157
1.22383 -2.80222 1.42370 125 126 122
1.21116 -2.81261 1.41879 114 115 109
1.20518 -2.83037 1.44149 126 129 129
1.20233 -2.84453 1.44803 145 150 150
1.18961 -2.85497 1.44309 157 164 157
1.11708 -3.06192 1.56372 154 153 135
1.10399 -3.07266 1.55864 105 90 73
1.17420 -3.30177 1.63570 88 72 55
1.16030 -3.31317 1.63031 30 16 13
1.17040 -3.31753 1.64321 29 14 23
1.15606 -3.31569 1.64778 59 59 34
1.16011 -3.34482 1.65759 105 98 86
1.14136 -3.38061 1.67837 118 101 75
1.14417 -3.37560 1.66032 132 121 94
1.13142 -3.38622 1.68420 103 80 59
1.13080 -3.40812 1.69293 102 85 79
1.11673 -3.41967 1.68746 121 106 89
1.11939 -3.41118 1.69831 122 111 88
1.10534 -3.42271 1.69286 126 113 94
2.77876 -1.55164 0.35189 111 122 152
2.77340 -1.55475 0.34065 113 103 107
2.76534 -1.56265 0.34668 117 107 108
2.75066 -1.55127 0.36218 111 121 149
2.71042 -1.55684 0.37925 112 118 140
2.68766 -1.55839 0.38829 109 114 134
2.67023 -1.56212 0.39619 105 108 128
2.66252 -1.56995 0.40207 103 100 124
2.64936 -1.58075 0.39696 141 122 151
2.69329 -1.60572 0.40442 121 108 116
2.68796 -1.60881 0.39324 174 172 144
2.70176 -1.62080 0.40708 114 112 117
2.68835 -1.63180 0.40188 77 84 83
3.29063 -2.23400 0.42461 166 172 167
3.30730 -2.22034 0.43108 175 177 176
3.30063 -2.22419 0.41712 173 178 172
3.27397 -2.24767 0.41814 151 151 145
3.29036 -2.24897 0.43047 158 159 157
3.06097 -2.18509 0.49099 210 220 204
3.01366 -2.20281 0.51536 163 184 198
3.02137 -2.22178 0.51980 208 217 217
3.01182 -2.23114 0.52695 204 212 211
3.00547 -2.23483 0.51363 205 212 213
2.81420 -2.35271 0.64705 137 142 150
2.81735 -2.34710 0.62684 135 142 149
2.80658 -2.36311 0.65388 121 122 118
2.81588 -2.38432 0.65860 76 70 66
2.81251 -2.39755 0.66494 53 47 55
2.80934 -2.40321 0.68530 53 51 55
2.80301 -2.40687 0.67205 52 49 50
2.79669 -2.41054 0.65879 51 49 48
2.78218 -2.48714 0.71067 70 67 58
2.78539 -2.48143 0.69010 69 60 52
2.77221 -2.49630 0.71790 83 78 59
2.75575 -2.50103 0.72582 114 102 64
2.75068 -2.51352 0.73251 135 120 80
2.73352 -2.51769 0.74048 142 129 102
2.71945 -2.52394 0.74811 145 141 126
2.70102 -2.52709 0.75616 153 154 146
2.69812 -2.54112 0.76264 165 170 165
2.68221 -2.55418 0.75646 185 197 192
2.68782 -2.54996 0.76986 179 188 187
2.56459 -2.63910 0.84988 165 161 160
2.55314 -2.64691 0.85714 133 131 131
2.55604 -2.66580 0.86333 124 121 111
2.54105 -2.68767 0.87731 106 92 83
2.48025 -2.72384 0.91379 99 81 52
2.47624 -2.73764 0.92058 102 84 59
2.46039 -2.75064 0.91443 119 97 69
2.46446 -2.74511 0.92783 108 87 65
2.45290 -2.75274 0.93506 110 89 71
2.45268 -2.76978 0.94170 111 97 80
2.44016 -2.77663 0.94898 152 150 119
2.43000 -2.78544 0.95614 176 171 155
2.41414 -2.79845 0.94998 190 192 183
2.42354 -2.79736 0.96312 185 179 167
2.41331 -2.82363 0.97703 198 193 180
2.40629 -2.83520 0.98409 206 201 186
2.39617 -2.84409 0.99126 212 207 193
2.38993 -2.85638 0.99831 214 212 201
2.37861 -2.88210 1.01240 212 216 211
2.37380 -2.89578 1.01945 216 219 206
2.36809 -2.90871 1.02655 199 191 159
2.37420 -2.93236 1.03339 161 129 75
2.38182 -2.95758 1.04026 150 107 39
2.35749 -2.95375 1.04782 165 137 75
2.34137 -2.96698 1.04156 173 147 89
2.34599 -2.96156 1.05509 170 140 83
2.31082 -2.96578 1.06976 170 145 90
2.28642 -2.96133 1.07710 147 130 79
2.25947 -2.95430 1.08439 88 77 44
2.24610 -2.95998 1.09154 39 26 23
2.23026 -2.97298 1.08539 27 23 17
2.22714 -2.96025 1.09868 24 17 16
2.21134 -2.97321 1.09255 23 23 15
2.20302 -2.97384 1.11286 12 14 13
2.17483 -2.96484 1.11985 19 26 25
2.15308 -2.96194 1.12680 34 43 35
2.13748 -2.97474 1.12075 44 50 45
1.69051 -2.61806 1.16607 62 62 57
1.69320 -2.61327 1.14880 33 37 41
1.66201 -2.60481 1.17155 116 113 98
1.65402 -2.61264 1.17752 144 133 109
1.64071 -2.62356 1.17236 151 134 110
1.46179 -2.78256 1.31424 142 117 103
1.46444 -2.77782 1.29718 146 124 103
1.45165 -2.78771 1.31998 184 180 164
1.42020 -2.76673 1.32358 205 206 195
1.40709 -2.77748 1.31849 208 206 200
1.34530 -2.72582 1.33562 211 211 198
1.35298 -2.71829 1.32987 208 208 200
1.34786 -2.72125 1.31916 208 207 201
1.31924 -2.71025 1.33930 194 192 180
1.30007 -2.70310 1.34365 171 170 162
1.28747 -2.71344 1.33876 160 165 161
1.23815 -2.81371 1.40920 152 156 145
1.24070 -2.80916 1.39280 160 164 158
1.22850 -2.81847 1.41461 130 130 121
1.21577 -2.82892 1.40967 115 113 107
1.21254 -2.83251 1.42594 118 125 122
1.20867 -2.84528 1.43228 138 144 140
1.19592 -2.85574 1.42733 158 164 159
1.20581 -2.85951 1.43883 153 159 158
1.19303 -2.87000 1.43386 157 163 156
1.13121 -3.07538 1.54958 159 163 150
1.14438 -3.06458 1.55470 155 160 155
1.13912 -3.06763 1.54366 156 160 155
1.13385 -3.07068 1.53263 155 162 159
1.11918 -3.07658 1.55451 142 138 123
1.10603 -3.08736 1.54941 103 88 73
1.18142 -3.30413 1.61899 94 84 70
1.19535 -3.29270 1.62440 91 80 68
1.18978 -3.29593 1.61273 89 79 69
1.17176 -3.31016 1.62490 74 64 39
1.15182 -3.32112 1.63651 67 63 37
1.15518 -3.34917 1.64607 108 97 87
1.14838 -3.36013 1.65281 124 114 90
1.13438 -3.37161 1.64737 132 123 101
1.13928 -3.38998 1.66767 138 122 94
1.13366 -3.39323 1.65590 136 125 108
1.13659 -3.40829 1.67571 130 109 85
1.13154 -3.42258 1.68309 120 95 88
1.11742 -3.43416 1.67761 127 107 93
2.87281 -1.48287 0.27603 116 121 156
2.87552 -1.47805 0.25866 113 117 130
2.82732 -1.47650 0.29060 114 121 151
2.81078 -1.48107 0.29853 113 120 145
2.71427 -1.55261 0.36194 110 103 106
2.68238 -1.56145 0.37724 115 101 100
2.66426 -1.56486 0.38532 117 99 100
2.65726 -1.57300 0.39104 113 99 123
2.81812 -1.70128 0.37989 55 35 53
2.81255 -1.70451 0.36822 93 56 82
3.02924 -2.17490 0.48185 209 217 213
3.03837 -2.19446 0.48591 179 185 157
2.99155 -2.19765 0.50463 138 174 173
3.00789 -2.22146 0.50761 199 213 216
2.99202 -2.23448 0.50145 203 208 209
2.83111 -2.37100 0.63083 141 147 148
2.83428 -2.36536 0.61048 139 149 149
2.80669 -2.37081 0.63988 128 130 121
2.81840 -2.39364 0.64422 82 81 72
2.81375 -2.40610 0.65072 53 51 52
2.79790 -2.41911 0.64456 54 50 46
2.78816 -2.49920 0.69585 75 68 59
2.77505 -2.50628 0.70345 81 77 69
2.75902 -2.51943 0.69723 92 84 77
2.76158 -2.51309 0.71109 97 90 72
2.75036 -2.52140 0.71846 119 107 80
2.73349 -2.52578 0.72644 132 123 100
2.71300 -2.52757 0.73478 139 139 130
2.69389 -2.53022 0.74294 148 154 151
2.69348 -2.54603 0.74913 168 180 173
2.67224 -2.56325 0.76365 182 186 186
2.66588 -2.56693 0.75032 176 177 174
2.66112 -2.57148 0.77095 182 185 187
2.64522 -2.58452 0.76478 185 184 178
2.65132 -2.58066 0.77812 186 188 190
2.63542 -2.59370 0.77195 189 186 182
2.61087 -2.61641 0.80690 185 185 182
2.60133 -2.62576 0.81404 185 182 179
2.59498 -2.62944 0.80073 180 176 167
2.57610 -2.63979 0.82883 183 183 177
2.57928 -2.63413 0.80842 180 179 172
2.56663 -2.64917 0.83595 165 159 150
2.57262 -2.67047 0.84185 123 108 108
2.56605 -2.68218 0.84877 114 103 90
2.55010 -2.69526 0.84258 108 95 69
2.55182 -2.68792 0.85629 112 99 79
2.53589 -2.70099 0.85011 114 97 73
2.52799 -2.70295 0.87094 108 90 61
2.52163 -2.70663 0.85762 115 96 68
2.50360 -2.71743 0.88559 107 90 56
2.48772 -2.73046 0.87942 119 101 65
2.49172 -2.72489 0.89288 109 92 56
2.48413 -2.73580 0.89988 111 93 55
2.47572 -2.74606 0.90695 115 96 62
2.45983 -2.75909 0.90078 128 106 68
2.45257 -2.76138 0.92145 114 93 75
2.45660 -2.78202 0.92783 132 117 99
2.42957 -2.77674 0.93592 170 172 147
2.42344 -2.78892 0.94286 187 189 175
2.41465 -2.81636 0.95663 192 197 189
2.40778 -2.82804 0.96366 194 203 196
2.40025 -2.83917 0.97073 203 208 199
2.39228 -2.84995 0.97782 211 210 205
2.38469 -2.86107 0.98491 211 200 209
2.37709 -2.87221 0.99200 200 185 195
2.37250 -2.88605 0.99900 189 178 173
2.36255 -2.89515 1.00620 187 171 154
2.35773 -2.92700 1.02017 162 129 72
2.35538 -2.94311 1.02720 168 134 57
2.33929 -2.95632 1.02095 176 149 96
2.34533 -2.95223 1.03444 173 145 78
2.31799 -2.96372 1.04905 166 146 92
2.30537 -2.97039 1.05631 146 132 79
2.28131 -2.98471 1.07078 55 56 31
2.24312 -2.96685 1.07824 30 16 13
2.22726 -2.97986 1.07208 27 27 21
2.20084 -2.98151 1.09965 20 22 14
2.20400 -2.97587 1.07933 28 27 25
2.18758 -2.98710 1.10674 24 28 25
2.17181 -3.00004 1.10062 36 42 36
2.16469 -2.98314 1.11379 33 43 32
2.14899 -2.99602 1.10769 44 49 46
1.68268 -2.61863 1.15478 63 64 58
1.68537 -2.61384 1.13753 32 37 54
1.66368 -2.61515 1.16056 120 117 99
1.65034 -2.62610 1.15538 147 136 109
1.65567 -2.62301 1.16655 146 135 110
1.64233 -2.63396 1.16137 152 133 112
1.46092 -2.79100 1.30353 150 129 114
1.46358 -2.78626 1.28644 146 124 107
1.43087 -2.77187 1.30746 190 188 174
1.41772 -2.78266 1.30236 207 205 196
1.41413 -2.76874 1.31253 207 205 195
1.40103 -2.77949 1.30744 207 205 198
1.34607 -2.73616 1.32552 208 209 198
1.34864 -2.73157 1.30902 207 207 200
1.32109 -2.72191 1.32942 187 187 179
1.30836 -2.72294 1.33457 167 168 165
1.29567 -2.73334 1.32965 160 165 165
1.24404 -2.83166 1.40015 155 156 147
1.24661 -2.82708 1.38366 159 162 160
1.23196 -2.83316 1.40524 134 130 122
1.21556 -2.84676 1.41656 121 131 127
1.21531 -2.86468 1.42350 149 159 155
1.20249 -2.87520 1.41852 158 164 162
1.13211 -3.08818 1.53997 160 164 150
1.12060 -3.09026 1.54507 126 120 112
1.10741 -3.10108 1.53995 104 92 79
1.18327 -3.29760 1.60083 81 72 57
1.19719 -3.28618 1.60623 91 79 68
1.19163 -3.28940 1.59457 89 77 63
1.18606 -3.29263 1.58291 80 74 63
1.18106 -3.31600 1.60868 89 78 59
1.16709 -3.32746 1.60326 45 33 47
1.17031 -3.32026 1.61433 56 46 38
1.16522 -3.33401 1.62148 39 30 24
1.14956 -3.32991 1.62577 83 76 61
1.15084 -3.35454 1.63470 112 103 93
1.13684 -3.36602 1.62927 126 116 99
1.14347 -3.36455 1.64128 125 118 96
1.12947 -3.37604 1.63584 132 122 103
1.13249 -3.41425 1.66436 136 121 99
1.13532 -3.40921 1.64621 137 124 104
1.12685 -3.41752 1.65255 140 124 104
1.11839 -3.42582 1.65889 140 123 102
1.12846 -3.43039 1.67204 131 111 98
2.82979 -1.47165 0.27347 110 117 130
2.83247 -1.46688 0.25628 114 102 107
2.80795 -1.47420 0.28266 106 117 130
2.79813 -1.48131 0.28906 105 116 127
2.77264 -1.55976 0.32839 146 134 128
2.75873 -1.56525 0.33571 155 150 127
2.69983 -1.56298 0.35705 132 117 129
2.70886 -1.57801 0.35934 173 158 147
2.61760 -1.55017 0.38317 214 204 190
2.64637 -1.57362 0.38122 230 225 207
2.62934 -1.57737 0.38906 237 232 220
2.61866 -1.58385 0.39554 234 233 206
2.67825 -1.62136 0.38730 137 124 146
3.02572 -2.18009 0.46814 195 205 207
3.00990 -2.19306 0.46200 211 221 221
3.01673 -2.18968 0.47516 215 218 202
3.00206 -2.21073 0.48866 120 130 125
2.99587 -2.22193 0.49524 185 202 207
2.98002 -2.23493 0.48909 192 205 206
2.83616 -2.38188 0.61603 144 150 146
2.83934 -2.37621 0.59563 142 151 151
2.82982 -2.38555 0.60275 144 152 151
2.81114 -2.38132 0.62525 132 137 128
2.83186 -2.41003 0.62832 88 89 77
2.81729 -2.41616 0.63614 58 54 45
2.80139 -2.42921 0.62996 65 52 50
2.80167 -2.50041 0.67395 75 63 55
2.81776 -2.48720 0.68020 64 57 48
2.81133 -2.49093 0.66672 70 60 50
2.79523 -2.50413 0.66047 84 72 59
2.78764 -2.50692 0.68170 80 68 62
2.77748 -2.51603 0.68899 87 80 74
2.75097 -2.52996 0.70425 100 89 74
2.74153 -2.53953 0.71144 107 97 82
2.72027 -2.54081 0.71993 116 116 114
2.70147 -2.54373 0.72812 128 135 144
2.68963 -2.55150 0.73553 152 158 168
2.67980 -2.56069 0.74271 176 180 183
2.66387 -2.57376 0.73653 178 176 169
2.65881 -2.57809 0.75722 177 179 175
2.65244 -2.58178 0.74388 174 174 167
2.62397 -2.60165 0.77928 186 185 181
2.62715 -2.59598 0.75883 187 184 174
2.61609 -2.61225 0.78626 182 181 174
2.60019 -2.62529 0.78008 175 170 161
2.60482 -2.62031 0.79356 179 175 167
2.58892 -2.63335 0.78739 174 169 163
2.57166 -2.64491 0.81538 178 180 170
2.57484 -2.63924 0.79496 173 172 167
2.56253 -2.65456 0.82248 165 159 146
2.58106 -2.68562 0.82726 122 103 94
2.56647 -2.69116 0.83486 109 91 69
2.51557 -2.71879 0.86451 115 95 70
2.51876 -2.71310 0.84402 117 102 78
2.50921 -2.72247 0.85117 117 102 78
2.50941 -2.73090 0.87142 117 99 71
2.48789 -2.74771 0.88590 122 104 67
2.48152 -2.75140 0.87256 134 116 80
2.47390 -2.75346 0.89335 126 106 71
2.45800 -2.76651 0.88717 137 113 73
2.45155 -2.76948 0.90784 117 93 69
2.46037 -2.79419 0.91388 152 138 122
2.42105 -2.77857 0.92278 179 178 169
2.41665 -2.79221 0.92961 186 177 179
2.40904 -2.80317 0.93663 177 168 170
2.40412 -2.81647 0.94352 166 156 156
2.39450 -2.82575 0.95066 163 151 152
2.39120 -2.84054 0.95751 170 156 138
2.38187 -2.85011 0.96465 176 159 145
2.37287 -2.85997 0.97178 177 152 149
2.35694 -2.87303 0.96560 173 143 101
2.36492 -2.87077 0.97887 176 148 138
2.34899 -2.88384 0.97268 175 146 103
2.36000 -2.88430 0.98585 175 149 124
2.34405 -2.89739 0.97965 175 146 99
2.35504 -2.89784 0.99285 174 146 108
2.33905 -2.91095 0.98665 174 144 91
2.34401 -2.90595 1.00008 170 137 91
2.32804 -2.91905 0.99388 175 145 89
2.34021 -2.92062 1.00707 171 138 80
2.33564 -2.93465 1.01411 178 147 86
2.31595 -2.95312 1.02853 163 143 95
2.31439 -2.97007 1.03554 131 120 86
2.29761 -2.97283 1.04291 101 100 76
2.29150 -2.98559 1.05005 78 82 59
2.24698 -2.98029 1.06481 29 22 18
2.23106 -2.99335 1.05864 28 24 26
2.20548 -2.99587 1.08635 28 29 22
1.68148 -2.62604 1.14362 66 66 60
1.68418 -2.62124 1.12634 31 35 47
1.66426 -2.62440 1.14949 123 120 99
1.65088 -2.63537 1.14429 147 136 110
1.46055 -2.80009 1.29282 157 141 134
1.42027 -2.76838 1.29598 195 195 185
1.40716 -2.77914 1.29089 206 206 196
1.35151 -2.75241 1.31584 206 208 196
1.35409 -2.74781 1.29925 206 207 201
1.33080 -2.74358 1.32029 182 182 177
1.31799 -2.75409 1.31532 161 163 164
1.31658 -2.74281 1.32536 163 165 167
1.30381 -2.75328 1.32040 159 164 165
1.24336 -2.84070 1.39005 152 148 148
1.24593 -2.83611 1.37352 156 161 163
1.21946 -2.84404 1.40032 127 128 123
1.21689 -2.85870 1.40684 135 147 141
1.20407 -2.86922 1.40187 156 165 159
1.21113 -2.86898 1.41291 152 165 162
1.19830 -2.87951 1.40792 155 162 159
1.13882 -3.08987 1.52386 149 159 156
1.15207 -3.07901 1.52901 156 163 161
1.14677 -3.08207 1.51792 154 162 159
1.12963 -3.09569 1.52953 148 153 145
1.12321 -3.10592 1.53583 115 106 102
1.10997 -3.11678 1.53069 103 93 87
1.18810 -3.31803 1.59177 61 54 48
1.17996 -3.32670 1.59812 62 59 46
1.16094 -3.33945 1.61012 58 58 47
1.15335 -3.34904 1.61662 96 94 83
1.13936 -3.36052 1.61118 118 108 96
1.14590 -3.35891 1.62316 117 108 96
1.13190 -3.37039 1.61773 127 117 102
1.12044 -3.45292 1.66838 137 122 100
1.12329 -3.44785 1.65013 144 127 108
1.11477 -3.45621 1.65650 143 127 112
1.11760 -3.45799 1.68664 127 111 91
2.78611 -1.47090 0.27539 118 101 111
2.73107 -1.49282 0.30454 193 159 188
2.78806 -1.52661 0.29560 220 203 190
2.76939 -1.53020 0.30404 223 212 194
2.75457 -1.53529 0.31158 227 219 205
2.72135 -1.53278 0.32325 228 224 213
2.70788 -1.53828 0.33044 235 233 210
2.69296 -1.54315 0.33793 237 236 209
2.68281 -1.54998 0.34435 232 224 178
2.66163 -1.55211 0.35320 232 227 210
2.61851 -1.56686 0.37511 254 253 249
2.60545 -1.57756 0.37004 254 254 254
2.59746 -1.56877 0.38382 254 253 250
2.58964 -1.57642 0.38967 244 243 236
2.65617 -1.61703 0.37968 137 141 156
2.68840 -1.65437 0.38149 127 96 114
2.67492 -1.66543 0.37625 190 182 179
3.15014 -2.22584 0.42108 115 98 73
3.10426 -2.21567 0.43467 134 128 132
3.01213 -2.17975 0.45614 184 187 195
2.98867 -2.19582 0.47109 184 188 172
2.97686 -2.21842 0.48408 157 181 179
2.81149 -2.38925 0.61110 138 142 136
2.81466 -2.38360 0.59074 146 153 164
2.82293 -2.41206 0.61534 100 99 90
2.81729 -2.42398 0.62196 71 57 50
2.80136 -2.43705 0.61577 76 62 61
2.78197 -2.51115 0.66815 87 71 62
2.78519 -2.50541 0.64746 89 77 56
2.77750 -2.52416 0.67474 94 88 79
2.76575 -2.53220 0.68222 95 87 79
2.74699 -2.53536 0.69053 90 77 61
2.73540 -2.54344 0.69797 85 71 52
2.73546 -2.55970 0.70406 88 77 76
2.71958 -2.56476 0.71199 94 91 109
2.69137 -2.56097 0.72128 126 128 143
2.67865 -2.56812 0.72880 171 173 172
2.66269 -2.58121 0.72261 177 176 171
2.62165 -2.60833 0.76556 184 183 170
2.61364 -2.61885 0.77255 179 177 164
2.59772 -2.63190 0.76637 168 167 161
2.57046 -2.65254 0.80162 173 173 168
2.56166 -2.66246 0.80869 167 162 151
2.56456 -2.68148 0.81474 138 124 101
2.55637 -2.69197 0.82179 110 92 55
2.54197 -2.69757 0.82937 107 94 62
2.53240 -2.70696 0.83653 114 101 74
2.50657 -2.73743 0.85780 119 106 85
2.49823 -2.74784 0.86488 117 104 76
2.47458 -2.76294 0.87953 138 118 84
2.46821 -2.76663 0.86618 148 123 82
2.45864 -2.77601 0.87335 147 118 76
2.45232 -2.79650 0.90061 150 128 113
2.42435 -2.79037 0.90892 162 144 137
2.41556 -2.80035 0.91601 165 140 135
2.40526 -2.80904 0.92319 160 134 124
2.39272 -2.81580 0.93049 148 115 107
2.38494 -2.82665 0.93753 142 107 98
2.37271 -2.83364 0.94480 156 129 92
2.37058 -2.84946 0.95156 166 142 101
2.35468 -2.86250 0.94539 176 148 95
2.36125 -2.85901 0.95869 170 142 102
2.34535 -2.87205 0.95252 177 147 92
2.32322 -2.93284 1.00089 174 150 96
2.31482 -2.94337 1.00804 159 136 94
2.30422 -2.95187 1.01526 123 103 76
2.30730 -2.97318 1.02210 86 85 74
2.29872 -2.98363 1.02929 74 83 75
2.28375 -2.98804 1.03664 63 65 63
2.26189 -2.98580 1.04409 36 28 40
2.24591 -2.99891 1.03789 23 18 17
2.22970 -3.01070 1.06568 40 35 35
2.22247 -3.02240 1.07282 43 41 36
1.69595 -2.61715 1.12033 63 60 54
1.70940 -2.60612 1.12555 68 68 59
1.70403 -2.60923 1.11428 67 63 55
