ply
format ascii 1.0
element face 0
property list uchar int vertex_indices
element vertex 1321
property float x
property float y
property float z
property uchar diffuse_red
property uchar diffuse_green
property uchar diffuse_blue
end_header
3.01226 -2.00332 1.00897 83 90 97
2.98226 -2.02196 1.02397 89 90 94
2.96420 -2.03616 1.01543 38 61 90
2.93930 -2.03531 1.04014 80 90 98
2.91357 -2.04016 1.04857 101 109 126
2.89564 -2.05426 1.04008 100 109 122
2.85589 -2.07762 1.07805 117 120 125
2.86098 -2.07058 1.05538 109 113 129
2.84949 -2.08113 1.06248 116 121 133
2.84666 -2.08912 1.08496 89 97 109
2.84231 -2.10272 1.09147 86 95 101
2.83546 -2.11528 1.09820 106 111 128
2.85631 -2.13983 1.10271 115 126 148
2.88850 -2.16951 1.10639 134 148 174
2.89504 -2.18825 1.11220 155 160 171
2.89010 -2.20205 1.11894 109 106 162
2.88704 -2.21673 1.12555 137 143 182
2.89176 -2.23495 1.13161 100 104 167
2.93020 -2.26849 1.13525 149 165 187
2.97213 -2.30396 1.13877 183 194 202
2.95332 -2.31875 1.12986 183 190 199
2.96691 -2.35168 1.15908 191 198 206
2.97230 -2.34422 1.13508 183 189 203
2.96578 -2.36801 1.16587 197 204 211
2.96658 -2.38533 1.17256 205 212 219
2.96117 -2.39281 1.19668 212 217 225
2.95436 -2.39655 1.18011 209 217 228
2.81337 -2.80836 1.37964 235 239 243
2.81901 -2.80057 1.35453 244 246 248
2.80065 -2.82005 1.38751 226 229 234
2.79501 -2.82785 1.41262 223 227 231
2.78792 -2.83174 1.39538 226 229 233
2.78084 -2.83563 1.37813 227 230 235
1.70427 -2.31997 1.46545 211 214 211
1.70871 -2.31383 1.44566 213 218 220
1.68253 -2.32192 1.47172 189 185 170
1.66470 -2.32621 1.47793 110 93 78
1.66605 -2.34250 1.48408 45 32 30
1.65047 -2.35476 1.47670 41 41 51
1.65728 -2.36806 1.49646 37 33 31
1.64724 -2.37728 1.50267 26 21 22
1.21684 -3.01643 1.86580 92 58 45
1.21220 -3.02285 1.88647 84 69 54
1.20997 -3.02944 1.87271 97 65 45
1.20532 -3.03586 1.89341 84 70 54
1.20279 -3.04219 1.87960 101 74 47
1.19657 -3.05589 1.88663 106 83 53
1.18308 -3.08246 1.90061 130 105 60
1.15255 -3.07278 1.90447 144 122 75
1.13625 -3.08560 1.89675 158 146 114
1.15574 -3.09571 1.91279 157 135 93
0.30274 -4.19417 2.56549 84 94 106
0.28549 -4.20774 2.55733 24 20 41
0.24106 -4.11100 2.54797 39 44 64
0.22420 -4.12426 2.53999 10 11 13
0.11216 -3.98814 2.53164 39 54 43
0.12835 -3.97541 2.53930 6 7 11
0.12256 -3.97859 2.52521 12 7 13
0.11676 -3.98177 2.51111 35 31 33
0.09011 -4.00483 2.54385 40 43 47
0.08086 -4.01659 2.55087 14 15 58
0.07031 -4.02585 2.55722 47 67 87
0.05645 -4.02855 2.56180 109 117 107
0.01939 -4.04522 2.57779 142 129 125
0.02398 -4.03888 2.55737 133 126 116
0.01363 -4.04838 2.56376 139 125 117
0.00552 -4.04754 2.58222 148 138 125
0.00094 -4.05387 2.60261 154 140 127
-0.00481 -4.05703 2.58861 153 142 130
3.14747 -1.95456 0.93640 191 199 217
3.14226 -1.96176 0.95959 213 211 213
3.08031 -1.95972 0.95558 189 196 215
3.05883 -1.96670 0.96382 177 184 218
3.02851 -1.97023 0.97296 211 234 242
3.01533 -1.98026 0.98028 163 170 197
3.01945 -1.99699 0.98585 92 92 118
3.00052 -2.00480 0.99376 78 82 87
2.98733 -2.01483 1.00109 89 88 90
2.96856 -2.02263 1.00897 94 101 109
2.95053 -2.03681 1.00043 40 57 91
2.93462 -2.03955 1.02432 81 98 90
2.92274 -2.05003 1.03149 100 106 122
2.90476 -2.06418 1.02297 100 106 121
2.82086 -2.08443 1.07109 120 119 133
2.82593 -2.07742 1.04850 113 118 132
2.82920 -2.10338 1.07645 91 87 113
2.81130 -2.11746 1.06798 91 97 96
2.81605 -2.11323 1.08370 98 103 119
2.81933 -2.13018 1.08956 111 111 134
2.85381 -2.16082 1.09286 117 129 147
2.87079 -2.18407 1.09772 140 152 163
2.87475 -2.20176 1.10369 129 142 154
2.88496 -2.22234 1.10922 123 104 131
2.88810 -2.23988 1.11535 113 133 166
2.89820 -2.26068 1.12099 136 134 160
2.96092 -2.30561 1.12273 174 189 200
2.96472 -2.35753 1.14227 185 189 205
2.97012 -2.35007 1.11825 178 184 201
2.95794 -2.36125 1.12578 181 186 202
2.96890 -2.37638 1.14866 192 197 209
2.97139 -2.39456 1.15520 200 206 217
2.97035 -2.41115 1.16202 206 212 223
2.96491 -2.41867 1.18625 213 219 226
2.95807 -2.42243 1.16961 211 217 224
2.80748 -2.83203 1.36990 232 232 236
2.78761 -2.84766 1.36050 231 234 238
1.70806 -2.32884 1.45175 213 216 216
1.71252 -2.32268 1.43191 216 220 222
1.70246 -2.33192 1.43812 213 217 219
1.69087 -2.33364 1.45804 202 201 194
1.67767 -2.34087 1.46427 127 118 113
1.67177 -2.35269 1.47044 45 39 48
1.66818 -2.38168 1.48281 38 34 39
1.66444 -2.39503 1.48904 27 22 23
1.65996 -2.40122 1.50898 22 21 22
1.65433 -2.40431 1.49529 23 21 18
1.64871 -2.40740 1.48160 26 23 20
1.20189 -3.03054 1.85824 150 132 91
1.18295 -3.03216 1.86371 160 146 94
1.17621 -3.04529 1.87062 165 149 111
1.15265 -3.04236 1.87547 168 153 123
1.13643 -3.05511 1.86779 140 128 121
1.16189 -3.07090 1.88439 168 152 109
1.14557 -3.08374 1.87666 137 127 113
1.15008 -3.07925 1.89071 165 152 108
1.14085 -3.11005 1.90523 155 139 113
1.13499 -3.11327 1.89097 132 123 109
1.12447 -3.12293 1.89748 136 124 110
0.30705 -4.18629 2.54335 88 99 115
0.32429 -4.17273 2.55151 89 98 114
0.31812 -4.17611 2.53650 88 98 118
0.31195 -4.17950 2.52149 88 101 119
0.29599 -4.19651 2.55021 66 78 92
0.27875 -4.21007 2.54204 17 11 24
0.10757 -3.99361 2.51814 73 85 75
0.09519 -3.99938 2.52358 55 44 69
0.08612 -4.01150 2.53068 17 5 15
0.06993 -4.02423 2.52302 5 3 7
0.07539 -4.02040 2.53694 8 2 22
0.06480 -4.02958 2.54327 6 21 36
0.05366 -4.03766 2.54931 55 78 89
0.03957 -4.03984 2.55377 110 119 122
-0.00139 -4.04835 2.56758 142 127 120
0.00318 -4.04202 2.54721 134 127 115
-0.00714 -4.05150 2.55359 138 125 108
-0.01514 -4.05078 2.57206 148 138 131
-0.01970 -4.05709 2.59239 154 142 131
-0.02544 -4.06024 2.57843 153 142 131
3.13136 -1.95460 0.92154 170 175 209
3.07119 -1.96230 0.94008 156 170 206
3.05306 -1.97656 0.93150 205 225 238
3.05399 -1.97088 0.94788 191 203 225
3.02694 -1.97565 0.95673 198 217 230
3.01261 -1.98524 0.96419 130 136 170
3.02088 -2.00363 0.96927 83 86 108
2.99874 -2.01019 0.97755 76 77 101
2.97829 -2.01736 0.98564 101 109 111
2.96368 -2.02680 0.99311 100 102 113
2.94565 -2.04098 0.98457 44 61 88
2.93509 -2.04588 1.00797 83 98 94
2.91707 -2.06005 0.99944 99 103 114
2.91894 -2.05464 1.01557 99 105 115
2.90095 -2.06879 1.00705 97 102 123
2.79806 -2.08097 1.05708 123 122 130
2.80311 -2.07398 1.03457 114 115 133
2.80199 -2.09800 1.06275 109 108 109
2.81037 -2.13260 1.07416 102 109 122
2.81909 -2.15203 1.07953 113 114 133
2.84868 -2.18079 1.08318 125 131 145
2.86235 -2.20275 1.08827 133 141 151
2.88353 -2.22824 1.09280 97 91 134
2.88129 -2.24341 1.09932 109 123 135
2.88433 -2.26103 1.10545 110 98 130
2.96272 -2.31320 1.10569 156 170 187
2.96541 -2.33112 1.11203 176 185 198
2.94652 -2.34597 1.10309 172 180 195
2.96244 -2.38028 1.13208 188 190 205
2.96785 -2.37280 1.10797 175 181 199
2.96626 -2.39911 1.13848 195 199 215
2.96662 -2.41639 1.14516 202 207 220
2.96794 -2.43422 1.15182 209 214 222
2.96248 -2.44177 1.17613 212 218 226
2.95562 -2.44554 1.15943 214 218 226
2.82837 -2.83303 1.34424 250 251 250
2.83404 -2.82519 1.31898 249 250 251
2.82124 -2.83695 1.32689 252 253 252
2.81696 -2.84561 1.35212 239 238 240
2.79702 -2.86129 1.34268 237 239 242
1.70781 -2.35077 1.44414 210 211 206
1.71228 -2.34458 1.42421 213 216 220
1.67498 -2.34576 1.45064 145 142 143
1.67785 -2.36315 1.45672 56 49 63
1.68897 -2.38590 1.46278 44 37 46
1.67319 -2.39830 1.45531 42 44 43
1.68560 -2.39954 1.46900 40 38 44
1.68343 -2.41402 1.47524 30 27 25
1.66759 -2.42647 1.46774 27 29 23
1.26430 -2.94279 1.79075 138 118 81
1.25968 -2.94918 1.81133 84 52 33
1.24935 -2.94830 1.79677 142 111 74
1.24474 -2.95468 1.81732 87 53 36
1.23314 -2.96105 1.78909 168 155 120
1.23659 -2.95574 1.80298 154 132 86
1.23198 -2.96211 1.82352 90 59 42
1.22343 -2.96278 1.80914 164 145 100
1.21882 -2.96915 1.82966 96 69 58
1.22248 -2.98102 1.81653 170 155 116
1.21522 -2.99353 1.82331 173 159 127
1.19710 -3.01529 1.83652 169 155 111
0.30074 -4.18942 2.52827 87 98 104
0.22968 -4.08896 2.50720 41 52 66
0.11375 -3.99023 2.49838 67 81 73
0.12997 -3.97749 2.50605 5 6 7
0.12417 -3.98067 2.49194 15 21 24
0.09754 -4.00298 2.49070 21 23 20
0.10122 -3.99574 2.50377 58 59 62
0.09243 -4.00839 2.51100 18 11 21
0.07622 -4.02114 2.50333 4 3 6
0.08116 -4.01629 2.51700 6 3 6
0.06496 -4.02903 2.50933 4 3 4
0.05979 -4.03431 2.52958 5 4 9
0.05400 -4.03749 2.51548 3 3 3
0.04945 -4.04398 2.53604 3 17 36
0.02353 -4.02245 2.53429 54 79 98
0.01934 -4.04432 2.54394 111 121 121
-0.02538 -4.04463 2.55560 142 128 118
-0.02083 -4.03833 2.53531 134 128 114
-0.03111 -4.04777 2.54166 139 126 112
-0.03842 -4.04833 2.56042 151 138 127
-0.04297 -4.05462 2.58068 154 142 135
-0.04869 -4.05776 2.56676 155 143 136
3.18755 -1.95105 0.88651 212 218 230
3.20596 -1.93657 0.89523 216 222 231
3.19937 -1.94019 0.87921 214 221 229
3.19279 -1.94380 0.86319 213 220 230
3.16780 -1.95897 0.89475 188 198 219
3.14942 -1.97342 0.88605 166 177 197
3.11875 -1.95593 0.90635 168 172 195
3.07412 -1.96942 0.92323 168 183 218
3.03031 -1.98298 0.93993 170 189 211
3.03503 -1.99999 0.94532 100 107 146
3.02571 -2.01161 0.95227 71 72 105
2.99769 -2.01588 0.96123 97 95 113
2.97960 -2.03011 0.95267 115 123 130
2.98092 -2.02451 0.96897 109 123 127
2.97079 -2.03577 0.97599 100 101 116
2.94437 -2.05581 0.99068 84 98 99
2.92629 -2.07002 0.98212 98 104 116
2.78102 -2.07991 1.04264 125 127 139
2.76701 -2.08924 1.04992 141 146 124
2.79987 -2.11880 1.05286 103 100 96
2.79267 -2.13121 1.05957 96 100 121
2.79444 -2.14759 1.06548 107 112 127
2.82471 -2.17664 1.06891 116 117 135
2.84686 -2.20235 1.07315 125 133 140
2.85650 -2.22268 1.07855 113 127 131
2.90824 -2.26218 1.08044 99 93 103
2.89175 -2.27104 1.08819 75 76 106
2.92285 -2.30171 1.09202 133 150 154
2.97383 -2.34184 1.09436 166 178 190
2.95718 -2.38475 1.11541 181 187 203
2.96067 -2.40345 1.12178 189 196 211
2.96258 -2.42149 1.12830 196 202 216
2.96593 -2.44033 1.13477 203 208 219
2.98336 -2.46613 1.14027 211 217 227
2.97786 -2.47373 1.16475 216 219 227
2.97095 -2.47753 1.14794 215 220 229
1.71095 -2.35934 1.43030 212 213 209
1.71543 -2.35314 1.41032 212 215 220
1.70531 -2.36244 1.41658 211 213 213
1.69518 -2.37174 1.42284 183 178 168
1.67699 -2.35362 1.43692 163 159 152
1.67789 -2.36981 1.44299 80 65 66
1.69026 -2.39343 1.44896 46 35 35
1.67446 -2.40586 1.44148 40 47 45
1.68733 -2.42333 1.46137 35 37 30
1.24572 -2.93452 1.77548 175 161 119
1.23389 -2.94277 1.78177 171 157 116
1.21757 -2.96591 1.79504 164 149 122
1.20636 -2.97471 1.80139 156 144 124
1.19713 -2.98533 1.80793 146 137 126
1.18094 -2.99806 1.80026 138 123 112
1.20082 -3.00804 1.81581 142 131 119
1.18456 -3.02083 1.80811 139 125 113
1.18999 -3.01727 1.82222 138 125 117
1.17373 -3.03006 1.81452 138 125 115
1.18326 -3.03038 1.82908 132 123 108
1.16698 -3.04318 1.82137 137 126 114
0.29687 -4.16665 2.50247 86 103 111
0.31405 -4.15314 2.51060 87 99 118
0.30791 -4.15651 2.49565 88 100 116
0.30176 -4.15989 2.48069 89 103 116
0.28610 -4.17725 2.50941 77 87 90
0.24306 -4.12814 2.50150 28 27 37
0.23329 -4.14020 2.50874 8 8 16
0.22847 -4.14686 2.53022 8 9 14
0.22241 -4.15019 2.51547 10 10 19
0.21635 -4.15352 2.50072 35 37 43
0.11884 -3.98474 2.47805 47 68 49
0.11303 -3.98793 2.46393 76 92 77
0.10942 -3.99622 2.48497 60 83 86
0.08839 -4.01500 2.49776 6 4 7
0.08259 -4.01818 2.48364 4 4 4
0.07217 -4.02775 2.49008 3 3 6
0.04409 -4.04803 2.52217 4 3 10
0.04870 -4.04166 2.50163 3 4 4
0.03829 -4.05122 2.50807 4 3 6
0.02789 -4.06077 2.51450 3 4 13
0.03423 -4.05869 2.52889 2 18 40
0.01803 -4.07143 2.52121 3 19 37
0.00393 -4.02794 2.52481 55 81 97
-0.00284 -4.04463 2.53307 110 120 121
-0.04621 -4.04714 2.54535 144 128 121
-0.04167 -4.04085 2.52511 134 128 114
-0.05193 -4.05027 2.53145 140 127 115
-0.06281 -4.04319 2.54815 150 139 128
-0.06734 -4.04946 2.56832 156 143 135
-0.07303 -4.05258 2.55446 154 143 135
3.17871 -1.95383 0.87077 206 214 227
3.05989 -1.97005 0.90832 180 189 220
3.03320 -1.97500 0.91726 198 216 233
3.02429 -1.98671 0.92413 139 151 181
3.03548 -2.00625 0.92873 90 90 120
3.02986 -2.01935 0.93527 64 60 96
2.99570 -2.02120 0.94498 114 120 111
2.97369 -2.04308 0.95923 101 105 118
2.94231 -2.04578 0.96854 52 63 97
2.94838 -2.06363 0.97384 85 98 103
2.93026 -2.07787 0.96526 100 104 118
2.82486 -2.07401 1.01037 105 109 129
2.84268 -2.05999 1.01881 100 106 124
2.83631 -2.06349 1.00329 98 106 124
2.82993 -2.06699 0.98777 102 103 112
2.83123 -2.07051 1.02589 105 112 127
2.79091 -2.07499 1.01969 117 117 136
2.77658 -2.08420 1.02702 130 136 146
2.73875 -2.08330 1.03663 143 149 159
2.73121 -2.09533 1.04327 153 150 147
2.78172 -2.13274 1.04442 107 86 110
2.77830 -2.14683 1.05077 101 104 121
2.79781 -2.17114 1.05503 110 116 126
2.77978 -2.18532 1.04649 116 120 129
2.82955 -2.20112 1.05825 117 122 131
2.81136 -2.21543 1.04964 122 125 132
2.83696 -2.22044 1.06377 125 130 128
2.93116 -2.27922 1.06168 88 90 95
2.91016 -2.28612 1.06988 34 53 60
2.92526 -2.30957 1.07496 112 136 147
2.97105 -2.34742 1.07753 158 170 183
2.96489 -2.36141 1.08456 167 178 187
2.96193 -2.37695 1.09135 170 178 194
2.96363 -2.39476 1.09778 174 182 201
2.96750 -2.41371 1.10409 184 190 209
2.97472 -2.43438 1.11017 191 199 213
2.98221 -2.45532 1.11629 197 206 215
2.99216 -2.47759 1.12228 205 212 221
3.00217 -2.50005 1.12832 212 217 227
2.99663 -2.50771 1.15300 218 222 231
2.98967 -2.51154 1.13605 217 222 230
1.68236 -2.37932 1.42915 101 85 74
1.68684 -2.37312 1.40918 195 194 182
1.70175 -2.40752 1.43494 43 36 30
1.68587 -2.42001 1.42742 40 46 46
1.69432 -2.43468 1.44739 37 39 35
1.69293 -2.44986 1.45362 26 28 26
1.68838 -2.45615 1.47387 26 24 27
1.68267 -2.45929 1.45997 24 23 22
1.67695 -2.46242 1.44606 21 21 20
1.26874 -2.94462 1.75649 155 122 97
1.27918 -2.93502 1.75003 158 131 106
1.27337 -2.93822 1.73587 170 155 131
1.25269 -2.94917 1.76248 153 121 91
1.23320 -2.95055 1.76814 150 117 98
1.21756 -2.95532 1.77410 144 117 111
1.19916 -2.95750 1.77979 135 119 109
1.18713 -2.96547 1.78604 134 122 117
1.17102 -2.97815 1.77841 134 124 102
1.17862 -2.97669 1.79261 136 122 115
1.16249 -2.98937 1.78498 136 125 109
0.29064 -4.16985 2.48747 88 104 108
0.29552 -4.16309 2.46570 90 105 120
0.29218 -4.20318 2.49995 58 67 81
0.24454 -4.14547 2.49019 19 12 15
0.22755 -4.15883 2.48214 15 20 25
0.21838 -4.12697 2.48993 5 5 12
0.20151 -4.14024 2.48194 72 80 86
0.09508 -4.01261 2.47820 8 5 5
0.07884 -4.02538 2.47051 4 5 4
-0.01717 -4.03019 2.51454 54 79 94
-0.01262 -4.02390 2.49426 4 4 9
-0.02289 -4.03334 2.50062 2 14 38
-0.02846 -4.03755 2.52036 111 120 121
-0.07510 -4.03238 2.53064 144 130 121
-0.07059 -4.02613 2.51054 136 128 110
-0.08078 -4.03549 2.51684 141 127 105
-0.09289 -4.02554 2.53268 150 138 132
-0.09738 -4.03176 2.55270 156 144 140
-0.10303 -4.03486 2.53895 156 145 138
3.17751 -1.94424 0.84826 210 218 228
3.19589 -1.92979 0.85695 211 218 229
3.18931 -1.93340 0.84096 211 218 228
3.18274 -1.93701 0.82497 211 217 229
3.17648 -1.95905 0.85421 193 205 218
3.15807 -1.97353 0.84549 168 173 194
3.12938 -1.95678 0.86587 168 174 198
3.11109 -1.97116 0.85721 164 175 199
3.09462 -1.97410 0.88175 164 181 202
3.04963 -1.97218 0.89298 194 208 220
3.04171 -1.98430 0.89974 177 193 220
3.01855 -1.99054 0.90829 112 121 161
3.03060 -2.01045 0.91272 88 91 106
3.02388 -2.02313 0.91937 87 76 92
3.00051 -2.02924 0.92793 130 148 138
2.98325 -2.03771 0.93577 120 126 138
2.97603 -2.05019 0.94248 104 109 125
2.95788 -2.06447 0.93388 64 73 104
2.96724 -2.06206 0.94937 58 71 101
2.83336 -2.08378 0.99330 107 107 124
2.83844 -2.07674 0.97064 104 103 119
2.79615 -2.08340 1.00305 119 122 133
2.77024 -2.08769 1.01159 138 142 155
2.75251 -2.10163 1.00319 151 165 165
2.74720 -2.09312 1.01980 150 161 172
2.74047 -2.10557 1.02636 163 167 176
2.75750 -2.12845 1.03061 119 128 135
2.76779 -2.14854 1.03558 99 97 100
2.78081 -2.16999 1.04034 108 117 121
2.85618 -2.25184 1.05169 109 117 106
2.86141 -2.24460 1.02836 122 127 137
2.87053 -2.27469 1.05663 36 35 50
2.90390 -2.30648 1.05995 103 121 137
2.96931 -2.35348 1.06058 152 163 176
2.96316 -2.36751 1.06760 163 170 182
2.95807 -2.38208 1.07454 166 173 190
2.95790 -2.39903 1.08109 166 177 194
2.96552 -2.41980 1.08703 177 183 200
2.97953 -2.44378 1.09250 185 195 210
2.98909 -2.46580 1.09840 194 203 212
3.00034 -2.48879 1.10423 202 209 217
3.01103 -2.51167 1.11016 209 214 224
3.01573 -2.53175 1.11661 214 220 229
3.01015 -2.53946 1.14145 220 224 232
3.00314 -2.54331 1.12439 220 226 233
1.68042 -2.38477 1.41536 117 107 87
1.68490 -2.37857 1.39537 201 202 191
1.70328 -2.41528 1.42098 43 39 32
1.68737 -2.42779 1.41344 43 43 44
1.69144 -2.43965 1.43347 36 38 38
1.68461 -2.45129 1.43976 24 24 28
1.66865 -2.46385 1.43220 21 21 20
1.54869 -2.67408 1.56135 27 25 16
1.56493 -2.66131 1.56903 34 28 20
1.55912 -2.66450 1.55490 29 26 17
1.55450 -2.67089 1.57548 33 27 20
1.54407 -2.68047 1.58193 32 29 20
1.52596 -2.67443 1.56753 26 26 14
1.52136 -2.68080 1.58803 35 30 24
1.51557 -2.68397 1.57395 28 24 11
1.25244 -2.93842 1.74152 188 175 135
1.21199 -2.92088 1.74555 203 196 162
1.18987 -2.91963 1.75095 211 210 170
1.18346 -2.93261 1.75763 198 192 127
1.18457 -2.95255 1.76499 151 131 63
1.17160 -2.95959 1.77113 136 119 100
0.28392 -4.17217 2.47227 89 101 107
0.28880 -4.16541 2.45050 92 107 118
0.27064 -4.17815 2.47809 35 41 62
0.25349 -4.19164 2.46997 11 10 9
0.23516 -4.14266 2.47392 13 9 6
0.21820 -4.15601 2.46588 43 64 45
-0.03984 -4.02895 2.50344 55 76 98
-0.03530 -4.02267 2.48323 4 4 11
-0.04554 -4.03208 2.48956 3 16 39
-0.05531 -4.02743 2.50697 111 118 117
-0.10374 -4.01752 2.51605 143 128 121
-0.09926 -4.01133 2.49609 137 127 109
-0.10937 -4.02062 2.50234 140 126 110
-0.12205 -4.00914 2.51771 149 139 132
-0.12651 -4.01531 2.53758 157 147 138
-0.13212 -4.01839 2.52393 156 146 137
-0.13773 -4.02147 2.51028 153 140 132
3.18733 -1.95387 0.83015 207 212 223
3.19258 -1.94661 0.80679 211 216 227
3.15561 -1.95738 0.84001 179 188 204
3.13725 -1.97181 0.83132 165 176 196
3.09208 -1.97919 0.86538 169 185 212
3.03912 -1.98936 0.88347 154 168 198
3.03753 -2.00398 0.88946 103 110 143
3.02882 -2.01588 0.89633 91 97 98
3.01952 -2.02755 0.90327 86 84 94
3.00081 -2.03551 0.91133 132 150 151
2.98709 -2.04541 0.91878 121 128 142
2.97960 -2.05782 0.92552 104 109 127
2.96141 -2.07212 0.91691 68 73 100
2.95372 -2.07825 0.94025 90 98 113
2.93554 -2.09255 0.93164 100 107 113
2.84845 -2.09638 0.97542 104 106 124
2.85356 -2.08931 0.95266 101 105 116
2.81352 -2.09701 0.98504 117 123 132
2.74517 -2.08313 0.99812 143 153 164
2.72248 -2.10396 1.01215 149 159 161
2.72885 -2.12216 1.01736 142 144 135
2.75128 -2.14759 1.02101 105 101 101
2.76219 -2.16809 1.02589 106 114 123
2.80453 -2.20287 1.02775 119 125 129
2.83780 -2.25008 1.03679 129 126 131
2.88815 -2.28946 1.03825 58 58 107
2.88453 -2.30428 1.04487 98 110 124
2.95512 -2.35376 1.04474 144 155 170
2.95607 -2.37110 1.05108 157 162 178
2.95218 -2.38625 1.05789 161 170 182
2.95614 -2.40519 1.06404 163 172 187
2.95655 -2.42254 1.07053 169 175 190
2.97316 -2.44782 1.07569 177 186 195
2.99348 -2.47511 1.08062 188 198 210
3.00769 -2.49963 1.08613 197 205 217
3.01759 -2.52220 1.09207 205 212 221
3.02109 -2.54176 1.09857 212 217 226
3.02164 -2.55995 1.10535 219 225 232
3.01604 -2.56771 1.13032 224 228 236
3.00899 -2.57158 1.11317 225 229 237
1.67659 -2.38903 1.40159 133 130 113
1.68108 -2.38282 1.38159 202 204 199
1.66082 -2.40143 1.39412 73 63 62
1.69740 -2.41828 1.40713 51 47 46
1.67693 -2.45313 1.42590 25 26 28
1.66098 -2.46568 1.41834 21 21 16
1.55456 -2.65134 1.53421 34 16 5
1.57075 -2.63861 1.54188 34 28 19
1.56496 -2.64179 1.52778 33 18 7
1.55916 -2.64497 1.51368 55 37 21
1.56035 -2.64816 1.54831 33 28 15
1.54674 -2.66281 1.54067 33 12 7
1.52018 -2.67761 1.55344 36 12 6
1.50893 -2.68651 1.55985 41 16 4
1.50433 -2.69287 1.58035 32 17 14
1.49855 -2.69605 1.56627 53 38 14
1.48089 -2.70001 1.57252 71 54 30
1.48666 -2.69684 1.58657 31 14 11
1.47630 -2.70636 1.59298 32 11 8
1.26055 -2.93516 1.72121 243 245 222
1.27678 -2.92240 1.72890 155 134 130
1.26516 -2.92877 1.70064 243 246 248
1.25474 -2.93835 1.70708 241 246 246
1.24431 -2.94793 1.71353 238 242 243
1.23664 -2.93261 1.72667 242 245 224
1.22047 -2.94532 1.71901 236 240 241
1.20623 -2.92402 1.73156 240 244 230
1.19017 -2.93665 1.72396 239 242 241
1.18798 -2.92627 1.73732 243 246 229
1.16456 -2.92368 1.74263 232 229 191
1.13840 -2.91841 1.74765 180 162 114
1.15118 -2.94912 1.75590 137 116 90
1.13957 -2.95729 1.76213 132 123 103
1.12930 -2.96672 1.76848 134 126 109
0.28372 -4.18651 2.45989 85 87 95
0.26650 -4.20005 2.45174 23 8 16
0.24974 -4.15409 2.45668 25 21 29
0.23270 -4.16750 2.44862 33 33 35
-0.07644 -3.99818 2.48495 56 73 93
-0.07195 -3.99197 2.46496 4 5 8
-0.08208 -4.00127 2.47122 3 16 34
-0.07976 -4.02187 2.49486 114 117 117
3.17244 -1.95443 0.81520 200 205 218
3.13906 -1.95728 0.82533 171 177 200
3.12073 -1.97168 0.81666 163 175 198
3.10311 -1.97421 0.84148 167 177 199
3.08023 -1.98076 0.85016 185 195 221
3.06065 -1.98850 0.85840 186 205 226
3.04047 -1.99596 0.86669 129 139 166
3.02229 -2.01026 0.85808 100 102 94
3.03933 -2.01079 0.87260 99 99 114
3.02763 -2.02154 0.87984 95 92 106
3.00668 -2.02863 0.88820 75 72 109
3.01390 -2.04689 0.89314 127 144 139
2.99517 -2.05484 0.90122 122 127 144
2.98222 -2.06509 0.90861 106 107 122
2.96400 -2.07942 0.89998 73 73 96
2.87433 -2.11361 0.95620 100 105 116
2.87947 -2.10650 0.93328 101 107 118
2.86786 -2.11717 0.94046 102 105 119
2.84296 -2.11584 0.96555 116 124 124
2.78254 -2.10542 0.97801 131 147 153
2.73036 -2.09826 0.98946 139 155 155
2.73247 -2.11457 0.99504 135 141 149
2.72250 -2.12564 1.00193 126 129 126
2.73066 -2.14477 1.00695 101 108 111
2.73855 -2.16392 1.01204 101 103 119
2.80524 -2.20968 1.01123 121 130 134
2.81745 -2.23124 1.01606 127 134 140
2.83420 -2.25504 1.02051 131 134 136
2.88689 -2.29559 1.02153 84 100 114
2.88838 -2.31283 1.02763 88 91 94
2.93406 -2.35081 1.02959 133 144 159
2.93687 -2.36900 1.03570 151 157 169
2.94006 -2.38747 1.04181 156 164 175
2.92105 -2.40242 1.03281 157 162 175
2.94813 -2.40838 1.04752 160 166 181
2.95821 -2.43040 1.05310 163 168 185
2.97998 -2.45825 1.05772 170 178 190
3.00027 -2.48562 1.06255 180 187 202
3.02274 -2.51429 1.06729 191 199 213
3.02810 -2.53474 1.07355 200 209 218
3.01932 -2.54825 1.08104 210 214 224
3.01871 -2.56589 1.08787 217 221 230
3.01456 -2.58184 1.09502 225 230 238
3.00895 -2.58961 1.12005 230 233 241
2.99482 -2.59737 1.08567 236 239 243
2.81221 -2.98213 1.30111 238 241 243
2.83256 -2.96613 1.31074 241 243 246
2.82528 -2.97013 1.29303 243 246 248
2.81800 -2.97413 1.27532 246 249 250
2.81949 -2.97814 1.31882 235 239 241
2.80643 -2.99014 1.32690 228 233 234
2.79961 -2.99442 1.30917 229 232 234
2.79382 -3.00243 1.33496 221 226 228
2.78832 -3.00753 1.31718 219 224 226
2.78253 -3.01554 1.34299 216 220 224
2.77524 -3.01954 1.32527 212 217 222
2.76796 -3.02353 1.30755 209 214 219
1.68934 -2.43589 1.39940 45 39 38
1.69387 -2.42962 1.37919 92 77 68
1.66749 -2.45381 1.41209 28 28 23
1.65155 -2.46634 1.40454 18 19 17
1.54630 -2.65270 1.52009 73 54 22
1.55090 -2.64633 1.49958 155 138 91
1.54051 -2.65588 1.50601 164 150 99
1.53012 -2.66542 1.51243 175 158 99
1.50261 -2.63746 1.52619 97 66 26
1.48671 -2.64271 1.53249 116 84 46
1.44860 -2.63116 1.53846 134 109 64
1.42005 -2.62658 1.54448 148 123 73
1.41975 -2.64341 1.55092 155 140 79
1.41143 -2.65417 1.55724 167 156 103
1.15120 -2.91978 1.72816 237 238 226
1.15573 -2.91352 1.70798 238 240 241
1.13297 -2.92175 1.73385 203 194 161
1.12833 -2.93629 1.74060 140 115 80
1.11494 -2.94270 1.74665 124 114 99
1.10360 -2.95099 1.75286 129 122 110
1.09908 -2.95724 1.77299 135 127 118
1.09340 -2.96036 1.75916 132 125 117
0.29043 -4.18306 2.43883 98 112 114
0.30767 -4.16951 2.44699 93 105 121
0.30150 -4.17290 2.43199 95 112 123
0.29534 -4.17628 2.41699 100 116 132
0.28427 -4.18645 2.42383 105 118 120
0.31827 -4.26520 2.46231 77 71 79
0.30074 -4.27899 2.45401 28 21 29
-0.09734 -3.99970 2.47477 54 75 87
-0.09286 -3.99351 2.45483 3 7 10
-0.10296 -4.00279 2.46108 4 15 37
-0.11306 -4.01207 2.46732 54 74 98
-0.10599 -4.01207 2.48179 114 118 117
-0.11610 -4.02136 2.48804 139 126 113
3.18756 -1.95081 0.79053 209 214 222
3.20600 -1.93632 0.79926 212 215 227
3.19941 -1.93994 0.78321 214 216 223
3.19281 -1.94356 0.76716 212 215 223
3.16725 -1.95856 0.79899 187 193 211
3.14885 -1.97303 0.79028 164 175 192
3.14393 -1.96513 0.80785 167 172 194
3.10256 -1.98007 0.82478 169 185 209
3.07620 -1.98529 0.83396 196 214 229
3.06320 -1.99556 0.84137 167 180 206
3.03280 -1.99908 0.85102 103 112 144
3.03260 -2.02964 0.86253 123 121 94
3.02007 -2.04010 0.86988 74 103 134
3.01452 -2.05334 0.87636 122 130 137
3.00223 -2.06390 0.88369 122 130 138
2.98170 -2.07111 0.89201 104 106 115
2.96346 -2.08546 0.88337 82 71 89
2.73194 -2.12059 0.97898 111 122 127
2.71384 -2.12810 0.98675 107 114 121
2.70616 -2.14019 0.99339 98 102 115
2.71256 -2.15864 0.99855 90 93 121
2.77295 -2.20160 0.99811 111 120 134
2.83167 -2.24428 0.99802 130 140 149
2.81989 -2.25510 1.00530 140 146 147
2.85189 -2.28616 1.00818 96 101 109
2.84474 -2.29929 1.01506 52 50 77
2.90747 -2.34522 1.01509 114 133 149
2.92171 -2.36876 1.02001 144 151 168
2.90279 -2.38364 1.01105 151 158 165
2.93265 -2.39092 1.02532 152 159 169
2.91364 -2.40587 1.01631 156 161 170
2.96409 -2.44033 1.03522 158 165 182
2.95721 -2.44410 1.01848 156 163 176
2.98702 -2.46883 1.03963 163 169 187
3.01149 -2.49835 1.04398 173 179 196
3.03000 -2.52518 1.04897 183 191 209
3.03830 -2.54716 1.05494 195 203 213
3.02867 -2.56031 1.06250 206 210 220
3.02623 -2.57711 1.06947 215 220 230
3.01357 -2.58880 1.07732 225 232 238
2.80325 -2.98509 1.28347 241 243 245
2.80903 -2.97709 1.25769 248 251 251
2.78930 -2.99654 1.29158 230 232 234
2.77679 -3.00888 1.29964 217 221 224
1.68563 -2.44033 1.38546 44 37 35
1.69017 -2.43405 1.36524 103 89 78
1.67263 -2.44793 1.39187 37 43 40
1.66165 -2.45684 1.39822 26 29 23
1.62381 -2.49656 1.42347 26 15 10
1.63976 -2.48402 1.43102 28 22 21
1.63405 -2.48715 1.41714 24 18 17
1.62952 -2.49343 1.43736 27 23 19
1.61927 -2.50284 1.44369 24 22 17
1.61267 -2.50536 1.42982 27 13 10
1.60813 -2.51163 1.45003 24 22 14
1.59672 -2.51790 1.42227 98 63 27
1.60100 -2.51378 1.43618 29 12 7
1.59646 -2.52005 1.45638 23 22 15
1.58506 -2.52631 1.42863 116 85 53
1.46477 -2.63367 1.51843 177 158 105
1.46930 -2.62741 1.49824 165 151 118
1.44027 -2.63227 1.52462 178 153 109
1.42463 -2.63747 1.53085 179 150 111
1.41182 -2.64479 1.53710 177 144 117
1.40576 -2.65728 1.54345 172 148 136
1.39461 -2.66587 1.54972 169 153 145
1.39620 -2.71934 1.56933 197 187 169
1.41219 -2.70677 1.57690 181 151 104
1.40647 -2.70991 1.56298 188 174 143
1.40192 -2.71620 1.58324 179 146 119
1.39165 -2.72563 1.58959 174 136 115
1.42153 -2.75717 1.57657 212 199 186
1.41693 -2.76353 1.59705 167 135 109
1.40580 -2.76240 1.58284 221 213 188
1.40121 -2.76875 1.60329 159 140 125
1.39544 -2.77192 1.58924 230 225 206
1.38966 -2.77509 1.57520 252 252 248
1.13727 -2.91531 1.71371 241 243 238
1.14179 -2.90906 1.69359 243 247 247
1.11843 -2.91664 1.71937 226 220 192
1.12154 -2.93839 1.72667 161 138 107
1.09678 -2.93408 1.73184 115 94 83
1.08995 -2.94657 1.73839 118 113 103
1.08136 -2.95741 1.74481 126 119 111
1.07685 -2.96365 1.76490 135 125 119
1.07118 -2.96676 1.75110 132 122 114
0.32047 -4.28437 2.45062 71 71 65
0.32547 -4.27744 2.42831 111 126 126
-0.24450 -3.87774 2.45298 148 142 131
-0.22949 -3.86593 2.46009 150 141 130
-0.23486 -3.86888 2.44702 144 128 123
-0.24023 -3.87183 2.43395 142 128 116
-0.24877 -3.88365 2.47201 157 153 140
3.19204 -1.95851 0.77293 200 206 223
3.16874 -1.96517 0.78185 170 180 211
3.15030 -1.97967 0.77312 162 173 191
3.12288 -1.97856 0.79952 166 176 197
3.10091 -1.98553 0.80818 178 189 215
3.07886 -1.99240 0.81684 191 212 231
3.03241 -2.00503 0.83439 95 101 112
3.04094 -2.02369 0.83897 105 111 101
3.05918 -2.04632 0.84234 151 162 125
3.03104 -2.05065 0.85173 96 113 141
3.02526 -2.06386 0.85825 120 120 128
3.02610 -2.07979 0.86394 124 135 149
3.00771 -2.09425 0.85523 84 95 119
2.99368 -2.08224 0.87382 99 110 116
2.95447 -2.09735 0.89028 98 102 106
2.94927 -2.10453 0.91342 102 105 114
2.94274 -2.10812 0.89753 101 104 116
2.93621 -2.11171 0.88164 96 105 123
2.71127 -2.13325 0.97091 96 102 116
2.70367 -2.14540 0.97753 91 93 110
2.70084 -2.15972 0.98364 87 88 102
2.69950 -2.17478 0.98961 81 84 102
2.83679 -2.25322 0.98080 123 137 159
2.83333 -2.28426 0.99331 110 109 110
2.80773 -2.28874 1.00205 38 29 49
2.82919 -2.31526 1.00598 99 115 128
2.90720 -2.36881 1.00432 141 148 168
2.88830 -2.38366 0.99537 150 156 163
2.98951 -2.47723 1.02187 158 164 180
2.99503 -2.46960 0.99727 156 161 171
2.98257 -2.48105 1.00498 155 162 174
3.01760 -2.50861 1.02577 166 172 193
3.03269 -2.53385 1.03098 175 185 202
3.04559 -2.55819 1.03646 188 196 212
3.03721 -2.57202 1.04393 202 208 215
3.02832 -2.58563 1.05145 212 220 227
3.00703 -2.59296 1.06006 225 231 236
2.99930 -2.60717 1.06748 235 239 241
2.98659 -2.61885 1.07534 241 243 246
2.77860 -2.97840 1.26659 243 246 246
2.78437 -2.97042 1.24091 246 248 248
2.76857 -2.99220 1.27450 231 233 234
2.75720 -3.00519 1.28248 213 217 223
2.74826 -3.01973 1.29036 203 209 216
2.74249 -3.02772 1.31609 203 209 213
2.74027 -3.03490 1.29821 198 204 210
2.73449 -3.04290 1.32397 198 203 209
2.72722 -3.04689 1.30628 193 200 204
2.71994 -3.05088 1.28859 188 195 200
1.67074 -2.43746 1.37188 41 30 32
1.67527 -2.43119 1.35171 113 104 108
1.65483 -2.44997 1.36435 75 52 44
1.66314 -2.44857 1.37811 37 30 33
1.64722 -2.46109 1.37058 102 74 39
1.65369 -2.45848 1.38441 33 20 16
1.63776 -2.47100 1.37687 113 84 53
1.64846 -2.47121 1.39060 30 13 13
1.64392 -2.47749 1.41081 20 19 21
1.63251 -2.48375 1.38305 127 104 69
1.63180 -2.49262 1.40317 42 30 22
1.62609 -2.49576 1.38927 137 121 81
1.61583 -2.50518 1.39561 149 133 81
1.61242 -2.51223 1.41582 80 49 11
1.59645 -2.52479 1.40826 175 152 90
1.45677 -2.63507 1.50456 157 140 118
1.46130 -2.62880 1.48439 154 135 117
1.40392 -2.62909 1.51696 202 199 175
1.38476 -2.63144 1.52313 215 205 189
1.37031 -2.63735 1.52933 224 219 206
1.36132 -2.64746 1.53557 226 226 213
1.34923 -2.67237 1.54818 240 239 218
1.33349 -2.68475 1.54073 251 253 251
1.33384 -2.67747 1.55433 244 243 229
1.31813 -2.68983 1.54689 252 253 253
1.12538 -2.91268 1.69948 244 246 244
1.10979 -2.91698 1.70539 239 237 225
1.09391 -2.92094 1.71125 191 174 158
1.08634 -2.93268 1.71771 110 75 80
1.08006 -2.94566 1.72428 103 94 97
1.07548 -2.96033 1.73100 117 111 107
1.07705 -2.98098 1.73825 128 118 111
1.07253 -2.98724 1.75841 137 123 117
1.06684 -2.99037 1.74456 138 121 113
1.14768 -3.27361 1.82754 128 122 109
1.16459 -3.26031 1.83554 137 127 115
1.15854 -3.26363 1.82082 139 126 114
1.15373 -3.27028 1.84225 137 126 111
1.14287 -3.28026 1.84896 135 124 109
1.13587 -3.28258 1.83414 114 114 107
1.13106 -3.28923 1.85556 134 124 112
1.12887 -3.29659 1.84129 121 119 111
1.12406 -3.30325 1.86274 135 125 108
1.11800 -3.30658 1.84801 132 124 110
0.33029 -4.31786 2.44201 84 90 67
0.33533 -4.31089 2.41954 116 135 147
0.27167 -4.39947 2.48857 107 88 59
0.26660 -4.40648 2.51114 25 11 5
0.26023 -4.40997 2.49564 47 26 14
0.21881 -4.36113 2.48894 20 11 8
0.22510 -4.35768 2.50422 12 10 8
0.21382 -4.36804 2.51119 9 11 11
0.20754 -4.37149 2.49591 11 11 8
-0.27554 -3.85334 2.43684 149 143 135
3.19875 -1.95177 0.74930 206 212 223
3.21724 -1.93724 0.75805 211 213 222
3.21062 -1.94087 0.74196 209 213 222
3.20401 -1.94450 0.72587 208 213 223
3.16988 -1.97167 0.76470 166 172 194
3.12454 -1.98528 0.78239 167 179 197
3.09785 -1.99045 0.79175 191 205 222
3.08875 -2.00230 0.79866 177 191 217
3.05838 -2.00592 0.80848 117 117 153
3.05556 -2.03560 0.82022 126 124 129
3.07688 -2.05955 0.82311 168 183 175
3.05314 -2.06570 0.83201 110 117 145
3.04463 -2.09359 0.84467 124 132 151
3.02615 -2.10813 0.83592 69 74 118
2.97632 -2.09703 0.86502 85 72 90
2.96977 -2.10063 0.84908 86 97 106
2.95801 -2.11144 0.85635 98 105 108
2.70924 -2.15423 0.96072 85 87 103
2.69145 -2.16822 0.95230 78 81 91
2.69315 -2.17829 0.97410 71 77 90
2.75937 -2.22438 0.97261 103 109 115
2.81287 -2.28145 0.97872 125 126 129
2.80115 -2.29236 0.98602 61 40 59
2.80385 -2.31008 0.99181 90 91 105
2.89754 -2.37114 0.98817 137 146 164
2.87866 -2.38599 0.97923 147 156 164
3.02382 -2.51897 1.00745 160 167 182
3.02940 -2.51125 0.98258 151 159 171
3.03238 -2.54106 1.01320 168 180 192
3.04506 -2.56535 1.01863 180 190 200
3.04783 -2.58483 1.02504 195 202 213
3.02556 -2.59172 1.03381 204 212 223
3.00835 -2.60113 1.04208 218 223 230
3.00339 -2.61681 1.04925 229 234 240
2.99116 -2.62878 1.05709 235 239 244
2.98552 -2.63659 1.08224 245 248 250
2.97842 -2.64048 1.06497 240 243 246
2.97132 -2.64438 1.04769 236 240 244
2.75394 -2.97162 1.24985 242 243 245
2.75968 -2.96368 1.22426 243 244 246
2.74152 -2.98388 1.25784 225 228 232
2.73937 -3.00256 1.26533 205 210 217
2.72759 -3.01526 1.27331 196 202 209
2.72412 -3.03326 1.28092 192 198 204
2.70384 -3.04921 1.27132 184 191 194
1.66951 -2.44351 1.35786 54 36 56
1.67404 -2.43724 1.33767 119 118 137
1.65358 -2.45604 1.35032 132 115 89
1.59633 -2.57473 1.42672 179 162 129
1.61244 -2.56206 1.43435 126 100 60
1.60667 -2.56523 1.42032 180 162 120
1.60091 -2.56839 1.40630 158 142 129
1.60209 -2.57157 1.44075 136 119 71
1.59174 -2.58107 1.44714 148 134 91
1.58658 -2.58466 1.43311 178 160 131
1.58200 -2.59100 1.45353 158 142 98
1.57623 -2.59417 1.43951 174 159 129
1.56912 -2.62305 1.45215 165 149 128
1.57951 -2.61350 1.44572 169 156 129
1.56333 -2.62622 1.43807 154 136 125
1.56452 -2.62941 1.47265 180 161 117
1.55873 -2.63259 1.45857 160 145 128
1.55295 -2.63577 1.44449 153 136 127
1.44631 -2.63459 1.49071 149 131 123
1.45083 -2.62833 1.47056 155 136 121
1.41651 -2.62906 1.49699 180 167 160
1.37420 -2.61374 1.50316 229 237 226
1.36950 -2.62710 1.50940 230 227 218
1.35935 -2.63629 1.51562 223 222 223
1.35168 -2.64740 1.52187 220 224 226
1.33600 -2.65974 1.51444 215 217 220
1.33955 -2.65504 1.52807 235 238 240
1.33731 -2.67048 1.53440 245 249 246
1.11055 -2.88862 1.67822 237 250 253
1.10922 -2.90606 1.68503 232 248 249
1.10084 -2.91701 1.69141 224 237 230
1.08824 -2.92402 1.69751 190 188 169
1.08410 -2.93901 1.70420 111 94 88
1.06829 -2.95144 1.69671 95 80 66
1.07684 -2.95109 1.71069 98 82 80
1.07117 -2.96474 1.71731 106 99 95
1.07105 -3.00312 1.73150 128 119 102
1.06651 -3.00940 1.75173 138 124 115
1.14982 -3.26419 1.80584 136 125 110
1.16671 -3.25091 1.81383 135 126 115
1.16066 -3.25423 1.79913 134 124 115
1.15462 -3.25755 1.78443 134 122 110
1.13434 -3.26935 1.81206 99 91 80
1.11789 -3.27343 1.81816 53 48 63
1.10848 -3.30623 1.83289 120 119 111
1.10367 -3.31288 1.85432 135 124 107
1.09763 -3.31620 1.83960 133 124 113
0.34762 -4.36562 2.43630 116 128 125
0.35272 -4.35857 2.41360 130 151 167
0.31458 -4.33561 2.43446 97 98 88
0.32229 -4.38233 2.44954 54 50 74
0.30440 -4.39640 2.44107 21 24 26
0.33382 -4.43691 2.46646 30 25 23
0.32996 -4.46251 2.47699 18 22 27
0.28326 -4.40515 2.46886 87 94 78
0.26863 -4.40949 2.47455 100 87 73
0.23824 -4.38266 2.47314 69 54 35
0.20996 -4.35947 2.47248 53 33 24
0.19385 -4.36012 2.47722 26 14 11
0.18261 -4.37044 2.48417 16 13 14
3.20080 -1.95858 0.73193 199 208 220
3.15732 -1.97307 0.74950 165 172 186
3.14137 -1.98241 0.75741 163 173 191
3.11397 -1.98738 0.76696 173 185 207
3.09344 -1.99487 0.77549 194 213 229
3.07197 -2.00196 0.78414 154 164 193
3.05167 -2.00944 0.79260 96 104 137
3.04129 -2.02075 0.79967 92 95 115
3.07352 -2.06447 0.80658 172 182 187
3.06840 -2.07808 0.81301 116 120 150
2.69385 -2.20081 0.96355 64 75 99
2.69894 -2.19378 0.94088 70 75 87
2.81092 -2.28723 0.96218 137 141 141
2.77630 -2.28740 0.97200 95 78 72
2.77561 -2.30347 0.97808 73 74 88
2.89979 -2.37914 0.97077 126 145 157
3.02409 -2.52643 0.98963 154 160 175
3.02968 -2.51870 0.96473 149 159 165
3.01706 -2.53029 0.97253 150 158 167
3.02377 -2.54415 0.99621 159 167 183
3.04504 -2.57278 1.00070 175 182 196
3.04813 -2.59247 1.00703 187 197 210
3.02791 -2.60042 1.01564 197 208 216
3.01012 -2.60956 1.02401 209 218 228
3.00605 -2.62575 1.03108 222 228 238
2.99317 -2.63741 1.03898 230 234 242
2.97329 -2.65304 1.02957 232 236 243
2.70305 -2.94855 1.23469 244 243 245
2.70874 -2.94068 1.20933 246 248 250
2.72896 -2.98452 1.24055 216 218 231
2.70939 -2.99226 1.24890 188 193 209
2.70456 -3.00927 1.25649 184 192 203
2.70662 -3.03073 1.26376 186 195 200
2.68638 -3.04664 1.25418 179 186 194
1.58390 -2.57317 1.41285 153 139 132
1.58848 -2.56684 1.39246 147 129 118
1.57815 -2.57633 1.39885 146 131 118
1.56782 -2.58582 1.40523 148 133 119
1.57661 -2.58482 1.41917 154 138 128
1.56051 -2.59748 1.41155 151 136 120
1.57015 -2.59711 1.42548 154 139 125
1.55404 -2.60978 1.41786 154 138 120
1.43460 -2.63314 1.47690 150 135 124
1.43911 -2.62690 1.45679 157 137 125
1.40395 -2.62688 1.48325 175 163 160
1.36337 -2.61279 1.48954 233 245 247
1.35775 -2.62543 1.49575 240 239 238
1.34808 -2.63495 1.50196 232 234 237
1.34218 -2.64744 1.50819 220 223 227
1.31904 -2.66352 1.52061 223 228 233
1.30029 -2.68308 1.53305 247 250 251
1.29023 -2.69232 1.53927 252 253 253
1.18964 -2.78469 1.60145 250 254 254
1.20530 -2.77237 1.60886 250 252 252
1.19970 -2.77545 1.59523 251 253 254
1.19524 -2.78161 1.61508 250 252 252
1.18519 -2.79085 1.62130 250 251 252
1.18318 -2.79706 1.60780 249 253 253
1.17872 -2.80323 1.62767 249 250 252
1.17858 -2.81110 1.61424 246 253 253
1.17411 -2.81728 1.63414 249 250 251
1.17305 -2.82439 1.62066 240 252 253
1.16857 -2.83057 1.64060 250 251 250
1.15732 -2.83675 1.61321 179 185 216
1.18145 -2.92452 1.65495 211 213 235
1.19748 -2.91191 1.66254 247 251 253
1.19174 -2.91506 1.64858 222 225 241
1.13197 -2.89798 1.65919 197 200 224
1.12002 -2.90568 1.66537 183 188 214
1.10892 -2.91413 1.67160 169 177 200
1.10027 -2.92488 1.67797 154 165 185
1.08990 -2.93401 1.68424 142 146 151
1.08410 -2.94748 1.69080 102 91 88
1.06826 -2.95994 1.68330 94 82 65
1.07215 -2.97425 1.70397 98 92 85
1.07295 -2.99428 1.71108 109 100 90
1.07332 -3.01402 1.71820 119 111 96
1.05732 -3.02661 1.71063 120 112 101
1.07282 -3.03306 1.72531 128 118 107
1.05677 -3.04568 1.71771 126 119 102
1.14672 -3.27056 1.79142 136 123 106
1.15153 -3.26390 1.76999 133 120 108
1.13010 -3.27453 1.79756 110 95 77
1.12278 -3.28817 1.80462 52 42 59
1.10457 -3.29038 1.81056 61 63 76
1.09757 -3.30438 1.81766 104 106 99
1.09398 -3.32208 1.82515 127 121 106
1.08917 -3.32874 1.84659 135 123 112
1.08311 -3.33206 1.83187 134 124 106
1.07706 -3.33539 1.81714 132 124 107
0.38189 -4.44548 2.43719 134 150 159
0.38708 -4.43830 2.41409 148 170 183
0.37537 -4.44906 2.42132 130 142 146
0.34344 -4.40566 2.43345 84 87 92
0.35535 -4.46103 2.45037 34 27 31
0.32759 -4.47402 2.46295 23 29 29
0.27995 -4.41464 2.45465 93 104 80
0.26486 -4.41810 2.46017 101 89 80
0.25120 -4.42430 2.46629 96 82 66
0.22733 -4.41006 2.46781 109 95 65
0.19147 -4.37136 2.46375 68 42 27
0.16957 -4.36014 2.46582 28 15 17
0.16460 -4.36701 2.48793 16 18 17
0.15836 -4.37043 2.47275 12 11 12
-0.24730 -3.88595 2.40978 117 120 118
-0.23225 -3.87412 2.41690 117 120 117
-0.23764 -3.87708 2.40381 66 79 97
-0.25269 -3.88891 2.39668 71 73 89
-0.32929 -3.82115 2.40918 151 140 132
-0.34805 -3.80800 2.40965 157 152 141
-0.35219 -3.81374 2.42812 162 153 139
-0.35741 -3.81660 2.41544 161 155 150
3.20577 -1.95119 0.70851 206 211 220
3.22429 -1.93663 0.71727 208 212 222
3.21766 -1.94027 0.70116 207 212 219
3.21104 -1.94391 0.68504 207 211 215
3.17935 -1.97205 0.72361 165 173 195
3.13628 -1.98660 0.74115 166 174 198
3.11785 -2.00109 0.73242 194 211 226
3.11216 -1.99280 0.75027 185 194 220
3.09652 -2.00217 0.75813 181 200 223
3.06463 -2.00525 0.76832 128 138 163
3.06139 -2.01937 0.77437 95 97 108
3.04419 -2.02805 0.78242 110 108 118
3.06683 -2.06807 0.79051 173 178 194
3.08234 -2.08998 0.79405 116 121 160
3.07963 -2.10468 0.80016 131 135 137
3.06101 -2.11932 0.79134 96 100 109
2.78314 -2.26464 0.94265 111 120 149
2.80149 -2.28952 0.94646 144 159 159
2.78754 -2.29939 0.95401 105 90 85
2.77917 -2.31189 0.96094 65 85 94
2.85258 -2.36352 0.95879 121 133 147
2.87591 -2.39163 0.96236 146 153 167
2.87053 -2.39906 0.98631 151 158 167
2.86377 -2.40277 0.96986 149 157 166
2.85701 -2.40649 0.95341 148 155 167
3.01907 -2.54919 0.97882 154 160 174
3.02467 -2.54143 0.95385 152 157 164
3.03725 -2.57633 0.98350 168 172 191
3.04710 -2.59946 0.98910 179 187 195
3.04431 -2.61632 0.99602 191 202 211
3.02029 -2.62233 1.00504 205 215 228
3.01238 -2.63661 1.01248 216 223 235
3.00341 -2.65037 1.02002 226 231 239
2.64571 -2.92132 1.22024 249 250 248
2.65134 -2.91353 1.19516 248 250 250
2.69424 -2.97128 1.22457 199 202 223
2.62574 -2.94809 1.23565 148 148 182
2.68666 -3.02658 1.24682 173 183 196
2.66647 -3.04245 1.23726 166 174 192
1.42078 -2.63007 1.46316 152 133 118
1.42528 -2.62384 1.44310 157 138 125
1.41512 -2.63318 1.44938 154 134 112
1.40009 -2.63135 1.46951 157 149 146
1.35507 -2.61378 1.47595 226 239 242
1.34325 -2.62159 1.48215 250 251 251
1.32764 -2.63386 1.47477 254 254 254
1.33353 -2.63104 1.48835 249 250 249
1.31793 -2.64331 1.48096 254 253 252
1.32547 -2.64178 1.49455 245 244 243
1.31087 -2.64738 1.50073 228 232 227
1.29481 -2.65176 1.50690 216 215 215
1.27820 -2.65564 1.51303 215 221 228
1.27643 -2.67143 1.51927 229 235 238
1.26799 -2.68188 1.52547 243 245 248
1.26356 -2.68801 1.54522 252 253 254
1.25826 -2.69130 1.53166 248 252 252
1.25383 -2.69743 1.55141 252 254 254
1.24313 -2.69627 1.53777 252 254 254
1.23871 -2.70239 1.55749 253 253 253
1.22941 -2.70236 1.54389 253 254 254
1.22499 -2.70847 1.56358 253 254 254
1.22005 -2.71204 1.55007 251 254 254
1.21563 -2.71815 1.56976 253 254 254
1.21328 -2.72390 1.55630 247 253 254
1.20885 -2.73002 1.57602 252 253 254
1.21024 -2.73895 1.56263 243 253 254
1.20580 -2.74509 1.58239 252 254 254
1.20629 -2.75331 1.56897 239 252 253
1.20185 -2.75946 1.58877 251 253 254
1.19068 -2.76560 1.56158 171 183 207
1.20077 -2.76639 1.57529 233 247 251
1.18513 -2.77869 1.56789 162 176 202
1.19241 -2.77707 1.58155 229 239 249
1.17676 -2.78938 1.57414 155 170 199
1.17746 -2.78205 1.58762 223 229 246
1.16184 -2.79434 1.58022 155 170 195
1.15328 -2.77891 1.59336 218 220 239
1.13772 -2.79115 1.58599 155 168 192
1.14705 -2.80944 1.60622 191 196 228
1.13143 -2.82173 1.59882 155 164 187
1.13801 -2.87458 1.63245 153 166 192
1.15380 -2.86217 1.63992 228 237 244
1.14250 -2.86837 1.61244 157 165 178
1.13237 -2.87768 1.61871 155 166 175
1.12223 -2.88699 1.62498 154 166 175
1.13486 -2.89028 1.63905 150 163 188
1.11904 -2.90272 1.63156 156 165 177
1.12779 -2.90246 1.64548 150 164 185
1.11195 -2.91492 1.63799 156 164 178
1.11719 -2.91140 1.65175 151 162 184
1.10135 -2.92385 1.64425 154 164 174
1.09931 -2.93240 1.66446 154 162 168
1.09083 -2.94335 1.67085 147 149 145
1.08235 -2.95432 1.67725 106 94 90
1.06790 -2.97876 1.69024 94 91 81
1.06221 -2.98188 1.67640 94 88 82
1.05200 -2.99125 1.68271 98 91 86
1.07266 -3.00267 1.69757 101 96 88
1.07099 -3.02048 1.70451 111 103 94
1.05497 -3.03308 1.69693 114 104 98
1.15192 -3.28555 1.77774 134 119 109
1.15675 -3.27888 1.75623 132 122 104
1.14585 -3.28889 1.76296 131 120 105
1.13035 -3.28441 1.78346 121 103 87
1.12314 -3.29822 1.79053 54 41 49
1.11226 -3.30821 1.79725 54 53 54
1.08191 -3.29745 1.80199 95 91 85
1.08441 -3.32164 1.81006 121 115 102
0.69747 -4.13925 2.21713 102 104 109
0.71565 -4.12495 2.22574 110 98 92
0.70915 -4.12852 2.20991 109 100 96
0.70397 -4.13568 2.23296 102 100 101
0.67928 -4.15355 2.20852 104 117 128
0.68290 -4.14551 2.22355 98 110 121
0.67773 -4.15266 2.24658 94 107 120
0.67123 -4.15623 2.23076 98 113 124
0.66473 -4.15980 2.21495 103 118 131
0.36685 -4.46586 2.42985 45 49 58
0.37205 -4.45868 2.40671 103 109 110
0.34860 -4.48021 2.42121 24 23 23
0.35048 -4.46774 2.43519 25 20 18
0.33879 -4.47849 2.44243 24 19 28
0.32588 -4.48689 2.44915 44 44 42
0.27977 -4.43032 2.44173 106 117 92
0.26164 -4.42786 2.44600 103 96 89
0.24529 -4.42872 2.45097 103 96 86
0.22361 -4.41880 2.45353 124 115 81
0.19729 -4.39917 2.45390 116 97 68
0.14084 -4.35076 2.45239 48 28 16
0.13591 -4.35759 2.47438 11 10 8
0.11794 -4.33673 2.45381 42 26 14
0.11304 -4.34352 2.47568 11 7 10
0.09836 -4.32923 2.45666 44 27 24
0.09348 -4.33599 2.47844 15 8 10
0.06872 -4.30037 2.45461 52 46 50
0.06388 -4.30707 2.47619 22 11 8
0.04667 -4.28693 2.45601 71 63 49
0.04186 -4.29359 2.47747 30 19 15
0.03802 -4.30165 2.46382 88 77 59
0.03320 -4.30832 2.48530 42 40 43
0.02608 -4.30937 2.47002 114 114 106
0.02126 -4.31604 2.49150 63 70 84
0.01863 -4.32678 2.47847 128 132 131
0.01380 -4.33346 2.49998 83 87 90
0.01118 -4.34432 2.48695 128 129 132
0.00634 -4.35101 2.50850 86 88 83
0.00026 -4.35435 2.49370 125 117 111
-0.01122 -4.36312 2.50016 61 57 41
-0.00514 -4.35979 2.51495 45 47 70
-0.01730 -4.36646 2.48537 85 70 35
-0.02663 -4.36310 2.50454 27 21 37
-0.27181 -3.87634 2.39756 120 118 122
-0.27716 -3.87928 2.38453 89 74 88
-0.28677 -3.88811 2.39047 126 117 123
-0.34978 -3.81902 2.39894 148 141 137
-0.36438 -3.83050 2.39202 152 139 134
-0.36642 -3.81048 2.40057 157 151 147
-0.37056 -3.81620 2.41900 163 155 145
-0.37576 -3.81905 2.40634 163 155 148
3.19649 -1.95385 0.69281 201 209 218
3.20175 -1.94657 0.66935 206 209 217
3.16279 -1.97198 0.70902 166 166 187
3.12235 -1.98744 0.72621 173 182 204
3.08714 -2.00471 0.74255 160 175 204
3.06624 -2.01201 0.75118 100 113 142
3.05484 -2.02297 0.75841 93 92 111
3.05038 -2.03666 0.76462 142 130 137
3.03202 -2.05110 0.75593 190 204 210
3.11084 -2.07618 0.76149 186 200 203
3.08942 -2.08338 0.77023 170 176 191
3.09617 -2.10189 0.77496 112 126 155
2.71517 -2.17602 0.91114 74 75 92
2.71008 -2.18306 0.93382 77 77 91
2.69855 -2.18424 0.91888 73 73 87
2.69784 -2.19972 0.92466 67 71 82
2.70965 -2.23706 0.93472 76 72 84
2.77497 -2.28379 0.93278 148 147 166
2.76062 -2.29340 0.94037 110 90 120
2.73512 -2.29767 0.94924 90 113 117
2.72738 -2.31038 0.95604 115 113 113
2.85877 -2.39032 0.94708 141 151 164
2.83991 -2.40515 0.93816 151 152 161
3.00569 -2.54988 0.96235 154 155 169
3.01129 -2.54214 0.93740 152 154 166
2.99865 -2.55375 0.94522 152 154 167
3.02683 -2.57854 0.96660 162 164 180
3.02899 -2.59779 0.97291 173 178 185
3.02780 -2.61545 0.97961 183 193 202
3.02569 -2.63270 0.98643 196 205 215
3.01259 -2.64434 0.99439 210 217 231
2.99947 -2.65595 1.00234 221 226 236
2.97708 -2.66269 1.01120 229 235 241
2.97141 -2.67053 1.03646 239 241 245
2.96428 -2.67444 1.01911 237 242 244
2.59205 -2.89619 1.20595 246 249 244
2.62528 -2.93647 1.21091 185 182 201
2.57476 -2.92427 1.22103 111 98 136
2.57264 -2.94250 1.22821 108 111 135
2.65719 -3.01631 1.23051 144 155 177
1.39304 -2.63337 1.45580 152 141 133
1.39753 -2.62716 1.43581 156 136 113
1.34533 -2.61364 1.46240 216 222 230
1.33670 -2.62391 1.46858 250 253 254
1.30200 -2.64783 1.48716 248 250 245
1.28642 -2.65257 1.49335 237 239 233
1.27027 -2.65678 1.49951 216 222 231
1.25498 -2.66163 1.50565 204 215 226
1.24637 -2.67187 1.51181 213 224 235
1.24025 -2.68416 1.51799 221 237 248
1.23043 -2.69343 1.52416 226 238 249
1.22237 -2.70418 1.53034 226 234 247
1.21573 -2.71613 1.53656 222 226 243
1.21890 -2.73638 1.54294 209 214 235
1.20329 -2.74865 1.53555 153 163 190
1.21361 -2.74960 1.54922 195 202 231
1.19797 -2.76189 1.54182 153 161 187
1.17495 -2.73440 1.55486 183 192 215
1.15946 -2.74659 1.54752 152 160 180
1.09816 -2.93976 1.65090 156 167 168
1.10267 -2.93352 1.63079 156 167 173
1.08945 -2.95053 1.65728 149 154 146
1.08294 -2.96342 1.66380 110 101 95
1.07191 -2.97201 1.67006 96 81 69
1.05602 -2.98451 1.66254 92 89 83
1.13451 -3.29843 1.76966 128 110 95
1.13933 -3.29175 1.74816 133 122 105
1.11721 -3.30169 1.77581 59 40 57
1.10634 -3.31167 1.78253 58 51 57
1.07831 -3.32489 1.79534 113 107 94
1.07189 -3.33966 1.80251 128 121 102
1.06708 -3.34632 1.82396 135 125 109
1.06103 -3.34965 1.80923 136 125 110
0.70447 -4.13490 2.19456 108 101 101
0.72267 -4.12059 2.20317 113 99 89
0.71616 -4.12416 2.18733 112 98 90
0.70965 -4.12774 2.17149 111 98 91
0.69066 -4.14236 2.20121 105 111 115
0.67247 -4.15666 2.19260 112 124 134
0.36458 -4.47756 2.41566 34 26 24
0.36978 -4.47036 2.39248 82 81 79
0.34629 -4.49194 2.40700 25 28 25
0.33750 -4.49219 2.42871 17 19 37
0.31123 -4.47462 2.42993 63 68 59
0.27834 -4.44362 2.42821 115 120 106
0.26037 -4.45775 2.41971 114 100 88
0.26087 -4.44250 2.43283 105 94 95
0.24222 -4.43883 2.43687 109 102 98
0.22436 -4.45288 2.42841 126 121 101
0.22034 -4.42846 2.43942 123 115 94
0.20256 -4.44244 2.43100 124 114 102
0.19442 -4.40960 2.44007 126 113 91
0.16349 -4.38006 2.43832 126 109 78
0.13419 -4.35326 2.43708 119 98 72
