ply
format ascii 1.0
element face 0
property list uchar int vertex_indices
element vertex 1325
property float x
property float y
property float z
property uchar diffuse_red
property uchar diffuse_green
property uchar diffuse_blue
end_header
0.81379 -3.58105 2.42167 48 38 38
0.80581 -3.59946 2.42575 68 57 55
0.80694 -3.63548 2.43334 104 98 79
0.80242 -3.66113 2.43886 139 133 87
0.78705 -3.66609 2.44027 154 149 113
0.77670 -3.68084 2.44363 153 145 121
0.76419 -3.69146 2.44617 143 135 118
0.74871 -3.70023 2.43192 132 120 116
0.75252 -3.70385 2.44906 135 125 122
0.73702 -3.71263 2.43479 132 122 121
1.02091 -5.81993 2.89017 111 130 152
1.00833 -5.85421 2.89771 115 134 160
1.00151 -5.90510 2.90863 121 138 165
0.99957 -5.97064 2.92253 124 143 167
0.97627 -5.98385 2.90108 142 151 184
0.14356 -4.04997 2.53646 21 31 30
0.11524 -4.01337 2.52938 61 82 83
0.10044 -4.01972 2.53107 55 59 64
0.08169 -4.01299 2.53009 15 6 8
0.06614 -4.02180 2.51578 4 4 3
0.05165 -4.02381 2.53308 3 3 12
0.05081 -4.02612 2.51706 4 4 4
0.03612 -4.03261 2.51878 3 4 7
0.03425 -4.02098 2.53288 2 7 30
0.00616 -3.98065 2.52502 16 25 63
-0.01593 -3.96022 2.52121 57 66 100
-0.65370 -3.96956 2.53808 156 146 138
-0.63936 -3.96144 2.55128 154 146 140
-0.64014 -3.96357 2.53650 156 147 142
-0.64093 -3.96570 2.52172 157 150 143
-0.65291 -3.96742 2.55286 154 146 134
-0.65448 -3.97169 2.52330 157 149 142
-0.66687 -3.97862 2.54030 145 134 123
-0.67965 -3.98247 2.55668 139 129 127
-0.68043 -3.98461 2.54189 127 114 119
-0.68121 -3.98675 2.52710 153 137 132
-1.03619 -4.05012 2.56405 132 125 110
-1.02214 -4.04216 2.57697 133 122 117
-1.02291 -4.04425 2.56250 132 124 114
-1.04948 -4.05558 2.56551 113 100 100
-1.06333 -4.04103 2.56276 59 45 62
-1.07647 -4.04966 2.56489 22 18 39
-1.08961 -4.05929 2.56724 18 23 43
1.55837 -1.81613 2.02001 85 94 105
1.56769 -1.81332 2.00806 133 141 148
1.55215 -1.82317 2.02162 55 63 76
1.54281 -1.82599 2.03359 51 61 79
1.54224 -1.82755 2.02278 51 61 70
1.56793 -4.37853 2.55256 102 89 65
1.58477 -4.37345 2.53099 103 88 76
1.56690 -4.38134 2.53308 99 90 71
1.54904 -4.38923 2.53516 86 75 65
0.84726 -3.54824 2.39786 39 31 33
0.86238 -3.53966 2.41178 36 38 39
0.86156 -3.54192 2.39619 36 33 36
0.84808 -3.54598 2.41345 34 35 39
0.83414 -3.55674 2.39996 48 38 33
0.82037 -3.56405 2.40182 70 60 57
0.83517 -3.62497 2.41412 109 101 90
0.82253 -3.63496 2.41651 144 139 105
0.81178 -3.64861 2.41962 156 151 118
0.80258 -3.66536 2.42333 152 145 121
0.78713 -3.67411 2.40911 133 121 121
0.78725 -3.67041 2.42476 142 136 122
0.77181 -3.67915 2.41055 134 122 121
0.77458 -3.68064 2.42720 134 126 124
0.75913 -3.68939 2.41298 133 121 122
0.76310 -3.69328 2.43012 130 121 117
0.74762 -3.70205 2.41587 133 121 124
1.01356 -5.80674 2.86332 119 140 168
1.00041 -5.83929 2.87042 122 145 174
0.99344 -5.88960 2.88106 128 150 171
0.98918 -5.94846 2.89340 135 152 176
0.18288 -4.12506 2.53434 6 8 14
0.19893 -4.11597 2.54912 9 10 8
0.19805 -4.11836 2.53257 9 10 15
0.19718 -4.12075 2.51602 8 8 9
0.13435 -4.02575 2.51490 46 59 37
0.11621 -4.02157 2.51449 70 83 60
0.10060 -4.03042 2.50011 19 17 16
0.10011 -4.02374 2.51534 34 32 33
0.08068 -4.01478 2.51396 8 3 3
0.06514 -4.02359 2.49965 5 5 3
0.01068 -4.00163 2.51297 3 3 15
0.02440 -3.99749 2.49539 5 5 2
0.00984 -4.00392 2.49709 7 5 3
-0.00471 -4.01035 2.49879 5 6 5
-0.00460 -4.00550 2.51415 3 6 30
-0.01999 -4.01422 2.49999 2 6 11
-0.66731 -3.98349 2.52608 156 144 136
-0.65452 -3.97963 2.50970 160 152 146
-1.02370 -4.04578 2.54790 133 125 115
-1.00965 -4.03783 2.56083 134 125 118
-1.01042 -4.03992 2.54635 137 127 120
-1.01119 -4.04201 2.53188 139 129 127
-1.03717 -4.04606 2.54830 129 121 104
-1.05038 -4.05330 2.55013 85 77 74
-1.06429 -4.03616 2.54691 30 23 36
-1.07824 -4.04407 2.53407 11 12 11
-1.07731 -4.04875 2.54986 14 11 21
-1.09129 -4.05667 2.53699 9 12 10
-1.09041 -4.05988 2.55250 10 12 25
-1.10440 -4.06781 2.53962 8 12 12
-1.10368 -4.06339 2.55356 8 12 27
-1.11766 -4.07132 2.54069 10 10 10
1.56464 -1.82263 2.01004 105 113 123
1.57399 -1.81981 1.99807 134 141 153
1.55630 -1.82817 2.01140 67 72 84
1.54850 -1.83410 2.01282 55 58 67
1.53914 -1.83693 2.02481 54 61 70
1.53856 -1.83849 2.01398 55 59 70
1.53799 -1.84006 2.00314 53 57 72
0.89905 -3.51714 2.37406 39 38 26
0.91414 -3.50859 2.38795 41 38 33
0.91332 -3.51083 2.37240 41 40 32
0.89988 -3.51489 2.38962 40 37 33
0.88561 -3.52119 2.39129 38 37 31
0.88479 -3.52344 2.37573 34 32 22
0.87294 -3.53409 2.37822 39 29 24
0.87376 -3.53184 2.39379 38 37 33
0.85875 -3.54059 2.37992 48 33 32
0.84577 -3.54928 2.38204 70 58 53
0.85868 -3.60578 2.39325 113 106 76
0.84772 -3.61874 2.39619 147 139 98
0.83789 -3.63396 2.39956 158 150 122
0.82609 -3.64559 2.40225 153 145 117
0.81069 -3.65432 2.38807 129 119 115
0.81411 -3.65695 2.40489 142 134 112
0.79868 -3.66569 2.39069 129 122 121
0.80273 -3.66959 2.40778 133 124 121
0.78728 -3.67834 2.39355 132 123 121
1.00781 -5.79788 2.83745 128 149 175
0.99394 -5.82835 2.84405 132 155 183
0.97279 -5.83904 2.84680 141 172 199
0.94997 -5.85197 2.82579 157 187 219
0.95993 -5.87310 2.85410 153 182 212
0.94913 -5.91363 2.86267 155 177 205
0.92862 -5.91982 2.88895 156 165 186
0.93481 -5.94474 2.86941 158 169 197
0.91423 -5.95096 2.89578 146 145 146
0.91296 -5.95440 2.87196 139 142 155
0.18225 -4.12824 2.51795 16 17 24
0.19655 -4.12392 2.49962 5 8 16
0.13453 -4.03140 2.49941 57 78 70
0.11972 -4.03795 2.50114 60 77 61
0.10405 -4.04683 2.48672 15 6 12
-1.02490 -4.03614 2.53104 136 128 121
-1.01243 -4.03237 2.51506 139 131 129
-1.03812 -4.04259 2.53271 117 103 96
-1.05195 -4.02967 2.53043 61 46 46
-1.06524 -4.03151 2.53116 17 12 15
-1.07917 -4.03941 2.51834 8 12 7
1.56770 -1.82682 1.99965 122 131 141
1.57706 -1.82399 1.98766 133 140 156
1.56361 -1.83546 2.00150 84 87 103
1.55506 -1.84089 2.00283 57 56 74
1.54453 -1.84686 1.99313 52 59 69
0.90983 -3.50840 2.35597 34 34 35
0.92490 -3.49986 2.36985 41 40 38
0.92407 -3.50210 2.35431 38 37 40
0.92325 -3.50435 2.33877 38 23 23
0.89823 -3.51938 2.35851 37 29 25
0.88541 -3.52828 2.36065 45 34 27
0.87339 -3.53864 2.36307 75 63 66
0.88477 -3.59155 2.37339 122 112 97
0.87090 -3.59905 2.37528 153 147 113
0.85841 -3.60911 2.37765 160 153 123
0.84861 -3.62425 2.38097 155 147 118
0.83325 -3.63296 2.36683 134 121 117
0.83782 -3.63768 2.38397 145 135 112
0.82243 -3.64641 2.36980 131 120 117
0.82440 -3.64627 2.38607 133 122 112
0.80900 -3.65499 2.37190 131 120 118
0.99475 -5.76907 2.80788 142 169 199
0.97214 -5.78189 2.78707 156 184 222
0.97600 -5.78577 2.81176 152 182 212
0.95337 -5.79860 2.79092 155 182 221
0.96202 -5.81590 2.81821 160 192 216
0.93782 -5.88838 2.83345 155 181 211
0.92659 -5.92808 2.84174 155 174 199
0.92188 -5.98758 2.85383 133 144 156
0.90120 -5.99383 2.88033 60 46 48
0.89993 -5.99729 2.85639 58 50 49
0.89866 -6.00074 2.83245 48 37 36
0.14956 -4.03055 2.48218 39 42 37
0.16353 -4.02633 2.46428 6 11 18
0.14712 -4.07656 2.49149 72 81 82
0.13129 -4.08553 2.47692 25 31 36
0.12094 -4.04698 2.48628 49 49 59
0.10525 -4.05588 2.47183 14 9 12
-1.02631 -4.02114 2.51319 137 129 120
-1.03996 -4.01316 2.51197 98 86 89
-1.05301 -4.02213 2.51414 37 27 34
-1.23531 -3.96129 2.50701 20 24 32
-1.22186 -3.95367 2.51939 21 25 42
-1.22333 -3.95768 2.49167 8 14 18
-1.23457 -3.95929 2.52087 31 37 50
-1.24729 -3.96491 2.52236 15 14 26
-1.24875 -3.96891 2.49464 8 13 18
1.57392 -1.83330 1.98959 133 138 152
1.58330 -1.83047 1.97757 132 139 157
1.57335 -1.83487 1.97873 134 139 159
1.57151 -1.84319 1.99161 101 107 125
1.56288 -1.84860 1.99294 62 68 84
0.90861 -3.50995 2.34031 44 33 26
0.90390 -3.53312 2.34503 79 67 57
0.90891 -3.57395 2.35294 127 116 87
0.89440 -3.58022 2.35461 157 149 121
0.88346 -3.59296 2.35745 162 154 130
0.87031 -3.60177 2.35957 154 146 119
0.85499 -3.61045 2.34548 132 122 119
0.85788 -3.61196 2.36195 142 134 117
0.84255 -3.62065 2.34784 132 124 118
0.84747 -3.62598 2.36503 136 125 119
0.83211 -3.63468 2.35089 134 124 118
1.00670 -5.74090 2.77795 152 173 205
0.98417 -5.75366 2.75722 152 176 221
0.98725 -5.75536 2.78138 160 188 223
0.94683 -5.85003 2.80127 155 182 218
0.93362 -5.88336 2.80824 150 183 213
0.91073 -5.89633 2.78718 92 105 141
0.92253 -5.92342 2.81648 142 167 185
0.85095 -5.78728 2.79171 111 115 121
0.82849 -5.80000 2.77104 34 30 38
0.15215 -4.09771 2.47871 64 87 77
0.13625 -4.10672 2.46407 22 15 18
-1.01489 -3.99246 2.49238 138 130 124
-1.00103 -3.98460 2.50514 141 132 133
-1.00178 -3.98667 2.49085 141 131 131
-1.00254 -3.98873 2.47656 142 131 126
-1.02788 -4.00128 2.49451 134 123 112
-1.04149 -3.99267 2.49321 83 70 75
-1.05406 -4.01478 2.49794 24 18 32
-1.06794 -4.02265 2.48517 7 11 18
-1.06710 -4.02331 2.50001 8 10 14
-1.08099 -4.03118 2.48723 9 13 13
-1.23597 -3.95751 2.49201 8 14 16
-1.22400 -3.95390 2.47668 6 11 14
-1.23670 -3.95951 2.47816 7 11 11
-1.24939 -3.96512 2.47965 8 12 15
1.57373 -1.84680 1.98103 119 128 143
1.58315 -1.84396 1.96897 133 138 161
1.57270 -1.85778 1.98320 79 87 96
1.56526 -1.86412 1.98466 55 61 71
1.55580 -1.86698 1.99678 53 60 67
1.55522 -1.86856 1.98583 53 62 73
1.55464 -1.87014 1.97488 54 60 77
0.92269 -3.50705 2.32332 83 72 68
0.93777 -3.49851 2.33719 35 31 39
0.93694 -3.50075 2.32165 46 37 48
0.92359 -3.53996 2.32968 131 122 93
0.91571 -3.55778 2.33338 161 153 120
0.90319 -3.56748 2.33565 165 157 120
0.89223 -3.58007 2.33843 157 147 119
0.87696 -3.58873 2.32438 132 120 122
0.88162 -3.59341 2.34135 141 132 127
0.86632 -3.60208 2.32727 133 121 122
0.86960 -3.60429 2.34383 132 122 125
0.85429 -3.61297 2.32974 133 122 121
1.06772 -5.77730 2.75921 150 178 212
1.08921 -5.76781 2.75670 130 162 193
1.06648 -5.78069 2.73578 157 188 220
1.04500 -5.79018 2.73829 156 183 223
1.03605 -5.75963 2.75676 159 186 216
1.01343 -5.77245 2.73594 158 181 216
1.00483 -5.74253 2.75442 155 175 212
0.96373 -5.76545 2.76014 154 180 220
0.95081 -5.79827 2.76691 153 183 224
0.93818 -5.83248 2.77394 146 176 209
0.93617 -5.89765 2.78664 121 139 178
0.87976 -5.87858 2.78469 65 73 96
0.85697 -5.89149 2.76372 36 35 37
0.21178 -4.18157 2.47625 17 23 25
0.22803 -4.17235 2.49121 8 10 6
0.22714 -4.17477 2.47445 7 9 9
0.22626 -4.17720 2.45770 8 11 13
0.19552 -4.19078 2.46129 100 103 78
0.17798 -4.13023 2.46734 67 87 72
0.02303 -4.31074 2.50717 91 100 109
0.00556 -4.31022 2.50761 111 117 110
-0.05885 -4.26010 2.49989 32 6 5
-0.07409 -4.26683 2.50167 53 9 19
-0.07497 -4.26923 2.48505 44 7 26
-1.01645 -3.97466 2.47426 139 129 120
-1.00416 -3.97095 2.45852 144 132 126
-1.04253 -3.98640 2.47735 75 56 57
-1.05502 -4.01006 2.48233 18 12 23
-1.06888 -4.01791 2.46957 11 12 19
1.57959 -1.85307 1.97082 132 137 155
1.58904 -1.85022 1.95872 132 137 158
1.57902 -1.85465 1.95989 135 139 160
1.57224 -1.85945 1.97227 100 108 118
1.57095 -1.87033 1.97439 63 70 84
0.93387 -3.46841 2.29960 93 81 81
0.94883 -3.45994 2.31337 36 30 53
0.94801 -3.46217 2.29795 49 40 68
0.93469 -3.46619 2.31502 37 24 38
0.91892 -3.47689 2.28583 164 158 127
0.93222 -3.49626 2.30496 146 136 111
0.92597 -3.51645 2.30901 164 158 124
0.92050 -3.53825 2.31334 165 154 126
0.91177 -3.55454 2.31673 156 146 125
0.89657 -3.56315 2.30273 136 124 122
0.90127 -3.56782 2.31960 143 132 123
0.88604 -3.57645 2.30558 134 123 118
0.89091 -3.58147 2.32254 134 122 121
0.87564 -3.59012 2.30849 133 122 115
0.98081 -5.75119 2.73295 152 177 219
0.95831 -5.75721 2.73484 147 172 214
0.90764 -5.75299 2.73568 93 109 159
0.20889 -4.17775 2.45837 59 70 48
0.22335 -4.17339 2.43984 24 23 31
0.12350 -4.30045 2.48453 18 17 15
0.10879 -4.30488 2.50337 12 8 10
0.10789 -4.30734 2.48635 8 9 9
0.09316 -4.31733 2.48873 7 5 9
0.07805 -4.32602 2.49088 17 14 30
0.05159 -4.29383 2.48561 48 56 76
0.04686 -4.34006 2.49457 111 124 133
0.02671 -4.33018 2.49335 139 150 160
0.01059 -4.33496 2.49478 136 140 156
-0.01024 -4.32169 2.49293 124 126 131
-0.03931 -4.27586 2.48515 103 91 84
-0.05941 -4.26376 2.48350 43 15 11
-0.07553 -4.27290 2.46866 36 12 12
-1.01759 -3.96696 2.45819 142 128 121
-1.00533 -3.96326 2.44249 147 135 129
-1.03055 -3.97413 2.45998 132 112 99
-1.04340 -3.98489 2.46245 78 55 49
-1.05647 -3.98935 2.46373 21 11 18
-1.07025 -3.99716 2.45104 17 11 20
1.57184 -1.86117 1.96136 117 127 141
1.58129 -1.85831 1.94925 133 138 159
1.57435 -1.87485 1.96383 79 86 99
1.56924 -1.88300 1.96553 57 61 77
1.55973 -1.88587 1.97771 54 61 70
1.55915 -1.88746 1.96671 53 62 75
1.55857 -1.88905 1.95570 53 61 76
0.93245 -3.40938 2.27275 121 105 92
0.91769 -3.41775 2.25917 161 155 137
0.93188 -3.43832 2.27818 149 138 117
0.92915 -3.46394 2.28306 168 158 131
0.92122 -3.51185 2.29229 153 145 129
0.90615 -3.52039 2.27842 137 124 127
0.91651 -3.53493 2.29677 142 131 130
0.90137 -3.54351 2.28283 136 124 122
0.90796 -3.55150 2.30016 137 125 125
0.89278 -3.56011 2.28619 135 125 121
1.20601 -5.88485 2.72640 145 176 209
1.22926 -5.87166 2.74781 121 145 174
1.22799 -5.87513 2.72383 133 158 189
1.20727 -5.88138 2.75038 124 148 177
1.18528 -5.89110 2.75294 134 160 189
1.18275 -5.89803 2.70499 158 188 222
1.18165 -5.88850 2.72791 155 189 216
1.15968 -5.89821 2.73048 159 191 222
1.15841 -5.90167 2.70652 157 188 222
1.04441 -5.79532 2.71517 157 185 226
1.06590 -5.78582 2.71266 158 184 219
1.00609 -5.75929 2.70974 156 185 221
0.98083 -5.75798 2.71036 128 149 191
0.97676 -5.81503 2.72117 99 107 162
0.96644 -5.85568 2.72912 70 82 117
0.94362 -5.86861 2.70812 66 75 89
0.19047 -4.23584 2.45265 81 61 49
0.17408 -4.24513 2.43756 112 101 78
0.17613 -4.24645 2.45512 76 57 28
0.16152 -4.25086 2.47384 15 13 23
0.12388 -4.30729 2.46828 14 5 6
0.10752 -4.31163 2.46965 15 5 8
0.09132 -4.31646 2.47111 34 22 27
0.07861 -4.33369 2.47477 75 70 69
0.06193 -4.33688 2.47593 118 118 109
0.04391 -4.33500 2.47620 140 142 150
0.02188 -4.31798 2.47377 148 156 178
0.00586 -4.32296 2.47524 148 156 174
-0.01395 -4.31334 2.47412 152 161 167
-0.03086 -4.31451 2.47492 152 151 148
-0.05309 -4.29453 2.47194 100 84 69
-1.01884 -3.95643 2.44167 143 130 124
-1.00662 -3.95274 2.42601 150 138 130
-1.03183 -3.96172 2.44310 136 117 102
-1.04438 -3.98000 2.44695 90 70 51
-1.05734 -3.98766 2.44882 34 21 20
1.57383 -1.86463 1.95067 130 137 151
1.58329 -1.86177 1.93855 132 138 157
1.57325 -1.86621 1.93973 134 140 155
1.56847 -1.87253 1.95231 98 106 115
1.57572 -1.88983 1.95523 62 68 85
0.96520 -3.37942 2.25044 112 93 95
0.95554 -3.39261 2.25320 135 117 93
0.94594 -3.40600 2.25600 156 139 120
0.93720 -3.42097 2.25906 163 153 139
0.92361 -3.45804 2.26635 157 146 132
0.90871 -3.46648 2.25264 137 126 124
0.91959 -3.48170 2.27084 143 132 129
0.90462 -3.49018 2.25706 137 123 122
0.91502 -3.50469 2.27522 137 124 129
0.89998 -3.51321 2.26138 137 123 122
1.22259 -5.86822 2.69810 155 185 220
1.24581 -5.85506 2.71947 126 148 173
1.24454 -5.85852 2.69553 144 165 204
1.19937 -5.88138 2.67672 159 185 223
1.20268 -5.88310 2.70154 161 190 219
1.08702 -5.84840 2.69929 157 187 222
1.10998 -5.83539 2.72043 156 188 218
1.10872 -5.83881 2.69676 157 189 221
1.04878 -5.81374 2.69429 141 165 196
1.04156 -5.86205 2.70342 108 112 168
1.02380 -5.88237 2.70778 69 87 122
1.00082 -5.89539 2.68663 64 76 91
0.99813 -5.88104 2.70846 61 74 107
0.97520 -5.89404 2.68734 64 75 85
0.97246 -5.87944 2.70908 64 75 89
0.94956 -5.89242 2.68800 62 73 84
0.20123 -4.39226 2.46360 128 115 78
0.16469 -4.33081 2.45363 95 76 37
0.14110 -4.31129 2.45088 53 42 17
0.12527 -4.31757 2.45260 46 43 25
0.11007 -4.32605 2.45470 70 65 40
0.09620 -4.33928 2.45762 106 100 81
0.07625 -4.33096 2.45681 132 122 104
0.05972 -4.34033 2.44160 138 127 122
0.05887 -4.33153 2.45753 138 130 119
0.01663 -4.30424 2.45403 154 165 197
-0.00084 -4.30347 2.45451 164 177 208
-0.01738 -4.30605 2.45558 172 185 206
-0.03328 -4.31101 2.45705 178 183 198
-0.05083 -4.30938 2.45738 162 154 151
-0.06546 -4.31921 2.45971 83 69 61
-0.07997 -4.32359 2.47829 53 6 16
-0.08085 -4.32601 2.46150 32 10 14
-1.02016 -3.94417 2.42492 145 132 126
-1.03298 -3.95265 2.42693 139 123 114
-1.04575 -3.96362 2.42940 116 96 79
-1.05808 -3.98986 2.43466 67 43 36
-1.07188 -3.96671 2.43090 29 12 21
-1.08406 -3.97039 2.44651 15 12 16
-1.08480 -3.97242 2.43241 18 14 18
1.56843 -1.87451 1.94140 115 127 136
1.57790 -1.87164 1.92926 132 140 157
1.58070 -1.89556 1.94474 76 83 99
1.57916 -1.90648 1.94676 56 58 77
1.56958 -1.90938 1.95904 53 62 71
1.56899 -1.91098 1.94795 53 61 74
1.56840 -1.91258 1.93686 53 61 77
1.02915 -3.37169 2.23109 105 88 75
1.04390 -3.36332 2.24467 106 93 81
1.04310 -3.36552 2.22946 105 91 77
1.02995 -3.36949 2.24630 105 91 82
1.01600 -3.37566 2.24793 105 92 79
1.01641 -3.37982 2.23303 109 90 82
0.99652 -3.37637 2.23315 114 102 85
0.97997 -3.37822 2.23410 138 123 109
0.96649 -3.38507 2.23583 159 140 120
0.95430 -3.39407 2.23790 167 151 123
0.94331 -3.40514 2.24031 164 151 120
0.93271 -3.41696 2.24283 151 143 118
0.92227 -3.42913 2.24541 142 131 127
0.90748 -3.43752 2.23179 138 126 128
0.91619 -3.44889 2.24920 138 128 128
0.90134 -3.45731 2.23553 138 127 120
1.23076 -5.83092 2.66647 150 163 204
1.25386 -5.81783 2.68773 133 149 179
1.25260 -5.82127 2.66392 148 162 190
1.22950 -5.83436 2.64266 153 159 191
1.21850 -5.86460 2.67299 154 177 219
1.17884 -5.89474 2.67989 159 188 230
1.15474 -5.89891 2.68154 155 192 229
1.12501 -5.88821 2.68072 141 174 210
1.10193 -5.89466 2.68274 116 128 176
1.08269 -5.91135 2.68646 76 90 122
1.05954 -5.92447 2.66515 64 75 92
1.05731 -5.91155 2.68744 62 72 111
1.03420 -5.92465 2.66617 62 76 88
1.02812 -5.90108 2.68664 64 77 95
0.24041 -4.34869 2.43638 120 121 119
0.21348 -4.32033 2.43227 103 91 92
0.21617 -4.38731 2.44424 115 105 102
0.19843 -4.38862 2.44513 137 126 108
0.17790 -4.38044 2.44442 135 121 90
0.15253 -4.35547 2.44087 126 112 83
0.12720 -4.32978 2.43719 126 112 89
0.11100 -4.33491 2.43871 132 121 93
0.09468 -4.33958 2.44016 140 129 107
0.07493 -4.33193 2.43952 141 128 118
0.05841 -4.34129 2.42431 142 129 121
0.03685 -4.32061 2.43889 139 131 138
0.01709 -4.31170 2.43803 149 150 176
-0.03488 -4.31068 2.43978 168 173 198
-0.05118 -4.31394 2.44097 170 168 181
-0.06746 -4.32316 2.42598 153 152 173
-0.07650 -4.28085 2.43595 144 132 135
-0.09264 -4.29000 2.42110 139 130 140
-0.07909 -4.33923 2.44656 80 59 66
-0.09364 -4.34362 2.46519 39 9 34
-0.09453 -4.34605 2.44837 38 14 14
-1.00830 -3.93296 2.40797 154 142 132
-0.99465 -3.92523 2.42053 152 140 132
-0.99539 -3.92726 2.40646 155 143 136
-0.99614 -3.92929 2.39239 158 146 140
-1.00904 -3.93500 2.39390 157 146 137
-1.02121 -3.93828 2.40941 149 137 127
-1.03408 -3.94503 2.41110 144 129 120
-1.04694 -3.95211 2.41285 137 116 106
-1.06016 -3.94739 2.41250 111 83 71
-1.07247 -3.97458 2.41785 64 38 33
-1.09883 -3.96278 2.41671 20 17 18
-1.11096 -3.96644 2.43224 13 16 14
-1.11170 -3.96847 2.41821 17 20 20
1.57472 -1.88118 1.93107 130 138 150
1.58422 -1.87831 1.91889 132 139 157
1.57414 -1.88277 1.92007 135 141 157
1.57839 -1.89588 1.93352 96 102 118
1.58582 -1.91352 1.93635 62 65 87
1.05598 -3.36113 2.21255 107 90 86
1.07074 -3.35277 2.22613 105 95 93
1.06993 -3.35496 2.21092 105 94 90
1.05678 -3.35893 2.22776 106 94 85
1.04343 -3.36951 2.21452 110 90 81
1.02841 -3.37399 2.21589 117 106 91
1.00826 -3.37018 2.21600 145 132 114
0.99424 -3.37615 2.21760 162 147 122
0.98175 -3.38464 2.21958 168 156 138
0.96524 -3.38653 2.22055 164 152 129
0.95308 -3.39557 2.22262 155 142 130
0.94079 -3.40446 2.22467 146 129 122
0.92606 -3.41281 2.21110 137 121 112
0.92863 -3.41361 2.22675 139 123 105
0.91388 -3.42196 2.21318 138 123 120
0.91894 -3.42701 2.22950 138 124 121
0.90416 -3.43539 2.21590 139 127 123
1.28086 -5.77132 2.62953 152 179 202
1.26040 -5.77750 2.65575 141 158 183
1.21292 -5.85723 2.64734 156 162 204
1.19720 -5.88255 2.65242 157 187 225
1.17667 -5.89588 2.65557 148 181 215
1.15358 -5.90264 2.65766 119 141 182
1.13590 -5.92352 2.66203 78 91 137
1.11498 -5.93607 2.66506 65 69 115
1.09171 -5.94925 2.64364 63 70 90
1.08591 -5.92683 2.66455 66 69 97
1.06272 -5.93997 2.64320 62 73 87
1.00831 -5.92308 2.66689 62 74 83
0.98650 -5.93272 2.66944 60 71 81
0.98524 -5.93616 2.64566 56 66 75
0.83786 -6.08980 2.70294 51 62 94
0.86123 -6.07655 2.72445 12 15 41
0.85996 -6.08003 2.70036 14 22 43
0.85868 -6.08351 2.67627 15 25 49
0.83659 -6.09328 2.67885 60 76 99
0.26441 -4.37243 2.42183 110 118 131
0.25113 -4.38813 2.42512 126 124 125
0.23295 -4.38831 2.42585 114 102 110
0.21603 -4.39790 2.41027 134 123 123
0.20010 -4.39968 2.42913 139 129 115
0.17612 -4.38006 2.42660 140 126 114
0.15489 -4.36902 2.42547 136 122 109
0.12940 -4.34288 2.42184 139 129 110
0.11277 -4.35230 2.40653 145 136 127
0.10736 -4.32786 2.42004 146 138 121
0.09081 -4.33724 2.40481 150 139 130
0.09078 -4.33146 2.42132 148 138 126
0.07424 -4.34084 2.40610 152 139 129
0.07323 -4.33153 2.42201 147 132 123
0.03243 -4.31010 2.41981 138 130 122
0.03154 -4.31254 2.40292 145 133 122
0.01551 -4.31158 2.42072 143 137 144
-0.00413 -4.30262 2.41990 152 157 189
-0.02182 -4.30071 2.42025 156 162 197
-0.03809 -4.30993 2.40527 156 162 186
-0.03769 -4.30560 2.42173 157 161 189
-0.05396 -4.31482 2.40676 155 160 184
-0.05279 -4.31349 2.42371 157 159 185
-0.06906 -4.32271 2.40873 153 156 181
-0.10048 -4.32750 2.42803 107 96 86
-0.08601 -4.32313 2.40949 151 152 172
-0.11495 -4.33187 2.44657 37 5 15
-0.11040 -4.35718 2.43366 58 49 38
-0.12495 -4.36157 2.45229 49 9 35
-1.02227 -3.93252 2.39397 154 144 131
-1.01013 -3.92886 2.37843 160 149 142
-1.03507 -3.94016 2.39582 150 137 123
-1.04804 -3.94335 2.39688 146 128 114
-1.07357 -3.96310 2.40136 115 87 66
-1.08722 -3.97084 2.38880 127 106 73
-1.09917 -3.98489 2.40620 45 31 19
-1.11266 -3.95778 2.40194 28 20 16
-1.12475 -3.96143 2.41743 15 18 17
-1.12549 -3.96346 2.40343 20 19 17
-1.12624 -3.96548 2.38944 45 32 22
1.57657 -1.89655 1.92236 116 125 138
1.58611 -1.89367 1.91013 134 139 159
1.58418 -1.92653 1.92724 55 62 73
1.57454 -1.92944 1.93960 52 62 79
1.57395 -1.93105 1.92844 52 63 76
1.57336 -1.93267 1.91728 53 62 75
1.07842 -3.37168 2.19785 111 91 90
1.09324 -3.36328 2.21149 107 94 87
1.09162 -3.36769 2.18094 121 107 104
1.07761 -3.37389 2.18257 147 132 114
1.05350 -3.36070 2.19695 122 107 96
1.03294 -3.35634 2.19702 145 131 109
1.00900 -3.37487 2.20120 169 160 139
0.99575 -3.38211 2.20298 166 156 130
0.98093 -3.38680 2.20439 156 144 131
0.96620 -3.39515 2.19084 139 122 130
0.96474 -3.38921 2.20546 145 128 129
0.95003 -3.39755 2.19192 139 127 133
0.95204 -3.39738 2.20739 142 128 132
0.93733 -3.40572 2.19384 138 124 127
0.93894 -3.40489 2.20921 140 122 125
0.92421 -3.41323 2.19566 136 123 119
1.32058 -5.74976 2.59988 154 181 210
1.34353 -5.73676 2.62100 125 148 174
1.34228 -5.74018 2.59735 140 168 200
1.29764 -5.76277 2.57876 162 189 225
1.28966 -5.73732 2.59897 159 188 216
1.26680 -5.75028 2.57793 163 192 225
1.26928 -5.74984 2.60196 160 189 217
1.23226 -5.78429 2.60942 160 177 202
1.20712 -5.84925 2.62168 153 178 215
1.18534 -5.85908 2.62426 132 153 198
1.16786 -5.87995 2.62857 97 112 159
1.16064 -5.92774 2.63714 68 85 116
1.14252 -5.94772 2.64133 63 62 99
1.11918 -5.96094 2.61985 61 65 66
1.11718 -5.94877 2.64253 62 62 88
1.09388 -5.96198 2.62108 60 70 81
1.04027 -5.94822 2.64553 59 69 83
1.01632 -5.95229 2.64720 57 68 78
0.99315 -5.96542 2.62588 49 61 62
0.25765 -4.41429 2.41143 135 130 127
0.24235 -4.42402 2.41373 128 117 122
0.22529 -4.43369 2.39804 143 135 130
0.17666 -4.38743 2.41004 143 134 124
0.19166 -4.38290 2.39083 147 140 131
0.17574 -4.38994 2.39269 144 135 132
0.15982 -4.39697 2.39455 142 131 129
0.15455 -4.37347 2.40852 136 127 120
0.13045 -4.35210 2.40579 137 129 119
0.11379 -4.36154 2.39046 149 139 125
0.00781 -4.28859 2.39973 145 133 132
0.02231 -4.28422 2.38116 153 140 126
0.00692 -4.29102 2.38296 151 138 128
-0.00846 -4.29781 2.38475 153 142 146
-0.01041 -4.28463 2.39977 150 146 164
-0.02664 -4.29383 2.38484 158 160 178
-0.02471 -4.29542 2.40222 155 162 188
-0.04095 -4.30463 2.38727 161 165 188
-0.14034 -4.23707 2.39677 129 129 119
-0.15623 -4.24607 2.38215 146 146 154
-0.17494 -4.23046 2.39702 85 79 65
-0.19794 -4.20143 2.39292 71 66 55
-0.22764 -4.14101 2.38365 58 45 46
-0.24224 -4.14746 2.38536 49 42 37
-1.02331 -3.92684 2.37861 158 148 138
-1.01120 -3.92318 2.36309 164 156 146
-1.03627 -3.92946 2.37958 157 146 131
-1.06201 -3.93903 2.38228 150 132 117
-1.07514 -3.93373 2.38189 145 122 102
1.59386 -1.91149 1.91283 131 137 147
1.60347 -1.90859 1.90052 132 138 159
1.59327 -1.91310 1.90171 135 139 154
1.59617 -1.92538 1.91509 97 102 106
1.03936 -3.34188 2.17874 163 150 122
1.05242 -3.33793 2.16201 169 157 127
1.03856 -3.34406 2.16363 169 154 133
1.03062 -3.35613 2.18152 168 157 132
1.01987 -3.36729 2.18387 164 155 138
1.00865 -3.37779 2.18612 155 144 137
0.99392 -3.38614 2.17256 144 130 130
0.99504 -3.38446 2.18782 149 135 131
0.98031 -3.39281 2.17426 143 127 126
0.98016 -3.38905 2.18922 144 129 127
0.96543 -3.39739 2.17566 138 124 128
1.32187 -5.69878 2.56689 159 186 222
1.34464 -5.68587 2.58785 128 155 183
1.32063 -5.70217 2.54342 160 184 225
1.29910 -5.71168 2.54593 163 189 230
1.24474 -5.75873 2.58029 163 196 224
1.22393 -5.77025 2.58311 157 187 214
1.20171 -5.77830 2.58540 136 159 194
1.19344 -5.82144 2.59307 106 119 169
1.17867 -5.84875 2.59832 86 97 135
1.17510 -5.90529 2.60807 77 82 112
1.16227 -5.93874 2.61428 67 75 92
1.14157 -5.95205 2.61740 64 67 79
1.11823 -5.96527 2.59592 58 61 65
1.06892 -5.96373 2.62242 57 68 78
1.04410 -5.96570 2.62379 56 63 73
1.02073 -5.97154 2.62576 54 62 69
0.99751 -5.98471 2.60438 35 49 40
0.27888 -4.42870 2.39495 127 138 132
0.29412 -4.42410 2.37542 86 101 106
0.26176 -4.43840 2.37920 148 144 137
0.24568 -4.44029 2.39831 140 130 130
0.22858 -4.44998 2.38257 149 140 135
-0.18150 -4.28049 2.38905 128 128 124
-0.19746 -4.28954 2.37435 146 149 158
-0.21017 -4.22593 2.38098 123 123 117
-0.22591 -4.23485 2.36649 143 146 154
-0.22659 -4.22544 2.38159 111 111 106
-0.24059 -4.22967 2.39953 54 51 34
-0.24231 -4.23435 2.36712 143 147 149
-0.24169 -4.23092 2.38315 114 116 106
-0.25568 -4.23514 2.40108 48 41 33
-0.26823 -4.18197 2.37595 98 92 94
-0.28205 -4.18614 2.39366 44 48 65
-0.29161 -4.14635 2.37088 82 77 92
-0.30530 -4.15048 2.38842 48 54 68
-1.02430 -3.92251 2.36352 163 154 145
-1.01220 -3.91886 2.34803 169 160 151
-1.02504 -3.92454 2.34953 168 159 151
-1.03725 -3.92493 2.36447 162 152 142
-1.05019 -3.92697 2.36536 160 150 136
-1.06314 -3.92776 2.36604 157 144 132
-1.07599 -3.93148 2.36720 154 137 125
-1.08895 -3.92989 2.36748 150 132 112
-1.38289 -3.81690 2.36059 13 15 22
-1.39422 -3.82032 2.37510 9 15 14
-1.39491 -3.82221 2.36199 11 16 22
1.59485 -1.92645 1.90387 115 121 129
1.60450 -1.92354 1.89151 132 139 158
1.60430 -1.94585 1.90668 77 81 93
1.59591 -1.95187 1.90805 55 60 76
1.58619 -1.95481 1.92050 53 63 73
1.58559 -1.95643 1.90925 53 62 74
1.58500 -1.95806 1.89800 55 60 74
1.68968 -4.03066 2.24956 115 105 90
1.70752 -4.02055 2.26598 124 110 102
1.70557 -4.02586 2.22919 107 91 76
1.69065 -4.02800 2.26795 122 110 101
1.68870 -4.03332 2.23116 107 85 65
1.67378 -4.03546 2.26992 121 110 102
1.67965 -4.04818 2.25290 110 101 93
1.67139 -4.06847 2.25663 106 97 91
1.65541 -4.07329 2.27711 113 102 85
1.65443 -4.07596 2.25862 103 88 76
1.65345 -4.07863 2.24012 106 93 76
1.02874 -3.35659 2.16614 157 145 141
1.02793 -3.35878 2.15100 147 134 138
1.01405 -3.36492 2.15262 144 132 135
1.00828 -3.38068 2.17103 144 131 128
0.99354 -3.38903 2.15746 144 131 129
1.32257 -5.64725 2.53420 157 180 218
1.34516 -5.63445 2.55500 136 160 193
1.34393 -5.63781 2.53171 155 178 207
1.32134 -5.65062 2.51091 159 180 218
1.28002 -5.72706 2.54931 164 195 234
1.26577 -5.75422 2.55444 159 195 225
1.24909 -5.77582 2.55876 141 169 199
1.20578 -5.73195 2.55334 115 130 171
1.19198 -5.76054 2.55869 87 102 138
1.18809 -5.81452 2.56783 75 86 125
1.17961 -5.85779 2.57539 73 83 107
1.17000 -5.89888 2.58264 70 81 95
1.15858 -5.93593 2.58929 64 72 86
1.14074 -5.95669 2.59352 59 63 74
1.11740 -5.96992 2.57203 53 55 66
1.09597 -5.97450 2.59842 56 64 77
1.07102 -5.97638 2.59981 52 63 74
1.04586 -5.97750 2.60109 50 57 68
1.02357 -5.98644 2.60354 45 56 56
0.28025 -4.43849 2.37842 131 141 135
0.29551 -4.43388 2.35886 88 100 100
0.24661 -4.44885 2.38160 148 139 137
0.24567 -4.45140 2.36394 153 144 142
0.22948 -4.45855 2.36583 152 144 140
-0.25705 -4.24147 2.36894 126 121 135
-0.24305 -4.23724 2.35100 147 149 148
-0.28957 -4.16259 2.35724 84 69 103
-0.30336 -4.17289 2.35955 89 92 115
-0.31804 -4.17885 2.36117 105 112 126
-0.33347 -4.18759 2.34697 117 109 114
-1.03812 -3.92311 2.34986 167 156 149
-1.02605 -3.91946 2.33439 171 160 156
-1.03886 -3.92512 2.33589 171 159 155
-1.05168 -3.93079 2.33738 169 157 155
-1.05104 -3.92542 2.35080 165 154 146
-1.06458 -3.93310 2.33834 167 157 153
-1.06394 -3.92779 2.35176 163 151 145
-1.07684 -3.92930 2.35256 161 149 140
-1.08983 -3.92569 2.35253 158 145 133
-1.10331 -3.93334 2.34012 161 152 137
-1.10281 -3.91964 2.35208 155 139 124
-1.11552 -3.92526 2.35357 152 134 114
-1.11625 -3.92726 2.33971 159 147 133
-1.33650 -3.82314 2.34617 16 15 25
-1.32371 -3.81589 2.35794 14 14 14
-1.32441 -3.81779 2.34475 17 15 20
-1.34828 -3.82090 2.34630 21 19 37
-1.36005 -3.81946 2.34657 27 28 48
-1.37142 -3.81042 2.34556 32 32 45
-1.38307 -3.80854 2.34576 27 29 36
-1.39533 -3.81904 2.34803 21 21 34
-1.40664 -3.82245 2.36252 12 16 18
-1.40719 -3.82181 2.34901 21 19 24
-1.41849 -3.82522 2.36349 14 16 15
-1.41919 -3.82718 2.35042 20 17 16
-1.43050 -3.83060 2.36490 13 15 16
-1.43119 -3.83248 2.35182 17 18 15
1.60436 -1.93566 1.89349 129 135 147
1.61404 -1.93273 1.88108 130 140 157
1.60377 -1.93728 1.88228 133 142 154
1.59718 -1.94254 1.89493 97 102 113
1.60038 -1.95735 1.89719 61 66 82
1.67777 -4.04951 2.23429 103 85 73
1.67679 -4.05217 2.21586 130 121 101
1.65989 -4.05964 2.21783 140 129 112
1.66966 -4.07002 2.23799 100 88 85
1.65172 -4.08018 2.22149 152 138 108
1.34306 -5.58398 2.49909 155 182 209
1.36424 -5.57462 2.49661 139 148 164
1.36302 -5.57795 2.47351 138 146 169
1.34428 -5.58064 2.52219 147 171 191
1.32065 -5.59668 2.47846 163 194 234
1.29750 -5.65427 2.51257 161 187 225
1.28733 -5.69015 2.51887 159 193 229
1.26843 -5.70569 2.52225 146 173 216
1.24832 -5.71845 2.52523 119 141 181
1.20949 -5.68549 2.52160 93 113 143
1.19831 -5.71996 2.52771 78 91 123
1.19252 -5.76839 2.53586 72 86 108
1.18468 -5.81252 2.54339 70 84 103
1.17603 -5.85530 2.55075 68 82 96
1.16457 -5.89159 2.55717 64 79 87
1.15449 -5.93206 2.56421 59 67 78
1.13857 -5.95781 2.56911 55 57 67
1.09614 -5.98185 2.57493 51 56 72
1.07312 -5.98905 2.57713 45 57 60
1.04825 -5.99107 2.57858 38 49 42
1.03185 -6.01653 2.58346 28 35 34
1.01594 -6.04376 2.58860 16 21 28
0.99250 -6.05705 2.56703 7 9 15
1.00392 -6.08248 2.59545 10 11 21
0.98294 -6.08882 2.62232 17 17 25
0.98165 -6.09232 2.59805 9 8 13
0.98037 -6.09583 2.57377 9 12 17
0.28296 -4.45254 2.36246 127 132 130
0.29827 -4.44792 2.34285 87 95 94
0.26577 -4.45671 2.36391 150 145 143
0.24860 -4.46644 2.34810 155 145 147
-0.25849 -4.24105 2.35231 141 132 139
-0.24450 -4.23682 2.33438 146 139 134
-0.28997 -4.16700 2.34167 74 53 108
-0.30260 -4.18311 2.34486 88 89 106
-0.31665 -4.19237 2.34700 114 116 124
-0.33212 -4.20114 2.33276 124 116 108
-1.07770 -3.92648 2.33785 165 157 149
-1.06567 -3.92285 2.32244 169 161 160
-1.07844 -3.92849 2.32393 168 161 155
-1.09120 -3.93413 2.32542 167 160 151
-1.09066 -3.92350 2.33795 163 156 144
-1.10413 -3.93114 2.32555 166 159 146
-1.33736 -3.82911 2.33365 25 27 41
-1.34943 -3.83369 2.33493 37 41 60
-1.36103 -3.82761 2.33446 50 57 80
-1.40700 -3.80797 2.33333 42 41 45
-1.43179 -3.83287 2.33849 22 20 23
-1.44308 -3.83628 2.35297 15 19 18
-1.44378 -3.83817 2.33989 17 21 17
1.59843 -1.94555 1.88385 112 125 131
1.60813 -1.94263 1.87142 132 141 158
1.59783 -1.94718 1.87262 127 137 142
1.59948 -1.95874 1.88590 73 83 90
1.33273 -5.56658 2.47311 157 182 221
1.35262 -5.56058 2.44762 137 146 172
1.29965 -5.60648 2.48100 161 192 224
1.28515 -5.63153 2.48566 150 175 210
1.24506 -5.65604 2.49143 97 118 163
1.22257 -5.66879 2.47072 74 88 116
1.22600 -5.67079 2.49466 81 98 137
1.20349 -5.68355 2.47394 73 85 109
1.20847 -5.68939 2.49844 75 90 115
1.19684 -5.72275 2.50429 72 85 106
1.18899 -5.76609 2.51156 70 84 100
1.17945 -5.80587 2.51834 68 82 95
1.17064 -5.84820 2.52549 64 79 88
1.16160 -5.89064 2.53267 59 74 78
1.15216 -5.93274 2.53982 53 61 68
1.13862 -5.96477 2.54555 49 52 60
1.11835 -5.97933 2.54881 44 53 56
1.09641 -5.98951 2.55145 39 50 52
1.07167 -5.99203 2.55300 29 38 37
1.03814 -5.97015 2.55107 20 22 24
1.01492 -5.98331 2.52970 7 8 11
0.28178 -4.45431 2.34463 121 124 125
0.29708 -4.44969 2.32502 85 91 96
0.26555 -4.46154 2.34653 149 145 148
0.24837 -4.47128 2.33072 154 144 147
-0.26094 -4.23580 2.33498 147 132 125
-0.24697 -4.23158 2.31709 145 133 121
-0.28807 -4.18262 2.32777 89 66 93
-0.30285 -4.18834 2.32937 83 77 79
-0.31591 -4.20264 2.33225 114 114 109
-1.27867 -3.85236 2.32109 32 23 27
-1.26570 -3.84502 2.33302 19 15 31
-1.26641 -3.84695 2.31966 51 33 22
-1.26712 -3.84888 2.30630 109 87 53
-1.27796 -3.85043 2.33445 17 15 36
-1.29021 -3.85585 2.33588 16 17 29
-1.29074 -3.85089 2.32142 24 18 25
-1.30226 -3.85437 2.33618 15 18 23
-1.30233 -3.83496 2.31941 22 16 20
-1.31438 -3.83683 2.32027 23 21 28
-1.32641 -3.83847 2.32109 29 34 47
-1.35009 -3.83452 2.32156 58 72 87
-1.36154 -3.82545 2.32065 67 76 103
-1.37320 -3.82231 2.32069 78 92 113
-1.38503 -3.82376 2.32147 91 106 119
-1.39642 -3.81719 2.32095 81 89 107
-1.40765 -3.80918 2.32019 65 76 87
-1.43263 -3.83718 2.32581 34 27 43
1.59478 -1.95724 1.87434 95 102 103
1.60450 -1.95431 1.86188 135 139 151
1.59418 -1.95887 1.86309 114 121 127
1.59400 -1.96913 1.87623 60 65 74
1.30713 -5.57170 2.45154 157 185 230
1.32699 -5.56571 2.42609 133 140 195
1.30591 -5.57502 2.42855 116 123 177
1.30504 -5.62518 2.45997 133 154 198
1.30621 -5.68723 2.46959 107 125 167
1.26645 -5.65320 2.46619 90 105 143
1.24394 -5.66596 2.44548 76 89 109
1.19471 -5.72390 2.48065 69 81 102
1.18592 -5.76490 2.48746 66 80 95
1.17301 -5.79615 2.49295 63 78 88
1.16816 -5.84848 2.50134 59 74 81
1.15968 -5.89239 2.50859 54 67 68
1.15349 -5.94300 2.51678 47 55 52
1.14227 -5.98127 2.52328 38 43 41
1.12138 -5.99432 2.52631 28 35 36
1.09797 -6.00759 2.50477 8 7 13
1.09380 -5.98939 2.52687 20 23 30
1.07045 -6.00262 2.50537 6 6 7
1.06903 -5.99179 2.52843 11 14 18
1.04571 -6.00501 2.50696 6 8 8
0.28545 -4.47143 2.32897 118 120 126
0.30080 -4.46680 2.30930 84 88 96
0.26764 -4.47378 2.33019 148 144 149
0.25043 -4.48354 2.31434 153 143 142
-0.26616 -4.21730 2.31578 147 132 120
-0.25225 -4.21310 2.29796 144 133 119
-0.26701 -4.21962 2.29969 145 133 122
-0.28878 -4.18558 2.31192 123 102 91
-0.30588 -4.17979 2.31183 83 67 47
-0.31900 -4.19367 2.31462 103 101 80
-0.33456 -4.19524 2.31562 119 118 105
-0.34831 -4.19939 2.33324 123 108 101
-0.35149 -4.18945 2.31552 127 120 107
-0.36521 -4.19359 2.33309 114 101 89
-1.29100 -3.83648 2.30551 66 50 34
-1.30303 -3.83661 2.30610 56 40 28
-1.31518 -3.84143 2.30744 47 35 35
-1.32714 -3.84133 2.30799 43 45 61
-1.35098 -3.84095 2.30908 62 69 91
-1.36262 -3.83577 2.30883 69 76 103
-1.37427 -3.83208 2.30881 73 88 110
-1.38593 -3.82954 2.30897 82 94 121
-1.40892 -3.82127 2.30878 71 84 107
-1.44609 -3.85606 2.31599 22 25 36
-1.45882 -3.86327 2.30427 19 31 42
1.59695 -1.97348 1.86518 73 81 90
1.60672 -1.97053 1.85266 129 135 142
1.59635 -1.97511 1.85387 93 99 107
1.31899 -5.66386 2.44145 94 104 146
1.20479 -5.75532 2.46103 65 76 94
1.19249 -5.78787 2.46660 61 74 88
1.18210 -5.82572 2.47289 57 71 79
1.17281 -5.86702 2.47964 52 67 67
1.16760 -5.91958 2.48791 44 56 51
1.16527 -5.98061 2.49733 33 37 36
0.28584 -4.47818 2.31178 117 118 123
0.26972 -4.48601 2.31376 147 144 144
0.25247 -4.49579 2.29789 152 141 139
-0.28696 -4.20087 2.29781 141 128 107
-0.27313 -4.19669 2.28010 146 133 123
-0.28780 -4.20318 2.28182 145 134 118
-0.30248 -4.20966 2.28353 145 130 105
-0.30510 -4.19013 2.29707 118 99 66
-0.32056 -4.19889 2.28285 130 117 94
-0.32111 -4.18955 2.29778 103 95 72
-0.33794 -4.18447 2.29783 95 87 78
-0.35619 -4.17152 2.29676 108 96 77
-0.37151 -4.18021 2.28266 104 94 66
-0.37442 -4.15795 2.29559 118 109 92
-0.38967 -4.16659 2.28155 100 98 72
-1.31617 -3.85203 2.29551 98 80 61
-1.32816 -3.85204 2.29610 77 62 61
-1.34008 -3.85081 2.29651 64 49 58
-1.35197 -3.84973 2.29693 67 48 53
-1.37552 -3.84548 2.29744 61 65 85
-1.39819 -3.82812 2.29592 67 71 99
-1.40998 -3.82964 2.29673 67 79 109
-1.42182 -3.83233 2.29773 72 86 102
-1.43349 -3.83267 2.29836 65 73 70
1.58440 -1.97847 1.85498 57 64 76
1.59417 -1.97553 1.84247 111 119 127
1.58380 -1.98011 1.84368 71 78 86
1.32024 -5.67302 2.41888 80 89 115
1.34040 -5.66694 2.39305 79 81 102
1.31901 -5.67639 2.39555 78 88 105
1.19700 -5.87006 2.45451 48 62 56
1.19697 -5.93557 2.46428 39 51 38
1.15123 -6.01872 2.47899 8 8 12
1.12772 -6.03205 2.45735 6 7 9
0.30668 -4.43295 2.28576 53 67 74
0.32381 -4.42324 2.30152 15 18 29
0.32287 -4.42579 2.28387 15 18 30
0.32194 -4.42834 2.26622 16 19 34
0.30762 -4.43040 2.30341 54 66 76
0.29314 -4.44838 2.28875 83 84 82
0.28947 -4.49522 2.29592 116 114 111
0.27279 -4.50141 2.29769 146 144 140
0.25549 -4.51121 2.28176 151 141 138
-0.33922 -4.18451 2.28165 117 99 79
-0.32552 -4.18037 2.26410 148 134 113
-0.35839 -4.16663 2.27997 113 97 65
-1.29231 -3.83686 2.27842 143 125 116
-1.28084 -3.83340 2.26372 157 147 142
-1.29301 -3.83878 2.26514 153 141 137
-1.30519 -3.84416 2.26656 149 135 131
-1.34023 -3.83879 2.28114 120 105 84
-1.35305 -3.84605 2.26935 134 122 109
-1.38762 -3.83926 2.28363 58 42 44
-1.39945 -3.84053 2.28442 63 43 51
-1.41069 -3.83188 2.28371 58 57 74
-1.42266 -3.83678 2.28505 55 65 73
-1.43519 -3.85056 2.28774 51 55 57
-1.44861 -3.87700 2.29236 24 21 23
1.22731 -5.95361 2.44071 32 39 34
0.30593 -4.43606 2.26818 55 69 76
0.32119 -4.43146 2.24863 16 21 37
0.28974 -4.44322 2.27007 85 82 74
0.28689 -4.49262 2.27741 117 113 105
0.27600 -4.51732 2.28158 146 144 139
0.25865 -4.52715 2.26561 152 141 138
-0.34137 -4.18003 2.26488 147 132 110
-0.32769 -4.17590 2.24735 149 135 120
-0.34221 -4.18232 2.24904 147 134 123
-0.35823 -4.17417 2.26491 140 127 96
-1.41160 -3.83763 2.27120 79 63 54
-1.42378 -3.84564 2.27300 61 52 43
1.58835 -1.99840 1.83447 59 60 74
1.57733 -2.00465 1.82432 53 56 77
1.28234 -5.96753 2.41503 37 44 41
1.25968 -5.97627 2.41750 24 29 30
1.23617 -5.98960 2.39585 6 7 10
0.30580 -4.44111 2.25084 56 71 80
0.32107 -4.43650 2.23128 15 24 39
0.28960 -4.44827 2.25273 86 83 80
0.27840 -4.53064 2.26504 147 145 139
0.26101 -4.54049 2.24903 153 141 138
-0.01693 -4.31195 2.24991 153 148 143
-0.00068 -4.30275 2.26486 159 152 151
-0.00156 -4.30517 2.24811 158 150 150
-0.01604 -4.30954 2.26666 159 151 144
-0.03140 -4.31632 2.26845 158 150 145
-0.03261 -4.31748 2.25154 152 149 147
-0.04709 -4.32185 2.27008 159 151 149
-0.18272 -4.25163 2.25028 159 144 125
-0.16690 -4.24267 2.26484 156 142 131
-0.16863 -4.24738 2.23223 161 151 143
-0.18186 -4.24928 2.26659 156 140 124
-0.19681 -4.25589 2.26833 155 140 126
-0.19767 -4.25824 2.25203 155 140 128
-0.37921 -4.15246 2.24680 147 136 107
-0.39442 -4.16108 2.23280 148 134 113
-0.41213 -4.14191 2.24708 138 134 67
-0.42560 -4.14598 2.26434 112 132 56
-0.42800 -4.13932 2.24757 120 133 53
-0.44232 -4.14534 2.24919 114 141 72
-0.45576 -4.14940 2.26642 126 161 81
-0.45659 -4.15165 2.25086 121 154 80
-0.45741 -4.15389 2.23530 124 153 77
1.29476 -5.94020 2.38575 28 33 31
1.27132 -5.95348 2.36418 8 7 10
1.27441 -5.95447 2.38886 18 17 21
1.25095 -5.96776 2.36728 7 9 12
1.25227 -5.96436 2.39146 10 10 17
1.22882 -5.97765 2.36987 8 10 11
0.30150 -4.43324 2.23191 56 76 84
0.31673 -4.42864 2.21240 17 24 35
0.29905 -4.54234 2.24718 117 113 111
0.28388 -4.55390 2.24962 147 144 139
0.26641 -4.56380 2.23355 152 141 133
-0.00182 -4.30996 2.23165 157 144 141
0.01444 -4.30075 2.24662 157 151 145
0.01355 -4.30317 2.22986 159 149 145
0.01266 -4.30559 2.21310 160 150 145
-0.02028 -4.30492 2.23198 130 119 127
-0.03432 -4.31671 2.23439 124 122 131
-0.04901 -4.32610 2.23651 132 135 139
-0.06463 -4.33185 2.23817 153 150 146
-0.07909 -4.33621 2.25671 159 153 144
-0.07998 -4.33863 2.23997 161 152 144
-0.08087 -4.34105 2.22323 159 151 143
-0.18481 -4.24856 2.23330 161 151 135
-0.17074 -4.24431 2.21527 160 151 148
-0.18567 -4.25091 2.21701 160 151 144
-0.20061 -4.25751 2.21876 160 150 142
-0.42583 -4.15860 2.23420 132 138 76
-0.41233 -4.15453 2.21690 149 137 112
-0.42666 -4.16086 2.21858 140 141 97
-0.44099 -4.16719 2.22025 134 149 86
-0.44268 -4.15028 2.23398 125 148 76
-0.45778 -4.15883 2.22008 130 152 83
1.60438 -2.00237 1.81085 129 133 142
1.61423 -1.99939 1.79824 134 139 154
1.62450 -2.03084 1.81355 96 93 106
1.61394 -2.03551 1.81479 57 57 77
1.61333 -2.03717 1.80327 72 73 87
1.31674 -5.87327 2.35075 32 41 39
1.33744 -5.86703 2.32422 23 27 35
1.28590 -5.86135 2.35089 20 23 26
1.26274 -5.87447 2.32958 8 6 14
0.29503 -4.41861 2.21228 57 77 85
0.31020 -4.41403 2.19284 20 23 31
0.30951 -4.58123 2.23345 115 114 110
0.28822 -4.57353 2.23362 146 144 137
0.27069 -4.58346 2.21749 150 142 130
-0.00272 -4.31235 2.21489 156 141 132
0.01176 -4.30797 2.19633 161 151 145
-0.02346 -4.29849 2.21420 113 90 95
-0.03879 -4.30513 2.21597 73 61 83
-0.05426 -4.31122 2.21768 84 93 109
-0.06518 -4.33559 2.22159 142 142 146
1.61000 -2.00884 1.79973 135 139 147
1.61986 -2.00586 1.78709 133 140 151
1.60939 -2.01049 1.78831 135 141 150
1.60292 -2.01612 1.80110 112 115 120
1.29755 -5.83344 2.32213 14 12 23
1.31811 -5.82723 2.29580 10 7 13
1.29629 -5.83687 2.29835 8 7 11
1.27448 -5.84651 2.30089 8 8 13
1.27795 -5.84847 2.32526 8 6 17
1.25485 -5.86156 2.30400 10 10 17
0.29108 -4.58847 2.21695 144 144 138
0.27351 -4.59843 2.20078 150 141 134
-0.00395 -4.31347 2.19798 158 146 133
0.01053 -4.30910 2.17943 160 149 141
-0.02960 -4.28064 2.19515 128 102 85
-0.04116 -4.30174 2.19861 50 26 34
-0.05602 -4.31016 2.20059 47 59 77
-0.06880 -4.32703 2.20356 125 133 140
-0.08500 -4.33020 2.20493 152 149 139
-0.09942 -4.33455 2.22341 158 150 151
-0.10030 -4.33696 2.20671 156 148 141
-0.47721 -4.14104 2.20295 130 151 86
-0.46302 -4.13477 2.20130 138 149 96
-0.46384 -4.13701 2.18582 147 143 108
-0.47639 -4.13881 2.21843 122 152 79
-0.49058 -4.14508 2.22009 119 151 71
-0.49225 -4.14204 2.20397 122 144 76
-0.50561 -4.14607 2.22108 119 151 62
1.60513 -2.01997 1.78978 129 132 141
1.61502 -2.01699 1.77712 132 140 154
1.60452 -2.02163 1.77834 135 140 153
1.60280 -2.03103 1.79134 93 93 103
1.59227 -2.03569 1.79257 55 59 75
1.17259 -3.08566 1.95257 89 72 75
1.18654 -3.07776 1.96541 95 83 75
1.18577 -3.07983 1.95103 95 78 71
1.17335 -3.08358 1.96695 84 72 70
1.16017 -3.08941 1.96849 117 106 104
1.16210 -3.09522 1.95443 121 104 102
1.15682 -3.11214 1.95692 151 139 127
1.14434 -3.11590 1.97291 153 141 139
1.14358 -3.11799 1.95847 154 142 134
1.14281 -3.12007 1.94402 158 147 130
1.10042 -5.99327 2.33019 21 27 27
0.29114 -4.59435 2.19919 141 142 139
0.30680 -4.58962 2.17912 90 99 89
0.27355 -4.60432 2.18301 151 139 136
-0.00992 -4.29657 2.17905 159 149 143
0.00450 -4.29222 2.16057 157 148 138
-0.01080 -4.29898 2.16236 158 148 147
-0.02685 -4.29705 2.18012 151 131 114
-0.04170 -4.30549 2.18210 87 62 45
-0.05767 -4.30950 2.18357 47 41 47
-0.07604 -4.30379 2.18394 92 101 109
-0.08670 -4.32926 2.18785 133 137 130
-0.10496 -4.32368 2.18823 148 145 136
-0.11933 -4.32802 2.20665 158 150 142
-0.12245 -4.32099 2.18894 155 147 138
-0.13679 -4.32532 2.20732 159 151 145
-0.13767 -4.32772 2.19072 155 148 141
-0.47856 -4.14005 2.18710 141 145 98
-0.46519 -4.13602 2.16997 153 140 121
-0.47938 -4.14229 2.17163 153 141 118
-0.49268 -4.14672 2.18880 136 137 89
-0.50767 -4.14783 2.18984 128 129 75
-0.52300 -4.14648 2.19059 124 131 52
-0.53632 -4.15050 2.20766 111 136 47
-0.53821 -4.14561 2.19139 121 131 49
-0.55151 -4.14963 2.20843 109 133 67
-0.55233 -4.15185 2.19304 122 130 74
-0.64984 -4.08722 2.19060 125 110 92
-0.63526 -4.07896 2.20402 118 105 86
-0.63605 -4.08113 2.18899 130 117 102
-0.64904 -4.08505 2.20563 112 97 76
-0.66283 -4.09114 2.20724 105 90 72
-0.66444 -4.08663 2.19140 119 102 83
-0.67741 -4.09054 2.20802 98 83 73
-0.67821 -4.09271 2.19301 113 95 80
-0.71952 -4.11081 2.19781 85 75 59
-0.70576 -4.10472 2.19620 96 84 62
-0.71873 -4.10864 2.21282 80 73 71
-0.73249 -4.11472 2.21443 95 88 100
-0.73201 -4.12905 2.20090 75 65 63
-0.74502 -4.13297 2.21757 111 109 120
-0.74661 -4.13732 2.18746 56 48 46
1.60479 -2.03474 1.77996 112 116 124
1.61472 -2.03174 1.76725 134 140 155
1.60418 -2.03640 1.76848 130 131 140
1.62359 -2.06263 1.78229 66 72 84
1.61355 -2.06566 1.79514 49 59 75
1.61294 -2.06733 1.78353 50 55 73
1.18442 -3.08110 1.93659 109 87 75
1.17326 -3.08971 1.93836 124 104 92
1.16622 -3.10408 1.94059 150 136 116
1.15564 -3.11364 1.94243 163 154 125
1.10681 -6.01742 2.30828 23 29 35
1.08343 -6.03066 2.28676 29 37 49
-0.02452 -4.31185 2.16481 158 148 143
-0.01009 -4.30749 2.14632 159 148 144
-0.02541 -4.31426 2.14811 158 149 142
-0.04367 -4.30361 2.16496 140 120 99
-0.05882 -4.31087 2.16680 78 54 38
-0.07512 -4.31345 2.16813 56 50 46
-0.09076 -4.31864 2.16974 81 90 99
-0.10740 -4.31958 2.17088 116 122 128
-0.12478 -4.31721 2.17166 138 138 140
-0.14367 -4.30807 2.17168 148 144 138
-0.15795 -4.31238 2.18996 156 151 144
-0.16156 -4.30278 2.17212 152 150 136
-0.17580 -4.30708 2.19036 158 152 148
-0.17667 -4.30946 2.17388 155 153 135
-0.49443 -4.14311 2.17266 153 142 115
-0.48108 -4.13908 2.15556 155 140 127
-0.49525 -4.14534 2.15721 154 142 127
-0.50941 -4.15160 2.15887 153 141 123
-0.50929 -4.14493 2.17380 149 139 108
-0.52439 -4.14497 2.17474 143 135 101
-0.53933 -4.15344 2.16098 150 135 116
-0.53996 -4.14153 2.17527 141 135 100
-0.55488 -4.14998 2.16154 147 135 110
-0.63654 -4.08573 2.17424 137 126 110
-0.62194 -4.07746 2.18767 134 126 102
-0.62274 -4.07963 2.17263 140 130 110
-0.62354 -4.08181 2.15759 143 132 116
-0.63733 -4.08790 2.15920 141 129 116
-0.65210 -4.07773 2.17420 135 122 102
-0.66554 -4.08630 2.17610 131 117 91
-0.67877 -4.09688 2.17823 126 110 86
-0.69174 -4.10080 2.19486 106 89 75
-0.69398 -4.09046 2.17837 120 103 81
-0.70771 -4.09649 2.17997 105 93 66
-0.72108 -4.10592 2.18197 88 80 60
-0.73281 -4.13117 2.18585 75 66 54
-0.74741 -4.13945 2.17241 41 32 35
-0.87444 -3.62165 2.13090 142 140 137
-0.86170 -3.61443 2.14262 154 148 141
-0.87374 -3.61975 2.14403 158 147 132
-0.87513 -3.62354 2.11776 84 93 107
-0.88579 -3.62507 2.14544 160 144 131
-0.88707 -3.61943 2.13140 155 146 134
-0.89840 -3.62285 2.14591 160 143 134
-0.89909 -3.62474 2.13280 159 146 129
1.61330 -2.05664 1.77036 92 87 101
1.62330 -2.05362 1.75755 136 139 146
1.61337 -2.06984 1.77196 56 54 73
1.60272 -2.07455 1.77320 53 57 71
1.60210 -2.07623 1.76159 51 56 69
1.19769 -3.07851 1.92077 119 100 86
1.18234 -3.08137 1.92208 149 134 105
1.17257 -3.09189 1.92398 175 158 123
1.16239 -3.10190 1.92584 181 168 131
1.15461 -3.11536 1.92796 169 159 125
1.14061 -3.12330 1.91507 147 134 121
1.14707 -3.12925 1.93013 156 144 125
1.13456 -3.13303 1.94615 152 139 133
1.13380 -3.13512 1.93168 152 138 133
1.13303 -3.13721 1.91721 149 137 128
1.10637 -6.02315 2.28440 27 32 43
1.08298 -6.03640 2.26287 32 39 48
-0.04192 -4.31636 2.14940 160 146 129
-0.02750 -4.31201 2.13093 158 151 140
-0.04280 -4.31877 2.13271 158 149 136
-0.06013 -4.31156 2.14997 137 116 92
-0.07668 -4.31311 2.15120 80 56 39
-0.09320 -4.31461 2.15243 40 41 52
-0.11365 -4.29956 2.15189 59 63 75
-0.13149 -4.29492 2.15245 85 96 108
-0.15011 -4.28649 2.15260 115 125 121
-0.16524 -4.29288 2.15433 137 136 136
-0.18462 -4.28035 2.15403 145 143 128
-0.19875 -4.28462 2.17214 157 150 138
-0.19826 -4.29316 2.15645 149 147 135
-0.21241 -4.29743 2.17458 158 151 146
-0.21757 -4.28006 2.15607 153 151 143
-0.23166 -4.28432 2.17413 158 152 149
-0.23599 -4.27046 2.15607 153 149 145
-0.25003 -4.27470 2.17406 160 150 147
-0.25499 -4.25750 2.15569 156 151 148
-0.26897 -4.26172 2.17360 159 152 147
-0.26983 -4.26406 2.15742 159 153 150
-0.27068 -4.26639 2.14125 155 152 150
-0.39852 -4.08837 2.14419 161 148 133
-0.38522 -4.08435 2.12714 163 155 148
-0.39771 -4.08615 2.15959 157 139 129
-0.39934 -4.09059 2.12879 166 156 148
-0.41183 -4.09239 2.16124 156 138 131
-0.41116 -4.10282 2.14674 158 144 127
-0.42449 -4.10685 2.16382 156 142 132
-0.42530 -4.10908 2.14840 153 140 129
-0.65187 -4.08806 2.16013 140 128 113
-0.63889 -4.08414 2.14350 144 132 116
-0.66661 -4.08617 2.16083 136 127 106
-0.68015 -4.09408 2.16265 131 121 96
-0.69441 -4.09574 2.16375 118 110 79
-0.70693 -4.11282 2.16662 97 89 54
-0.71979 -4.12740 2.16920 76 68 45
-0.73298 -4.13937 2.17149 59 51 41
