ply
format ascii 1.0
element face 0
property list uchar int vertex_indices
element vertex 1355
property float x
property float y
property float z
property uchar diffuse_red
property uchar diffuse_green
property uchar diffuse_blue
end_header
0.85377 -4.09317 0.96199 37 31 25
0.85643 -4.17972 0.96680 23 23 24
0.86534 -4.17014 0.94325 26 25 28
0.85172 -4.18233 0.94850 22 27 19
0.87988 -4.23572 0.96282 40 51 46
0.89163 -4.27843 0.96179 61 75 51
0.89427 -4.31066 0.96304 49 47 48
0.90436 -4.35217 0.96247 47 41 35
0.90784 -4.38606 0.96356 37 34 33
0.88883 -4.40141 0.95002 17 20 15
0.91300 -4.42233 0.96425 25 27 22
0.89389 -4.43777 0.95063 20 20 16
0.89335 -4.52006 0.97708 28 29 39
0.88268 -4.53761 0.98171 38 33 40
0.87396 -4.55773 0.98587 50 46 52
0.86184 -4.57356 0.99087 62 62 62
0.84958 -4.58926 0.99590 70 71 64
0.83808 -4.60598 1.00075 79 82 75
0.82446 -4.61999 1.00612 92 97 91
0.80503 -4.63568 0.99227 108 110 102
0.81053 -4.63358 1.01155 99 107 102
0.79110 -4.64928 0.99771 105 110 104
0.63037 -4.71170 1.07548 103 108 110
0.64958 -4.69618 1.08917 115 120 107
0.63971 -4.70166 1.05080 107 112 111
0.61901 -4.72868 1.08030 117 128 130
0.60459 -4.74128 1.08583 120 133 119
0.58536 -4.75681 1.07213 101 105 105
0.59370 -4.75903 1.09056 107 112 108
0.57400 -4.79788 1.09953 101 104 101
0.55470 -4.81348 1.08577 124 128 117
0.56285 -4.81550 1.10433 116 121 116
0.54353 -4.83112 1.09056 116 118 117
0.36654 -4.93043 1.17594 104 110 105
0.38078 -4.91768 1.17045 98 98 105
0.36162 -4.93317 1.15680 104 107 98
0.35723 -4.94045 1.20056 112 114 117
0.35230 -4.94318 1.18142 112 119 113
0.13031 -5.11877 1.26540 108 107 98
0.13959 -5.10879 1.24085 102 102 89
0.12540 -5.12150 1.24632 108 108 100
0.09785 -5.13649 1.27715 98 101 87
0.07878 -5.15190 1.26356 100 101 89
0.03514 -5.13539 1.29755 98 96 84
0.04434 -5.12550 1.27324 97 102 100
0.03028 -5.13808 1.27865 97 101 88
0.01622 -5.15067 1.28407 90 99 83
0.00533 -5.11717 1.30608 87 91 71
-0.02587 -5.09571 1.31486 72 66 46
-0.06230 -5.06328 1.32462 45 32 21
-0.08646 -5.05469 1.33195 27 29 34
-0.13882 -4.98876 1.34471 74 86 108
-0.15611 -4.99302 1.35063 127 131 130
-0.16490 -5.00247 1.37387 149 139 120
-0.16954 -5.00505 1.35581 147 139 123
-0.45755 -4.70415 1.43007 157 144 113
-0.44948 -4.69548 1.40875 154 141 125
-0.46007 -4.73696 1.43305 110 99 65
-0.47255 -4.74786 1.43784 84 77 55
-0.48193 -4.76575 1.44207 55 50 45
-0.48632 -4.79512 1.44543 29 25 28
-0.50309 -4.80866 1.43348 20 19 11
2.54405 -2.63449 0.29470 41 52 142
2.55292 -2.62496 0.27126 42 51 158
2.56674 -2.66379 0.28907 33 36 107
2.56898 -2.68361 0.28958 27 27 81
2.55529 -2.69587 0.29485 27 27 73
2.55055 -2.69850 0.27644 25 27 79
2.57516 -2.76268 0.29250 37 31 49
2.58423 -2.75293 0.26852 24 26 59
2.57037 -2.76534 0.27386 27 25 54
2.58018 -2.78447 0.29221 50 40 45
2.59237 -2.80998 0.28981 64 50 46
2.60370 -2.83527 0.28766 75 57 51
2.61086 -2.85863 0.28677 83 66 55
2.61312 -2.87965 0.28735 88 72 55
2.61008 -2.89807 0.28950 93 76 56
2.59097 -2.91351 0.27589 92 77 51
2.61279 -3.25715 0.31111 105 85 50
2.62255 -3.24666 0.28533 116 97 60
2.61780 -3.28227 0.31104 76 59 38
2.59302 -3.28983 0.31967 59 45 27
2.57662 -3.30233 0.32585 44 25 24
2.53544 -3.32221 0.34064 11 17 24
2.53029 -3.32507 0.32061 18 19 19
2.52176 -3.33630 0.34602 22 42 82
2.48613 -3.33686 0.35778 157 177 198
2.44559 -3.33417 0.37095 202 208 210
2.42571 -3.35023 0.35679 205 205 208
2.43341 -3.34901 0.37589 203 206 206
2.43162 -3.37043 0.37782 197 198 160
2.39163 -3.36770 0.39081 192 164 49
2.35625 -3.39029 0.40386 203 172 25
2.34285 -3.40432 0.40915 178 154 29
2.32709 -3.41683 0.41512 173 138 44
2.32777 -3.44016 0.41636 186 187 155
2.30259 -3.46952 0.42648 181 189 174
2.29012 -3.48431 0.43151 167 174 148
2.28044 -3.49471 0.45709 144 128 118
2.27533 -3.49755 0.43721 131 114 108
2.27021 -3.50039 0.41733 149 145 138
1.18930 -3.22632 0.77751 94 103 107
1.19736 -3.21765 0.75619 158 164 173
1.18777 -3.24612 0.77925 38 39 72
1.16981 -3.36012 0.79231 40 41 67
1.15291 -3.37377 0.78027 56 60 78
1.14817 -3.38559 0.80102 45 54 76
1.13125 -3.39925 0.78897 38 40 66
1.13607 -3.39725 0.80573 34 38 71
1.12245 -3.40759 0.81086 37 45 73
1.11584 -3.42406 0.81407 57 68 93
1.09889 -3.43775 0.80200 66 74 104
1.10363 -3.43568 0.81881 69 81 109
1.09583 -3.45120 0.82236 75 80 120
1.08723 -3.46608 0.82612 88 97 127
1.06814 -3.51716 0.83560 90 96 102
1.07038 -3.54228 0.83644 50 58 74
1.05323 -3.55613 0.82422 34 35 68
1.05310 -3.57277 0.84403 39 45 74
1.05245 -3.59562 0.84568 59 73 94
1.05028 -3.61719 0.84775 61 73 100
1.03240 -3.62390 0.85405 55 65 99
1.01512 -3.63785 0.84174 46 47 84
1.02697 -3.64252 0.85700 58 58 92
1.01523 -3.65512 0.86166 43 48 83
0.99791 -3.66911 0.84932 24 31 57
1.00847 -3.67260 0.86497 26 28 61
0.99112 -3.68662 0.85261 20 29 60
0.99169 -3.70459 0.87250 28 34 56
1.00939 -3.74669 0.86931 70 86 109
0.99462 -3.75663 0.87480 92 104 119
0.98125 -3.76795 0.87990 87 94 108
0.97574 -3.78728 0.88293 86 100 110
0.97133 -3.80784 0.88567 91 102 112
0.92335 -3.88502 0.90629 90 94 101
0.91512 -3.90208 0.91007 64 69 81
0.92225 -3.93578 0.90984 31 34 58
0.90440 -3.95019 0.89712 21 23 47
0.89663 -3.96051 0.91981 14 21 56
0.87461 -3.96273 0.92720 47 65 97
0.87161 -3.98592 0.92964 118 139 151
0.84256 -4.03375 0.94219 139 150 146
0.85127 -4.02439 0.91918 141 149 156
0.84540 -4.06411 0.94316 121 125 112
0.85520 -4.10275 0.94236 56 50 43
0.85495 -4.13012 0.94416 32 23 23
0.83675 -4.14482 0.93119 23 25 29
0.86660 -4.22827 0.94648 32 39 38
0.87558 -4.21861 0.92272 23 26 19
0.88301 -4.27653 0.94410 46 51 33
0.86435 -4.29161 0.93081 27 30 25
0.89804 -4.32366 0.94211 39 38 41
0.87922 -4.33886 0.92870 22 26 21
0.90858 -4.36585 0.94129 32 29 32
0.88962 -4.38116 0.92778 22 25 20
0.90754 -4.39436 0.94342 26 24 26
0.88851 -4.40973 0.92986 19 24 14
0.90076 -4.47675 0.95081 26 26 25
0.89366 -4.49857 0.95452 31 34 37
0.88515 -4.51874 0.95858 39 45 47
0.87568 -4.53779 0.96289 53 55 58
0.86372 -4.55374 0.96783 66 66 71
0.85228 -4.57042 0.97263 77 81 75
0.84149 -4.58799 0.97729 85 89 80
0.82974 -4.60436 0.98218 93 96 89
0.81724 -4.61982 0.98726 103 106 96
0.79783 -4.63550 0.97342 114 114 106
0.61443 -4.69866 1.05893 121 127 123
0.60499 -4.71830 1.06326 127 137 129
0.58581 -4.73379 1.04960 103 109 99
0.58955 -4.72932 1.06903 108 113 108
0.57106 -4.76958 1.07764 110 112 106
0.56612 -4.77232 1.05844 120 125 118
0.55183 -4.78511 1.06394 120 124 113
0.56093 -4.78855 1.08216 114 116 110
0.54167 -4.80410 1.06844 123 128 116
0.36983 -4.91057 1.15268 105 108 104
0.38404 -4.89785 1.14721 113 117 108
0.37912 -4.90058 1.12811 114 122 113
0.35070 -4.92602 1.13906 104 105 95
0.33915 -4.93227 1.16414 107 115 108
0.33424 -4.93500 1.14505 102 108 103
0.32986 -4.94226 1.18869 118 119 112
0.10947 -5.13094 1.25215 112 113 102
0.11875 -5.12096 1.22763 116 112 92
0.10456 -5.13366 1.23309 110 105 85
0.09038 -5.14636 1.23855 105 106 98
-0.04907 -5.06199 1.29999 87 93 69
-0.04007 -5.05231 1.27618 88 97 91
-0.06760 -5.07696 1.28679 88 90 63
-0.08142 -5.03728 1.30908 74 73 39
-0.08786 -5.06403 1.31288 45 51 22
-0.12503 -5.02874 1.32290 38 52 52
-0.19311 -4.92948 1.33907 97 109 99
-0.18870 -4.97774 1.34065 141 137 117
-0.19743 -4.98713 1.36373 148 139 121
-0.20205 -4.98969 1.34579 148 139 119
-0.20667 -4.99225 1.32784 143 137 116
-0.44630 -4.74075 1.41054 155 143 112
-0.43817 -4.73201 1.38905 154 140 125
-0.45579 -4.75839 1.41477 107 95 64
-0.46872 -4.76845 1.41965 85 76 54
-0.47671 -4.78966 1.42361 51 46 44
-0.48675 -4.80638 1.42796 26 22 25
-0.50355 -4.81995 1.41599 18 21 13
-0.84854 -5.71502 1.60395 16 15 22
-0.83018 -5.70019 1.61703 4 8 8
-0.83490 -5.70281 1.59869 13 10 13
-0.83962 -5.70543 1.58036 34 31 30
2.55021 -2.64220 0.27319 46 56 152
2.55910 -2.63265 0.24969 38 51 156
2.54551 -2.64481 0.25493 43 58 157
2.54622 -2.65892 0.27551 38 47 123
2.55495 -2.68179 0.27398 29 31 88
2.57356 -2.78624 0.27405 37 28 48
2.58266 -2.77645 0.25000 20 20 57
2.56875 -2.78891 0.25535 28 21 49
2.58228 -2.81004 0.27258 51 39 44
2.59293 -2.83498 0.27055 64 50 43
2.60674 -2.86173 0.26756 74 60 47
2.60882 -2.88268 0.26812 81 66 51
2.60950 -2.90303 0.26912 86 72 55
2.61807 -3.26615 0.28798 113 95 54
2.62785 -3.25564 0.26214 117 97 65
2.61291 -3.26901 0.26789 113 97 56
2.61693 -3.28768 0.28964 90 77 50
2.60878 -3.30517 0.29339 72 52 35
2.58462 -3.31311 0.30188 55 42 24
2.56496 -3.32368 0.30903 25 23 20
2.54482 -3.33995 0.29468 26 22 16
2.53967 -3.35332 0.31918 15 18 41
2.54996 -3.38235 0.31751 95 106 133
2.44555 -3.34017 0.34961 187 209 214
2.43250 -3.37707 0.35614 200 203 188
2.41600 -3.38929 0.36235 199 188 103
2.36415 -3.37882 0.37891 197 170 18
2.35038 -3.39261 0.38430 199 172 38
2.33957 -3.40833 0.38883 196 170 74
2.32464 -3.42139 0.39456 194 174 119
2.33307 -3.44987 0.39347 196 192 175
2.31683 -3.46216 0.39959 176 181 174
2.30180 -3.47525 0.40535 180 181 166
2.29634 -3.49480 0.40833 177 184 179
1.57497 -3.42926 0.64362 151 154 165
1.56619 -3.43869 0.66682 155 162 174
1.56155 -3.44127 0.64879 154 160 175
1.55691 -3.44384 0.63076 154 158 173
1.19588 -3.23744 0.75787 130 139 141
1.20397 -3.22874 0.73649 155 162 177
1.20171 -3.26330 0.75748 64 59 90
1.19416 -3.27841 0.76089 28 26 71
1.18602 -3.28716 0.78240 30 36 69
1.18172 -3.28954 0.76568 28 33 70
1.17741 -3.29193 0.74896 29 28 68
1.18455 -3.35679 0.76876 32 36 59
1.20148 -3.34311 0.78082 30 34 62
1.19713 -3.34553 0.76391 27 34 63
1.19278 -3.34794 0.74701 30 31 65
1.17245 -3.36846 0.77347 50 50 73
1.15195 -3.39500 0.78185 46 49 71
1.13500 -3.40870 0.76977 39 38 63
1.12442 -3.41551 0.79221 42 49 73
1.11898 -3.43307 0.79506 58 68 91
1.10200 -3.44678 0.78297 72 80 106
1.09952 -3.46080 0.80317 66 68 112
1.09332 -3.47790 0.80625 74 84 112
1.08282 -3.49118 0.81052 83 92 110
1.07485 -3.50679 0.81410 80 87 106
1.07344 -3.52848 0.81586 68 72 98
1.07196 -3.55026 0.81766 44 48 77
1.05478 -3.56414 0.80542 30 35 69
1.05481 -3.58096 0.82518 37 46 76
1.05038 -3.58342 0.80798 31 42 76
1.04947 -3.59945 0.82805 46 61 89
1.03222 -3.61339 0.81576 43 43 84
1.04468 -3.61856 0.83079 42 45 86
1.02738 -3.63253 0.81846 47 52 75
1.04137 -3.63920 0.83312 43 40 85
1.02828 -3.67459 0.83957 36 39 69
1.01088 -3.68865 0.82717 27 36 57
1.00524 -3.72494 0.85022 24 33 56
1.01374 -3.71581 0.82776 22 32 66
1.00075 -3.72744 0.83276 23 33 54
1.00647 -3.75078 0.85136 41 50 87
0.99544 -3.76448 0.85584 48 59 92
0.98584 -3.77966 0.85993 49 59 89
0.97490 -3.79353 0.86438 56 68 95
0.96778 -3.81136 0.86781 70 80 101
0.96084 -3.82945 0.87119 79 93 108
0.95304 -3.84674 0.87481 83 95 108
0.93990 -3.85850 0.87987 87 98 106
0.93626 -3.88032 0.88238 85 96 105
0.92527 -3.89445 0.88687 84 91 98
0.92703 -3.92228 0.88795 59 64 76
0.92546 -3.94675 0.88993 29 32 54
0.90757 -3.96120 0.87719 20 25 50
0.90003 -3.97180 0.89986 13 18 53
0.89543 -3.97435 0.88200 14 19 51
0.88671 -3.98368 0.90499 37 48 87
0.89736 -4.02220 0.90376 101 120 139
0.87145 -4.02016 0.91223 138 153 161
0.85350 -4.03466 0.89944 140 147 154
0.85290 -4.05328 0.92036 140 148 148
0.84828 -4.05585 0.90239 139 148 153
0.84512 -4.07165 0.92404 131 136 125
0.85685 -4.11261 0.92260 79 73 64
0.85769 -4.14133 0.92404 33 23 21
0.83945 -4.15606 0.91104 17 19 25
0.86161 -4.23063 0.92807 24 31 26
0.87060 -4.22097 0.90432 19 20 18
0.85686 -4.23327 0.90961 19 23 17
0.84312 -4.24557 0.91490 20 23 12
0.87445 -4.27470 0.92645 24 27 20
0.85581 -4.28975 0.91317 23 28 20
0.89661 -4.44997 0.92958 24 27 24
0.89107 -4.47357 0.93282 33 33 35
0.88354 -4.49481 0.93659 44 47 47
0.87417 -4.51387 0.94084 56 61 57
0.86293 -4.53062 0.94557 71 77 65
0.85712 -4.55441 0.94891 82 86 78
0.84638 -4.57198 0.95353 90 93 87
0.83257 -4.58562 0.95892 98 101 94
0.81321 -4.60126 0.94512 110 117 107
0.82211 -4.60367 0.96347 103 108 101
0.80272 -4.61933 0.94965 110 115 106
0.81105 -4.62099 0.96817 109 112 104
0.79164 -4.63666 0.95434 111 115 110
0.61550 -4.67691 1.03636 113 118 118
0.63459 -4.66149 1.04996 119 123 116
0.62969 -4.66421 1.03090 118 124 115
0.62478 -4.66694 1.01183 121 121 116
0.60455 -4.69426 1.04103 120 132 128
0.58544 -4.70970 1.02741 99 105 103
0.59194 -4.70929 1.04611 115 120 114
0.56856 -4.74213 1.05582 108 115 113
0.56364 -4.74486 1.03669 119 121 112
0.54941 -4.75760 1.04217 120 122 112
0.31293 -4.93581 1.15217 103 107 103
0.32219 -4.92584 1.12768 103 108 101
0.30803 -4.93852 1.13313 104 107 98
0.29387 -4.95120 1.13859 108 109 107
-0.06077 -5.05088 1.28297 92 97 82
-0.05179 -5.04123 1.25923 92 97 90
-0.06552 -5.05352 1.26452 91 94 87
-0.13773 -4.97572 1.30399 82 82 47
-0.16959 -4.95034 1.31304 70 78 59
-0.19996 -4.92738 1.32174 86 97 91
-0.21255 -4.94056 1.32670 125 130 118
-0.43699 -4.77322 1.39113 154 139 111
-0.42881 -4.76442 1.36950 151 140 124
-0.45140 -4.78019 1.39632 106 93 65
-0.47268 -4.81099 1.40522 48 46 40
-0.48723 -4.81756 1.41044 25 24 24
-0.50407 -4.83116 1.39844 17 22 16
2.58221 -2.58809 0.23944 33 42 138
2.60043 -2.57337 0.25242 32 39 127
2.59575 -2.57597 0.23422 32 38 125
2.59107 -2.57857 0.21603 33 40 126
2.58689 -2.58549 0.25764 32 42 138
2.57335 -2.59761 0.26285 37 44 153
2.56993 -2.60079 0.24426 36 47 154
2.56107 -2.61031 0.26768 38 47 161
2.55639 -2.61291 0.24948 37 48 160
2.55170 -2.61551 0.23128 41 52 162
2.53679 -2.65928 0.25867 41 54 142
2.54568 -2.64972 0.23515 42 58 159
2.54381 -2.68134 0.25757 32 38 102
2.54543 -2.70094 0.25815 27 29 82
2.53647 -2.71058 0.28183 24 27 69
2.53173 -2.71321 0.26342 24 25 76
2.52699 -2.71583 0.24501 24 23 70
2.57333 -2.81065 0.25506 39 29 35
2.58247 -2.80083 0.23091 25 20 55
2.56850 -2.81333 0.23629 29 23 47
2.55454 -2.82584 0.24167 37 29 42
2.58471 -2.83598 0.25270 50 40 31
2.60309 -2.88497 0.24934 71 55 50
2.60368 -2.90529 0.25030 79 63 52
2.60796 -2.92765 0.25014 84 70 50
2.59863 -2.93768 0.27479 97 81 53
2.61194 -2.95001 0.25008 90 76 53
2.60258 -2.96007 0.27482 102 83 64
2.61806 -2.97364 0.24938 96 79 59
2.60866 -2.98374 0.27422 107 87 68
2.60369 -2.98650 0.25491 101 81 64
2.61408 -3.29195 0.26880 103 91 48
2.62389 -3.28140 0.24288 114 97 57
2.60597 -3.30948 0.27251 90 74 36
2.60297 -3.33014 0.27469 66 53 29
2.58306 -3.34066 0.28194 39 28 26
2.56283 -3.35700 0.26752 30 27 23
2.54404 -3.36206 0.29620 25 22 28
2.52348 -3.37206 0.30364 24 39 73
2.50023 -3.38032 0.31188 153 172 192
2.44722 -3.36979 0.32900 201 208 215
2.42723 -3.38594 0.31476 200 204 211
2.43420 -3.38424 0.33417 199 203 209
2.42138 -3.39884 0.33928 198 199 175
2.38193 -3.39634 0.35233 195 183 115
2.37923 -3.41740 0.35443 197 191 138
2.36612 -3.43179 0.35962 197 196 164
2.34617 -3.44791 0.34541 196 201 204
2.34733 -3.44246 0.36651 198 198 186
2.32739 -3.45857 0.35230 196 202 203
2.33606 -3.45807 0.37117 197 199 196
2.32090 -3.47113 0.37697 193 199 187
2.29949 -3.47998 0.38463 176 176 161
2.29989 -3.50351 0.38584 193 199 194
2.28716 -3.51825 0.39093 188 190 174
2.27744 -3.52871 0.41662 142 131 91
2.27230 -3.53156 0.39665 151 139 114
1.19092 -3.26039 0.74265 90 91 112
1.20266 -3.29130 0.74048 36 33 74
1.18477 -3.36306 0.75054 39 40 70
1.19301 -3.35420 0.72876 31 29 60
1.17427 -3.37612 0.75479 57 61 80
1.16344 -3.38892 0.75914 57 63 80
1.13188 -3.42826 0.77193 51 51 75
1.12750 -3.44684 0.77445 68 75 95
1.10963 -3.47616 0.78209 67 68 106
1.10397 -3.49384 0.78498 63 65 96
1.08989 -3.50398 0.79027 67 79 96
1.08824 -3.52544 0.79204 61 68 88
1.08957 -3.54979 0.79298 45 41 78
1.07234 -3.56370 0.78071 28 30 67
1.07724 -3.56169 0.79777 34 34 73
1.06002 -3.57560 0.78550 25 32 67
1.05847 -3.61461 0.80706 34 41 82
1.04114 -3.62860 0.79471 45 45 83
1.04333 -3.67185 0.81537 48 53 82
1.02589 -3.68594 0.80294 33 38 68
1.03835 -3.69122 0.81813 37 41 67
1.02088 -3.70533 0.80568 27 37 65
1.02157 -3.77292 0.82839 22 28 55
1.03016 -3.76369 0.80570 24 33 54
1.01704 -3.77544 0.81075 28 30 48
1.00392 -3.78718 0.81581 28 30 48
1.01334 -3.78959 0.83209 21 28 57
0.99566 -3.80387 0.81949 30 32 51
1.01090 -3.81221 0.83419 26 32 61
0.99317 -3.82654 0.82155 30 35 55
1.00000 -3.82633 0.83863 33 37 68
0.98755 -3.83889 0.84351 41 49 77
0.97341 -3.84972 0.84885 49 61 84
0.96206 -3.86344 0.85342 66 79 96
0.94431 -3.87778 0.84077 73 81 93
0.95347 -3.88009 0.85724 75 86 97
0.94218 -3.89395 0.86180 73 81 95
0.93426 -3.91144 0.86544 65 73 91
0.93726 -3.94075 0.86611 45 50 73
0.91936 -3.95521 0.85335 26 28 56
0.92652 -3.95542 0.87053 26 29 55
0.90861 -3.96990 0.85777 20 25 50
0.89389 -3.99926 0.88393 26 34 71
0.90262 -3.98987 0.86086 17 21 49
0.88851 -4.02007 0.88691 78 95 118
0.88226 -4.04004 0.89013 131 149 157
0.86423 -4.05460 0.87728 139 147 153
0.85388 -4.08958 0.90244 135 143 141
0.86268 -4.08012 0.87918 139 148 155
0.86436 -4.12926 0.90119 96 98 84
0.86355 -4.15620 0.90299 28 19 14
0.84525 -4.17098 0.88995 17 17 18
0.88898 -4.41906 0.90944 26 33 25
0.90315 -4.40638 0.90398 23 30 26
0.89825 -4.40910 0.88494 28 31 37
0.88576 -4.44533 0.91201 33 37 35
0.88090 -4.46976 0.91502 43 42 49
0.87273 -4.49017 0.91891 56 58 62
0.86354 -4.50940 0.92308 70 73 71
0.85614 -4.53103 0.92678 84 92 76
0.84628 -4.54960 0.93113 94 100 86
0.83740 -4.56954 0.93523 104 108 98
0.81806 -4.58517 0.92145 114 122 114
0.82398 -4.58365 0.94052 111 117 107
0.80464 -4.59928 0.92673 111 118 110
0.60513 -4.67183 1.01867 117 129 116
0.58607 -4.68723 1.00509 87 87 98
0.59099 -4.68454 1.02412 97 107 109
0.56659 -4.71562 1.03405 106 114 100
0.54750 -4.73103 1.02045 121 122 109
0.34041 -4.88392 1.11921 109 114 107
0.35452 -4.87128 1.11377 113 121 117
0.34964 -4.87399 1.09480 121 122 117
0.32630 -4.89655 1.12464 101 103 97
-0.12586 -4.97244 1.28007 93 95 79
-0.11705 -4.96297 1.25680 94 94 89
-0.13051 -4.97502 1.26198 96 99 88
-0.14397 -4.98707 1.26716 92 93 86
-0.15411 -4.95460 1.28850 93 93 73
-0.17211 -4.96914 1.27568 84 89 89
-0.18389 -4.93317 1.29723 79 86 81
-0.20176 -4.94761 1.28450 87 94 84
-0.21289 -4.91276 1.30577 84 96 89
-0.23576 -4.90451 1.31294 98 111 97
-0.25002 -4.91390 1.31824 129 133 121
-0.25860 -4.92313 1.34093 147 137 117
-0.26314 -4.92565 1.32329 145 137 118
-0.43319 -4.79365 1.37262 151 135 108
-0.42497 -4.78481 1.35090 150 139 120
-0.45110 -4.79293 1.37857 105 88 57
-0.46473 -4.80166 1.38362 83 76 43
-0.47245 -4.82379 1.38746 46 43 39
-0.48559 -4.83366 1.39241 22 24 26
-0.50248 -4.84730 1.38038 21 20 15
2.58518 -2.59419 0.21885 37 45 140
2.59405 -2.58466 0.19540 32 40 124
2.56693 -2.60893 0.20585 44 52 154
2.57303 -2.60698 0.22363 41 51 157
2.55478 -2.62173 0.21063 46 53 160
2.54452 -2.66782 0.23652 44 58 153
2.55344 -2.65823 0.21294 43 57 160
2.53980 -2.67043 0.21819 45 60 162
2.53761 -2.68325 0.23968 35 43 117
2.54205 -2.70423 0.23931 28 30 80
2.59533 -2.86631 0.23011 47 35 44
2.60456 -2.85638 0.20570 29 22 61
2.59045 -2.86902 0.21114 38 28 51
2.57633 -2.88166 0.21657 52 35 41
2.60390 -2.89063 0.22854 57 44 43
2.60511 -2.91131 0.22924 68 53 39
2.60954 -2.93380 0.22896 76 59 39
2.61597 -2.95748 0.22808 83 67 45
2.62184 -2.98104 0.22737 88 74 53
2.61068 -3.29588 0.24811 111 97 51
2.62049 -3.28533 0.22218 117 92 68
2.60549 -3.29876 0.22796 118 93 61
2.59963 -3.31166 0.25269 107 86 42
2.60483 -3.33728 0.25231 76 57 34
2.58998 -3.35090 0.25805 45 29 35
2.56970 -3.36728 0.24360 32 32 29
2.55200 -3.37305 0.27204 35 33 30
2.53194 -3.38340 0.27935 18 24 48
2.54259 -3.41292 0.27736 106 110 131
2.45701 -3.38205 0.30452 190 206 214
2.42428 -3.40683 0.31688 198 203 206
2.41913 -3.40969 0.29687 196 201 210
2.40424 -3.42301 0.30261 197 200 208
2.40370 -3.41649 0.32433 197 199 191
2.38369 -3.43266 0.31007 196 200 205
2.38901 -3.42992 0.33000 199 200 194
2.36900 -3.44608 0.31575 197 201 205
2.37002 -3.44054 0.33697 198 202 202
2.35003 -3.45669 0.32273 196 201 207
2.32834 -3.48236 0.35327 197 203 198
2.33807 -3.47191 0.32756 196 202 208
2.32320 -3.48521 0.33329 196 202 205
2.30834 -3.49852 0.33901 199 202 202
2.31135 -3.49424 0.35963 195 197 185
2.29136 -3.51039 0.34538 205 205 203
2.30959 -3.51642 0.36142 202 204 200
2.28954 -3.53261 0.34713 208 205 205
2.29739 -3.53159 0.36635 205 204 199
2.28461 -3.54640 0.37145 173 168 158
2.27485 -3.55689 0.39724 144 129 108
2.26969 -3.55975 0.37720 148 128 108
1.56159 -3.43120 0.60877 150 140 142
1.56198 -3.45406 0.60987 151 155 165
1.55318 -3.46352 0.63313 154 161 176
1.54853 -3.46610 0.61505 152 160 172
1.23044 -3.29853 0.71315 125 127 134
1.23865 -3.28970 0.69145 155 164 172
1.22610 -3.30094 0.69628 150 154 154
1.20558 -3.29965 0.72159 60 54 76
1.20295 -3.31902 0.72352 29 25 61
1.19474 -3.32784 0.74521 32 33 69
1.19040 -3.33025 0.72835 30 32 65
1.18607 -3.33266 0.71149 27 29 60
1.18412 -3.36862 0.73253 40 46 73
1.19237 -3.35975 0.71073 25 30 59
1.18610 -3.39232 0.73315 61 74 92
1.16880 -3.39968 0.73937 59 66 90
1.16236 -3.41636 0.74244 40 43 72
1.14532 -3.43012 0.73029 32 33 57
1.14306 -3.44432 0.75045 53 54 75
1.12667 -3.45240 0.75640 74 82 100
1.11462 -3.46430 0.76110 72 82 105
1.11039 -3.48321 0.76355 63 68 100
1.11498 -3.51018 0.76346 54 52 88
1.10564 -3.52471 0.76739 54 62 86
1.10205 -3.54455 0.76967 49 58 77
1.09591 -3.56216 0.77269 35 35 65
1.06898 -3.60753 0.78420 27 36 74
1.07741 -3.59847 0.76193 25 28 57
1.05165 -3.62153 0.77185 27 34 71
1.06592 -3.62837 0.78636 31 37 80
1.04855 -3.64241 0.77397 32 35 75
1.05535 -3.69031 0.79326 36 41 69
1.06387 -3.68116 0.77075 31 32 72
1.05085 -3.69281 0.77576 28 35 63
1.00075 -3.85975 0.82079 28 35 58
1.00942 -3.85043 0.79787 29 35 53
0.99616 -3.86230 0.80297 29 36 53
0.99205 -3.87637 0.82461 30 34 58
0.96958 -3.87862 0.83230 57 65 82
0.94652 -3.90595 0.84155 68 73 90
0.94316 -3.92839 0.84389 52 56 84
0.94118 -3.95247 0.84586 36 38 70
0.92323 -3.96697 0.83307 26 28 54
0.89428 -4.00736 0.86461 19 23 59
0.90302 -3.99796 0.84151 21 23 50
0.89888 -4.03938 0.86479 55 70 102
0.88916 -4.05557 0.86894 123 142 154
0.86541 -4.11076 0.87991 137 146 151
0.87426 -4.10125 0.85654 138 147 153
0.86617 -4.13937 0.88120 112 117 105
0.88254 -4.18643 0.87823 32 25 24
0.88146 -4.41853 0.89111 33 37 39
0.87758 -4.44399 0.89379 43 45 48
0.87105 -4.46631 0.89719 56 57 65
0.86300 -4.48686 0.90101 71 76 79
0.85737 -4.51059 0.90419 86 93 86
0.84672 -4.52805 0.90872 97 107 91
0.82746 -4.54361 0.89500 107 111 105
0.83726 -4.54712 0.91293 103 108 99
0.81798 -4.56270 0.89919 107 114 108
0.82987 -4.56897 0.91660 109 115 107
0.81054 -4.58458 0.90283 110 117 111
0.60745 -4.65200 0.99599 125 126 120
0.62647 -4.63664 1.00954 114 126 115
0.62158 -4.63936 0.99055 119 128 116
0.61670 -4.64207 0.97156 122 131 124
0.59203 -4.66280 1.00177 104 105 116
0.56776 -4.69386 1.01162 102 111 99
0.54873 -4.70924 0.99806 117 120 109
0.55557 -4.70939 1.01656 110 115 103
0.53653 -4.72477 1.00299 120 125 114
0.33099 -4.87917 1.10137 116 114 114
0.34021 -4.86927 1.07700 126 127 122
0.31203 -4.89449 1.08785 112 114 117
-0.24721 -4.89267 1.29685 79 90 76
-0.25174 -4.89519 1.27925 83 79 75
-0.26715 -4.89006 1.30342 104 108 104
-0.28140 -4.89919 1.30871 135 132 123
-0.28993 -4.90836 1.33127 147 138 119
-0.29444 -4.91087 1.31374 145 137 119
-0.42537 -4.82311 1.35310 147 133 103
-0.41710 -4.81422 1.33125 150 140 115
-0.44635 -4.81571 1.35977 104 87 47
-0.45989 -4.82479 1.36482 84 75 35
-0.47020 -4.84124 1.36918 44 40 37
2.59887 -2.51430 0.19018 32 40 126
2.61694 -2.49970 0.20306 34 37 121
2.60766 -2.50486 0.16696 28 28 103
2.60351 -2.51173 0.20823 35 42 132
2.59009 -2.52375 0.21340 34 42 129
2.59825 -2.53202 0.19129 33 38 123
2.58944 -2.54149 0.21457 34 39 120
2.58479 -2.54407 0.19648 33 38 116
2.58804 -2.60026 0.19824 37 45 138
2.56977 -2.61502 0.18522 46 55 154
2.52960 -2.68429 0.22236 40 53 138
2.53853 -2.67469 0.19877 49 56 162
2.52778 -2.70224 0.22390 29 38 95
2.52869 -2.72161 0.22458 22 26 74
2.51972 -2.73126 0.24829 23 21 65
2.51498 -2.73389 0.22986 22 22 68
2.60966 -2.91896 0.20716 57 41 32
2.61898 -2.90894 0.18252 50 30 55
2.60473 -2.92169 0.18801 49 31 33
2.61472 -2.94183 0.20661 64 49 31
2.62112 -2.96557 0.20565 72 55 37
2.62704 -2.98921 0.20485 80 64 46
2.62749 -3.01009 0.20576 86 69 50
2.63649 -3.03571 0.20401 91 76 52
2.62699 -3.04593 0.22914 101 84 58
2.63936 -3.05818 0.20418 96 80 53
2.62983 -3.06844 0.22939 105 85 58
2.62478 -3.07123 0.20980 101 84 56
2.58879 -3.31116 0.23426 125 102 45
2.57682 -3.32640 0.23910 93 78 45
2.59977 -3.36292 0.23317 49 41 30
2.57943 -3.37935 0.21868 41 32 21
2.56098 -3.38469 0.24745 41 40 34
2.54217 -3.39588 0.25441 37 35 50
2.52772 -3.40977 0.26002 69 73 103
2.46940 -3.39598 0.27911 168 184 193
2.44874 -3.40573 0.28662 198 206 210
2.42865 -3.42196 0.27230 198 200 207
2.28261 -3.55144 0.35045 197 196 188
2.26094 -3.56011 0.35824 150 148 136
2.25119 -3.57060 0.38401 147 131 115
2.25100 -3.57693 0.36248 144 133 113
2.24124 -3.58742 0.38827 150 133 116
2.23608 -3.59028 0.36822 147 134 119
2.23092 -3.59314 0.34817 148 132 124
1.19823 -3.29955 0.70567 87 81 94
1.20524 -3.32693 0.70469 34 29 61
1.18313 -3.37389 0.71459 29 41 73
1.19138 -3.36501 0.69277 23 31 58
1.18609 -3.39849 0.71484 56 67 91
1.17778 -3.41358 0.71843 68 70 89
1.16657 -3.42622 0.72288 45 46 70
1.15595 -3.46192 0.72831 41 44 65
1.14357 -3.47365 0.73311 53 62 85
1.13525 -3.48900 0.73672 55 62 89
1.12936 -3.50660 0.73961 51 57 83
1.11215 -3.52050 0.72735 37 40 61
1.12406 -3.52482 0.74234 45 48 75
1.11220 -3.53716 0.74699 42 47 74
1.11042 -3.55874 0.74870 37 41 63
1.09915 -3.57172 0.75319 31 30 54
1.08873 -3.58550 0.75743 28 28 61
1.07746 -3.62219 0.76313 25 30 60
1.07299 -3.62467 0.74576 27 33 50
1.06006 -3.63624 0.75073 28 38 61
1.05970 -3.72583 0.77444 33 39 71
1.06827 -3.71661 0.75179 35 36 67
1.05541 -3.74622 0.77694 32 42 68
1.04682 -3.75546 0.79964 25 34 64
1.05267 -3.76827 0.77899 29 37 58
1.03950 -3.78006 0.78407 25 30 53
0.99307 -3.88475 0.80517 29 31 52
1.00177 -3.87540 0.78218 29 34 55
0.97527 -3.89193 0.81157 54 60 75
0.96176 -3.90357 0.81676 69 81 89
0.95114 -3.91829 0.82111 63 73 87
0.95243 -3.94580 0.82208 49 51 78
0.94188 -3.96077 0.82642 35 35 65
0.92391 -3.97529 0.81361 23 28 52
0.89743 -4.01855 0.84446 17 18 55
0.90619 -4.00914 0.82130 22 24 53
0.90822 -4.05760 0.84279 40 51 95
0.90476 -4.08098 0.84515 110 129 155
0.89439 -4.09667 0.84947 137 148 157
0.87617 -4.11140 0.83649 137 146 155
0.87583 -4.13073 0.85751 137 147 151
0.87114 -4.13333 0.83927 136 147 154
0.86294 -4.14367 0.86255 125 130 121
0.90019 -4.21522 0.85355 48 42 46
0.88044 -4.22054 0.86053 23 18 14
0.87144 -4.23022 0.88433 20 21 18
0.87083 -4.23778 0.86467 23 27 22
0.86181 -4.24747 0.88850 23 23 17
0.85705 -4.25011 0.86998 29 31 20
0.85228 -4.25276 0.85146 32 37 22
0.87887 -4.39402 0.86992 37 34 42
0.89785 -4.37869 0.88344 28 31 34
0.89297 -4.38139 0.86448 35 36 37
0.87455 -4.41876 0.87264 45 42 50
0.86924 -4.44244 0.87565 57 58 60
0.86299 -4.46510 0.87893 72 78 78
0.85700 -4.48823 0.88215 86 96 93
0.84694 -4.50633 0.88648 102 111 104
0.82773 -4.52184 0.87280 116 120 114
0.83714 -4.52486 0.89075 108 114 104
0.81792 -4.54039 0.87705 112 118 111
0.59256 -4.64046 0.97967 123 130 124
0.58095 -4.65662 0.98444 87 73 103
0.56485 -4.66633 0.99040 102 103 108
0.54589 -4.68164 0.97689 123 124 110
0.55385 -4.68343 0.99501 118 123 103
0.53487 -4.69876 0.98148 120 122 114
-0.27656 -4.88226 1.28702 86 88 90
-0.28107 -4.88476 1.26952 87 86 78
-0.29261 -4.88750 1.29274 111 116 112
-0.31019 -4.88938 1.29880 138 136 116
-0.31867 -4.89850 1.32123 149 138 119
-0.32316 -4.90099 1.30379 149 138 117
-0.41757 -4.85265 1.33337 144 130 97
-0.40926 -4.84371 1.31140 150 140 111
-0.43976 -4.84271 1.34040 100 85 40
-0.46680 -4.86141 1.35053 44 39 34
-0.47807 -4.87587 1.35509 20 21 21
-0.49510 -4.88963 1.34296 17 20 13
-0.68680 -5.73873 1.46997 31 32 23
-0.66797 -5.72353 1.48338 11 7 9
-0.67281 -5.72621 1.46458 21 17 27
-0.70079 -5.75126 1.47535 41 50 31
2.59423 -2.51688 0.17213 35 22 96
2.59359 -2.53460 0.17320 45 34 88
2.59741 -2.55442 0.17285 43 40 79
2.58858 -2.56392 0.19621 32 40 116
2.58390 -2.56651 0.17805 37 36 92
2.59396 -2.58935 0.17571 36 39 115
2.58391 -2.60313 0.17981 40 46 136
2.52229 -2.68566 0.20485 49 55 151
2.53121 -2.67607 0.18128 44 55 158
2.51758 -2.68828 0.18653 47 55 158
2.51065 -2.69883 0.20947 37 43 115
2.51703 -2.72085 0.20835 29 29 84
2.51073 -2.73676 0.21127 26 21 73
2.50176 -2.74641 0.23499 22 18 60
2.49701 -2.74904 0.21655 22 18 66
2.49227 -2.75167 0.19811 25 22 66
2.61830 -2.94906 0.18468 52 37 25
2.62768 -2.93898 0.15991 37 27 48
2.61335 -2.95180 0.16543 41 29 35
2.62069 -2.97072 0.18491 62 47 33
2.62735 -2.99480 0.18379 72 57 36
2.63054 -3.01719 0.18378 80 63 42
2.63792 -3.04199 0.18245 85 71 46
2.64239 -3.06538 0.18204 90 75 48
2.60787 -3.21759 0.20117 120 91 66
2.62785 -3.20146 0.21540 116 94 58
2.62271 -3.20431 0.19545 116 91 62
2.61300 -3.21474 0.22112 117 94 52
2.59816 -3.22803 0.22684 117 94 54
2.60765 -3.23941 0.20229 121 94 71
2.59792 -3.24988 0.22803 115 93 57
2.58762 -3.25559 0.18802 136 112 75
2.60626 -3.26066 0.20379 124 101 69
2.58617 -3.27689 0.18948 136 114 73
2.60232 -3.28052 0.20610 128 107 71
2.57970 -3.31169 0.21533 153 130 69
2.57146 -3.32918 0.21899 108 83 53
2.59709 -3.36737 0.21206 55 42 16
2.57674 -3.38381 0.19756 44 26 32
2.56314 -3.39215 0.22487 47 39 36
2.54622 -3.40455 0.23125 58 50 41
2.52356 -3.41333 0.23943 85 88 97
2.50277 -3.42322 0.24701 147 159 167
2.45028 -3.41286 0.26447 194 208 209
2.43016 -3.42911 0.25013 197 200 210
2.30835 -3.52830 0.31857 203 207 207
2.32328 -3.51494 0.31282 199 201 206
2.29548 -3.54307 0.32368 200 206 204
2.27076 -3.57338 0.33359 126 121 107
2.25507 -3.58625 0.33958 136 123 109
2.23495 -3.60250 0.32525 147 131 127
1.24584 -3.34482 0.67317 116 116 120
1.21165 -3.33828 0.68455 54 46 66
1.20491 -3.35447 0.68763 27 26 53
1.18792 -3.36820 0.67553 22 30 56
1.18603 -3.38248 0.69544 24 32 68
1.18713 -3.40555 0.69617 50 57 84
1.18801 -3.42861 0.69698 77 78 83
1.17136 -3.43662 0.70306 61 59 63
1.16993 -3.45788 0.70457 36 33 50
1.15919 -3.47110 0.70888 35 33 55
1.15085 -3.48646 0.71247 35 41 67
1.14187 -3.50130 0.71626 39 45 76
1.13913 -3.52181 0.71818 40 44 70
1.11461 -3.54585 0.72773 36 40 64
1.10994 -3.56485 0.73024 39 46 67
1.11002 -3.58835 0.73134 53 58 74
1.09599 -3.59888 0.73665 48 54 71
1.06384 -3.73683 0.75428 55 56 72
1.06962 -3.76722 0.75376 61 70 79
1.06091 -3.78350 0.75753 44 47 56
1.05453 -3.80217 0.76061 29 29 55
1.04587 -3.81149 0.78351 28 29 47
1.04129 -3.81403 0.76571 29 31 49
1.00492 -3.90447 0.78250 33 32 56
1.01366 -3.89507 0.75940 29 32 56
0.98725 -3.91190 0.78890 49 56 76
0.97227 -3.92211 0.79451 57 72 86
0.96075 -3.93599 0.79912 52 61 82
0.95460 -3.95566 0.80217 39 43 70
0.93661 -3.97019 0.78935 24 31 56
0.94079 -3.96715 0.80745 29 33 60
0.92280 -3.98168 0.79463 22 28 53
0.91043 -4.04075 0.82137 17 19 59
0.91924 -4.03128 0.79810 22 27 57
0.90577 -4.04334 0.80328 22 23 63
0.90754 -4.06466 0.82351 31 39 89
0.89598 -4.07894 0.82815 91 108 141
0.90632 -4.11817 0.82650 133 149 161
0.88801 -4.13296 0.81345 138 147 154
0.86991 -4.15985 0.84096 129 137 131
0.87883 -4.15026 0.81740 135 147 155
0.89523 -4.21764 0.83508 72 67 61
0.89069 -4.24088 0.83775 29 20 11
0.87209 -4.25591 0.82450 26 34 23
0.87978 -4.25671 0.84225 25 33 23
0.86116 -4.27175 0.82898 35 38 32
0.87115 -4.36338 0.85033 42 42 40
0.89004 -4.34813 0.86378 34 35 29
0.88518 -4.35082 0.84492 37 41 30
0.86799 -4.38933 0.85266 50 46 49
0.86534 -4.41612 0.85485 62 59 61
0.86409 -4.44485 0.85666 75 77 72
0.85226 -4.46050 0.86146 89 97 89
0.84710 -4.48466 0.86439 100 111 104
0.82795 -4.50013 0.85075 119 122 117
0.83865 -4.50479 0.86825 114 122 116
0.81947 -4.52028 0.85458 117 122 115
0.59582 -4.62212 0.95695 117 129 124
0.61474 -4.60684 0.97043 123 126 115
0.60988 -4.60954 0.95154 120 129 118
0.60502 -4.61224 0.93265 115 122 109
0.57691 -4.63740 0.94347 96 109 115
0.57815 -4.62954 0.96335 111 117 120
0.56978 -4.65026 0.96721 95 84 82
0.54963 -4.65404 0.97428 117 121 112
0.53074 -4.66930 0.96082 121 122 111
-0.30619 -4.87071 1.27744 87 94 85
-0.29772 -4.86160 1.25505 93 90 76
-0.31067 -4.87319 1.26004 83 87 73
-0.32073 -4.87890 1.28281 120 126 116
-0.33716 -4.88294 1.28862 144 136 121
-0.34561 -4.89202 1.31096 148 139 118
-0.35007 -4.89450 1.29359 148 137 117
-0.35454 -4.89698 1.27623 146 136 121
-0.41720 -4.86576 1.31517 141 126 94
-0.43671 -4.86190 1.32166 98 83 41
-0.45076 -4.87018 1.32686 81 74 31
-0.46195 -4.88500 1.33140 42 36 32
-0.68405 -5.70940 1.44703 47 55 36
-0.66529 -5.69425 1.46040 13 9 22
-0.67493 -5.69960 1.42293 66 69 55
-0.68887 -5.71207 1.42829 67 74 54
-0.70281 -5.72455 1.43366 71 75 59
2.65850 -2.46010 0.12765 26 37 117
2.67658 -2.44550 0.14053 24 37 124
2.67193 -2.44808 0.12247 26 39 125
2.66314 -2.45752 0.14570 25 38 127
2.65385 -2.46268 0.10959 25 34 107
2.64506 -2.47213 0.13282 24 32 103
2.60529 -2.49055 0.14736 30 28 110
2.62332 -2.47598 0.16021 29 28 109
2.61869 -2.47856 0.14220 25 28 102
2.60992 -2.48798 0.16537 28 31 107
2.59909 -2.50571 0.15019 36 43 126
2.60942 -2.52824 0.14764 85 87 144
2.58967 -2.53751 0.15487 133 121 133
2.59823 -2.55948 0.15291 109 99 80
2.59225 -2.57501 0.15567 68 61 64
2.58839 -2.59156 0.15775 53 45 92
2.58049 -2.60632 0.16114 49 48 123
2.56220 -2.62109 0.14811 55 57 112
2.57206 -2.62088 0.16470 47 56 151
2.56316 -2.63044 0.18822 45 56 156
2.55846 -2.63305 0.16994 47 57 158
2.49937 -2.69826 0.19325 41 48 134
2.50829 -2.68868 0.16970 47 56 158
2.50213 -2.71849 0.19322 33 35 99
2.49447 -2.73370 0.19654 29 25 74
2.47605 -2.74858 0.18342 29 21 66
2.62231 -2.97697 0.16348 50 38 31
2.63172 -2.96685 0.13858 33 27 47
2.61733 -2.97974 0.14413 41 30 31
2.62324 -2.99804 0.16411 62 47 34
2.62572 -3.02007 0.16425 71 55 41
2.63201 -3.04430 0.16317 78 62 46
2.63698 -3.06799 0.16253 84 68 46
2.63632 -3.08873 0.16370 89 72 49
2.63816 -3.11097 0.16407 94 77 53
2.62855 -3.12130 0.18947 104 84 58
2.62347 -3.12412 0.16972 100 79 55
2.61893 -3.18616 0.17409 113 88 72
2.63886 -3.17007 0.18829 111 88 69
2.63374 -3.17291 0.16839 110 85 64
2.62405 -3.18332 0.19399 113 90 64
2.60770 -3.20146 0.17865 119 100 74
2.58776 -3.21757 0.16445 135 114 75
2.60388 -3.22110 0.18086 129 109 77
2.58390 -3.23724 0.16662 138 114 80
2.60341 -3.24280 0.18200 138 112 84
2.58338 -3.25898 0.16772 135 113 71
2.58944 -3.30112 0.18945 147 118 79
2.57425 -3.31440 0.19528 161 139 92
2.56841 -3.33335 0.19816 117 93 52
2.59264 -3.37075 0.19149 59 51 17
2.55556 -3.39359 0.20530 45 34 43
2.53630 -3.40452 0.21244 82 76 57
2.51238 -3.41247 0.22104 112 114 114
2.49852 -3.42671 0.22646 134 144 153
2.45388 -3.42133 0.24160 181 191 196
2.35559 -3.49615 0.27886 196 202 208
2.37571 -3.47990 0.29320 198 202 208
2.37054 -3.48277 0.27310 198 201 209
2.36076 -3.49328 0.29896 197 201 208
2.34581 -3.50667 0.30471 197 200 207
2.33885 -3.50834 0.28518 190 201 208
2.32153 -3.52011 0.29168 180 196 205
2.33863 -3.55532 0.28738 171 174 183
2.31840 -3.57167 0.27296 107 102 108
2.30380 -3.55519 0.29938 149 131 154
2.28435 -3.56550 0.30655 117 100 120
2.27035 -3.57957 0.31201 102 98 99
1.20136 -3.33576 0.66943 79 71 88
1.20964 -3.36453 0.66788 30 26 58
1.19166 -3.39341 0.67538 23 30 59
1.18588 -3.41068 0.67815 48 55 80
1.19892 -3.44427 0.67517 81 91 90
1.18177 -3.45193 0.68143 82 88 77
1.18055 -3.47350 0.68283 67 62 68
1.15944 -3.47766 0.69029 56 55 68
1.14553 -3.51099 0.69659 41 49 69
1.13948 -3.52859 0.69947 41 48 77
1.12906 -3.54230 0.70368 49 56 74
1.13436 -3.57041 0.70313 60 68 81
1.14554 -3.60416 0.70080 74 89 98
1.13278 -3.61606 0.70573 79 93 106
1.10965 -3.61828 0.71381 59 69 79
1.09219 -3.63239 0.70136 34 37 56
1.09794 -3.63109 0.71842 38 37 53
1.08047 -3.64520 0.70597 27 37 53
1.07510 -3.73019 0.73077 34 31 64
1.09279 -3.71591 0.74337 32 40 74
1.08370 -3.72095 0.70805 28 26 42
1.08941 -3.76887 0.72759 80 88 75
1.07158 -3.78327 0.71489 87 90 103
1.07744 -3.78199 0.73230 90 93 100
1.06498 -3.79464 0.73717 67 65 66
1.05925 -3.81403 0.74002 36 35 61
1.05170 -3.83170 0.74342 37 42 57
1.04300 -3.84105 0.76642 29 31 42
1.04626 -3.85160 0.74620 32 35 54
1.03754 -3.86097 0.76925 32 31 47
1.03293 -3.86353 0.75133 29 33 50
1.02832 -3.86609 0.73341 28 34 59
1.01440 -3.92178 0.76035 36 35 60
0.99635 -3.93636 0.74749 48 57 75
0.99766 -3.93028 0.76650 46 57 77
0.98260 -3.94052 0.77215 47 62 85
0.97221 -3.95572 0.77642 40 47 76
0.95417 -3.97029 0.76357 26 32 60
0.96126 -3.97035 0.78086 31 36 63
0.94320 -3.98494 0.76800 24 30 57
0.92058 -4.08714 0.80016 27 31 77
0.92946 -4.07759 0.77669 26 27 61
0.92906 -4.12425 0.79891 67 82 116
0.91529 -4.13637 0.80420 126 145 160
0.89691 -4.15122 0.79110 139 147 151
0.87808 -4.17746 0.81889 131 141 139
0.88702 -4.16784 0.79524 134 145 153
0.88313 -4.21168 0.81869 94 93 82
0.89436 -4.25352 0.81671 31 24 10
0.87571 -4.26858 0.80342 25 30 27
0.86272 -4.33209 0.83117 40 40 38
0.88151 -4.31692 0.84455 34 38 22
0.87668 -4.31960 0.82579 37 40 31
0.87185 -4.32227 0.80703 35 35 37
0.86419 -4.36349 0.83208 51 48 51
0.86999 -4.40051 0.83175 65 64 71
0.86309 -4.42210 0.83511 79 81 81
0.85334 -4.44026 0.83929 95 100 88
0.84477 -4.45997 0.84313 105 111 103
0.82569 -4.47539 0.82953 121 124 120
0.83600 -4.47954 0.84704 114 118 114
0.81689 -4.49498 0.83342 122 125 118
0.54633 -4.62617 0.95350 116 117 98
0.55548 -4.61634 0.92933 92 108 119
0.52752 -4.64137 0.94010 129 131 129
0.53302 -4.63966 0.95870 126 127 123
-0.33182 -4.86718 1.26706 90 94 95
-0.32338 -4.85811 1.24475 89 92 76
-0.34934 -4.86872 1.27316 127 125 128
-0.40288 -4.87009 1.29168 152 138 112
-0.38569 -4.85620 1.30393 148 138 112
-0.39011 -4.85865 1.28676 148 136 117
-0.39453 -4.86110 1.26959 146 136 120
-0.41977 -4.87232 1.29760 140 122 94
-0.43491 -4.87833 1.30309 98 79 43
-0.44820 -4.88846 1.30813 81 71 32
-0.45570 -4.91192 1.31177 41 33 32
-0.47288 -4.92580 1.29953 19 18 15
-0.46936 -4.92126 1.31691 20 19 14
-0.48654 -4.93513 1.30467 17 19 12
2.69270 -2.44365 0.09530 30 43 126
2.71082 -2.42901 0.10821 33 47 131
2.70616 -2.43160 0.09011 33 45 125
2.69735 -2.44107 0.11340 28 42 129
2.67458 -2.45829 0.08239 33 29 107
2.67059 -2.45205 0.10333 28 39 117
2.63141 -2.47083 0.11773 30 34 107
2.61559 -2.48180 0.12369 33 38 128
2.58596 -2.50455 0.13494 97 93 169
2.59316 -2.52568 0.13333 142 136 159
2.58297 -2.53918 0.13744 162 150 126
2.58654 -2.55891 0.13704 143 132 86
2.58808 -2.57784 0.13730 119 105 69
2.58402 -2.59431 0.13941 110 97 80
2.58021 -2.61097 0.14143 88 82 85
2.56030 -2.63873 0.14952 45 54 146
2.55139 -2.64831 0.17307 44 55 158
2.54668 -2.65092 0.15476 45 53 153
2.49759 -2.70230 0.17398 45 55 146
2.50651 -2.69271 0.15041 48 56 158
2.48752 -2.71626 0.17807 33 41 115
2.48684 -2.73489 0.17910 30 26 79
2.61218 -2.99757 0.14667 50 35 35
2.60719 -3.00033 0.12729 41 30 36
2.61785 -3.02131 0.14571 58 44 36
2.62436 -3.04567 0.14447 68 54 40
2.63112 -3.07034 0.14317 78 59 43
2.63753 -3.09500 0.14198 84 64 46
2.63840 -3.11675 0.14260 91 71 48
2.63845 -3.13817 0.14349 98 78 55
2.62880 -3.14854 0.16899 104 81 59
2.61860 -3.15420 0.12935 108 91 60
2.63028 -3.15508 0.14704 107 86 62
2.61041 -3.17113 0.13288 116 98 69
2.62487 -3.17361 0.14970 117 96 64
2.60496 -3.18970 0.13552 124 103 76
2.61478 -3.18955 0.15388 126 102 73
2.59486 -3.20565 0.13968 129 107 79
2.60420 -3.20525 0.15822 130 109 75
2.58426 -3.22136 0.14401 136 112 78
2.59054 -3.28542 0.16635 135 112 77
2.60033 -3.27490 0.14049 132 112 75
2.58258 -3.30299 0.16986 156 131 77
2.56871 -3.31706 0.17527 155 134 94
2.56414 -3.33679 0.17769 123 98 55
2.58389 -3.37150 0.17230 62 54 15
2.57330 -3.38782 0.17667 38 27 23
2.55074 -3.39674 0.18488 55 60 47
2.52724 -3.40501 0.19339 123 123 120
2.50695 -3.42140 0.17893 139 141 139
2.50948 -3.41682 0.20005 135 139 130
2.48920 -3.43320 0.18560 140 144 145
2.49344 -3.42969 0.20617 133 135 145
2.47032 -3.43803 0.21455 156 160 175
2.43406 -3.43783 0.22713 192 200 207
2.42426 -3.44836 0.25303 195 199 204
2.41908 -3.45124 0.23290 198 203 204
2.40088 -3.46254 0.23970 197 204 204
2.40606 -3.45966 0.25982 196 199 203
2.39109 -3.47306 0.26558 198 203 208
2.38823 -3.47746 0.24472 192 203 206
2.37607 -3.49273 0.24959 183 195 201
2.36833 -3.51099 0.25305 172 172 182
2.35080 -3.52272 0.25964 153 131 159
2.33597 -3.53627 0.26536 118 112 151
2.32283 -3.55096 0.27054 99 103 141
2.28358 -3.57142 0.28504 120 115 115
2.27645 -3.59031 0.28831 134 131 123
2.25626 -3.60662 0.27393 148 153 140
2.25478 -3.59905 0.29621 146 145 134
1.25059 -3.38289 0.63580 107 103 116
1.21526 -3.37535 0.64775 45 41 67
1.20791 -3.39123 0.65098 23 28 53
1.19772 -3.40475 0.65509 20 29 57
1.18764 -3.41840 0.65916 41 52 74
1.20581 -3.45651 0.65446 80 93 99
1.20110 -3.47507 0.65689 97 109 106
1.19392 -3.49157 0.66008 96 101 102
1.19273 -3.51343 0.66141 87 90 97
1.18898 -3.53316 0.66355 82 90 86
1.20109 -3.56721 0.66078 80 84 87
1.18677 -3.57774 0.66620 81 86 109
1.16680 -3.58311 0.67336 95 108 116
1.15624 -3.59701 0.67762 102 114 115
1.14443 -3.60979 0.68226 100 110 113
1.12701 -3.61738 0.68863 69 73 92
1.11850 -3.63324 0.69225 45 43 58
1.10097 -3.64740 0.67976 34 36 52
1.08183 -3.74371 0.70966 25 25 57
1.09045 -3.73444 0.68687 26 27 43
1.08964 -3.77615 0.70832 78 95 87
1.07179 -3.79056 0.69560 82 97 104
1.06516 -3.80193 0.71791 83 82 85
1.06018 -3.82213 0.72049 47 50 67
1.05246 -3.83967 0.72391 42 53 62
1.04717 -3.85977 0.72660 34 40 68
1.03472 -3.89841 0.73256 29 34 60
1.03936 -3.89583 0.75058 27 32 52
1.02745 -3.91679 0.73586 35 40 64
1.00937 -3.93139 0.72298 48 55 71
1.01577 -3.93065 0.74050 45 49 70
0.98782 -3.95356 0.75117 40 49 75
0.96975 -3.96817 0.73829 24 30 60
0.97785 -3.96929 0.75530 31 36 68
0.95975 -3.98391 0.74241 26 29 58
0.93120 -4.10699 0.77732 24 25 66
0.94012 -4.09740 0.75375 24 24 55
0.92077 -4.12283 0.78162 48 61 101
0.92267 -4.15282 0.78222 121 140 156
0.90422 -4.16772 0.76907 139 146 153
0.88400 -4.19252 0.79733 130 142 144
0.89298 -4.18287 0.77360 132 143 152
0.88691 -4.22436 0.79766 106 113 101
0.89476 -4.26232 0.79654 34 31 20
0.85863 -4.33566 0.81219 41 38 46
0.86680 -4.37534 0.81103 66 66 59
0.86097 -4.39809 0.81402 84 93 95
0.85164 -4.41664 0.81804 97 107 98
0.83265 -4.43198 0.80451 110 121 103
0.84436 -4.43785 0.82146 109 117 98
0.82534 -4.45322 0.80790 113 119 112
0.83768 -4.45993 0.82472 115 119 110
0.81861 -4.47533 0.81113 113 122 118
0.53126 -4.61406 0.93764 117 128 121
-0.07219 -5.06107 1.16610 106 104 90
-0.05844 -5.04876 1.16080 113 115 103
-0.06743 -5.05843 1.18457 106 105 91
-0.07694 -5.06370 1.14762 104 100 93
-0.08118 -5.07074 1.18987 103 100 95
-0.34195 -4.85745 1.25117 84 87 77
-0.33353 -4.84840 1.22893 93 96 81
-0.34640 -4.85992 1.23388 91 94 85
-0.35728 -4.86362 1.25676 103 106 107
-0.37520 -4.86400 1.26300 133 130 124
-0.40671 -4.87385 1.27436 154 138 110
-0.42163 -4.88049 1.27982 140 120 89
-0.43353 -4.89390 1.28452 96 75 37
-0.44670 -4.90442 1.28954 80 70 29
-0.45560 -4.92478 1.29349 41 30 33
2.70459 -2.43546 0.07099 34 40 118
2.72272 -2.42082 0.08391 40 51 118
2.71806 -2.42340 0.06580 36 45 116
2.71340 -2.42599 0.04769 31 40 115
2.69993 -2.43805 0.05288 33 36 117
2.68356 -2.44435 0.07869 33 34 110
2.64705 -2.46433 0.09226 37 35 122
2.61754 -2.46943 0.10278 62 56 147
2.59526 -2.47755 0.11090 83 73 170
2.60778 -2.50084 0.10743 112 104 196
2.59760 -2.51430 0.11152 153 150 197
2.58556 -2.52695 0.11623 173 167 151
2.58003 -2.54253 0.11878 157 144 106
2.59649 -2.56811 0.11403 121 107 80
2.59327 -2.58494 0.11582 107 96 74
2.57986 -2.59716 0.12099 126 121 81
2.57356 -2.61268 0.12380 141 131 77
2.56730 -2.62826 0.12661 104 97 84
2.55793 -2.64244 0.13044 56 59 111
2.53960 -2.65725 0.11738 72 45 104
2.54421 -2.65459 0.13572 49 48 138
2.53530 -2.66417 0.15928 42 52 151
2.53059 -2.66679 0.14097 46 49 144
2.52587 -2.66940 0.12266 63 49 122
2.48926 -2.70315 0.15686 53 59 155
2.48455 -2.70576 0.13855 50 57 152
2.47501 -2.71503 0.16231 43 45 131
2.47855 -2.73575 0.16189 35 29 96
2.47081 -2.75095 0.16520 32 21 73
2.46186 -2.76057 0.18886 24 19 56
2.45712 -2.76320 0.17047 26 19 60
2.45239 -2.76582 0.15208 25 21 65
2.58862 -2.96987 0.13259 36 30 50
2.60295 -2.95705 0.12707 30 27 66
2.60905 -3.02204 0.12749 48 38 24
2.60404 -3.02481 0.10805 42 32 32
2.61039 -3.04360 0.12787 59 47 32
2.62035 -3.07001 0.12543 71 55 42
2.63154 -3.09730 0.12259 81 63 45
2.63055 -3.11803 0.12375 91 74 48
2.62814 -3.13808 0.12538 100 85 52
2.58614 -3.28874 0.14600 136 112 80
2.59592 -3.27822 0.12014 135 111 81
2.57558 -3.30477 0.15033 162 140 89
2.56527 -3.32098 0.15457 145 124 93
2.55829 -3.33927 0.15773 126 107 62
2.57466 -3.37194 0.15329 64 58 19
2.55955 -3.38546 0.15911 43 42 35
2.52970 -3.38980 0.16972 103 101 80
2.50944 -3.40616 0.15529 147 148 154
2.52403 -3.40916 0.17247 141 142 143
2.50373 -3.42556 0.15801 138 140 140
2.46791 -3.44271 0.19342 143 146 155
2.47776 -3.43212 0.16740 142 140 148
2.43407 -3.44405 0.20532 184 189 184
2.41752 -3.45646 0.21160 189 194 200
2.39781 -3.46679 0.21890 180 166 182
2.38270 -3.48010 0.22471 158 127 152
2.37254 -3.49671 0.22892 126 112 137
2.35901 -3.51110 0.23422 104 103 126
2.34584 -3.52576 0.23940 122 109 125
2.32983 -3.53849 0.24551 132 129 140
2.31491 -3.55197 0.25126 131 131 140
2.30055 -3.56583 0.25683 141 143 125
2.28773 -3.58077 0.26190 145 140 137
2.26753 -3.59708 0.24751 150 150 135
2.27050 -3.59265 0.26840 150 153 136
1.22867 -3.37070 0.62419 134 136 133
1.23699 -3.36177 0.60222 153 160 171
1.21584 -3.38198 0.62912 72 67 73
1.21301 -3.40173 0.63089 27 27 48
1.19587 -3.41558 0.61867 24 27 46
1.20283 -3.41531 0.63499 19 29 52
1.19338 -3.42957 0.63886 35 45 65
1.20225 -3.45973 0.63694 75 83 100
1.20360 -3.48360 0.63741 100 111 120
1.19505 -3.49895 0.64100 106 118 119
1.18719 -3.51496 0.64438 108 114 121
1.18357 -3.53481 0.64643 109 112 118
1.17804 -3.55308 0.64908 110 116 121
1.16764 -3.56702 0.65327 116 124 135
1.15932 -3.58290 0.65680 118 132 137
1.15308 -3.60075 0.65969 102 112 118
1.14027 -3.61261 0.66464 79 85 99
1.13842 -3.63467 0.66616 49 42 69
1.12083 -3.64888 0.65362 35 37 49
1.12921 -3.64999 0.66998 37 33 47
1.11160 -3.66421 0.65743 34 34 53
1.08428 -3.75309 0.68976 28 24 58
1.08914 -3.78272 0.68922 70 82 104
1.06502 -3.80891 0.69869 88 89 94
1.06042 -3.81146 0.68084 85 89 101
1.05775 -3.82686 0.70194 64 68 77
1.05410 -3.84856 0.70407 46 51 66
1.04987 -3.86980 0.70639 35 33 68
1.04276 -3.88822 0.70960 33 32 68
1.02472 -3.90279 0.69675 45 55 74
1.03583 -3.90693 0.71276 38 41 70
1.00582 -3.95385 0.72511 43 47 65
0.98769 -3.96850 0.71219 25 31 57
0.99371 -3.96735 0.72988 31 37 63
0.97557 -3.98200 0.71696 23 29 58
0.93629 -4.12067 0.75600 26 24 62
0.92815 -4.13921 0.75958 59 65 102
0.92999 -4.16926 0.76011 125 141 155
0.91148 -4.18422 0.74692 135 145 158
0.89072 -4.20856 0.77540 127 141 148
0.89972 -4.19887 0.75159 130 144 154
0.87956 -4.22396 0.77991 115 122 117
0.89129 -4.26657 0.77748 42 46 43
0.87827 -4.28004 0.78257 26 28 31
0.86919 -4.28981 0.80658 31 34 41
0.86439 -4.29247 0.78792 28 34 34
0.85946 -4.31577 0.79056 42 38 30
0.85460 -4.33932 0.79318 53 56 60
0.86331 -4.37972 0.79173 87 90 73
0.84438 -4.39501 0.77824 113 116 107
0.85263 -4.39650 0.79612 102 108 105
0.83369 -4.41180 0.78263 111 118 107
0.84523 -4.41743 0.79954 110 121 109
0.82625 -4.43276 0.78601 109 117 104
0.53222 -4.59254 0.91595 103 113 117
0.55092 -4.57743 0.92927 117 121 101
0.54611 -4.58010 0.91059 124 131 111
0.54131 -4.58276 0.89192 123 129 113
0.51426 -4.59909 0.92249 114 119 117
0.49559 -4.61417 0.90918 110 112 111
0.49698 -4.60654 0.92882 120 120 120
0.48312 -4.61895 0.93416 105 109 115
0.47833 -4.62161 0.91553 111 113 111
-0.38173 -4.86185 1.24632 107 114 105
-0.39694 -4.86799 1.25189 138 135 119
-0.41416 -4.88189 1.23962 146 142 115
-0.41084 -4.87697 1.25710 152 141 109
-0.43146 -4.91109 1.26566 94 75 38
-0.44461 -4.92180 1.27068 78 68 28
-0.44938 -4.95186 1.27354 39 30 33
-0.46064 -4.96712 1.27808 18 18 17
-0.47352 -4.97864 1.28303 19 19 13
-0.47797 -4.98111 1.26573 18 19 11
2.82542 -2.36591 0.00602 44 40 58
2.83897 -2.35378 0.00080 41 34 42
2.83010 -2.36331 0.02423 54 45 47
2.81655 -2.37545 0.02945 50 46 63
2.81186 -2.37805 0.01124 37 41 80
2.68271 -2.44853 0.05933 33 32 109
2.65856 -2.45605 0.06812 48 42 128
2.62348 -2.45881 0.08058 89 82 171
2.62694 -2.47805 0.08007 124 113 196
2.60888 -2.49264 0.06719 142 138 232
2.62108 -2.49336 0.08269 132 108 207
2.60716 -2.50518 0.08803 150 134 218
2.59374 -2.51723 0.09320 189 180 198
2.58602 -2.53181 0.09645 182 166 148
2.59577 -2.55428 0.09383 126 111 95
2.60766 -2.57789 0.09050 74 60 79
2.59565 -2.59077 0.09520 56 51 94
2.58405 -2.60385 0.09977 87 89 103
2.57168 -2.61659 0.10459 136 126 96
2.55338 -2.63138 0.09155 141 107 71
2.55887 -2.62913 0.10956 137 118 76
2.55288 -2.64490 0.11225 99 69 77
2.51383 -2.68236 0.12738 52 48 133
2.50912 -2.68497 0.10906 88 59 76
2.49550 -2.69717 0.11431 73 53 111
