ply
format ascii 1.0
element face 0
property list uchar int vertex_indices
element vertex 1267
property float x
property float y
property float z
property uchar diffuse_red
property uchar diffuse_green
property uchar diffuse_blue
end_header
-3.89698 -5.12993 0.54117 129 134 119
-3.89877 -5.15526 0.56251 117 122 123
-3.91716 -5.16682 0.54899 132 140 134
-3.91389 -5.16418 0.56664 128 139 126
-3.93227 -5.17574 0.55313 122 132 131
-4.84449 -5.59292 0.80964 200 210 216
-4.83338 -5.58602 0.78845 211 226 230
-5.29871 -5.75839 0.92406 193 207 216
-5.28119 -5.74738 0.93694 197 201 210
-5.28784 -5.75163 0.90332 208 219 229
-5.30204 -5.76052 0.90725 210 221 229
-5.34712 -5.75061 0.93383 190 204 215
-5.35042 -5.75272 0.91714 196 206 210
-5.35792 -5.75732 0.95443 212 218 227
-5.36122 -5.75944 0.93774 195 211 220
-5.36452 -5.76155 0.92104 196 207 212
-3.48252 -3.85173 0.33247 75 52 46
-3.47316 -3.84592 0.31463 189 195 187
-3.48537 -3.85356 0.31801 190 189 168
-3.51826 -3.83258 0.33854 56 39 34
-3.53564 -3.83411 0.34249 42 33 24
-3.55481 -3.83349 0.34663 39 38 35
-3.56969 -3.84284 0.33570 40 38 35
-3.57386 -3.83290 0.35075 44 43 44
-3.58869 -3.84222 0.33985 38 40 45
-3.64993 -3.82949 0.36711 38 39 52
-3.66460 -3.83871 0.35633 35 38 46
-3.80478 -4.06861 0.42310 35 36 52
-3.78966 -4.05911 0.43421 29 37 42
-3.79253 -4.06094 0.41971 28 29 33
-3.81636 -4.07722 0.42643 50 64 77
-3.82739 -4.08662 0.42971 106 125 134
-3.78202 -4.17540 0.42796 163 185 191
-3.79752 -4.18514 0.41656 179 200 217
-3.78101 -4.20251 0.43023 179 203 213
-3.79661 -4.21231 0.41877 174 195 214
-3.77321 -4.26595 0.43437 173 196 209
-3.76776 -4.30047 0.43636 160 175 178
-3.76040 -4.33817 0.43823 98 96 87
-3.72579 -4.41649 0.43786 29 18 8
-3.74217 -4.42679 0.42582 20 25 10
-3.73785 -4.42661 0.44144 23 23 15
-3.74700 -4.44111 0.44478 35 34 28
-3.76342 -4.45144 0.43271 47 46 34
-3.65153 -4.64327 0.44250 69 71 68
-3.63122 -4.70454 0.44370 99 103 70
-3.64871 -4.71553 0.43085 103 102 92
-3.83209 -5.06657 0.52111 114 115 86
-3.81385 -5.05510 0.53451 117 113 88
-3.81731 -5.05731 0.51701 117 112 86
-3.82863 -5.06435 0.53860 114 114 86
-3.85198 -5.06647 0.52545 110 120 102
-3.86277 -5.08300 0.52935 116 127 108
-3.88101 -5.09446 0.51595 124 142 132
-3.88755 -5.11047 0.53731 123 132 111
-3.90582 -5.12195 0.52388 128 140 126
-4.85215 -5.57976 0.79199 211 225 224
-4.84108 -5.57288 0.77087 213 226 232
-4.85554 -5.58192 0.77487 220 232 236
-4.86439 -5.59690 0.79625 205 218 218
-4.87549 -5.60379 0.81740 196 209 213
-4.87888 -5.60596 0.80026 199 215 215
-5.31964 -5.74986 0.91013 201 214 218
-5.32295 -5.75198 0.89339 196 207 214
-5.33709 -5.76083 0.89730 198 216 221
-5.33546 -5.74895 0.91351 197 212 214
-5.35288 -5.75990 0.90071 200 217 224
-1.81988 -4.05817 -0.03215 150 146 145
-1.80084 -4.04620 -0.01816 162 153 145
-1.80445 -4.04851 -0.03642 157 152 143
-1.81627 -4.05585 -0.01389 158 154 151
-1.83891 -4.07013 -0.04614 138 134 126
-1.99270 -4.13993 0.01335 149 143 139
-1.97734 -4.13032 0.00910 137 131 136
-1.98911 -4.13763 0.03153 149 146 139
-1.99629 -4.14223 -0.00483 156 154 142
-2.00447 -4.14724 0.03579 158 156 133
-2.00806 -4.14954 0.01760 153 153 134
-2.02171 -4.16054 0.02160 156 150 138
-2.03348 -4.16786 0.04404 150 142 131
-2.03707 -4.17016 0.02586 144 142 130
-2.04067 -4.17246 0.00767 132 130 124
-2.19972 -4.25853 0.06969 129 130 112
-2.21505 -4.26812 0.07394 133 128 101
-2.21864 -4.27042 0.05579 137 136 108
-3.26553 -4.01135 0.28343 19 30 41
-3.25255 -4.00323 0.27983 35 42 37
-3.25559 -4.00517 0.26447 37 43 40
-3.27547 -4.01753 0.30238 85 100 93
-3.27850 -4.01947 0.28702 65 80 106
-3.51967 -3.83602 0.32403 166 166 131
-3.52436 -3.85214 0.32651 106 100 62
-3.55833 -3.83449 0.33245 57 47 25
-3.78673 -4.05024 0.40217 24 22 47
-3.77163 -4.04075 0.41326 24 31 34
-3.77449 -4.04258 0.39878 22 27 41
-3.78386 -4.04841 0.41665 27 27 37
-3.79713 -4.06041 0.40537 35 34 44
-3.81847 -4.05554 0.40966 80 87 106
-3.77382 -4.14210 0.40749 144 168 173
-3.79384 -4.13940 0.41167 180 207 208
-3.80921 -4.14906 0.40038 184 203 221
-3.78395 -4.17870 0.41298 185 207 220
-3.79947 -4.18845 0.40158 178 198 218
-3.77581 -4.26844 0.41917 172 195 209
-3.76599 -4.26234 0.40045 174 195 216
-3.77881 -4.27036 0.40400 173 195 212
-3.77375 -4.29809 0.42135 163 179 182
-3.73850 -4.37666 0.42055 106 108 101
-3.72470 -4.42466 0.42177 30 27 19
-3.74112 -4.43498 0.40971 22 20 8
-3.68019 -4.60671 0.42813 66 68 55
-3.66959 -4.60012 0.40791 42 41 29
-3.68343 -4.60879 0.41174 61 63 48
-3.63188 -4.71073 0.42670 96 99 88
-3.64939 -4.72173 0.41383 103 98 82
-3.82023 -5.06050 0.49948 113 114 106
-3.80198 -5.04903 0.51289 115 112 87
-3.80544 -5.05125 0.49539 108 110 93
-3.83374 -5.07208 0.50350 117 124 112
-3.85199 -5.08355 0.49009 125 138 131
-3.85695 -5.06588 0.50808 118 128 120
-3.87514 -5.07732 0.49472 120 139 131
-3.87086 -5.07664 0.51212 121 134 128
-4.87255 -5.58166 0.77861 229 235 234
-4.87592 -5.58382 0.76153 222 236 240
-4.89036 -5.59285 0.76552 218 230 233
-4.88174 -5.61006 0.78317 220 229 228
-4.89284 -5.61695 0.80434 197 211 217
-5.31003 -5.73620 0.88912 202 212 222
-5.32746 -5.74716 0.87632 183 201 216
-1.80548 -4.05273 -0.05509 156 150 141
-1.78643 -4.04076 -0.04109 158 148 135
-1.79005 -4.04307 -0.05937 151 151 140
-1.82453 -4.06471 -0.06909 144 133 133
-2.01126 -4.15216 -0.00064 151 145 132
-1.99949 -4.14485 -0.02307 155 147 133
-2.01485 -4.15446 -0.01882 149 140 128
-2.03077 -4.15842 0.00425 140 137 129
-2.04970 -4.17032 -0.00966 131 130 109
-2.18808 -4.25113 0.04732 138 131 124
-2.17634 -4.24384 0.02492 140 140 124
-2.19167 -4.25343 0.02917 133 130 119
-2.20700 -4.26303 0.03341 140 133 125
-2.74524 -4.12704 0.16102 106 110 81
-2.72783 -4.11609 0.17382 133 126 114
-2.73113 -4.11820 0.15712 146 144 121
-2.73443 -4.12032 0.14041 158 153 136
-2.74194 -4.12492 0.17773 83 81 72
-2.75605 -4.13376 0.18164 50 48 43
-2.69769 -4.19600 0.15633 52 56 45
-2.70870 -4.20284 0.17731 43 45 40
-2.71206 -4.20500 0.16030 39 47 46
-2.71542 -4.20715 0.14330 41 46 45
-3.24609 -4.03809 0.26518 22 33 39
-3.23607 -4.03187 0.24608 36 42 36
-3.24915 -4.04005 0.24970 30 37 29
-3.26103 -4.04421 0.26904 47 56 72
-3.27104 -4.05043 0.28813 153 170 182
-3.27410 -4.05239 0.27266 136 152 165
-3.49341 -3.87109 0.30605 229 235 223
-3.48402 -3.86526 0.28816 225 236 242
-3.49627 -3.87293 0.29155 238 245 248
-3.50852 -3.88059 0.29494 241 244 243
-3.51329 -3.86997 0.31039 209 208 183
-3.52836 -3.87944 0.29932 232 234 221
-3.55757 -3.84044 0.31774 145 132 116
-3.56898 -3.84876 0.32100 78 57 55
-3.59103 -3.84458 0.32557 50 35 27
-3.60306 -3.85210 0.32889 40 39 31
-3.60587 -3.85390 0.31466 76 63 45
-3.76592 -4.03567 0.38099 26 24 40
-3.75083 -4.02618 0.39208 28 34 43
-3.75369 -4.02802 0.37760 24 36 44
-3.76306 -4.03384 0.39547 25 32 37
-3.77723 -4.04457 0.38428 31 25 39
-3.77640 -4.07001 0.38627 46 53 71
-3.77731 -4.09332 0.38848 106 111 135
-3.78196 -4.11171 0.39109 170 191 195
-3.79726 -4.12133 0.37985 196 220 233
-3.78940 -4.12638 0.39401 195 221 226
-3.80474 -4.13602 0.38274 191 212 232
-3.79680 -4.14120 0.39694 192 213 227
-3.81217 -4.15086 0.38564 184 203 225
-3.77187 -4.30714 0.40560 167 185 187
-3.76197 -4.30099 0.38673 174 197 216
-3.73714 -4.38513 0.40454 112 122 112
-3.72376 -4.43266 0.40563 34 35 28
-3.74020 -4.44299 0.39355 23 18 7
-3.63254 -4.71695 0.40966 96 98 84
-3.62166 -4.71019 0.38892 55 58 54
-3.65006 -4.72796 0.39678 105 98 79
-3.79059 -5.01511 0.47051 105 111 98
-3.77243 -5.00370 0.48386 116 109 88
-3.77587 -5.00590 0.46644 109 109 90
-3.78714 -5.01291 0.48793 110 110 89
-3.80186 -5.02212 0.49200 107 110 89
-3.80102 -5.03193 0.47428 104 115 108
-3.81298 -5.04616 0.47817 108 116 112
-3.82378 -5.06256 0.48199 116 122 120
-3.84202 -5.07403 0.46858 130 141 129
-3.83515 -5.07803 0.48585 123 132 130
-4.36904 -5.18414 0.61411 166 171 164
-4.35150 -5.17311 0.62701 149 158 154
-4.35482 -5.17524 0.61018 166 170 166
-4.37993 -5.19090 0.63488 155 165 162
-4.38326 -5.19303 0.61805 168 177 176
-4.38659 -5.19516 0.60122 169 179 175
-4.86345 -5.56771 0.75736 208 221 233
-4.84904 -5.55869 0.75337 208 221 227
-4.85241 -5.56085 0.73632 202 215 223
-4.89587 -5.63541 0.77041 211 224 221
-4.90700 -5.64232 0.79163 205 218 221
-4.91040 -5.64450 0.77443 201 213 218
-5.28891 -5.69964 0.86364 202 209 214
-5.27156 -5.68873 0.87639 206 218 225
-5.27485 -5.69083 0.85974 209 221 224
-5.27814 -5.69294 0.84310 209 220 226
-5.30315 -5.70748 0.86749 192 200 208
-1.66757 -3.94947 -0.11396 149 143 132
-1.64857 -3.93753 -0.10000 146 138 137
-1.65218 -3.93983 -0.11822 140 139 128
-1.66397 -3.94716 -0.09573 145 140 138
-1.67936 -3.95679 -0.09147 149 146 130
-1.68656 -3.96141 -0.12791 164 158 150
-1.79135 -4.04709 -0.07802 143 141 137
-1.77229 -4.03511 -0.06401 146 149 140
-1.77590 -4.03743 -0.08230 150 149 144
-1.81041 -4.05907 -0.09202 144 137 127
-1.81313 -4.05204 -0.07271 145 135 132
-1.85563 -4.06255 -0.06227 147 136 134
-1.87461 -4.07448 -0.07621 162 159 137
-1.87805 -4.06684 -0.05686 155 144 136
-1.88981 -4.07415 -0.03444 149 144 127
-1.89978 -4.07157 -0.05158 152 140 138
-1.91152 -4.07887 -0.02918 143 143 137
-1.91262 -4.08309 -0.04774 142 127 133
-1.93155 -4.09499 -0.06165 134 129 117
-1.93184 -4.08969 -0.04286 139 126 118
-1.94358 -4.09699 -0.02048 140 138 126
-1.94716 -4.09928 -0.03862 140 137 131
-1.95075 -4.10158 -0.05676 141 136 124
-2.74207 -4.13543 0.14338 133 129 104
-2.73124 -4.12870 0.12273 150 151 147
-2.71861 -4.18101 0.14186 64 62 56
-3.25810 -4.05284 0.25277 33 33 43
-3.24806 -4.04660 0.23364 37 39 33
-3.26116 -4.05480 0.23727 23 26 41
-3.26520 -4.06775 0.25560 109 120 141
-3.27526 -4.07399 0.27477 202 219 224
-3.27833 -4.07596 0.25923 190 209 221
-3.28140 -4.07793 0.24370 175 199 215
-3.54823 -3.87813 0.30368 201 199 171
-3.53891 -3.87233 0.28590 242 244 248
-3.55108 -3.87996 0.28927 240 243 239
-3.56326 -3.88758 0.29264 234 235 216
-3.58453 -3.85736 0.31014 139 131 98
-3.62292 -3.85542 0.31863 53 32 31
-3.62011 -3.85362 0.33283 38 41 46
-3.63211 -3.86113 0.33615 40 43 49
-3.63492 -3.86293 0.32195 45 28 20
-3.74723 -4.01834 0.36007 29 18 17
-3.73215 -4.00886 0.37115 28 31 38
-3.73501 -4.01069 0.35669 28 20 16
-3.76230 -4.02219 0.36379 37 24 33
-3.75606 -4.05458 0.36505 54 61 89
-3.76346 -4.06891 0.36790 101 119 127
-3.76304 -4.09398 0.36988 159 183 173
-3.77832 -4.10359 0.35865 195 213 224
-3.77651 -4.10024 0.37343 191 212 212
-3.79179 -4.10985 0.36220 195 212 227
-3.78360 -4.11532 0.37627 197 218 226
-3.79891 -4.12495 0.36502 199 217 234
-3.76949 -4.31696 0.38974 170 188 195
-3.75957 -4.31079 0.37082 173 196 217
-3.71836 -4.41924 0.38667 119 129 125
-3.73477 -4.42956 0.37461 51 46 48
-3.72635 -4.43543 0.38981 39 39 37
-3.63093 -4.72667 0.39236 94 95 68
-3.64849 -4.73771 0.37946 102 97 77
-3.76484 -4.92975 0.43929 112 111 92
-3.74690 -4.91848 0.45247 114 112 77
-3.75031 -4.92066 0.43526 111 112 86
-3.76144 -4.92758 0.45650 116 110 82
-3.77598 -4.93667 0.46052 115 109 81
-3.77360 -4.94882 0.44283 110 112 95
-3.78476 -4.95576 0.46412 113 109 86
-3.78366 -4.96578 0.44650 111 117 98
-3.78812 -4.99268 0.44973 113 120 104
-3.80726 -5.02917 0.45705 118 126 128
-3.82543 -5.04059 0.44370 131 141 142
-3.82355 -5.03558 0.46125 124 135 133
-3.84171 -5.04700 0.44790 128 141 134
-3.83499 -5.05073 0.46507 127 140 132
-3.85317 -5.06216 0.45171 129 144 133
-4.16892 -5.15043 0.54851 130 140 138
-4.15108 -5.13922 0.56161 138 149 138
-4.15446 -5.14138 0.54450 135 149 140
-4.16554 -5.14826 0.56562 129 135 130
-4.17999 -5.15731 0.56962 127 134 135
-4.17809 -5.17101 0.55227 132 146 145
-4.18919 -5.17791 0.57344 132 140 145
-4.19258 -5.18008 0.55628 143 157 150
-4.19597 -5.18225 0.53913 154 161 148
-4.34568 -5.16431 0.58946 146 157 157
-4.32815 -5.15329 0.60234 160 171 160
-4.33147 -5.15542 0.58553 156 167 166
-4.33480 -5.15755 0.56871 162 170 162
-4.34236 -5.16218 0.60627 165 173 163
-4.35900 -5.17533 0.59337 143 151 156
-4.88097 -5.57985 0.74432 212 230 237
-4.86993 -5.57299 0.72327 197 212 220
-4.88434 -5.58201 0.72726 200 216 228
-4.89875 -5.59103 0.73125 197 212 229
-4.89084 -5.60577 0.74868 208 229 233
-4.90869 -5.61699 0.73556 198 214 227
-4.91605 -5.63809 0.75702 201 213 223
-4.92716 -5.64499 0.77821 200 215 224
-4.93056 -5.64717 0.76104 212 224 225
-4.93395 -5.64934 0.74387 212 229 233
-5.29733 -5.67352 0.84581 207 215 218
-5.28662 -5.66686 0.82539 207 216 224
-5.30060 -5.67561 0.82926 207 216 219
-5.31458 -5.68436 0.83313 203 215 220
-5.31432 -5.66539 0.84897 201 207 212
-5.33152 -5.67620 0.83633 202 214 222
-1.64798 -3.94755 -0.13778 155 150 142
-1.62896 -3.93559 -0.12380 149 140 132
-1.63256 -3.93790 -0.14205 151 142 138
-1.65159 -3.94986 -0.15603 163 160 149
-1.66701 -3.95951 -0.15176 153 154 145
-1.66698 -3.95470 -0.13290 155 155 148
-1.68599 -3.96665 -0.14687 152 148 154
-1.80550 -4.04160 -0.09453 142 131 137
-1.79370 -4.03426 -0.11703 156 154 140
-1.80911 -4.04390 -0.11276 155 155 139
-1.82452 -4.05355 -0.10850 149 147 141
-1.83981 -4.05826 -0.08541 146 139 134
-1.85881 -4.07021 -0.09937 156 154 147
-1.86210 -4.06269 -0.07999 153 144 139
-1.90528 -4.07240 -0.06941 155 151 145
-1.90887 -4.07470 -0.08755 145 137 121
-1.92419 -4.08429 -0.08331 142 142 130
-1.92298 -4.08017 -0.06477 142 141 133
-1.94188 -4.09205 -0.07866 135 134 129
-2.05222 -4.15143 -0.02975 135 133 121
-2.05579 -4.15372 -0.04786 121 118 111
-2.07894 -4.15166 -0.02366 136 135 125
-2.09776 -4.16349 -0.03749 141 138 137
-2.10694 -4.15071 -0.01738 142 143 132
-2.12570 -4.16251 -0.03116 142 138 137
-2.73541 -4.16998 0.12695 81 82 81
-2.74847 -4.18006 0.13072 52 46 43
-2.75939 -4.18684 0.15152 42 45 38
-2.76272 -4.18897 0.13466 44 47 35
-2.76605 -4.19111 0.11780 41 47 41
-3.26365 -4.07491 0.23943 81 101 131
-3.25358 -4.06865 0.22023 24 27 41
-3.55333 -3.92147 0.29307 212 210 180
-3.54392 -3.91563 0.27513 233 238 244
-3.49826 -4.00975 0.28757 171 164 125
-3.61007 -3.89806 0.30411 116 113 57
-3.66029 -3.85942 0.31245 70 70 45
-3.66944 -3.86511 0.32990 37 45 55
-3.67224 -3.86690 0.31576 54 35 51
-3.71135 -4.04739 0.33897 53 65 70
-3.69611 -4.03781 0.35017 24 24 20
-3.69900 -4.03966 0.33555 47 41 53
-3.73750 -4.03684 0.34407 87 95 94
-3.74790 -4.07127 0.34917 176 197 191
-3.76314 -4.08085 0.33797 195 212 229
-3.75913 -4.08052 0.35245 196 212 210
-3.77438 -4.09011 0.34125 194 210 226
-3.77034 -4.08982 0.35574 199 214 220
-3.78560 -4.09941 0.34453 194 211 225
-3.76294 -4.33290 0.37334 170 189 202
-3.75297 -4.32671 0.35435 170 200 214
-3.71225 -4.43482 0.36991 128 136 140
-3.72249 -4.47613 0.37552 27 18 8
-3.73278 -4.48253 0.39514 24 28 18
-3.73592 -4.48454 0.37924 27 28 14
-3.73907 -4.48656 0.36333 23 26 22
-3.72273 -4.56269 0.38244 48 52 38
-3.70587 -4.55210 0.39483 37 38 33
-3.72593 -4.56474 0.36627 40 44 39
-3.62764 -4.73901 0.37483 88 93 67
-3.64525 -4.75007 0.36189 100 96 73
-3.75661 -4.85121 0.41303 121 107 82
-3.73890 -4.84008 0.42604 116 111 89
-3.74226 -4.84223 0.40906 116 108 83
-3.75325 -4.84906 0.43002 116 112 85
-3.76760 -4.85804 0.43399 113 111 80
-3.76239 -4.87462 0.41620 113 107 85
-3.76550 -4.90281 0.41915 109 114 101
-3.76927 -4.93017 0.42218 113 120 112
-3.78721 -4.94144 0.40900 123 133 127
-3.77660 -4.95170 0.42555 110 120 116
-3.79459 -4.96300 0.41233 126 133 130
-3.78651 -4.96895 0.42917 114 127 124
-3.80453 -4.98028 0.41593 131 139 135
-3.79381 -4.99090 0.43257 125 139 135
-3.81189 -5.00226 0.41929 129 139 136
-3.80839 -5.00020 0.43662 128 141 138
-3.82647 -5.01156 0.42334 129 140 136
-4.16787 -5.08243 0.52482 139 151 153
-4.15025 -5.07135 0.53777 129 136 133
-4.16453 -5.08029 0.54173 131 144 139
-4.17122 -5.08457 0.50792 149 161 150
-4.18550 -5.09350 0.51187 153 164 152
-4.17316 -5.11067 0.52827 147 160 150
-4.19086 -5.12180 0.51526 153 165 159
-4.19209 -5.14998 0.53569 159 169 155
-4.20988 -5.16116 0.52261 147 157 154
-4.35827 -5.18722 0.57640 153 158 158
-4.53459 -5.32745 0.62759 195 209 205
-4.51692 -5.31634 0.64057 192 199 205
-4.52362 -5.32063 0.60667 202 215 223
-4.53124 -5.32530 0.64454 185 197 201
-4.54891 -5.33641 0.63155 211 226 217
-5.39465 -5.66538 0.84982 198 210 215
-5.37762 -5.65467 0.86234 194 208 220
-5.38085 -5.65674 0.84600 198 209 212
-5.39142 -5.66331 0.86616 201 214 225
-5.40523 -5.67195 0.86998 202 214 222
-2.04611 -4.13962 -0.05115 136 135 132
-2.02727 -4.12777 -0.03730 159 147 133
-2.03084 -4.13006 -0.05538 147 143 136
-2.03441 -4.13235 -0.07346 148 149 134
-2.09197 -4.14620 -0.04014 133 133 132
-2.11074 -4.15800 -0.05393 146 147 129
-2.27197 -4.21708 0.00652 142 136 131
-2.25333 -4.20536 0.02022 129 128 116
-2.25686 -4.20763 0.00234 129 132 125
-2.26844 -4.21482 0.02440 142 134 128
-2.28355 -4.22427 0.02859 142 136 128
-2.29062 -4.22880 -0.00718 149 140 132
-2.27970 -4.23303 0.00951 160 154 133
-2.29484 -4.24251 0.01370 157 156 142
-2.29838 -4.24477 -0.00422 146 142 141
-2.64321 -4.21912 0.09177 149 153 142
-2.62530 -4.20786 0.10493 151 153 142
-2.62869 -4.21003 0.08775 149 147 140
-2.64660 -4.22129 0.07459 145 140 134
-2.68427 -4.20236 0.09991 137 139 134
-2.74951 -4.16156 0.11176 100 96 86
-2.75642 -4.17764 0.11457 54 46 47
-2.77398 -4.18867 0.10167 46 45 29
-3.25744 -4.08732 0.22254 63 78 113
-3.24734 -4.08104 0.20328 26 29 41
-3.26052 -4.08929 0.20693 45 52 77
-3.27092 -4.09523 0.22623 156 180 206
-3.28102 -4.10151 0.24549 222 235 242
-3.28411 -4.10348 0.22988 216 230 241
-3.28719 -4.10546 0.21427 208 226 239
-3.59528 -3.87681 0.28395 231 235 237
-3.58601 -3.87105 0.26628 233 237 243
-3.59811 -3.87862 0.26963 228 232 238
-3.61020 -3.88619 0.27298 223 228 233
-3.60691 -3.88494 0.28724 227 230 220
-3.62184 -3.89433 0.27626 218 226 232
-3.61348 -3.89919 0.28983 221 226 197
-3.62294 -3.91003 0.29282 212 218 187
-3.62117 -3.93465 0.29429 198 200 186
-3.63053 -3.94046 0.31212 53 30 25
-3.63624 -3.94412 0.28322 223 229 230
-3.70003 -4.02016 0.31888 173 183 165
-3.68486 -4.01062 0.33003 40 20 22
-3.68774 -4.01246 0.31547 162 171 148
-3.69716 -4.01832 0.33344 43 25 32
-3.71739 -4.02125 0.32294 183 195 178
-3.73254 -4.03077 0.31181 195 207 226
-3.72311 -4.03757 0.32549 191 202 193
-3.73829 -4.04711 0.31433 195 208 228
-3.73402 -4.04712 0.32872 197 209 201
-3.74921 -4.05668 0.31755 194 209 229
-3.74254 -4.05990 0.33165 198 215 209
-3.75776 -4.06947 0.32046 195 209 226
-3.75812 -4.34635 0.35703 169 194 203
-3.74813 -4.34014 0.33797 171 198 212
-3.71698 -4.43444 0.35430 140 142 149
-3.73126 -4.44139 0.35811 68 49 58
-3.70528 -4.50864 0.35727 25 15 12
-3.72200 -4.51915 0.34498 24 30 31
-3.71571 -4.55095 0.36288 30 28 20
-3.71890 -4.55299 0.34673 28 31 30
-3.62518 -4.75011 0.35729 83 88 75
-3.74058 -4.82005 0.38907 111 106 90
-3.72295 -4.80896 0.40203 113 110 74
-3.72629 -4.81110 0.38511 108 107 85
-3.73724 -4.81791 0.40599 114 109 70
-3.75086 -4.83567 0.39261 117 112 107
-3.76853 -4.84677 0.37963 127 142 140
-3.75752 -4.85745 0.39580 129 138 125
-3.77524 -4.86859 0.38277 119 130 126
-3.76354 -4.88052 0.39894 124 142 124
-3.76857 -4.90551 0.40199 120 133 124
-3.78642 -4.91673 0.38887 128 140 130
-3.77274 -4.93223 0.40498 123 136 127
-3.79067 -4.94350 0.39180 122 135 134
-4.15855 -5.07222 0.50408 144 150 154
-4.14094 -5.06115 0.51702 134 142 141
-4.14428 -5.06329 0.50013 137 141 148
-4.16189 -5.07436 0.48719 143 157 154
-4.17616 -5.08329 0.49114 143 158 153
-4.34629 -5.18298 0.55554 163 172 158
-4.34963 -5.18511 0.53867 165 178 169
-4.36388 -5.19403 0.54262 166 180 169
-4.35583 -5.20326 0.55928 156 166 145
-4.37347 -5.21434 0.54632 170 184 180
-4.36549 -5.22350 0.56303 169 180 172
-4.38316 -5.23461 0.55004 173 182 187
-4.54352 -5.31422 0.61075 195 209 216
-4.54685 -5.31636 0.59385 212 226 220
-4.56113 -5.32529 0.59780 214 221 218
-4.71058 -5.43465 0.65821 221 231 237
-4.72155 -5.44147 0.67912 207 215 223
-4.72490 -5.44361 0.66217 211 219 226
-4.72824 -5.44576 0.64523 193 210 223
-4.99516 -5.55430 0.73255 209 218 221
-4.99847 -5.55643 0.71579 199 207 215
-5.00928 -5.56334 0.73648 218 227 230
-5.02675 -5.57433 0.72363 206 221 230
-1.54599 -3.74916 -0.21434 148 150 133
-1.52739 -3.73747 -0.20067 160 150 130
-1.53444 -3.74199 -0.23635 166 160 150
-1.54246 -3.74690 -0.19650 155 150 132
-1.55754 -3.75634 -0.19232 151 145 138
-1.56106 -3.75859 -0.21017 144 142 133
-2.07748 -4.11942 -0.06444 144 144 134
-2.06586 -4.11220 -0.08660 147 139 136
-2.08103 -4.12169 -0.08240 148 140 134
-2.09269 -4.12888 -0.06023 145 128 124
-2.11141 -4.14065 -0.07399 157 154 139
-2.12299 -4.12597 -0.05344 148 151 127
-2.14164 -4.13769 -0.06714 150 149 130
-2.30315 -4.17270 -0.00837 143 136 110
-2.28471 -4.16111 0.00518 141 137 127
-2.29170 -4.16558 -0.03020 157 158 134
-2.30665 -4.17494 -0.02606 149 143 130
-2.32159 -4.18429 -0.02192 149 144 143
-2.30807 -4.19082 -0.00591 142 134 123
-2.32656 -4.20244 -0.01950 155 150 136
-2.70882 -4.18388 0.08625 142 130 136
-2.69785 -4.17706 0.06534 148 152 126
-2.73589 -4.18032 0.09225 127 118 106
-2.76717 -4.17244 0.09891 67 57 43
-3.22135 -4.15695 0.20280 132 152 176
-3.21106 -4.15056 0.18320 40 39 60
-3.22449 -4.15896 0.18691 114 130 157
-3.62499 -3.91281 0.27834 215 225 229
-3.61568 -3.90703 0.26060 219 226 236
-3.62783 -3.91463 0.26396 214 223 232
-3.63997 -3.92223 0.26733 214 220 232
-3.63788 -3.91949 0.28181 216 223 231
-3.65286 -3.92891 0.27080 219 227 236
-3.71101 -4.01147 0.30542 197 208 214
-3.70162 -4.00563 0.28752 193 207 221
-3.71388 -4.01330 0.29091 194 207 220
-3.72614 -4.02098 0.29431 195 208 222
-3.72097 -4.02215 0.30851 199 208 221
-3.73611 -4.03167 0.29738 194 208 224
-3.74470 -4.37246 0.33954 169 192 202
-3.73464 -4.36621 0.32035 173 198 212
-3.72209 -4.43350 0.33876 146 152 150
-3.74003 -4.43497 0.34302 78 67 58
-3.70077 -4.52219 0.34030 27 21 15
-3.71754 -4.53273 0.32797 39 35 44
-3.72387 -4.57486 0.34948 33 37 36
-3.64539 -4.72614 0.34236 77 79 56
-3.63214 -4.77788 0.34307 94 96 79
-3.64314 -4.78471 0.36404 103 100 67
-3.64650 -4.78686 0.34705 100 99 76
-3.69679 -4.80220 0.35979 102 104 75
-3.67913 -4.79110 0.37278 107 105 82
-3.68248 -4.79324 0.35583 100 103 79
-3.69344 -4.80006 0.37674 108 106 84
-3.70776 -4.80902 0.38071 109 108 81
-3.71475 -4.80526 0.36417 108 110 100
-3.72997 -4.81270 0.36823 105 110 109
-3.74761 -4.82378 0.35527 120 130 132
-3.74351 -4.82289 0.37210 113 120 115
-3.76115 -4.83398 0.35914 120 129 132
-3.75416 -4.83790 0.37566 121 133 126
-3.77538 -4.90183 0.38523 122 130 122
-3.76431 -4.89496 0.36413 126 138 134
-3.79321 -4.91304 0.37213 133 143 131
-4.33035 -5.10377 0.52829 153 163 153
-4.31298 -5.09285 0.54105 149 154 158
-4.31627 -5.09496 0.52439 147 159 151
-4.33537 -5.13382 0.53164 158 166 162
-4.35282 -5.14479 0.51881 162 164 162
-4.34040 -5.16428 0.53502 163 179 167
-4.35794 -5.17531 0.52213 158 159 161
-4.53653 -5.29665 0.59003 197 215 218
-4.51896 -5.28560 0.60294 194 202 208
-4.52229 -5.28774 0.58608 193 204 207
-4.52562 -5.28987 0.56923 192 208 209
-4.69660 -5.33178 0.62960 213 222 220
-4.71396 -5.34269 0.61684 212 223 221
-5.01259 -5.56546 0.71971 204 216 224
-5.00174 -5.55872 0.69902 203 215 220
-5.01590 -5.56758 0.70295 204 218 219
-5.03007 -5.57645 0.70687 209 218 228
-5.41611 -5.67060 0.82069 192 205 207
-5.43312 -5.68129 0.80819 197 212 216
-1.54725 -3.75287 -0.23261 165 164 148
-1.53570 -3.74569 -0.25463 167 166 162
-1.55078 -3.75512 -0.25046 168 171 160
-1.55967 -3.76401 -0.22894 161 158 147
-1.57475 -3.77346 -0.22476 163 157 150
-1.57828 -3.77572 -0.24262 160 154 149
-2.11797 -4.11343 -0.07436 161 147 135
-2.10641 -4.10624 -0.09640 151 150 138
-2.12150 -4.11569 -0.09222 155 144 135
-2.13659 -4.12513 -0.08804 153 150 141
-2.72143 -4.17698 0.07083 148 148 124
-2.71049 -4.17018 0.04997 136 149 144
-2.73649 -4.18515 0.07491 135 124 114
-2.76980 -4.17525 0.08199 78 73 60
-2.78685 -4.18129 0.08639 53 46 31
-2.79772 -4.18804 0.10711 49 45 36
-2.80104 -4.19017 0.09032 48 46 34
-2.80436 -4.19230 0.07353 46 45 40
-3.20154 -4.20898 0.18505 197 217 228
-3.21195 -4.21545 0.20490 234 241 247
-3.18438 -4.25292 0.18411 230 237 244
-3.19490 -4.25946 0.20416 240 245 248
-3.19811 -4.26151 0.18791 239 244 248
-3.20132 -4.26357 0.17166 238 245 248
-3.74596 -4.37710 0.32375 171 192 205
-3.73589 -4.37084 0.30455 175 196 215
-3.73162 -4.42600 0.32382 152 160 164
-3.73050 -4.45583 0.32563 91 82 79
-3.68859 -4.54732 0.32224 41 27 27
-3.71395 -4.56748 0.32956 39 33 45
-3.71715 -4.56953 0.31336 58 60 63
-3.73084 -4.57809 0.31714 51 49 55
-3.72273 -4.58360 0.33273 36 38 42
-3.67969 -4.68022 0.32942 69 69 52
-3.64674 -4.76245 0.32747 91 93 87
-3.65334 -4.78354 0.33048 98 98 85
-3.66432 -4.79036 0.35142 103 102 85
-3.66259 -4.80060 0.33382 100 99 90
-3.67999 -4.80473 0.33817 93 99 100
-3.69927 -4.80576 0.34274 101 114 108
-3.71695 -4.81687 0.32975 121 133 133
-3.71738 -4.80856 0.34716 121 129 126
-3.73503 -4.81965 0.33419 120 130 130
-3.73231 -4.81648 0.35119 120 128 127
-3.74996 -4.82757 0.33823 121 131 135
-3.78099 -4.90019 0.36838 135 146 135
-3.78437 -4.90235 0.35130 130 144 144
-4.22311 -5.11045 0.48616 146 155 152
-4.20884 -5.10152 0.48221 136 146 146
-4.21977 -5.10831 0.50305 144 157 155
-4.22645 -5.11259 0.46928 157 170 156
-4.23404 -5.11724 0.50700 144 156 158
-4.24071 -5.12151 0.47323 159 173 164
-4.35343 -5.22957 0.52486 162 168 165
-4.35767 -5.26332 0.52820 172 188 178
-4.37211 -5.27236 0.53220 178 192 178
-4.45735 -5.28365 0.55287 177 191 182
-4.43966 -5.27254 0.56587 183 192 190
-4.44302 -5.27468 0.54890 179 186 190
-4.46833 -5.29048 0.57381 194 206 203
-4.47503 -5.29477 0.53988 188 202 200
-4.47830 -5.27523 0.55717 195 208 202
-4.48924 -5.28202 0.57802 194 204 200
-4.49258 -5.28416 0.56113 197 212 205
-4.49592 -5.28630 0.54423 190 203 201
-4.55217 -5.26503 0.57369 190 203 213
-4.54135 -5.25831 0.55305 186 202 206
-4.56961 -5.27600 0.56088 203 216 216
-4.56357 -5.28145 0.57750 201 219 222
-4.57773 -5.29031 0.58141 204 220 224
-4.58104 -5.29243 0.56466 201 207 226
-4.70509 -5.31798 0.61305 200 220 224
-4.69435 -5.31131 0.59257 211 224 227
-4.70837 -5.32008 0.59645 202 204 219
-1.69543 -3.83403 -0.21118 170 165 148
-1.67686 -3.82235 -0.19753 161 144 147
-1.68390 -3.82686 -0.23316 164 167 152
-1.69191 -3.83177 -0.19337 158 135 141
-1.70696 -3.84119 -0.18920 154 144 146
-1.71400 -3.84570 -0.22483 156 152 142
-2.30216 -4.11759 -0.04959 148 142 140
-2.29082 -4.11054 -0.07121 160 153 146
-2.29870 -4.11537 -0.03207 139 131 139
-2.30562 -4.11981 -0.06711 149 148 134
-2.31696 -4.12685 -0.04549 154 146 131
-2.32043 -4.12907 -0.06301 148 145 128
-2.43362 -4.20257 -0.01301 127 131 123
-2.41535 -4.19108 0.00042 137 147 137
-2.41881 -4.19330 -0.01711 136 128 129
-2.43709 -4.20479 -0.03054 126 122 96
-2.44497 -4.20962 0.00862 131 137 129
-2.44843 -4.21184 -0.00891 130 129 126
-2.72773 -4.17623 0.05443 133 123 136
-2.71680 -4.16944 0.03359 130 132 138
-2.73107 -4.17836 0.03754 139 139 133
-2.73977 -4.18735 0.05800 135 139 118
-2.78579 -4.16482 0.06733 94 104 77
-2.79112 -4.18247 0.06976 58 54 38
-2.80862 -4.19347 0.05690 46 44 46
-3.09326 -4.31391 0.14958 112 124 139
-3.07923 -4.30512 0.14570 59 59 66
-3.08251 -4.30723 0.12909 74 84 80
-3.23185 -4.17991 0.17328 190 209 218
-3.18944 -4.25284 0.16815 225 237 243
-3.74286 -4.38815 0.30734 172 193 207
-3.73276 -4.38188 0.28810 174 195 217
-3.74346 -4.41505 0.30927 155 170 178
-3.72401 -4.47221 0.30850 105 106 107
-3.73841 -4.47914 0.31235 62 57 58
-3.75497 -4.48955 0.30018 76 92 89
-3.73488 -4.51327 0.31379 61 73 70
-3.75156 -4.52375 0.30153 80 91 91
-3.69357 -4.66585 0.31421 64 68 63
-3.68287 -4.65920 0.29380 81 91 96
-3.65132 -4.76266 0.31071 93 97 103
-3.66895 -4.77374 0.29775 101 114 112
-3.65383 -4.79020 0.31313 102 110 107
-3.67155 -4.80133 0.30011 102 110 124
-3.67061 -4.79533 0.31742 104 123 117
-3.68831 -4.80646 0.30441 109 124 120
-3.68608 -4.80250 0.32153 110 127 115
-3.70377 -4.81362 0.30853 116 129 126
-3.70187 -4.80912 0.32569 115 130 123
-3.71955 -4.82023 0.31270 120 133 129
-4.30076 -5.10875 0.48651 152 162 160
-4.28663 -5.09990 0.48259 162 173 166
-4.28994 -5.10202 0.46586 163 170 166
-4.30407 -5.11086 0.46978 161 170 162
-4.31821 -5.11971 0.47369 159 173 159
-4.31943 -5.10711 0.49079 149 160 158
-4.33683 -5.11805 0.47800 164 177 167
-4.33832 -5.10476 0.49508 161 177 170
-4.35567 -5.11567 0.48233 170 179 178
-4.34106 -5.18281 0.50091 175 182 179
-4.35865 -5.19387 0.48798 172 180 176
-4.34784 -5.20971 0.50430 175 179 170
-4.34830 -5.25233 0.50724 181 190 181
-4.36611 -5.26352 0.49416 192 208 199
-4.35564 -5.27874 0.51072 192 208 191
-4.37647 -5.27209 0.51518 185 196 181
-4.38753 -5.27896 0.53626 171 178 174
-4.39311 -5.27561 0.51933 178 183 178
-4.40415 -5.28247 0.54038 179 187 177
-4.40752 -5.28463 0.52332 176 182 181
-4.43182 -5.26842 0.52796 189 196 193
-4.42846 -5.26628 0.54492 181 181 182
-4.44950 -5.27954 0.51496 201 211 210
-4.45152 -5.26353 0.53227 189 194 200
-4.46668 -5.27023 0.53628 186 196 194
-4.56686 -5.23590 0.55756 182 203 212
-4.55611 -5.22922 0.53707 199 210 212
-4.57014 -5.23800 0.54095 182 192 217
-1.71897 -3.82271 -0.22511 169 166 146
-1.70749 -3.81558 -0.24699 154 155 151
-1.72248 -3.82496 -0.24284 156 155 152
-2.44079 -4.17879 -0.03131 144 139 108
-2.42606 -4.16957 -0.03539 135 130 121
-2.44424 -4.18100 -0.04875 150 148 144
-2.48098 -4.18742 -0.02122 131 132 122
-2.48442 -4.18963 -0.03862 144 157 143
-2.49224 -4.19442 0.00024 133 135 128
-2.49512 -4.19713 -0.01725 137 135 131
-2.50638 -4.20413 0.00421 139 134 133
-2.51325 -4.20853 -0.03058 155 163 153
-2.51633 -4.20029 -0.01202 145 140 138
-2.52757 -4.20727 0.00940 143 150 124
-2.53100 -4.20947 -0.00796 146 138 131
-2.74398 -4.18863 0.04126 136 137 121
-2.73305 -4.18184 0.02041 134 134 130
-2.76993 -4.18597 0.04724 114 108 96
-2.79369 -4.18535 0.05284 64 51 49
-2.88779 -4.37452 0.08714 41 40 47
-2.86987 -4.36325 0.10031 35 43 39
-2.87327 -4.36543 0.08312 37 40 36
-2.88439 -4.37234 0.10433 37 43 41
-2.89891 -4.38143 0.10835 38 41 37
-2.90574 -4.37986 0.09174 47 42 52
-2.91685 -4.38676 0.11292 35 39 42
-2.92664 -4.38189 0.09682 56 53 57
-2.94112 -4.39095 0.10083 64 69 58
-2.94450 -4.39312 0.08370 79 81 71
-3.09916 -4.31303 0.13340 107 121 130
-3.08842 -4.30635 0.11292 76 82 90
-3.10244 -4.31513 0.11681 101 110 124
-3.23924 -4.17707 0.15804 178 194 207
-3.19857 -4.24805 0.15288 221 232 241
-3.21547 -4.25868 0.14046 231 237 244
-3.19818 -4.27302 0.15437 235 240 245
-3.20872 -4.27957 0.17446 241 246 249
-3.21194 -4.28163 0.15818 240 245 248
-3.21516 -4.28370 0.14189 238 244 247
-3.74394 -4.39307 0.29146 172 193 211
-3.73384 -4.38680 0.27220 175 194 217
-3.75216 -4.40872 0.29440 159 175 186
-3.73152 -4.46768 0.29323 116 121 123
-3.71947 -4.51447 0.29333 77 75 79
-3.73618 -4.52498 0.28105 78 93 90
-3.66879 -4.71162 0.29378 83 99 96
-3.65796 -4.70489 0.27314 91 102 104
-3.68622 -4.72258 0.28097 100 112 117
-3.66059 -4.75551 0.29461 103 116 113
-3.67818 -4.76656 0.28168 97 109 110
-4.35376 -5.24942 0.49033 181 198 193
-4.34272 -5.24256 0.46929 172 181 182
-4.38263 -5.26734 0.49832 188 196 191
-4.40160 -5.26492 0.50267 180 192 197
-4.41707 -5.27115 0.50673 172 185 193
-4.45034 -5.23174 0.51213 196 213 211
-4.46787 -5.24276 0.49925 202 205 217
-4.47930 -5.24811 0.52004 203 210 211
-4.49942 -5.24138 0.52439 185 196 203
-4.51358 -5.25024 0.52831 189 202 211
-4.59021 -5.22997 0.54521 200 213 215
-4.60419 -5.23872 0.54908 204 216 222
-4.60746 -5.24082 0.53253 206 211 217
-1.75450 -3.82269 -0.23531 156 151 150
-1.74307 -3.81559 -0.25711 157 157 158
-1.76593 -3.82980 -0.21351 155 144 141
-1.77221 -3.83012 -0.23063 158 147 139
-1.78713 -3.83946 -0.22650 149 134 129
-1.80810 -3.84457 -0.22117 153 141 134
-1.80462 -3.84234 -0.20354 152 150 148
-1.81951 -3.85166 -0.19942 155 150 144
-1.82648 -3.85613 -0.23468 170 161 146
-2.14349 -3.98044 -0.13276 149 149 147
-2.12534 -3.96903 -0.11943 152 146 126
-2.12878 -3.97124 -0.13683 159 156 146
-2.13222 -3.97344 -0.15424 150 156 147
-2.14005 -3.97824 -0.11535 152 148 138
-2.15475 -3.98744 -0.11128 155 147 132
-2.15819 -3.98964 -0.12869 138 141 130
-2.16946 -3.99664 -0.10721 149 144 135
-2.17290 -3.99885 -0.12462 137 137 133
-2.39194 -4.11616 -0.06516 142 138 140
-2.37386 -4.10479 -0.05187 150 150 135
-2.37729 -4.10699 -0.06921 150 148 134
-2.38072 -4.10919 -0.08656 158 158 138
-2.40317 -4.12314 -0.04375 135 130 135
-2.40660 -4.12533 -0.06110 138 142 136
-2.50597 -4.19249 -0.03329 145 145 137
-2.50940 -4.19469 -0.05065 147 147 139
-2.53362 -4.21242 -0.02547 150 151 139
-2.54830 -4.22161 -0.02141 144 148 136
-2.75156 -4.18658 0.02513 133 138 127
-2.74064 -4.17979 0.00430 151 144 129
-2.75490 -4.18871 0.00825 145 145 137
-2.76949 -4.19185 0.02973 134 128 114
-2.79369 -4.19079 0.03546 79 76 72
-2.80524 -4.20234 0.03892 52 46 51
-2.81613 -4.20911 0.05967 41 46 45
-2.81945 -4.21124 0.04285 45 44 51
-2.82278 -4.21336 0.02603 45 44 50
-2.86585 -4.35455 0.06256 47 42 39
-2.84795 -4.34329 0.07571 40 43 43
-2.85134 -4.34547 0.05854 44 41 33
-2.86245 -4.35237 0.07973 39 43 40
-2.88021 -4.36377 0.06655 48 46 54
-2.89681 -4.37057 0.07093 57 64 60
-2.92366 -4.36612 0.07709 68 76 63
-2.94647 -4.36593 0.08253 75 80 67
-2.96424 -4.37710 0.06947 93 96 87
-3.18720 -4.24255 0.13273 166 182 195
-3.20224 -4.24957 0.13675 216 230 239
-3.21914 -4.26019 0.12433 231 237 243
-3.74318 -4.40073 0.27527 173 191 213
-3.73306 -4.39444 0.25598 177 195 217
-3.74627 -4.40271 0.25963 173 192 213
-3.75158 -4.41616 0.27820 162 178 193
-3.72987 -4.47686 0.27666 125 136 138
-3.72052 -4.51971 0.27699 83 91 91
-3.73724 -4.53022 0.26470 78 95 96
-3.67992 -4.70153 0.27819 92 104 102
-3.66913 -4.69482 0.25762 95 105 108
-3.69730 -4.71245 0.26542 104 114 114
-4.36161 -5.24065 0.47369 183 196 196
-4.37461 -5.25305 0.47755 204 216 210
-4.39384 -5.25000 0.48196 202 211 203
-4.41154 -5.26113 0.46895 190 197 199
-4.41273 -5.24754 0.48634 185 195 193
-4.43249 -5.24267 0.49077 185 192 193
-4.46101 -5.21503 0.49594 204 215 222
-4.48927 -5.23284 0.50377 200 211 211
-4.50927 -5.22620 0.50816 173 184 192
-4.52632 -5.22715 0.51229 179 195 200
-4.54039 -5.23596 0.51619 198 213 216
-4.56544 -5.21481 0.52091 200 208 208
-4.58257 -5.21486 0.52502 185 191 194
-4.59979 -5.22568 0.51236 206 220 225
-4.59814 -5.21907 0.52899 207 222 220
-4.61534 -5.22988 0.51636 205 220 226
-1.77442 -3.81369 -0.24966 164 164 157
-1.76303 -3.80661 -0.27137 155 153 162
-1.77790 -3.81592 -0.26726 166 170 161
-1.78834 -3.82365 -0.24573 162 153 143
-1.79907 -3.83583 -0.24245 148 141 130
-1.81744 -3.84738 -0.25595 160 163 144
-1.81793 -3.84238 -0.23753 157 156 132
-1.83629 -3.85391 -0.25101 162 160 146
-1.96731 -3.91469 -0.19737 156 148 142
-1.95249 -3.90542 -0.20147 161 154 145
-1.97077 -3.91691 -0.21491 156 146 140
-1.98623 -3.92092 -0.19245 145 136 137
-2.16243 -3.97041 -0.14712 140 134 147
-2.15121 -3.96343 -0.16852 146 151 140
-2.17823 -3.97866 -0.14284 131 130 129
-2.19289 -3.98781 -0.13878 135 131 132
-2.20411 -3.99478 -0.11739 142 134 138
-2.20754 -3.99698 -0.13473 142 135 133
-2.21096 -3.99917 -0.15206 146 147 136
-2.20753 -4.03920 -0.13233 156 143 130
-2.18932 -4.02776 -0.11895 147 144 142
-2.19277 -4.02997 -0.13641 144 140 134
-2.20407 -4.03699 -0.11487 151 144 139
-2.22573 -4.05064 -0.14571 159 164 158
-2.21460 -4.05474 -0.12974 164 161 142
-2.22592 -4.06178 -0.10815 164 160 135
-2.22938 -4.06399 -0.12565 158 150 134
-2.23284 -4.06621 -0.14314 149 151 151
-2.40265 -4.11197 -0.08111 155 159 145
-2.39144 -4.10501 -0.10247 155 154 140
-2.41875 -4.11982 -0.07678 146 148 138
-2.42995 -4.12678 -0.05542 133 139 129
-2.42833 -4.13345 -0.07369 133 131 122
-2.43955 -4.14042 -0.05231 137 146 135
-2.44156 -4.14388 -0.06991 139 139 132
-2.45621 -4.15304 -0.06585 149 140 144
-2.45964 -4.15524 -0.08319 146 147 137
-2.50576 -4.17538 -0.05262 148 141 138
-2.50919 -4.17757 -0.06993 132 120 139
-2.52381 -4.18672 -0.06588 139 132 130
-2.54082 -4.21109 -0.04213 141 147 141
-2.55944 -4.21653 -0.03733 140 133 133
-2.57066 -4.22350 -0.01595 137 143 142
-2.57409 -4.22569 -0.03328 135 134 128
-2.57751 -4.22789 -0.05061 151 149 123
-2.77437 -4.19244 0.01316 142 145 120
-2.76346 -4.18567 -0.00763 139 128 131
-2.80261 -4.18730 0.01968 92 88 78
-2.80413 -4.20896 0.02128 59 43 48
-2.85205 -4.30179 0.03812 47 41 53
-2.83429 -4.29063 0.05117 46 44 41
-2.83766 -4.29279 0.03414 45 44 50
-2.84868 -4.29964 0.05515 45 45 43
-2.86307 -4.30864 0.05914 43 43 41
-2.85791 -4.31984 0.04056 51 41 51
-2.86635 -4.33525 0.04347 57 51 59
-2.87603 -4.34943 0.04661 67 68 65
-2.88814 -4.36104 0.05020 78 78 72
-2.91120 -4.36076 0.05575 85 85 74
-2.95107 -4.36673 0.06570 90 88 85
-3.12560 -4.29449 0.10371 111 113 113
-3.11167 -4.28577 0.09986 93 91 91
-3.15744 -4.28258 0.11072 160 169 176
-3.19018 -4.26933 0.11787 214 227 235
-3.52659 -4.18067 0.19400 207 217 220
-3.51360 -4.17254 0.19041 220 226 234
-3.51664 -4.17449 0.17503 222 230 236
-3.53655 -4.18686 0.21298 199 211 220
-3.53959 -4.18880 0.19760 199 212 220
-3.54263 -4.19075 0.18222 200 210 223
-3.75455 -4.41833 0.26252 165 182 194
-3.74441 -4.41203 0.24319 173 193 211
-3.73440 -4.47679 0.26098 131 144 147
-3.72112 -4.52562 0.26055 86 97 101
-3.73786 -4.53615 0.24825 86 98 104
-3.69611 -4.68348 0.26349 101 108 110
-3.68538 -4.67681 0.24302 99 110 115
-3.69233 -4.78312 0.26824 108 118 120
-3.67806 -4.77419 0.26429 100 110 104
-3.68899 -4.78099 0.28514 102 108 121
-3.70995 -4.79420 0.25529 118 128 127
-3.70126 -4.80069 0.27139 114 125 123
-3.71222 -4.80750 0.29229 118 129 131
-3.71556 -4.80965 0.27535 120 131 128
-3.71891 -4.81179 0.25842 121 135 129
-4.35503 -5.05358 0.44352 158 165 164
-4.33788 -5.04280 0.45613 155 161 160
-4.34113 -5.04488 0.43967 154 159 162
-4.35178 -5.05150 0.45998 156 169 162
-4.36894 -5.06228 0.44737 160 170 163
-4.37219 -5.06437 0.43091 168 182 169
-4.37602 -5.21579 0.45781 181 197 197
-4.36508 -5.20899 0.43694 176 190 185
-4.37936 -5.21793 0.44089 177 187 192
-4.39308 -5.21788 0.46204 197 212 216
-4.41107 -5.21754 0.46636 197 207 207
-4.44851 -5.21250 0.47511 200 211 208
-4.45183 -5.21462 0.45835 201 215 210
-4.46599 -5.22349 0.46227 190 198 187
-4.47030 -5.20176 0.47976 196 204 209
-4.48770 -5.21270 0.46697 194 204 204
-4.48935 -5.19771 0.48413 197 209 219
-4.49948 -5.21685 0.48766 182 187 197
-4.51759 -5.21500 0.49192 163 175 182
-4.53384 -5.21793 0.49601 188 203 203
-4.55116 -5.22882 0.48328 190 198 213
-4.55373 -5.21086 0.50041 195 204 215
-4.57334 -5.20420 0.50476 208 224 222
-4.59055 -5.21501 0.49212 207 221 224
-4.59011 -5.20512 0.50886 208 223 214
-4.60728 -5.21591 0.49624 203 214 229
-5.46709 -5.64872 0.74569 213 224 229
-5.48393 -5.65930 0.73332 199 209 217
-1.61751 -3.73036 -0.31087 142 142 143
-1.63591 -3.74192 -0.32439 163 163 140
-1.62710 -3.74313 -0.30785 148 150 135
-1.63854 -3.75023 -0.28605 165 163 152
-1.64552 -3.75470 -0.32139 166 162 153
-1.80900 -3.81403 -0.25979 170 176 155
-1.79765 -3.80698 -0.28143 173 168 158
-1.81247 -3.81625 -0.27733 173 168 156
-1.82101 -3.82525 -0.25627 167 167 145
-1.92287 -3.89159 -0.22793 168 163 136
-1.90457 -3.88008 -0.21448 149 139 141
-1.90804 -3.88230 -0.23203 162 150 146
-1.91940 -3.88936 -0.21037 151 148 141
-1.93424 -3.89865 -0.20626 157 152 137
-1.93771 -3.90087 -0.22382 164 169 139
-2.01867 -3.92176 -0.20300 159 157 155
-2.03688 -3.93321 -0.21638 147 144 146
-2.16087 -3.97654 -0.16546 146 144 140
-2.14964 -3.96956 -0.18688 163 153 144
-2.16430 -3.97874 -0.18282 168 167 147
-2.17897 -3.98792 -0.17876 165 165 145
-2.18032 -3.98192 -0.16044 150 159 138
-2.19840 -3.99328 -0.17373 156 152 144
-2.19508 -3.99100 -0.15636 148 155 140
-2.21316 -4.00236 -0.16965 156 149 127
-2.21625 -4.03711 -0.14874 152 149 157
-2.20496 -4.03009 -0.17026 147 153 143
-2.21970 -4.03931 -0.16618 150 147 159
-2.23443 -4.04853 -0.16210 153 152 157
-2.41193 -4.10902 -0.09727 151 153 143
-2.40074 -4.10207 -0.11860 158 152 146
-2.41534 -4.11121 -0.11456 154 140 147
-2.42699 -4.11776 -0.09314 141 136 123
-2.42621 -4.14058 -0.09210 138 121 109
-2.58638 -4.19651 -0.05014 143 140 130
-2.58978 -4.19868 -0.06736 150 150 134
-2.60433 -4.20779 -0.06333 149 148 136
-2.77820 -4.19407 -0.00359 143 132 124
-2.76730 -4.18730 -0.02438 138 138 133
-2.78153 -4.19620 -0.02044 145 140 131
-2.79696 -4.19844 0.00120 122 116 101
-2.80901 -4.20952 0.00473 67 57 55
-2.81578 -4.22600 0.00726 44 48 46
-2.82670 -4.23279 0.02808 46 47 52
-2.83004 -4.23492 0.01121 44 50 38
-2.84246 -4.26949 0.01608 48 44 51
-2.82478 -4.25838 0.02907 46 47 52
-2.82813 -4.26052 0.01212 46 48 47
-2.83910 -4.26734 0.03304 46 45 51
-2.84956 -4.28601 0.01870 56 47 61
-2.86049 -4.29860 0.02203 63 61 74
-2.87137 -4.31130 0.02536 72 71 80
-2.88222 -4.32408 0.02869 81 81 83
-2.88577 -4.34476 0.03066 86 87 84
-2.90254 -4.35128 0.03509 91 88 85
-2.91972 -4.35733 0.03959 97 91 87
-2.93351 -4.36705 0.04347 101 93 92
-2.96041 -4.36228 0.04976 108 101 95
-3.04874 -4.33818 0.06996 123 118 113
-3.04543 -4.33606 0.08673 90 87 84
-3.07441 -4.33395 0.07598 126 122 108
-3.10697 -4.32166 0.08324 127 129 116
-3.14956 -4.29748 0.09231 156 167 171
-3.19700 -4.26720 0.10223 208 220 230
-3.20840 -4.27855 0.10561 231 238 243
-3.21894 -4.28510 0.12570 238 242 246
-3.22216 -4.28716 0.10942 238 243 246
-3.22538 -4.28922 0.09314 237 243 247
-3.69562 -4.37293 0.22922 195 211 227
-3.67931 -4.36268 0.24120 204 222 240
-3.68240 -4.36466 0.22556 203 220 238
-3.68549 -4.36664 0.20992 201 220 236
-3.70574 -4.37922 0.24852 186 201 219
-3.70883 -4.38120 0.23288 185 201 219
-3.75632 -4.42229 0.24663 165 186 196
-3.74618 -4.41599 0.22729 171 194 210
-3.75089 -4.45871 0.24726 137 152 158
-3.72841 -4.52142 0.24516 91 102 109
-3.74512 -4.53192 0.23288 89 101 107
-3.70358 -4.67901 0.24757 107 118 118
-3.69919 -4.71678 0.24852 109 118 118
-3.69937 -4.74773 0.25023 102 109 113
-3.71686 -4.75872 0.23738 124 138 132
-3.70174 -4.77553 0.25230 113 125 129
-3.71932 -4.78657 0.23938 122 131 130
-4.34770 -4.91970 0.41720 157 167 163
-4.33413 -4.91120 0.41344 151 160 154
-4.34452 -4.91766 0.43326 157 169 167
-4.35809 -4.92616 0.43702 161 172 168
-4.36127 -4.92819 0.42095 162 172 168
-4.36444 -4.93022 0.40489 170 182 179
-4.34646 -5.04216 0.42346 167 174 172
-4.32932 -5.03139 0.43606 158 165 166
-4.33582 -5.03555 0.40318 177 183 178
-4.34971 -5.04424 0.40702 177 184 179
-4.36360 -5.05293 0.41087 173 186 180
-4.41481 -5.17449 0.44719 178 190 198
-4.40399 -5.16777 0.42657 181 194 199
-4.41811 -5.17660 0.43048 182 199 203
-4.43236 -5.17473 0.45147 182 194 198
-4.44975 -5.18566 0.43869 204 218 213
-4.44926 -5.17648 0.45568 194 208 207
-4.51245 -5.19348 0.47196 187 194 197
-4.50172 -5.18681 0.45150 195 207 216
-4.51573 -5.19558 0.45538 198 209 214
-4.52663 -5.20180 0.47586 181 191 197
-4.54392 -5.21266 0.46316 205 217 221
-4.54345 -5.20301 0.48002 205 216 216
-4.56071 -5.21386 0.46734 204 213 217
-4.57891 -5.19997 0.48848 206 221 224
-4.58217 -5.20205 0.47201 218 227 229
-4.59609 -5.21077 0.47586 203 213 223
-5.44370 -5.62907 0.72191 204 213 227
-5.42688 -5.61849 0.73427 206 218 227
-5.43007 -5.62054 0.71813 199 210 227
-5.46052 -5.63964 0.70955 187 194 207
-1.83014 -3.82354 -0.27263 167 165 151
-1.81880 -3.81649 -0.29425 169 170 154
-1.84841 -3.83502 -0.28605 159 153 143
-1.84776 -3.83083 -0.26794 152 146 148
-1.86602 -3.84231 -0.28135 163 155 148
-1.90024 -3.85284 -0.25395 154 160 150
-1.88202 -3.84138 -0.24056 168 169 144
-1.88547 -3.84360 -0.25804 159 166 157
-1.89679 -3.85063 -0.23647 166 163 141
-1.91155 -3.85987 -0.23238 167 154 147
-1.91509 -3.86202 -0.24984 155 148 151
-1.92286 -3.87633 -0.24722 150 136 146
-1.92815 -3.89250 -0.24511 145 135 136
-1.94999 -3.89664 -0.23954 151 150 145
-1.96479 -3.90590 -0.23544 155 146 144
-1.96825 -3.90812 -0.25296 155 150 137
-2.30477 -4.05424 -0.14456 164 165 144
-2.28671 -4.04289 -0.13129 150 157 155
-2.29014 -4.04508 -0.14861 170 158 146
-2.29356 -4.04728 -0.16593 163 161 142
-2.31598 -4.06121 -0.12318 149 148 144
-2.31941 -4.06340 -0.14050 157 151 147
-2.43503 -4.11585 -0.10950 152 158 148
-2.43844 -4.11803 -0.12676 156 160 154
-2.45302 -4.12716 -0.12272 151 154 150
-2.45007 -4.12457 -0.10537 151 151 135
-2.46568 -4.13277 -0.10112 154 151 136
-2.48367 -4.14408 -0.11434 153 151 137
-2.72765 -4.18043 -0.03445 149 144 133
-2.71003 -4.16936 -0.02151 150 150 128
-2.71337 -4.17150 -0.03841 150 153 134
-2.71671 -4.17364 -0.05531 155 161 149
-2.73099 -4.18257 -0.05135 159 157 145
-2.73859 -4.18723 -0.01360 140 132 130
-2.74399 -4.18734 -0.03010 137 135 130
-2.76160 -4.19841 -0.04304 143 142 143
-2.79897 -4.20189 -0.01588 145 143 125
-2.78807 -4.19512 -0.03664 143 146 136
-2.81301 -4.21097 -0.01197 79 75 63
-2.81769 -4.22959 -0.00989 47 41 29
-2.82956 -4.24098 -0.00640 48 45 37
-2.84075 -4.25309 -0.00304 56 58 62
-2.84958 -4.26771 -0.00014 63 66 72
-2.86094 -4.27974 0.00325 76 83 83
-2.86480 -4.29975 0.00521 93 96 87
-2.88636 -4.30109 0.01057 99 103 95
-2.89206 -4.31930 0.01288 104 104 95
-2.90323 -4.33175 0.01625 107 105 97
-2.92137 -4.33667 0.02095 108 110 106
-2.93910 -4.34782 0.00792 138 141 129
-2.94318 -4.33753 0.02634 112 117 116
-2.96087 -4.34865 0.01334 141 145 123
-2.95323 -4.35123 0.02950 123 128 115
-2.96685 -4.36103 0.03333 128 130 115
-2.98456 -4.37216 0.02031 133 131 121
-2.99445 -4.35524 0.03981 130 133 116
-3.02985 -4.34046 0.04775 140 139 124
-3.04738 -4.35148 0.03487 142 144 136
-3.05924 -4.33217 0.05454 145 141 129
-3.07668 -4.34314 0.04173 145 146 139
-3.08342 -4.32957 0.06034 148 145 128
-3.10081 -4.34049 0.04757 140 141 136
-3.10985 -4.32423 0.06656 140 142 132
-3.13980 -4.31461 0.07342 150 163 173
-3.18500 -4.28697 0.08312 196 211 228
-3.20284 -4.29090 0.08769 228 238 247
-3.52582 -4.19333 0.16201 216 224 232
-3.51279 -4.18518 0.15840 224 233 239
-3.51584 -4.18713 0.14298 221 230 238
-3.53884 -4.20148 0.16561 203 211 223
-3.70695 -4.39040 0.21638 186 204 222
-3.71709 -4.39670 0.23572 181 199 219
-3.72019 -4.39869 0.22004 181 198 217
-3.72328 -4.40067 0.20437 181 199 217
-3.75719 -4.42762 0.23058 164 187 199
-3.74704 -4.42131 0.21122 169 194 211
-3.74922 -4.46792 0.23066 140 155 164
-3.73620 -4.51641 0.22991 94 107 115
-3.75288 -4.52690 0.21765 90 103 108
-3.72546 -4.62162 0.23258 102 114 118
-3.70843 -4.61091 0.24510 92 102 109
-3.72870 -4.62369 0.21623 105 117 120
-3.71367 -4.67042 0.23214 111 126 121
-3.71324 -4.70190 0.23362 117 129 136
-3.73055 -4.71278 0.22090 125 138 139
-3.71337 -4.73284 0.23521 118 130 134
-3.73078 -4.74379 0.22242 120 137 130
-4.34850 -4.92708 0.40082 162 174 171
-4.36526 -4.93762 0.38850 170 178 182
-4.45177 -5.13646 0.43671 188 205 203
-4.44107 -5.12982 0.41632 178 194 196
-4.46900 -5.14729 0.42405 193 207 208
-4.53097 -5.20106 0.45940 196 206 206
-4.52025 -5.19440 0.43895 197 204 211
-4.53425 -5.20316 0.44282 197 210 211
-4.54825 -5.21192 0.44670 196 211 222
-4.72544 -5.22580 0.50835 209 217 231
-4.73597 -5.23235 0.52843 206 215 227
-5.45043 -5.60785 0.70547 188 195 214
-5.46717 -5.61838 0.69317 192 207 211
-5.47752 -5.62515 0.71299 188 203 214
-5.48069 -5.62719 0.69693 190 202 206
-5.49426 -5.63568 0.70068 187 194 200
-5.49252 -5.62360 0.71659 191 209 220
-5.50606 -5.63207 0.72034 198 212 218
-1.89562 -3.84106 -0.27409 163 160 154
-1.91381 -3.85250 -0.28746 151 142 137
-1.90930 -3.85105 -0.27023 156 152 148
-1.92750 -3.86249 -0.28361 170 161 142
-1.92173 -3.86195 -0.26665 155 149 143
-1.93994 -3.87339 -0.28003 167 159 147
-1.92862 -3.87688 -0.26424 140 137 140
-1.93551 -3.89188 -0.26182 139 138 133
-1.95475 -3.89790 -0.25678 148 141 135
-1.97301 -3.90938 -0.27020 166 164 154
-2.32461 -4.04263 -0.15847 159 164 150
-2.31345 -4.03569 -0.17976 162 159 137
-2.34259 -4.05393 -0.17169 150 143 138
-2.34217 -4.04922 -0.15382 150 148 143
-2.35332 -4.05616 -0.13255 163 168 142
-2.35673 -4.05834 -0.14979 143 149 143
-2.47705 -4.12780 -0.11675 153 154 151
-2.48046 -4.12998 -0.13397 145 129 129
-2.74620 -4.19059 -0.04721 149 153 147
-2.73527 -4.18379 -0.06806 153 152 143
-2.74954 -4.19273 -0.06411 150 149 139
-2.80394 -4.20236 -0.03238 147 151 139
-2.80727 -4.20449 -0.04920 147 150 139
-2.82049 -4.20888 -0.02798 116 112 98
-2.82588 -4.22677 -0.02580 98 80 65
-2.84061 -4.23517 -0.02176 101 94 72
-2.85622 -4.24266 -0.01754 111 112 93
-2.86777 -4.25437 -0.01413 112 113 101
-2.88436 -4.26082 -0.00973 115 121 117
-2.90192 -4.27186 -0.02263 138 145 131
-2.89955 -4.26872 -0.00560 127 135 120
-2.90685 -4.28500 -0.00302 127 125 108
-2.91387 -4.30168 -0.00050 119 114 112
-2.92648 -4.31244 0.00313 130 126 123
-2.94413 -4.32353 -0.00984 142 141 127
-2.93798 -4.32443 0.00654 138 139 131
-2.95564 -4.33553 -0.00644 138 133 122
-2.97203 -4.36115 0.01669 138 138 121
