ply
format ascii 1.0
element face 0
property list uchar int vertex_indices
element vertex 1325
property float x
property float y
property float z
property uchar diffuse_red
property uchar diffuse_green
property uchar diffuse_blue
end_header
-1.99897 -4.17778 0.73757 115 112 104
-2.01437 -4.18690 0.73996 115 113 108
-2.02603 -4.19594 0.76039 86 87 73
-2.05065 -4.19650 0.76229 24 16 19
-2.06753 -4.20775 0.74678 12 12 18
-2.05970 -4.21152 0.76502 17 15 26
-2.06712 -4.22816 0.76785 39 26 37
-2.08104 -4.23514 0.78820 35 33 46
-2.08255 -4.23730 0.77024 38 34 41
-2.08406 -4.23946 0.75228 35 33 35
-3.31832 -4.56784 0.90692 23 15 22
-3.30539 -4.56135 0.88800 14 14 12
-3.32979 -4.58087 0.90956 47 51 19
-3.33595 -4.60235 0.91296 57 52 51
-3.35177 -4.61290 0.89843 81 90 90
-4.61270 -5.97235 1.19528 138 148 148
-4.62506 -5.99880 1.19983 142 151 157
-4.64276 -6.01060 1.18356 155 162 164
-4.64707 -6.06616 1.21069 157 168 167
-4.87508 -6.09313 1.23125 179 201 205
-4.86067 -6.08590 1.21017 175 188 194
-4.89259 -6.09329 1.23256 190 210 217
-2.02605 -4.19946 0.74252 118 113 96
-2.01214 -4.19248 0.72219 114 113 114
-2.03205 -4.21735 0.74538 43 36 38
-2.05409 -4.24403 0.75062 33 26 29
-2.07109 -4.25537 0.73499 32 30 38
-3.31152 -4.58266 0.89132 21 17 20
-3.29854 -4.57615 0.87234 13 13 10
-3.32957 -4.58542 0.89306 42 43 25
-3.33580 -4.60685 0.89641 58 52 47
-4.56933 -5.93203 1.16747 135 144 145
-4.58378 -5.93928 1.18861 130 137 135
-4.58535 -5.94152 1.16996 135 144 145
-4.58692 -5.94376 1.15130 144 152 152
-4.60122 -5.95169 1.17252 135 143 142
-4.61762 -5.95950 1.17481 139 150 148
-4.87909 -6.08079 1.21088 179 197 202
-4.86472 -6.07358 1.18987 182 192 205
-4.88065 -6.08302 1.19234 177 188 197
-4.89658 -6.09246 1.19481 169 185 198
-4.89568 -6.08625 1.21287 180 197 213
-4.91315 -6.09790 1.19681 177 192 208
-4.91150 -6.09625 1.21541 185 199 217
-4.92742 -6.10568 1.21788 186 199 210
-4.92898 -6.10791 1.19935 185 197 211
-5.03530 -6.07332 1.22173 195 205 210
-5.01811 -6.06186 1.23753 191 203 211
-5.01965 -6.06404 1.21930 199 211 218
-5.02118 -6.06623 1.20107 204 218 225
-5.04943 -6.08041 1.24239 180 191 203
-5.05283 -6.06883 1.22246 184 195 201
-5.06692 -6.07591 1.24306 176 189 203
-5.06845 -6.07809 1.22488 179 194 202
-5.06998 -6.08027 1.20670 183 199 209
-2.00984 -4.21801 0.72535 129 124 108
-1.99587 -4.21100 0.70491 114 116 115
-2.04542 -4.20847 0.72686 77 66 61
-2.04388 -4.25726 0.73312 28 26 23
-2.06094 -4.26864 0.71745 29 29 36
-3.30432 -4.59813 0.87566 18 16 18
-3.29129 -4.59159 0.85661 11 11 9
-3.32458 -4.59751 0.87716 35 37 33
-3.33695 -4.60927 0.87966 55 50 45
-3.33996 -4.63608 0.88340 74 77 72
-3.35303 -4.64264 0.90251 93 109 119
-3.35444 -4.64466 0.88564 88 102 119
-3.35586 -4.64669 0.86878 83 102 117
-4.54822 -5.87607 1.13944 131 138 138
-4.53077 -5.86442 1.15549 125 134 135
-4.53232 -5.86664 1.13697 129 134 134
-4.57231 -5.92819 1.14813 143 155 150
-4.58988 -5.93991 1.13198 153 160 160
-4.60257 -5.95492 1.15398 145 153 153
-4.62017 -5.96666 1.13780 156 174 170
-4.61987 -5.95869 1.15581 149 162 156
-4.63745 -5.97041 1.13966 160 176 170
-4.63414 -5.97614 1.15920 157 170 163
-4.65175 -5.98788 1.14302 161 169 173
-2.00031 -4.23040 0.70774 127 122 112
-1.98630 -4.22337 0.68725 112 118 115
-2.00183 -4.23257 0.68966 123 117 113
-2.02048 -4.23528 0.70997 105 92 74
-2.02271 -4.25694 0.71291 32 19 14
-3.30687 -4.59836 0.85872 15 15 17
-3.29385 -4.59183 0.83968 12 10 11
-3.30829 -4.60038 0.84192 14 11 15
-3.32461 -4.60170 0.86056 27 30 30
-3.33713 -4.61325 0.86303 49 47 33
-3.36258 -4.60411 0.86389 68 66 57
-3.37834 -4.61463 0.84940 73 89 87
-4.39311 -5.77550 1.09534 114 120 117
-4.37568 -5.76387 1.11136 112 109 94
-4.37723 -5.76609 1.09288 115 110 93
-4.40743 -5.78269 1.11629 115 127 128
-4.40898 -5.78491 1.09781 117 129 130
-4.41054 -5.78713 1.07932 122 132 131
-4.53928 -5.84654 1.11604 133 138 133
-4.52190 -5.83495 1.13202 125 133 136
-4.52345 -5.83716 1.11359 127 136 138
-4.55127 -5.87204 1.12025 140 148 144
-4.56430 -5.89361 1.12404 148 160 155
-4.58177 -5.90527 1.10797 158 168 161
-5.14182 -6.05391 1.19047 176 189 206
-5.15875 -6.06521 1.17491 196 212 216
-2.00903 -4.24955 0.69236 116 107 89
-1.99499 -4.24250 0.67182 120 116 115
-2.01620 -4.26667 0.69507 49 46 32
-2.02652 -4.28090 0.69768 25 27 18
-2.04215 -4.29016 0.70011 24 25 24
-3.32610 -4.60359 0.84377 17 21 16
-3.31310 -4.59707 0.82475 21 18 26
-3.32751 -4.60561 0.82699 17 21 12
-3.34757 -4.60089 0.84518 39 42 24
-3.36334 -4.61142 0.83069 46 43 41
-3.37135 -4.59430 0.84630 58 52 46
-3.38706 -4.60479 0.83186 58 68 62
-4.37560 -5.77977 1.07556 119 116 97
-4.35813 -5.76812 1.09162 125 123 97
-4.35969 -5.77034 1.07309 122 122 100
-4.39056 -5.79266 1.07838 120 127 121
-4.40804 -5.80432 1.06232 125 133 137
-4.51103 -5.82250 1.09192 125 138 133
-4.49368 -5.81092 1.10787 114 129 130
-4.49522 -5.81313 1.08946 117 130 125
-4.50949 -5.82029 1.11032 119 133 137
-4.52438 -5.84191 1.09542 139 150 146
-4.54127 -5.84695 1.09742 146 152 144
-4.55415 -5.86869 1.10117 150 160 153
-4.57157 -5.88031 1.08517 162 173 168
-4.56784 -5.88736 1.10461 157 168 161
-4.58529 -5.89900 1.08857 157 169 169
-1.99781 -4.26363 0.67462 121 113 107
-1.98372 -4.25656 0.65401 121 116 114
-2.02516 -4.26185 0.67668 76 78 60
-2.01516 -4.29529 0.67990 26 19 11
-2.03237 -4.30678 0.66408 10 13 17
-2.02953 -4.30583 0.68237 16 19 18
-2.04367 -4.31293 0.70306 28 26 32
-2.04521 -4.31512 0.68481 25 25 29
-3.35515 -4.59306 0.82778 31 37 24
-3.34222 -4.58657 0.80887 22 27 24
-3.35655 -4.59507 0.81109 25 35 31
-3.37088 -4.60356 0.81332 36 42 38
-3.62935 -4.35900 0.82232 104 100 80
-3.61479 -4.34929 0.83570 124 132 130
-3.61609 -4.35114 0.82026 115 128 124
-3.64131 -4.36501 0.83982 105 94 73
-3.64261 -4.36686 0.82438 100 93 74
-3.64391 -4.36871 0.80894 97 92 72
-3.67847 -4.33593 0.82362 109 101 83
-3.69030 -4.34187 0.84093 125 113 86
-3.69159 -4.34370 0.82566 121 111 87
-4.35962 -5.77836 1.05513 122 126 112
-4.37711 -5.79003 1.03906 124 131 128
-4.37422 -5.79259 1.05807 123 127 113
-4.39173 -5.80427 1.04199 126 132 143
-4.38980 -5.80337 1.06068 125 134 136
-4.40731 -5.81505 1.04459 125 132 141
-4.45803 -5.82408 1.06888 129 137 131
-4.44058 -5.81244 1.08492 121 131 125
-4.44213 -5.81466 1.06641 126 136 130
-4.45647 -5.82186 1.08739 119 125 122
-4.47237 -5.83127 1.08985 121 129 123
-4.47392 -5.83350 1.07135 130 139 129
-4.49306 -5.83006 1.07253 128 138 129
-4.51253 -5.82493 1.07353 141 153 139
-4.52988 -5.83651 1.05758 158 168 163
-4.52769 -5.83695 1.07625 156 166 157
-4.54505 -5.84854 1.06029 159 167 165
-4.54167 -5.85393 1.07948 158 164 158
-4.55528 -5.87270 1.08288 160 170 163
-4.57270 -5.88432 1.06687 164 177 177
-4.78997 -5.93855 1.11044 182 194 205
-4.77429 -5.92926 1.10801 177 188 201
-4.77583 -5.93146 1.08976 172 182 194
-4.78843 -5.93636 1.12869 190 201 203
-4.79150 -5.94074 1.09220 170 184 198
-4.80564 -5.94784 1.11288 186 197 204
-5.40785 -5.97542 1.16647 182 193 216
-5.39307 -5.96666 1.16418 193 209 224
-5.39452 -5.96872 1.14697 191 207 218
-5.40640 -5.97335 1.18368 169 183 212
-5.40930 -5.97748 1.14926 188 202 220
-5.42408 -5.98624 1.15156 196 216 219
-1.97901 -4.28483 0.65694 122 116 116
-1.96484 -4.27772 0.63622 121 118 105
-1.98054 -4.28703 0.63866 124 115 115
-1.99165 -4.29701 0.65945 108 101 83
-2.00723 -4.30646 0.66190 35 28 21
-2.03255 -4.33096 0.66695 19 21 27
-2.04675 -4.33809 0.68771 34 30 31
-2.04829 -4.34029 0.66939 29 32 30
-3.59563 -4.38946 0.80727 106 119 114
-3.58093 -4.37965 0.82078 94 109 130
-3.58224 -4.38153 0.80519 79 93 108
-3.58355 -4.38340 0.78959 68 83 93
-3.64050 -4.34420 0.80576 101 100 83
-3.65499 -4.35387 0.79244 95 89 69
-3.68732 -4.32476 0.80746 105 97 77
-3.70352 -4.32707 0.80912 117 108 84
-3.71530 -4.33298 0.82634 124 116 85
-3.71658 -4.33480 0.81115 123 115 83
-3.71785 -4.33663 0.79595 120 110 78
-4.34875 -5.75882 1.03296 122 131 124
-4.36620 -5.77046 1.01693 120 134 134
-4.44148 -5.82528 1.04871 132 143 137
-4.42400 -5.81362 1.06478 124 131 130
-4.42556 -5.81585 1.04624 127 136 136
-4.44304 -5.82751 1.03017 139 150 146
-4.45896 -5.83694 1.03264 147 162 151
-4.45959 -5.82629 1.05037 138 150 138
-4.47704 -5.83793 1.03434 149 158 150
-4.47739 -5.82825 1.05212 138 147 135
-4.49481 -5.83987 1.03611 150 156 151
-4.49499 -5.83077 1.05392 138 147 137
-4.51239 -5.84238 1.03793 154 163 162
-4.51461 -5.82498 1.05492 150 162 153
-4.53196 -5.83656 1.03897 156 166 170
-1.98553 -4.30643 0.64132 128 119 100
-1.97132 -4.29930 0.62054 122 115 113
-1.99183 -4.32473 0.64397 62 60 45
-2.00725 -4.33443 0.64642 14 11 13
-2.02458 -4.34599 0.63049 14 13 21
-2.02175 -4.34503 0.64890 16 16 24
-2.03759 -4.35434 0.65135 26 29 29
-2.05184 -4.36149 0.67219 32 37 28
-2.05338 -4.36369 0.65380 33 35 26
-2.05493 -4.36590 0.63542 33 29 31
-3.61538 -4.36040 0.78973 94 107 102
-3.60340 -4.35439 0.77221 57 69 83
-3.61668 -4.36226 0.77427 80 92 88
-3.62996 -4.37012 0.77633 87 90 80
-3.64376 -4.34272 0.79018 97 95 84
-3.65824 -4.35237 0.77688 88 85 66
-3.69122 -4.32208 0.79196 101 92 69
-3.69250 -4.32390 0.77676 94 89 61
-3.70555 -4.33164 0.77879 104 99 65
-3.70050 -4.33636 0.79441 112 102 73
-3.71486 -4.34593 0.78121 115 108 72
-4.42489 -5.82645 1.02847 131 142 141
-4.40895 -5.81700 1.02599 126 135 138
-4.44240 -5.83813 1.01238 146 159 155
-1.97814 -4.31706 0.62313 122 119 111
-1.96390 -4.30991 0.60230 116 118 111
-1.97969 -4.31926 0.60475 114 115 110
-2.00209 -4.31865 0.62544 94 90 66
-1.99531 -4.34953 0.62828 27 15 15
-2.01271 -4.36114 0.61229 15 12 18
-2.02522 -4.37004 0.63323 22 23 27
-2.04262 -4.38164 0.61724 33 24 38
-3.45286 -4.27461 0.74990 25 28 28
-3.43825 -4.26487 0.76332 34 39 41
-3.45156 -4.27275 0.76539 29 37 42
-3.45416 -4.27647 0.73441 15 18 18
-3.46486 -4.28064 0.76745 28 36 45
-3.46569 -4.28323 0.75200 23 29 40
-3.47769 -4.28925 0.76956 31 32 32
-3.47900 -4.29111 0.75407 29 31 37
-4.31279 -5.70583 0.98608 119 125 126
-4.31434 -5.70804 0.96768 123 133 133
-4.33013 -5.71740 0.97014 123 131 134
-4.37817 -5.80191 1.00261 126 137 135
-4.36222 -5.79246 1.00014 120 130 130
-4.37661 -5.79968 1.02119 122 132 133
-4.39257 -5.80913 1.02366 125 132 138
-4.39424 -5.81097 1.00506 131 140 139
-4.41048 -5.81933 1.00744 135 144 146
-4.42945 -5.81739 1.00891 140 150 152
-4.44692 -5.82904 0.99285 155 171 162
-1.98632 -4.36184 0.60996 41 36 30
-3.36857 -4.07895 0.70523 12 18 19
-3.35440 -4.06950 0.71826 18 25 27
-3.35566 -4.07130 0.70323 15 25 35
-3.36731 -4.07715 0.72026 14 19 22
-3.38022 -4.08480 0.72227 12 17 18
-3.38274 -4.08840 0.69221 3 5 7
-3.38936 -4.15373 0.71522 13 14 31
-3.37500 -4.14416 0.72842 14 17 28
-3.37756 -4.14781 0.69797 5 5 11
-3.38808 -4.15191 0.73045 16 19 35
-3.40116 -4.15965 0.73248 15 22 38
-3.40173 -4.16251 0.71730 14 17 36
-3.41353 -4.16843 0.73456 21 29 39
-3.41145 -4.17515 0.71955 19 25 41
-3.42327 -4.18108 0.73684 23 32 40
-3.42455 -4.18291 0.72158 19 27 41
-3.42583 -4.18474 0.70633 11 17 31
-3.44964 -4.25529 0.73170 18 21 28
-3.43509 -4.24559 0.74508 26 30 38
-3.43638 -4.24744 0.72965 21 27 35
-3.43768 -4.24929 0.71421 17 24 32
-3.46419 -4.26500 0.71833 11 17 17
-3.47516 -4.27253 0.73589 15 20 31
-3.47646 -4.27438 0.72045 10 15 22
-3.49248 -4.27410 0.73764 18 25 34
-3.50442 -4.28009 0.75511 23 32 35
-3.50572 -4.28194 0.73969 20 31 37
-4.36649 -5.78500 0.98076 129 135 132
-4.34901 -5.77333 0.99683 124 133 127
-4.35057 -5.77556 0.97829 126 137 128
-4.38202 -5.79584 0.98335 140 149 136
-4.40071 -5.79513 0.98498 140 146 145
-4.41877 -5.79650 0.98677 146 155 164
-4.43619 -5.80812 0.97076 155 165 170
-4.43549 -5.80266 0.98896 149 163 168
-4.45291 -5.81428 0.97296 161 175 169
-1.97943 -4.34756 0.58895 121 115 102
-1.96513 -4.34038 0.56803 117 122 114
-2.03338 -4.32046 0.59112 73 77 61
-1.99045 -4.38632 0.59404 24 15 17
-2.00796 -4.39799 0.57796 16 11 32
-3.22721 -4.04627 0.67332 17 22 29
-3.21289 -4.03671 0.68649 14 17 12
-3.21544 -4.04036 0.65611 18 27 39
-3.22594 -4.04444 0.68851 15 17 18
-3.22849 -4.04809 0.65814 15 24 37
-3.24026 -4.05400 0.67535 26 29 39
-3.29837 -4.05178 0.68052 14 16 31
-3.28415 -4.04230 0.69358 18 21 31
-3.28542 -4.04411 0.67851 18 18 37
-3.29710 -4.04997 0.69559 17 20 34
-3.31004 -4.05764 0.69760 17 22 32
-3.31258 -4.06126 0.66746 5 6 11
-3.31451 -4.05513 0.68237 10 15 23
-3.32618 -4.06098 0.69943 14 24 19
-3.32871 -4.06460 0.66933 4 5 6
-3.35614 -4.07419 0.68824 6 12 19
-3.34196 -4.06474 0.70127 11 26 24
-3.34449 -4.06835 0.67121 4 5 4
-3.35740 -4.07600 0.67321 3 6 6
-3.37031 -4.08365 0.67521 4 6 6
-3.36983 -4.08075 0.69021 6 8 10
-3.38401 -4.09021 0.67718 3 5 4
-3.39079 -4.15534 0.69999 6 7 18
-3.37900 -4.14942 0.68273 4 4 6
-3.39207 -4.15717 0.68476 4 5 10
-3.40329 -4.16394 0.70205 8 11 24
-3.41765 -4.17352 0.68885 8 14 18
-3.41467 -4.17416 0.70418 11 17 30
-3.42904 -4.18375 0.69098 7 13 20
-3.49756 -4.27007 0.72196 11 15 23
-3.48564 -4.26409 0.70453 7 10 13
-3.49885 -4.27192 0.70658 8 8 11
-3.51207 -4.27975 0.70863 9 10 13
-3.51783 -4.26687 0.72351 14 22 27
-3.52972 -4.27283 0.74090 22 30 44
-3.53230 -4.27652 0.71022 11 12 17
-3.53779 -4.26398 0.72506 15 21 33
-3.54964 -4.26993 0.74239 20 27 30
-4.35865 -5.75470 0.95794 133 147 145
-4.36020 -5.75692 0.93948 135 144 141
-4.37075 -5.77754 0.96146 136 147 142
-1.96925 -4.36095 0.57051 126 127 119
-1.95490 -4.35375 0.54953 123 125 119
-1.97081 -4.36318 0.55199 129 132 123
-1.98202 -4.37339 0.57299 116 106 88
-1.97925 -4.40087 0.57553 38 24 22
-2.00726 -4.42373 0.58051 23 22 31
-2.02171 -4.43098 0.60164 36 31 39
-2.02328 -4.43322 0.58300 32 34 32
-2.02485 -4.43546 0.56435 32 31 30
-3.19015 -4.02389 0.65204 22 23 25
-3.17584 -4.01434 0.66519 16 19 27
-3.17711 -4.01616 0.65001 19 24 23
-3.18888 -4.02206 0.66722 16 17 21
-3.20192 -4.02979 0.66924 16 19 17
-3.20447 -4.03344 0.63888 28 38 45
-3.20313 -4.03170 0.65406 22 25 32
-3.24353 -4.05320 0.66009 25 34 43
-3.25529 -4.05910 0.67728 20 23 29
-3.26543 -4.04922 0.66176 18 21 23
-3.27969 -4.05873 0.64865 9 9 12
-3.28203 -4.05211 0.66363 12 14 24
-3.29627 -4.06161 0.65054 11 7 11
-3.29929 -4.05404 0.66546 8 8 19
-3.31351 -4.06352 0.65240 7 7 7
-3.40559 -4.16428 0.68677 7 9 14
-3.39380 -4.15836 0.66952 4 4 5
-3.40687 -4.16611 0.67155 4 5 6
-3.41995 -4.17386 0.67358 4 6 7
-3.56036 -4.26063 0.71126 15 16 23
-3.57217 -4.26656 0.72853 35 31 42
-3.57345 -4.26839 0.71330 36 29 48
-3.57473 -4.27022 0.69806 39 40 59
-3.69806 -4.45059 0.74367 112 109 78
-3.68468 -4.44266 0.74159 98 100 69
-3.68599 -4.44453 0.72601 86 89 65
-3.69675 -4.44872 0.75924 117 111 84
-3.71013 -4.45665 0.76132 120 115 98
-4.29279 -5.43418 0.90023 108 119 113
-4.30935 -5.44523 0.88501 117 126 127
-4.37448 -5.77193 0.94237 134 147 145
-4.36017 -5.76475 0.92143 138 145 138
-4.39399 -5.76808 0.94383 155 170 157
-4.41126 -5.77215 0.94588 154 163 166
-4.44246 -5.79245 0.95091 159 168 168
-4.45828 -5.80182 0.95336 162 176 175
-4.45983 -5.80403 0.93495 165 180 180
-1.97850 -4.38049 0.55445 129 124 98
-1.96412 -4.37327 0.53341 130 131 129
-1.99708 -4.38739 0.55692 50 50 37
-1.99814 -4.41130 0.55938 16 12 32
-2.01570 -4.42301 0.54325 16 14 18
-2.01204 -4.42282 0.56187 19 19 26
-2.02961 -4.43454 0.54572 30 26 24
-3.19481 -4.02141 0.63676 33 35 34
-3.18306 -4.01551 0.61957 29 31 39
-3.19608 -4.02323 0.62160 36 39 42
-3.21972 -4.03831 0.64084 18 32 53
-3.23552 -4.04242 0.64277 8 13 24
-3.24981 -4.05195 0.62964 6 6 6
-3.25036 -4.04774 0.64473 10 17 19
-3.26463 -4.05727 0.63161 6 6 7
-3.26937 -4.04750 0.64655 9 12 11
-3.28362 -4.05700 0.63346 9 8 14
-3.51972 -4.27164 0.69288 11 11 12
-3.50654 -4.26383 0.69083 8 7 8
-3.54087 -4.26685 0.69445 14 17 20
-3.55861 -4.26730 0.69621 20 25 32
-3.59941 -4.25921 0.69936 23 26 27
-3.61115 -4.26510 0.71654 13 17 13
-3.61242 -4.26692 0.70138 13 15 9
-3.70107 -4.44941 0.72795 104 104 74
-3.71239 -4.46104 0.73020 110 110 84
-3.72708 -4.47084 0.71669 114 115 90
-4.26482 -5.47234 0.88337 113 126 114
-4.28154 -5.48349 0.86801 121 128 124
-4.37831 -5.76599 0.92331 132 149 148
-4.39570 -5.77759 0.90732 154 170 176
-4.39704 -5.76484 0.92501 153 171 167
-4.41439 -5.77642 0.90906 165 179 182
-4.43101 -5.77475 0.92927 166 179 173
-4.44834 -5.78630 0.91335 175 190 187
-5.24495 -5.69772 1.00045 166 182 202
-5.26061 -5.70817 0.98605 176 190 203
-5.25962 -5.70233 1.00233 173 189 209
-5.27248 -5.70879 1.02114 186 204 219
-5.27388 -5.71078 1.00454 180 196 210
-5.27527 -5.71277 0.98794 180 194 207
-1.97165 -4.39080 0.53583 134 129 112
-1.95724 -4.38357 0.51475 122 124 120
-2.00494 -4.38352 0.53842 79 84 75
-1.99814 -4.41506 0.54076 22 15 21
-2.01570 -4.42678 0.52461 14 12 11
-3.21361 -4.02516 0.62351 26 36 36
-3.22739 -4.03185 0.62551 12 20 35
-3.24166 -4.04137 0.61240 5 7 11
-3.24492 -4.03365 0.62741 6 5 11
-3.25916 -4.04315 0.61432 7 8 9
-3.47640 -4.28604 0.67433 10 10 12
-3.46182 -4.27631 0.68773 5 8 7
-3.46312 -4.27817 0.67227 7 7 8
-3.47510 -4.28418 0.68979 5 8 8
-3.49339 -4.28815 0.67621 19 16 18
-3.50795 -4.29786 0.66282 37 45 49
-3.51258 -4.28670 0.67796 22 23 31
-3.53445 -4.28087 0.67956 22 32 41
-3.55556 -4.27604 0.68119 19 25 25
-3.57626 -4.27164 0.68281 17 25 38
-3.59063 -4.28122 0.66961 11 14 14
-3.59718 -4.26670 0.68440 14 17 17
-3.61592 -4.26511 0.68610 15 19 14
-3.62765 -4.27100 0.70326 14 16 23
-3.63019 -4.27464 0.67298 28 41 27
-3.66682 -4.45098 0.70885 53 53 42
-3.65208 -4.44115 0.72240 49 48 44
-3.65339 -4.44303 0.70677 45 46 35
-3.65471 -4.44490 0.69114 44 46 32
-3.66550 -4.44910 0.72448 61 62 57
-3.68089 -4.45779 0.71089 77 79 60
-3.69862 -4.45802 0.71266 98 97 77
-3.71041 -4.46886 0.71486 105 104 84
-3.72512 -4.47867 0.70133 113 111 91
-4.19297 -5.47555 0.85851 105 113 108
-4.17611 -5.46431 0.87400 112 114 88
-4.17762 -5.46645 0.85612 110 112 99
-4.20982 -5.48679 0.84302 118 127 130
-4.20950 -5.48106 0.86066 107 119 123
-4.22634 -5.49230 0.84519 118 128 135
-4.37290 -5.72723 0.90027 147 159 152
-4.35562 -5.71570 0.91616 139 149 141
-4.35716 -5.71790 0.89783 142 156 152
-4.35870 -5.72011 0.87950 151 162 163
-4.39018 -5.73876 0.88439 162 175 172
-4.38936 -5.73398 0.90254 142 161 159
-4.40663 -5.74550 0.88666 160 173 178
-4.64173 -5.80086 0.93382 179 193 200
-4.62470 -5.78950 0.94947 167 182 181
-4.62621 -5.79167 0.93142 176 190 194
-4.62773 -5.79383 0.91336 175 193 202
-4.64021 -5.79869 0.95188 171 186 190
-4.65875 -5.81222 0.91817 197 215 216
-4.66126 -5.79181 0.93489 189 203 204
-4.67520 -5.79880 0.95528 184 198 198
-4.67672 -5.80096 0.93729 185 197 198
-4.82031 -5.76929 0.94843 188 194 201
-4.80369 -5.75821 0.96371 188 202 205
-4.80517 -5.76032 0.94608 194 208 207
-4.80665 -5.76244 0.92846 196 212 210
-4.81882 -5.76718 0.96606 188 198 205
-4.83545 -5.77827 0.95078 177 188 200
-5.22919 -5.71749 0.98384 184 198 211
-5.21624 -5.71100 0.96492 186 203 212
-1.94849 -4.41682 0.51694 126 118 114
-1.93399 -4.40954 0.49572 122 121 116
-1.95007 -4.41907 0.49822 126 121 113
-1.95497 -4.43565 0.51932 116 107 88
-1.99308 -4.42376 0.52206 40 25 23
-3.20545 -4.01472 0.60630 21 28 35
-3.19247 -4.00702 0.60428 25 30 36
-3.19374 -4.00884 0.58917 18 26 30
-3.21970 -4.02423 0.59320 10 16 10
-3.21986 -4.02058 0.60829 14 24 22
-3.23411 -4.03008 0.59519 8 14 14
-3.23450 -4.02611 0.61027 8 13 17
-3.24873 -4.03561 0.59718 9 10 14
-3.45887 -4.28853 0.65703 9 9 17
-3.44425 -4.27878 0.67046 6 6 4
-3.44556 -4.28064 0.65496 7 7 7
-3.44686 -4.28250 0.63946 7 8 7
-3.47403 -4.29357 0.65902 19 20 33
-3.48928 -4.29843 0.66100 41 47 44
-3.53238 -4.28803 0.66437 24 47 53
-3.54687 -4.29770 0.65106 8 6 4
-3.55800 -4.27603 0.66584 11 11 10
-3.57240 -4.28564 0.65260 7 11 11
-3.57963 -4.27010 0.66747 5 12 16
-3.59399 -4.27968 0.65428 13 19 15
-3.61640 -4.26822 0.67100 19 30 22
-3.66222 -4.46328 0.69359 49 52 42
-3.65008 -4.45719 0.67583 43 47 32
-3.67628 -4.47019 0.69564 72 76 56
-3.69391 -4.47069 0.69746 96 94 73
-3.70875 -4.47610 0.69945 105 100 84
-3.72349 -4.48593 0.68591 112 111 93
-4.16469 -5.45681 0.83572 112 117 107
-4.14784 -5.44557 0.85119 113 112 93
-4.14935 -5.44772 0.83333 108 109 96
-4.16319 -5.45466 0.85358 113 114 95
-4.17823 -5.47122 0.83841 115 121 119
-4.19509 -5.48247 0.82291 129 135 132
-4.19388 -5.47945 0.84074 120 130 127
-4.21074 -5.49070 0.82524 125 133 133
-4.37678 -5.72110 0.88141 161 173 172
-4.37832 -5.72329 0.86311 160 171 177
-4.39403 -5.73260 0.86555 160 169 172
-4.64572 -5.79196 0.91499 184 205 207
-4.64723 -5.79413 0.89698 192 210 214
-4.66271 -5.80330 0.89938 195 208 215
-4.89513 -5.73488 0.93482 185 203 218
-4.88020 -5.72603 0.93250 179 198 211
-4.88166 -5.72812 0.91513 180 194 206
-4.89367 -5.73279 0.95219 192 209 220
-4.89659 -5.73696 0.91744 179 193 201
-4.90859 -5.74163 0.95451 202 212 220
-5.22935 -5.73083 0.96806 195 211 215
-5.21637 -5.72432 0.94909 195 211 218
-5.23075 -5.73284 0.95132 203 218 217
-5.24453 -5.73183 0.96968 190 200 204
-1.94925 -4.44499 0.50044 124 123 103
-1.93468 -4.43767 0.47913 128 121 122
-1.93602 -4.48325 0.50249 59 54 56
-2.00107 -4.44494 0.50574 16 12 11
-2.01871 -4.45670 0.48953 15 16 12
-2.01381 -4.45776 0.50819 18 20 16
-2.02832 -4.46504 0.52941 31 32 39
-2.02989 -4.46729 0.51069 28 27 30
-2.03146 -4.46953 0.49196 24 25 24
-3.21605 -4.00462 0.59108 12 18 20
-3.21731 -4.00643 0.57602 8 13 20
-3.23025 -4.01409 0.57803 11 15 13
-3.45142 -4.30384 0.64182 10 11 17
-3.43936 -4.29779 0.62419 7 10 9
-3.45272 -4.30571 0.62626 10 10 17
-3.46609 -4.31363 0.62834 12 14 23
-3.46859 -4.30586 0.64376 21 25 34
-3.49142 -4.29899 0.64549 49 58 49
-3.53452 -4.28853 0.64898 14 19 17
-3.54900 -4.29820 0.63567 6 7 4
-3.61529 -4.27394 0.65596 17 29 27
-3.60354 -4.26805 0.63877 11 13 12
-3.63209 -4.27543 0.65781 28 33 43
-3.64382 -4.28131 0.67496 18 19 24
-3.64636 -4.28495 0.64469 13 15 22
-3.66392 -4.46449 0.67790 46 52 45
-3.65178 -4.45839 0.66014 43 47 28
-3.66524 -4.46637 0.66222 46 50 43
-3.67702 -4.47310 0.68000 68 74 56
-3.69054 -4.48099 0.68209 93 93 70
-3.70480 -4.48752 0.68413 103 100 84
-4.12793 -5.40965 0.80955 112 112 91
-4.11117 -5.39847 0.82495 116 113 93
-4.11266 -5.40060 0.80718 112 111 95
-4.12644 -5.40752 0.82732 117 111 91
-4.14171 -5.41657 0.82969 108 111 98
-4.15557 -5.43617 0.81474 104 113 114
-4.16872 -5.45152 0.81745 113 122 121
-4.18554 -5.46274 0.80200 123 133 132
-4.18135 -5.46859 0.82026 120 128 129
-4.19819 -5.47982 0.80478 127 137 132
-5.00070 -5.69695 0.92455 190 204 216
-4.98748 -5.69031 0.90522 193 213 223
-5.00213 -5.69899 0.90750 196 214 218
-1.93842 -4.45929 0.48137 127 127 116
-1.92380 -4.45195 0.45999 126 130 124
-1.97763 -4.44640 0.48436 93 87 78
-2.00096 -4.44885 0.48700 28 19 13
-2.01860 -4.46062 0.47078 14 16 21
-3.47920 -4.32195 0.63042 11 13 23
-3.46714 -4.31589 0.61278 10 10 26
-3.49388 -4.33174 0.61693 7 3 8
-3.50379 -4.31221 0.63215 11 5 16
-3.51839 -4.32195 0.61873 5 5 5
-3.61572 -4.27716 0.64083 7 14 17
-3.60396 -4.27126 0.62364 10 8 10
-3.61699 -4.27898 0.62566 9 11 12
-3.63002 -4.28670 0.62768 11 15 17
-3.67697 -4.47743 0.66440 66 70 57
-3.66482 -4.47133 0.64662 48 49 38
-3.69058 -4.48515 0.66648 90 90 69
-3.70537 -4.49502 0.65289 97 96 69
-3.70403 -4.49318 0.66857 100 98 79
-3.71752 -4.50112 0.67066 109 107 88
-3.72968 -4.50722 0.68844 118 115 96
-3.73099 -4.50910 0.67275 117 111 91
-3.73231 -4.51098 0.65707 113 111 93
-4.11711 -5.39444 0.78900 110 117 110
-4.10038 -5.38328 0.80438 111 111 91
-4.10187 -5.38541 0.78663 103 106 99
-4.13385 -5.40561 0.77362 120 128 128
-4.12708 -5.41846 0.79210 116 123 117
-4.14386 -5.42966 0.77667 123 132 128
-4.14237 -5.42751 0.79447 117 131 124
-4.16666 -5.46412 0.80014 115 130 127
-4.18352 -5.47536 0.78466 127 138 132
-4.36727 -5.64128 0.83628 145 155 164
-4.35024 -5.62992 0.85193 137 158 161
-4.35176 -5.63209 0.83387 142 152 153
-4.35328 -5.63425 0.81582 160 170 167
-4.38430 -5.65263 0.82063 158 171 179
-4.37297 -5.68504 0.84063 154 164 173
-4.39012 -5.69648 0.82487 161 175 181
-5.35158 -5.75123 0.94845 183 196 211
-5.36442 -5.75768 0.96723 196 210 227
-5.36581 -5.75967 0.95066 194 211 226
-1.92057 -4.48044 0.46200 124 124 120
-1.90588 -4.47307 0.44052 127 130 121
-1.92217 -4.48272 0.44304 126 119 124
-1.93698 -4.48997 0.46453 125 114 89
-1.98300 -4.47033 0.46780 46 36 18
-2.01428 -4.49051 0.47279 23 27 28
-2.02886 -4.49783 0.49412 31 31 32
-2.03045 -4.50009 0.47530 29 28 28
-3.24966 -3.96845 0.56098 17 18 28
-3.23688 -3.96088 0.55899 15 19 31
-3.26237 -3.97611 0.56296 25 23 33
-3.27389 -3.98190 0.57982 13 18 17
-3.28093 -3.97618 0.56494 23 30 28
-3.29243 -3.98195 0.58176 13 16 16
-3.29334 -3.98416 0.56692 15 23 23
-3.30485 -3.98993 0.58374 11 12 12
-3.30790 -3.98934 0.56889 10 11 13
-3.31939 -3.99511 0.58570 6 7 7
-3.32064 -3.99689 0.57087 5 5 4
-3.32188 -3.99867 0.55604 4 6 3
-3.77425 -4.15998 0.63254 23 25 28
-3.76058 -4.15086 0.64511 14 19 26
-3.76180 -4.15260 0.63061 14 18 19
-3.76302 -4.15434 0.61611 13 17 17
-3.77303 -4.15824 0.64705 19 21 29
-3.78793 -4.16910 0.61998 33 41 36
-3.78532 -4.16975 0.63453 32 36 39
-3.79657 -4.17539 0.65097 37 42 24
-3.79779 -4.17714 0.63646 38 41 31
-3.79901 -4.17888 0.62195 37 42 26
-3.67830 -4.47929 0.64871 67 69 56
-3.66615 -4.47319 0.63094 49 47 32
-3.69202 -4.48682 0.65079 88 90 66
-3.70681 -4.49669 0.63720 96 97 79
-4.07468 -5.36457 0.76394 112 112 102
-4.05797 -5.35342 0.77930 116 115 90
-4.05946 -5.35555 0.76158 110 115 93
-4.07319 -5.36244 0.78167 115 110 92
-4.08842 -5.37146 0.78403 112 110 95
-4.09140 -5.37572 0.74858 118 131 127
-4.08941 -5.37497 0.76636 111 115 109
-4.10456 -5.38422 0.76874 102 107 118
-4.12128 -5.39537 0.75337 121 133 127
-4.11689 -5.40139 0.77147 112 125 123
-4.13364 -5.41256 0.75607 124 126 128
-4.81423 -5.66622 0.86745 196 214 219
-4.79792 -5.65534 0.88244 194 208 211
-4.79938 -5.65742 0.86514 182 203 210
-4.81278 -5.66415 0.88474 198 212 206
-4.81569 -5.66830 0.85015 204 216 223
-4.82909 -5.67503 0.86975 202 218 220
-4.84608 -5.67253 0.87135 195 211 217
-4.84463 -5.67045 0.88861 186 200 208
-4.84753 -5.67460 0.85409 183 192 205
-4.85945 -5.67924 0.89091 184 200 210
-4.86091 -5.68131 0.87365 189 202 213
-5.24542 -5.76931 0.92178 197 207 206
-5.23238 -5.76276 0.90272 190 203 225
-5.24683 -5.77133 0.90496 194 206 215
-5.26070 -5.76975 0.92344 185 195 191
-5.27605 -5.76898 0.92501 181 195 200
-5.28903 -5.77550 0.94401 180 190 209
-5.29185 -5.77953 0.91049 198 209 219
-5.29329 -5.74804 0.92511 188 200 212
-5.30620 -5.75452 0.94400 181 190 211
-5.30900 -5.75852 0.91067 202 220 225
-1.93955 -4.49129 0.44560 132 128 98
-1.92487 -4.48392 0.42412 128 129 123
-1.96513 -4.49177 0.44841 70 69 41
-1.99255 -4.49029 0.45126 23 17 22
-2.00808 -4.50056 0.45375 52 48 37
-2.02914 -4.50525 0.45640 40 35 20
-2.04373 -4.51258 0.47775 31 35 30
-2.04532 -4.51484 0.45891 30 33 24
-2.04690 -4.51710 0.44008 44 41 18
-3.25444 -3.94192 0.54424 25 32 38
-3.24051 -3.93262 0.55705 18 25 33
-3.24175 -3.93439 0.54226 22 28 34
-3.25569 -3.94369 0.52945 33 42 46
-3.26838 -3.95121 0.53142 33 51 47
-3.27175 -3.94353 0.54624 32 42 48
-3.28566 -3.95281 0.53345 27 44 45
-3.29276 -3.94028 0.54825 40 53 57
-3.29476 -3.96158 0.55016 28 46 34
-3.30853 -3.96768 0.55213 11 17 31
-3.32245 -3.97697 0.53934 5 6 8
-3.32208 -3.97404 0.55410 6 7 13
-3.33600 -3.98333 0.54131 3 6 4
-3.78770 -4.14077 0.61770 23 32 29
-3.80129 -4.14984 0.60521 37 45 36
-3.68008 -4.48034 0.63301 66 63 56
-3.66793 -4.47425 0.61524 47 45 31
-3.69322 -4.48892 0.63512 84 87 74
-4.05752 -5.36691 0.74421 109 119 100
-4.04077 -5.35574 0.75961 113 115 90
-4.04226 -5.35787 0.74184 108 112 94
-4.07427 -5.37809 0.72882 124 138 136
-4.10338 -5.39377 0.75131 119 132 133
-4.10488 -5.39590 0.73354 125 137 144
-4.12013 -5.40494 0.73591 126 135 131
-5.27959 -5.74948 0.90677 199 209 215
-1.94016 -4.49453 0.42662 135 137 105
-1.92547 -4.48716 0.40513 118 118 113
-1.94176 -4.49681 0.40766 122 115 102
-1.96809 -4.49269 0.42955 110 103 86
-1.99234 -4.49434 0.43234 37 33 41
-2.02111 -4.49136 0.43528 110 137 90
-2.02682 -4.51145 0.43744 91 95 40
-3.31403 -3.93989 0.53559 17 25 26
-3.32785 -3.94911 0.52288 6 7 10
-3.32387 -3.95095 0.53751 8 8 19
-3.33771 -3.96019 0.52479 5 5 5
-3.78286 -4.12442 0.60125 23 22 29
-3.76931 -4.11538 0.61370 13 19 18
-3.77051 -4.11710 0.59933 12 15 27
-3.79321 -4.13513 0.60320 34 41 37
-3.80677 -4.14418 0.59074 39 46 42
-3.68026 -4.48426 0.61736 63 61 48
-3.66811 -4.47816 0.59958 46 42 33
-3.69497 -4.49002 0.61942 81 86 69
-3.70799 -4.49882 0.62153 95 98 77
-3.72014 -4.50492 0.63930 106 103 80
-3.72146 -4.50680 0.62362 107 104 82
-3.72278 -4.50869 0.60793 104 98 85
-4.04219 -5.31482 0.72047 106 106 95
-4.02557 -5.30373 0.73574 113 112 93
-4.02705 -5.30585 0.71812 111 109 91
-4.04070 -5.31270 0.73809 108 113 93
-4.04645 -5.35281 0.72383 111 119 117
-4.06317 -5.36397 0.70846 133 142 146
-5.01812 -5.62983 0.85188 197 214 215
-5.00510 -5.62330 0.83285 193 206 214
-5.01953 -5.63185 0.83509 202 212 218
-5.03395 -5.64039 0.83733 202 213 216
-1.96871 -4.49592 0.41061 120 116 97
-1.95406 -4.48856 0.38918 121 118 110
-1.99400 -4.49654 0.41349 47 39 63
-2.01739 -4.49893 0.41628 96 102 110
-2.01739 -4.52483 0.41817 156 160 99
-2.05621 -4.51151 0.42154 68 58 28
-2.07077 -4.51882 0.44284 34 35 24
-2.07235 -4.52108 0.42405 34 34 29
-2.07393 -4.52333 0.40526 47 44 33
-3.30382 -3.90907 0.51727 21 33 39
-3.29130 -3.90165 0.51532 32 37 59
-3.31780 -3.91461 0.51924 14 22 25
-3.33154 -3.92378 0.50661 7 7 8
-3.33362 -3.91772 0.52124 10 13 15
-3.34734 -3.92688 0.50862 4 4 4
-3.34745 -4.33838 0.55348 11 13 12
-3.33251 -4.32841 0.56722 6 7 4
-3.33384 -4.33031 0.55137 9 9 6
-3.34612 -4.33648 0.56933 8 8 6
-3.36107 -4.34644 0.55559 16 18 28
-3.36240 -4.34835 0.53975 21 15 26
-3.78042 -4.10414 0.58487 16 10 38
-3.76693 -4.09514 0.59726 11 16 30
-3.76813 -4.09686 0.58296 8 11 31
-3.79093 -4.11445 0.58679 39 36 44
-3.80443 -4.12346 0.57439 53 52 57
-3.67462 -4.49860 0.60181 59 52 40
-3.66243 -4.49248 0.58397 46 43 36
-3.69017 -4.50297 0.60386 81 79 63
-3.70181 -4.51437 0.60600 96 96 80
-3.71665 -4.52427 0.59236 107 99 81
-4.04662 -5.16616 0.69217 112 112 93
-4.03045 -5.15538 0.70703 115 113 83
-4.03189 -5.15743 0.68989 109 113 89
-4.04518 -5.16410 0.70932 116 110 81
-4.05990 -5.17283 0.71160 114 108 91
-4.03859 -5.23377 0.69621 114 114 104
-4.04149 -5.32269 0.70302 120 127 128
-4.05813 -5.33379 0.68773 120 134 140
-4.05318 -5.34093 0.70566 127 140 141
-4.06986 -5.35205 0.69034 126 139 142
-4.77032 -5.58353 0.80366 174 191 209
-4.75419 -5.57276 0.81849 188 202 213
-4.75562 -5.57482 0.80138 184 195 208
-4.77176 -5.58558 0.78655 166 185 204
-4.78358 -5.59018 0.82305 196 209 219
-4.78463 -5.59412 0.80603 183 200 222
-4.79789 -5.60078 0.82543 198 210 218
-4.79933 -5.60284 0.80832 196 211 222
-4.80077 -5.60489 0.79120 191 206 218
-1.97906 -4.48952 0.39210 123 120 107
-1.96444 -4.48219 0.37072 128 129 121
-2.01340 -4.48105 0.39542 76 81 88
-2.02099 -4.49917 0.39754 52 50 57
-2.04168 -4.50418 0.40025 125 130 90
-2.06351 -4.50796 0.40300 76 75 55
-3.30012 -3.89371 0.50093 31 36 50
-3.28641 -3.88457 0.51353 35 41 53
-3.28763 -3.88631 0.49900 28 37 38
-3.31859 -3.89341 0.50302 20 18 28
-3.33779 -3.89207 0.50511 12 14 13
-3.35142 -3.90116 0.49258 5 6 13
-3.34477 -4.34625 0.53760 17 14 21
-3.33247 -4.34008 0.51961 19 24 23
-3.34610 -4.34816 0.52172 24 25 31
-3.77598 -4.08745 0.56863 12 8 21
-3.76253 -4.07848 0.58099 10 11 19
-3.76373 -4.08019 0.56673 7 8 14
-3.78521 -4.09980 0.57055 28 20 39
-3.79867 -4.10879 0.55817 50 55 71
-3.79338 -4.11405 0.57247 56 58 64
-3.80687 -4.12305 0.56007 47 50 65
-3.66278 -4.52410 0.58621 57 52 43
-3.65051 -4.51794 0.56826 46 40 28
-3.68161 -4.52271 0.58826 81 77 58
-3.69050 -4.53929 0.59043 100 95 73
-3.70543 -4.54925 0.57671 104 100 82
-4.03768 -5.14845 0.67247 105 115 103
-4.02156 -5.13769 0.68729 111 114 87
-4.02299 -5.13974 0.67019 107 113 88
-4.04138 -5.18534 0.67546 111 119 115
-4.05761 -5.19617 0.66055 120 130 139
-4.04009 -5.23577 0.67883 117 125 123
-4.05647 -5.24670 0.66378 122 129 132
-4.04315 -5.27567 0.68197 122 129 129
-4.05964 -5.28667 0.66681 120 129 133
-4.39425 -5.58410 0.74346 166 183 194
-4.37746 -5.57290 0.75890 146 159 172
-4.37896 -5.57504 0.74109 162 178 180
-4.38046 -5.57718 0.72329 153 172 181
-4.41105 -5.59530 0.72803 188 208 209
-4.43781 -5.49278 0.74205 185 207 211
-4.45425 -5.50375 0.72694 186 199 204
-4.78607 -5.59619 0.78892 178 196 216
-4.77280 -5.58953 0.76952 177 190 205
-4.80220 -5.60695 0.77409 185 205 222
-1.98706 -4.48543 0.37355 126 128 120
-1.98865 -4.48769 0.35472 130 136 123
-2.02894 -4.49503 0.37904 101 96 87
-2.05100 -4.49860 0.38183 113 99 85
-2.07006 -4.50515 0.38447 82 73 50
-2.08859 -4.51219 0.38709 58 48 41
-2.10310 -4.51947 0.40831 42 40 29
-2.10468 -4.52172 0.38958 47 42 32
-2.10625 -4.52397 0.37086 54 48 18
-3.29725 -3.87742 0.48472 42 50 54
-3.28359 -3.86831 0.49728 36 39 47
-3.28480 -3.87005 0.48279 41 43 48
-3.28602 -3.87179 0.46831 36 43 52
-3.29846 -3.87916 0.47024 39 43 55
-3.30969 -3.88479 0.48665 43 53 60
-3.33850 -3.87110 0.48908 20 18 30
-3.35207 -3.88015 0.47661 6 7 11
-3.35593 -3.87185 0.49115 9 9 11
-3.36947 -3.88089 0.47870 4 5 11
-3.36118 -4.35407 0.52386 17 15 26
-3.34889 -4.34790 0.50588 13 18 15
-3.36252 -4.35597 0.50800 10 16 13
-3.37614 -4.36405 0.51011 7 10 5
-3.77480 -4.06547 0.55252 5 5 17
-3.76142 -4.05655 0.56482 6 10 11
-3.76262 -4.05825 0.55063 5 7 6
-3.78034 -4.08386 0.55439 22 18 26
-3.78819 -4.09850 0.55627 38 41 50
-3.80164 -4.10748 0.54391 47 57 63
-3.64022 -4.56888 0.57046 59 50 31
-3.62781 -4.56265 0.55231 43 41 28
-3.64157 -4.57080 0.55445 51 50 39
-3.66439 -4.55820 0.57255 81 77 53
-4.02070 -5.15118 0.65328 109 118 106
-4.03686 -5.16196 0.63842 108 122 123
-4.03912 -5.15050 0.65536 109 122 120
-4.05525 -5.16126 0.64054 116 127 132
-4.04203 -5.18945 0.65830 114 128 132
-4.05827 -5.20028 0.64337 122 128 136
-2.01653 -4.48559 0.35787 127 127 120
-2.00199 -4.47829 0.33659 135 135 129
-2.01811 -4.48784 0.33910 131 130 124
-2.03424 -4.49740 0.34160 129 127 116
-2.04002 -4.48774 0.36077 126 122 109
-2.05769 -4.49953 0.34453 137 127 111
-2.06160 -4.49173 0.36356 126 119 99
-2.08054 -4.49833 0.36621 96 96 75
-2.09284 -4.51169 0.36850 75 69 24
-3.32429 -3.86942 0.47266 30 32 50
-3.36126 -3.84507 0.47546 11 10 25
-3.37471 -3.85404 0.46310 7 6 5
-3.77155 -4.04717 0.53654 4 5 8
-3.75822 -4.03828 0.54879 8 8 5
-3.75941 -4.03997 0.53466 8 9 6
-3.77731 -4.06499 0.53835 18 19 27
-3.78234 -4.08421 0.54016 39 53 44
-3.79157 -4.09653 0.54203 46 64 54
-3.80501 -4.10549 0.52968 39 52 57
-3.64711 -4.59385 0.55656 74 77 54
-3.63465 -4.58760 0.53834 47 50 48
-3.66008 -4.60358 0.55870 97 97 70
-3.67525 -4.61370 0.54476 103 100 77
-3.95358 -5.18664 0.63019 109 114 100
-3.93720 -5.17572 0.64525 114 111 86
-3.93866 -5.17780 0.62788 107 109 87
-3.96996 -5.19757 0.61514 119 129 122
-1.76058 -4.50749 0.30950 116 110 111
-1.74237 -4.49534 0.32623 145 139 127
-1.74562 -4.49998 0.28761 130 129 131
-1.75896 -4.50517 0.32881 135 138 132
-1.76220 -4.50981 0.29018 124 114 121
-1.77555 -4.51500 0.33138 129 127 127
-1.77860 -4.51597 0.31216 126 124 121
-1.79356 -4.52348 0.33404 120 121 127
-1.79680 -4.52811 0.29543 139 134 138
-2.09746 -4.48492 0.34841 129 121 107
-2.08304 -4.47768 0.32731 130 126 118
-2.09903 -4.48715 0.32979 125 122 117
-2.12050 -4.48715 0.35130 122 115 82
-2.13983 -4.49313 0.35397 78 77 43
-2.15421 -4.50035 0.37500 44 42 34
-2.15577 -4.50258 0.35644 52 43 24
-3.31925 -3.85603 0.45659 43 40 52
-3.30691 -3.84872 0.45468 37 41 53
-3.33697 -3.85647 0.45874 32 32 34
-3.37375 -3.83222 0.46168 15 11 14
-3.76958 -4.02693 0.52071 10 7 15
-3.75631 -4.01808 0.53291 7 9 20
-3.75749 -4.01977 0.51884 5 8 18
-3.77712 -4.04161 0.52250 18 31 26
-3.78289 -4.05937 0.52426 60 83 86
-3.79089 -4.07355 0.52607 59 82 74
-3.79517 -4.09416 0.52782 46 55 55
-3.80859 -4.10311 0.51548 33 46 53
-3.63113 -4.62723 0.54030 70 76 58
-3.61857 -4.62093 0.52193 42 48 48
-3.64342 -4.63848 0.54245 94 98 68
-3.65872 -4.64868 0.52839 102 101 73
-3.90645 -5.21597 0.60865 107 109 103
-3.88991 -5.20493 0.62386 113 110 90
-3.89138 -5.20704 0.60631 112 109 94
-3.90498 -5.21386 0.62620 109 109 88
-3.92300 -5.22700 0.59345 112 128 116
-3.92628 -5.21340 0.61087 104 113 109
-3.94278 -5.22441 0.59570 115 128 123
-3.94830 -5.20522 0.61301 113 124 120
-3.96474 -5.21619 0.59790 117 124 123
-5.34816 -5.59305 0.80369 189 202 220
-5.33303 -5.58296 0.81760 189 206 212
-5.33438 -5.58489 0.80155 192 207 217
-5.34681 -5.59113 0.81974 193 207 220
-5.36060 -5.59930 0.82188 192 203 223
-5.36330 -5.60315 0.78978 167 191 199
-0.36809 -3.98141 0.09078 149 144 138
-0.35070 -3.97110 0.08808 144 138 126
-0.36639 -3.97897 0.11103 152 148 140
-0.36979 -3.98384 0.07053 156 153 148
-0.38378 -3.98928 0.11372 149 142 141
-0.38719 -3.99414 0.07323 162 159 155
-1.77703 -4.52131 0.29264 136 136 128
-1.76206 -4.51380 0.27074 132 126 112
-1.77865 -4.52363 0.27332 136 133 125
-1.79525 -4.53347 0.27589 141 134 130
-2.12843 -4.48284 0.33312 124 123 115
-2.11406 -4.47562 0.31210 126 121 127
-2.12999 -4.48506 0.31457 126 126 125
-2.15505 -4.48122 0.33626 126 116 104
-2.18414 -4.47687 0.33954 92 93 72
-2.19842 -4.48403 0.36042 44 41 33
-2.19997 -4.48625 0.34200 63 52 43
-3.31519 -3.84151 0.44066 44 46 62
-3.30168 -3.83250 0.45308 31 44 46
-3.30288 -3.83422 0.43875 39 40 49
-3.30409 -3.83594 0.42442 42 39 43
-3.32870 -3.85053 0.42824 57 58 69
-3.33100 -3.84435 0.44274 58 64 64
-3.34581 -3.84841 0.44477 47 45 39
-3.37307 -3.83635 0.44739 27 33 25
-3.40678 -3.81561 0.45030 12 10 13
-3.41769 -3.82108 0.46626 5 7 8
-3.41887 -3.82277 0.45218 6 5 11
-3.75299 -4.00396 0.50308 9 8 18
-3.73976 -3.99513 0.51523 5 6 10
-3.74094 -3.99682 0.50121 7 6 12
-3.75181 -4.00227 0.51710 5 7 12
-3.76702 -4.00786 0.50500 12 6 32
-3.77504 -4.02160 0.50676 21 29 40
-3.77474 -4.04920 0.50830 52 73 70
-3.78404 -4.06114 0.51011 62 74 96
-3.79334 -4.07314 0.51192 48 51 70
-3.80670 -4.08205 0.49964 34 37 50
-3.79751 -4.09394 0.51361 38 42 55
-3.81092 -4.10288 0.50128 32 41 45
-3.62542 -4.64203 0.52396 65 70 60
-3.61281 -4.63570 0.50553 38 46 38
-3.63460 -4.65907 0.52605 92 94 68
-3.64997 -4.66933 0.51192 101 100 84
-3.88867 -5.17461 0.58629 110 110 99
-3.87222 -5.16363 0.60141 113 110 81
-3.87369 -5.16573 0.58397 110 108 87
-3.88721 -5.17251 0.60374 113 109 85
-3.90026 -5.19155 0.58866 114 115 111
-5.32189 -5.57918 0.78338 198 209 216
-5.30810 -5.57101 0.78125 206 223 226
-5.30945 -5.57294 0.76519 202 209 222
-5.32054 -5.57725 0.79944 195 215 222
-5.33703 -5.58928 0.76947 180 180 195
-5.35053 -5.58343 0.78710 177 192 197
-2.18925 -4.47537 0.32135 132 121 99
-2.22188 -4.46707 0.32493 97 97 76
-2.23607 -4.47420 0.34569 51 39 44
-2.23761 -4.47640 0.32737 67 58 30
-2.23915 -4.47860 0.30905 105 99 74
-3.32464 -3.83281 0.42678 42 42 60
-3.31357 -3.82726 0.41060 39 41 44
-3.35663 -3.83779 0.43100 56 65 57
-3.37040 -3.84305 0.43298 38 48 49
-3.40818 -3.81702 0.43623 23 29 34
-3.43683 -3.80246 0.43898 11 9 21
-3.44766 -3.80790 0.45483 5 5 12
-3.44884 -3.80958 0.44085 7 7 15
-3.74892 -3.98759 0.48743 12 7 27
-3.75752 -4.00022 0.48917 18 14 37
-3.77073 -4.00903 0.47704 46 48 64
-3.77058 -4.00567 0.49108 31 32 47
-3.77808 -4.02022 0.49279 37 58 43
-3.78436 -4.03692 0.49446 46 61 64
-3.79374 -4.04861 0.49624 39 40 60
-3.80702 -4.05747 0.48403 29 34 36
-3.80007 -4.06551 0.49793 33 34 53
-3.62265 -4.65149 0.50759 61 69 61
-3.61003 -4.64515 0.48913 35 43 36
-3.62402 -4.65345 0.49130 59 63 59
-3.63188 -4.66854 0.50965 89 93 83
-3.64728 -4.67882 0.49549 102 100 83
-3.89014 -5.17670 0.56885 109 117 125
-3.90659 -5.18767 0.55373 116 132 132
-3.90173 -5.19365 0.57119 117 130 133
-3.91821 -5.20464 0.55604 116 131 129
-3.90583 -5.22876 0.57358 119 131 128
-3.92241 -5.23982 0.55835 116 128 124
-4.53364 -5.36758 0.65847 173 190 204
-4.51775 -5.35698 0.67307 174 192 194
-4.51916 -5.35900 0.65623 171 185 199
-4.54952 -5.37818 0.64387 201 217 217
-4.54834 -5.37527 0.66070 193 211 205
-4.56423 -5.38587 0.64610 171 189 206
-2.22113 -4.47168 0.30645 125 121 110
-2.22267 -4.47388 0.28811 123 120 114
-3.33074 -3.82833 0.41280 38 41 54
-3.31969 -3.82278 0.39665 41 43 44
-3.34721 -3.83020 0.41496 60 58 71
-3.35972 -3.83707 0.41687 61 72 83
-3.37838 -3.83597 0.41915 46 47 53
-3.40098 -3.82963 0.42166 33 41 47
-3.41430 -3.83851 0.40942 41 47 48
-3.45793 -3.80078 0.42733 21 14 28
-3.46873 -3.80620 0.44312 7 4 12
-3.47897 -3.79578 0.42971 17 7 9
-3.48972 -3.80118 0.44544 5 3 9
-3.49089 -3.80285 0.43156 9 4 12
-3.73495 -3.90967 0.46753 5 4 4
-3.72197 -3.90101 0.47945 2 3 4
-3.72313 -3.90266 0.46569 4 3 3
-3.73379 -3.90801 0.48128 2 3 4
-3.74561 -3.91502 0.48312 3 3 5
-3.73528 -3.93467 0.46883 7 4 9
-3.73948 -3.95386 0.47033 12 7 19
-3.75042 -3.98876 0.47347 28 37 38
-3.76360 -3.99755 0.46135 37 40 42
-3.75957 -4.00049 0.47521 33 39 51
-3.78020 -4.02036 0.47880 38 47 45
-3.79342 -4.02918 0.46665 27 32 32
-3.78881 -4.03320 0.48053 31 39 48
-3.79553 -4.04929 0.48218 27 31 38
-3.80638 -4.08632 0.48542 35 38 54
-3.81856 -4.09354 0.48731 36 40 50
-3.81975 -4.09524 0.47313 39 46 60
-3.83286 -4.15430 0.49217 118 133 122
-3.81934 -4.14528 0.50460 56 56 62
-3.82055 -4.14700 0.49026 77 96 89
-3.84398 -4.15988 0.50843 64 59 47
-3.84518 -4.16160 0.49409 69 63 54
-3.84639 -4.16333 0.47974 74 68 58
-3.62798 -4.68017 0.49315 88 89 80
-3.61530 -4.67381 0.47459 61 61 51
-3.64342 -4.69047 0.47896 100 102 73
-1.42341 -4.21420 0.17421 143 142 136
-1.40549 -4.20225 0.19068 137 136 137
-1.40709 -4.20453 0.17168 139 136 130
-1.42181 -4.21192 0.19322 139 132 131
-1.42501 -4.21648 0.15521 146 149 146
-1.43813 -4.22159 0.19575 139 132 126
-3.35479 -3.82376 0.40115 67 66 64
-3.36920 -3.82813 0.40319 64 66 82
-3.38257 -3.83705 0.39090 70 68 76
-3.38550 -3.83000 0.40535 59 51 58
-3.40543 -3.82707 0.40775 48 43 51
-3.44225 -3.82477 0.41232 39 46 49
-3.45758 -3.82754 0.41440 39 47 44
-3.50326 -3.78945 0.41839 26 12 33
-3.51396 -3.79482 0.43404 5 4 15
-3.53193 -3.79675 0.42238 16 6 23
-3.54261 -3.80211 0.43800 5 5 10
-3.55778 -3.78450 0.42509 14 7 12
-3.56839 -3.78982 0.44060 4 4 8
-3.58100 -3.77558 0.42762 12 8 10
-3.59156 -3.78088 0.44305 5 4 8
-3.58808 -3.78897 0.42915 12 6 9
-3.59865 -3.79428 0.44462 4 5 10
-3.59980 -3.79592 0.43097 8 5 10
-3.73488 -3.81385 0.44899 8 6 6
-3.72219 -3.80539 0.46065 5 6 4
-3.72332 -3.80701 0.44720 5 5 7
-3.73375 -3.81224 0.46244 4 6 5
-3.74530 -3.81909 0.46424 3 5 4
-3.73478 -3.83842 0.45014 11 7 2
-3.74527 -3.84368 0.46548 3 4 3
-3.73769 -3.85865 0.45147 12 6 3
-3.73886 -3.88180 0.45272 13 8 12
-3.73674 -3.91033 0.45380 15 17 23
-3.73994 -3.93085 0.45518 21 20 25
-3.74635 -3.97253 0.45798 54 60 48
-3.75166 -3.99033 0.45949 43 51 35
-3.76484 -3.99912 0.44738 32 38 35
-3.77237 -4.00995 0.46306 40 40 57
-3.77354 -4.01163 0.44906 32 36 41
-3.78557 -4.01876 0.45092 30 36 34
-3.78137 -4.02206 0.46478 32 35 39
-3.79459 -4.03088 0.45262 30 38 34
-3.79763 -4.04945 0.46814 24 32 40
-3.81090 -4.05830 0.45594 38 46 63
-3.80530 -4.06407 0.46981 32 40 47
-3.81861 -4.07294 0.45758 39 51 64
-3.80836 -4.08668 0.47127 40 58 61
-3.82440 -4.11551 0.47468 41 53 54
-3.82320 -4.11380 0.48891 22 29 50
-3.82065 -4.15066 0.47587 109 140 127
-3.80348 -4.20991 0.47650 140 159 148
-4.17170 -5.21448 0.57096 126 139 133
-4.15564 -5.20377 0.58572 125 139 132
-4.15707 -5.20581 0.56869 113 131 110
-4.17027 -5.21244 0.58799 133 141 138
-4.18490 -5.22111 0.59026 121 136 148
-4.18777 -5.22520 0.55620 141 156 157
-0.40415 -3.93238 0.01097 143 146 141
-0.38865 -3.92460 -0.01171 149 150 151
-0.40583 -3.93479 -0.00904 150 157 154
-3.36256 -3.81706 0.38744 54 55 63
-3.35160 -3.81155 0.37140 38 43 48
-3.37922 -3.81846 0.38965 58 59 79
-3.41008 -3.82423 0.39388 58 68 72
-3.42337 -3.83310 0.38168 38 42 43
-3.42816 -3.82355 0.39619 44 45 48
-3.44141 -3.83239 0.38401 33 42 54
-3.44448 -3.82506 0.39836 42 48 59
-3.46591 -3.81967 0.40088 50 65 74
-3.48478 -3.81753 0.40322 59 62 80
-3.50197 -3.81753 0.40544 68 72 72
-3.52809 -3.80524 0.40826 49 36 51
-3.55766 -3.78788 0.41131 42 43 49
-3.57590 -3.78588 0.41357 37 48 46
-3.59462 -3.78307 0.41586 37 40 39
-3.60825 -3.78727 0.41781 26 18 28
-3.61880 -3.79256 0.43323 6 5 8
-3.64063 -3.78824 0.42203 14 8 6
-3.65112 -3.79351 0.43738 6 6 5
-3.65885 -3.78565 0.42426 14 8 6
-3.66931 -3.79090 0.43957 6 5 8
-3.68035 -3.77814 0.42670 13 6 15
-3.69077 -3.78336 0.44194 4 4 9
-3.69522 -3.78012 0.42871 12 5 20
-3.70562 -3.78533 0.44392 4 4 7
-3.70572 -3.78846 0.43043 12 6 18
-3.71612 -3.79369 0.44565 4 5 6
-3.71441 -3.79951 0.43204 13 8 19
-3.72243 -3.81166 0.43361 15 15 24
-3.72205 -3.83655 0.43467 26 32 39
-3.73482 -3.84507 0.42293 51 59 71
-3.72651 -3.85437 0.43603 40 51 56
-3.73044 -3.87316 0.43737 39 48 50
-3.73231 -3.89535 0.43859 32 38 40
-3.74524 -3.90398 0.42671 29 40 34
-3.73659 -3.91402 0.43997 28 39 37
-3.74957 -3.92268 0.42804 26 40 44
-3.74142 -3.93200 0.44139 30 37 40
-3.75444 -3.94069 0.42942 35 43 51
-3.74319 -3.95503 0.44264 40 42 54
-3.75356 -3.99084 0.44556 35 42 41
-3.75473 -3.99252 0.43159 32 39 45
-3.76673 -3.99963 0.43345 29 40 36
-3.82239 -4.09445 0.45902 38 54 61
-3.83575 -4.10336 0.44674 140 171 178
-3.81757 -4.13112 0.46003 85 112 110
-3.78326 -4.21986 0.45953 144 177 178
-3.79013 -4.23737 0.46119 158 173 163
-3.80397 -4.24660 0.44847 89 91 55
-3.81623 -5.06214 0.50106 108 111 100
-3.80000 -5.05131 0.51598 111 110 80
-3.80145 -5.05338 0.49877 108 105 90
-3.81479 -5.06008 0.51827 107 110 84
-3.83513 -5.06175 0.50348 114 122 104
-3.84844 -5.06843 0.52295 111 118 93
-3.84988 -5.07049 0.50577 118 126 112
-3.85132 -5.07255 0.48859 124 129 129
-4.16502 -5.18986 0.55170 127 141 136
-4.15044 -5.18123 0.54944 134 143 138
-4.16644 -5.19190 0.53473 146 155 160
-4.18101 -5.20053 0.53700 146 159 158
-4.17697 -5.20581 0.55395 144 160 150
-4.19299 -5.21650 0.53922 141 153 157
-3.36608 -3.81578 0.37347 42 48 56
-3.35512 -3.81028 0.35744 36 42 47
-3.36727 -3.81748 0.35933 39 46 52
-3.37941 -3.82468 0.36121 43 50 61
-3.39745 -3.82099 0.37779 50 55 70
-3.41074 -3.82985 0.36557 37 42 46
-3.41597 -3.81978 0.38016 46 57 62
-3.42923 -3.82862 0.36798 29 36 38
-3.46455 -3.82474 0.38672 45 55 73
-3.45371 -3.81930 0.37087 23 35 41
-3.46572 -3.82642 0.37274 36 47 62
-3.48877 -3.81541 0.38951 65 75 89
-3.51008 -3.80978 0.39207 85 87 92
-3.53429 -3.80001 0.39483 60 48 77
-3.54713 -3.80563 0.39674 61 76 87
-3.56012 -3.81429 0.38481 56 71 75
-3.56790 -3.80023 0.39924 56 66 69
-3.58083 -3.80886 0.38735 62 71 71
-3.58339 -3.80202 0.40134 62 64 60
-3.59630 -3.81064 0.38947 50 61 57
-3.59777 -3.80529 0.40336 49 49 48
-3.61067 -3.81390 0.39150 43 52 58
-3.61364 -3.80640 0.40548 36 38 41
-3.63600 -3.79813 0.40807 39 42 38
-3.65121 -3.79993 0.41013 41 45 37
-3.66970 -3.79687 0.41242 37 40 35
-3.68245 -3.80538 0.40071 48 57 50
-3.68595 -3.79697 0.41455 35 36 35
-3.69866 -3.80545 0.40287 47 55 50
-3.69968 -3.80066 0.41650 35 37 37
-3.71238 -3.80913 0.40483 42 54 49
-3.70851 -3.81160 0.41811 34 40 42
-3.72123 -3.82009 0.40642 38 50 51
-3.71812 -3.82143 0.41977 34 41 46
-3.73085 -3.82992 0.40807 38 44 53
-3.72313 -3.83827 0.42112 41 49 56
-3.73403 -3.87106 0.42389 46 56 62
-3.74688 -3.87964 0.41208 31 36 37
-3.73572 -3.89351 0.42503 37 45 43
-3.74863 -3.90212 0.41316 27 35 35
-3.81720 -4.07906 0.44332 36 44 61
-3.80507 -4.07187 0.44144 35 35 64
-3.83052 -4.08794 0.43108 143 170 183
-3.81323 -4.11398 0.44423 82 106 112
-3.82666 -4.12293 0.43189 169 196 211
-3.77358 -4.24072 0.44425 164 195 208
-3.77482 -4.24249 0.42954 169 197 212
-3.78430 -4.25159 0.44610 164 180 167
-3.79102 -5.04038 0.47938 106 112 100
-3.77482 -5.02956 0.49428 110 111 84
-3.77626 -5.03163 0.47709 105 106 94
-3.78958 -5.03831 0.49657 109 108 87
-3.80242 -5.05648 0.48153 111 111 105
-3.81828 -5.06287 0.48387 114 119 112
-3.83451 -5.07370 0.46896 126 132 130
-3.83409 -5.06933 0.48621 121 125 120
-3.85031 -5.08015 0.47130 129 134 134
-0.55522 -3.86898 -0.01203 163 160 145
-0.54009 -3.86138 -0.03415 162 165 148
-0.55686 -3.87132 -0.03155 161 165 148
-0.57199 -3.87891 -0.00942 159 150 137
-0.58711 -3.88650 0.01270 159 151 138
-0.58875 -3.88885 -0.00682 157 143 124
-0.59039 -3.89119 -0.02634 154 148 139
-3.48655 -3.82165 0.37532 49 56 69
-3.47576 -3.81623 0.35953 35 44 45
-3.50753 -3.81649 0.37791 52 50 67
-3.53548 -3.80161 0.38106 47 41 73
-3.54898 -3.80633 0.38303 53 68 85
-3.63525 -3.80246 0.39433 57 65 65
-3.62472 -3.79717 0.37893 35 45 56
-3.64553 -3.81140 0.39604 60 72 59
-3.67022 -3.79940 0.39886 50 63 49
-3.68297 -3.80790 0.38714 38 48 49
-3.73322 -3.85088 0.40917 38 39 54
-3.72271 -3.84561 0.39380 30 39 41
-3.73436 -3.85251 0.39561 28 33 39
-3.74601 -3.85941 0.39742 27 33 38
