ply
format ascii 1.0
element face 0
property list uchar int vertex_indices
element vertex 1327
property float x
property float y
property float z
property uchar diffuse_red
property uchar diffuse_green
property uchar diffuse_blue
end_header
0.88149 -3.45093 1.38943 179 207 225
0.87261 -3.46647 1.39132 160 184 217
0.85711 -3.47256 1.39344 128 154 191
0.84131 -3.48242 1.37921 100 128 166
0.84260 -3.48007 1.39554 105 128 173
0.77568 -3.61671 1.41086 101 140 177
0.78976 -3.61227 1.39204 103 138 179
0.77466 -3.61952 1.39418 103 138 179
0.76517 -3.63114 1.41288 91 120 140
0.79344 -3.73864 1.41560 81 88 83
0.79936 -3.78036 1.41724 70 69 72
0.78268 -3.79076 1.40221 64 58 69
0.85126 -4.07008 1.42737 58 60 67
0.83334 -4.07571 1.42975 78 83 97
0.81878 -4.08702 1.43206 80 79 94
0.80335 -4.09187 1.45269 78 79 95
0.80973 -4.10788 1.43427 71 72 82
0.80110 -4.12970 1.43647 65 66 76
0.79376 -4.15401 1.43867 67 69 80
0.79017 -4.18519 1.44083 74 81 87
0.78275 -4.20997 1.44306 79 89 90
0.76475 -4.22120 1.42683 72 80 78
0.77615 -4.23650 1.44530 81 89 86
0.75807 -4.24778 1.42901 78 80 79
0.76868 -4.26176 1.44757 78 82 78
0.76061 -4.28623 1.44986 67 64 70
0.70511 -4.42553 1.46402 68 69 75
0.68494 -4.47085 1.46887 78 72 79
0.68376 -4.47411 1.44955 86 92 91
0.67737 -4.49887 1.47130 68 65 48
0.75787 -4.98698 1.48917 43 41 45
0.73746 -4.99972 1.47077 48 49 56
0.73688 -4.99217 1.49188 42 42 38
0.71981 -5.00569 1.49460 41 42 45
0.63636 -5.13191 1.51126 82 86 99
0.61877 -5.14532 1.51403 96 106 108
0.59807 -5.15824 1.49538 110 118 122
0.60120 -5.15884 1.51682 108 119 115
0.58049 -5.17177 1.49815 114 118 132
0.55081 -5.20548 1.52523 119 128 124
0.56896 -5.19977 1.50096 113 117 133
0.54950 -5.20911 1.50373 120 128 126
0.53425 -5.22186 1.52805 112 119 105
0.51741 -5.23770 1.53087 78 80 69
0.48763 -5.22170 1.53342 50 47 38
0.46582 -5.22509 1.53613 37 34 36
0.44590 -5.23311 1.53887 32 31 28
0.42482 -5.23813 1.54159 43 38 42
0.40091 -5.23578 1.54422 51 55 55
0.38025 -5.24866 1.52560 91 96 97
0.37531 -5.22878 1.54678 74 84 88
0.35471 -5.24163 1.52822 88 96 101
0.34992 -5.22198 1.54933 91 100 104
0.32130 -5.20625 1.55176 114 122 129
0.28353 -5.16536 1.55385 144 143 137
0.26328 -5.17800 1.53559 135 136 136
0.25299 -5.14300 1.55613 160 155 143
0.23540 -5.14853 1.57964 168 156 144
0.23412 -5.15205 1.55881 165 157 145
-0.49787 -4.53565 1.60900 182 174 148
-0.48294 -4.53096 1.58905 181 170 158
-0.50596 -4.57442 1.61210 151 130 106
-0.52935 -4.55319 1.61361 106 85 56
-0.56144 -4.56837 1.61816 32 25 35
-0.57855 -4.57904 1.60275 26 27 20
-0.93089 -5.74680 1.72638 11 12 11
-0.91064 -5.73417 1.74463 13 14 10
-0.91192 -5.73770 1.72369 9 13 7
-0.92961 -5.74327 1.74733 11 12 7
-0.95017 -5.75355 1.72898 18 15 19
-0.96996 -5.75624 1.73142 32 23 33
-0.99090 -5.74937 1.73345 50 49 46
-1.00735 -5.77840 1.73697 65 71 57
-1.02759 -5.79103 1.71873 80 81 78
-1.02597 -5.79039 1.73978 74 78 67
-1.04621 -5.80302 1.72154 81 82 82
-1.04531 -5.79615 1.74234 78 80 70
-1.06555 -5.80878 1.72410 80 82 79
-1.17560 -5.88559 1.76235 82 78 72
-1.15785 -5.88001 1.73863 80 79 83
-1.17689 -5.88914 1.74133 81 80 75
-1.19394 -5.90246 1.76541 78 73 64
-1.21171 -5.90805 1.78916 66 65 61
-1.21300 -5.91160 1.76812 65 64 65
-1.37155 -5.88469 1.78492 47 53 47
-1.39157 -5.89718 1.76688 58 60 58
-1.39334 -5.84131 1.78502 46 48 55
-1.43217 -5.82747 1.78873 52 38 82
-1.45218 -5.80522 1.78980 60 53 88
-1.47104 -5.80402 1.79192 69 59 81
-1.48942 -5.81284 1.79453 77 68 85
-1.52775 -5.78697 1.79751 84 84 105
-1.50827 -5.77482 1.81507 92 109 110
-1.50950 -5.77822 1.79492 82 82 98
-1.52651 -5.78357 1.81766 96 105 113
-1.54476 -5.79232 1.82025 83 83 93
-1.54683 -5.77060 1.79880 66 64 95
-1.56377 -5.77593 1.82145 56 53 73
-1.56540 -5.76595 1.80069 43 54 93
-1.58231 -5.77127 1.82329 73 72 94
-1.58324 -5.78523 1.80382 72 92 109
-1.60018 -5.79055 1.82646 90 98 119
-1.60097 -5.81196 1.80735 81 94 113
-1.61888 -5.83513 1.81071 75 87 105
-1.63590 -5.84048 1.83347 87 93 104
-1.63714 -5.84388 1.81331 75 86 104
2.47504 -2.74160 1.14926 224 240 242
2.48524 -2.78510 1.15034 131 124 169
2.44615 -2.81130 1.15629 94 81 91
2.45122 -2.83358 1.15686 112 101 113
2.45323 -2.85374 1.15768 140 132 141
2.44163 -2.86377 1.15957 148 142 141
2.48738 -2.91739 1.15702 119 106 84
2.47891 -2.94948 1.15969 123 107 97
2.49494 -3.00103 1.16051 164 139 111
2.47553 -3.00567 1.16303 182 153 117
2.46985 -3.02109 1.16450 191 162 127
2.45305 -3.03158 1.14936 195 164 121
2.21319 -2.93397 1.18997 180 155 131
1.43702 -2.79435 1.27349 181 161 153
1.44972 -2.79036 1.25652 191 165 155
1.43073 -2.80804 1.27494 217 209 212
1.41438 -2.81191 1.27706 235 236 239
1.40075 -2.81845 1.27899 237 238 231
1.38455 -2.82244 1.28110 188 192 194
1.38609 -2.84418 1.28205 168 170 168
1.35405 -2.85256 1.28624 177 171 188
1.35313 -2.85511 1.27115 176 169 171
1.33808 -2.85676 1.28833 186 195 202
1.32535 -2.86077 1.30535 189 197 203
1.32442 -2.86331 1.29027 192 200 205
1.32350 -2.86586 1.27519 197 203 210
1.28770 -2.90843 1.29693 194 202 210
1.30237 -2.89928 1.31015 194 203 212
1.30144 -2.90184 1.29498 195 205 213
1.30051 -2.90440 1.27981 197 205 213
1.27304 -2.91758 1.28371 168 175 187
1.27753 -2.91881 1.29866 170 176 199
1.26290 -2.92447 1.30067 171 180 189
1.25710 -2.93963 1.30214 191 201 214
1.24238 -2.94881 1.28888 202 210 220
1.25268 -3.13611 1.31295 196 209 222
1.26801 -3.12655 1.32676 198 207 221
1.26704 -3.12923 1.31091 199 208 223
1.25365 -3.13344 1.32880 197 205 219
1.23953 -3.14439 1.31492 187 199 209
1.24574 -3.17516 1.31580 167 150 178
1.23030 -3.18479 1.30189 90 37 75
1.22301 -3.17243 1.31832 126 104 135
1.21371 -3.18537 1.32008 98 50 93
1.18514 -3.19963 1.32417 98 57 95
1.18528 -3.22408 1.32544 132 105 117
1.17720 -3.23883 1.32715 167 159 166
1.16357 -3.24695 1.32917 166 174 173
1.15632 -3.26288 1.33086 116 102 109
1.14608 -3.27527 1.33270 106 101 122
1.12267 -3.27135 1.33524 94 101 136
1.11005 -3.28078 1.33721 134 150 178
1.10677 -3.30203 1.33870 204 222 236
1.10970 -3.33137 1.33990 243 251 254
1.09597 -3.33569 1.35826 254 254 254
1.09497 -3.33844 1.34199 253 254 254
0.99775 -3.36904 1.35497 246 237 245
1.01145 -3.36473 1.33667 249 253 253
0.98396 -3.37727 1.35701 237 221 241
0.96937 -3.38446 1.35910 226 211 229
0.95231 -3.38827 1.36129 207 175 200
0.94079 -3.39964 1.36324 197 175 209
0.93119 -3.41375 1.36510 198 212 241
0.90401 -3.43106 1.36918 186 216 240
0.89204 -3.44204 1.37116 162 194 223
0.87921 -3.45185 1.37317 134 163 204
0.86345 -3.46168 1.35897 99 128 173
0.86442 -3.45890 1.37527 114 136 186
0.84867 -3.46873 1.36107 105 132 169
0.85199 -3.46936 1.37727 98 126 167
0.83622 -3.47919 1.36306 108 134 171
0.76830 -3.64047 1.39602 100 131 159
0.78244 -3.63602 1.37713 104 137 181
0.79410 -3.71236 1.39677 78 95 104
0.79435 -3.77694 1.40012 56 55 65
0.77770 -3.78733 1.38511 65 64 71
0.84967 -4.07238 1.40911 59 66 65
0.83201 -4.08340 1.39319 54 51 54
0.83756 -4.08783 1.41133 63 65 74
0.81986 -4.09887 1.39539 56 56 65
0.81963 -4.09346 1.41373 66 63 75
0.80194 -4.10450 1.39779 56 59 53
0.81201 -4.11684 1.41584 63 62 63
0.79426 -4.12791 1.39985 58 59 54
0.80603 -4.14333 1.41793 60 58 62
0.79794 -4.16643 1.42008 64 65 71
0.79409 -4.19727 1.42215 71 76 76
0.78834 -4.22512 1.42428 71 79 77
0.76217 -4.29437 1.43097 70 69 74
0.77809 -4.28936 1.40968 83 85 82
0.75216 -4.31561 1.43325 65 63 80
0.73504 -4.32382 1.43568 72 73 87
0.71865 -4.41532 1.44239 64 65 67
0.73602 -4.40698 1.43992 59 61 59
0.73484 -4.41022 1.42074 60 62 57
0.71061 -4.44164 1.44471 74 74 77
0.70144 -4.46609 1.44706 78 82 86
0.68276 -4.47774 1.43023 80 85 87
0.67641 -4.50260 1.45190 87 88 71
0.67641 -4.54612 1.45418 44 47 43
0.66195 -4.56114 1.45665 32 38 45
0.64304 -4.57295 1.43961 42 48 43
0.71259 -4.99651 1.47352 49 52 61
0.73038 -4.99092 1.44974 50 49 56
0.69607 -5.01119 1.47622 51 55 71
0.68108 -5.02936 1.47892 82 93 76
0.66066 -5.04209 1.46052 88 99 102
0.62081 -5.10307 1.48983 96 103 103
0.60369 -5.11721 1.49258 102 112 113
0.58311 -5.13005 1.47403 110 114 123
0.52963 -5.21748 1.50649 117 124 111
0.54778 -5.21177 1.48223 116 125 128
0.52831 -5.22110 1.48500 115 127 120
0.51443 -5.23726 1.50930 97 102 90
0.49497 -5.24672 1.51208 74 74 65
0.46637 -5.23334 1.51472 51 44 48
0.44677 -5.24222 1.51748 60 61 62
0.42159 -5.23686 1.52015 74 80 89
0.39763 -5.23430 1.52282 91 91 91
0.37699 -5.24717 1.50422 92 90 90
0.31602 -5.19921 1.53053 85 94 108
0.33384 -5.19360 1.50671 85 93 98
0.31473 -5.20277 1.50943 90 93 97
0.28992 -5.18955 1.53308 109 111 115
0.26959 -5.20224 1.51475 101 102 106
-0.49492 -4.55426 1.59167 181 172 146
-0.47994 -4.54955 1.57164 181 168 156
-0.50311 -4.59288 1.59465 146 126 101
-0.52742 -4.56820 1.59620 103 83 56
-0.54138 -4.58439 1.59868 43 41 33
-0.55856 -4.59511 1.58320 27 30 30
-0.91357 -5.73857 1.70264 14 13 18
-0.89333 -5.72594 1.72088 11 14 7
-0.89461 -5.72947 1.69995 12 13 8
-0.93243 -5.74837 1.70536 23 20 35
-0.95262 -5.74817 1.70771 39 42 44
-0.97254 -5.74957 1.71012 55 60 53
-0.99273 -5.76217 1.69192 73 79 74
-0.99146 -5.75859 1.71280 67 73 63
-1.01165 -5.77118 1.69461 80 81 76
-1.00786 -5.78829 1.71628 75 79 71
-1.02812 -5.80092 1.69802 85 84 78
-1.41618 -5.79887 1.76461 58 55 66
-1.39900 -5.79346 1.74164 64 64 63
-1.41743 -5.80230 1.74426 63 61 69
-1.43618 -5.77721 1.76582 64 62 82
-1.45533 -5.76914 1.76764 82 84 94
-1.47333 -5.78429 1.77053 87 89 94
-1.49201 -5.78421 1.77272 81 82 96
-1.51088 -5.77800 1.77460 71 75 89
-1.53001 -5.76188 1.77599 49 53 72
-1.54848 -5.76123 1.77812 27 28 62
-1.56633 -5.77921 1.78115 27 35 65
-1.58491 -5.77225 1.78296 42 46 62
-1.60243 -5.80554 1.78675 47 41 53
-1.62034 -5.82756 1.79000 41 33 50
-1.63809 -5.86299 1.79393 42 34 60
-1.65515 -5.86836 1.81675 83 94 107
-1.65618 -5.88602 1.79725 59 55 82
-1.67329 -5.89140 1.82012 90 96 112
-1.67452 -5.89482 1.79986 80 86 107
2.53775 -2.71859 1.12396 254 254 254
2.55370 -2.70864 1.13833 254 254 254
2.55269 -2.71142 1.12184 254 254 254
2.53876 -2.71580 1.14046 254 254 254
2.52383 -2.72297 1.14258 254 254 254
2.51536 -2.72047 1.12671 246 254 253
2.50045 -2.72762 1.12883 225 239 242
2.51245 -2.75406 1.12870 184 186 208
2.49169 -2.75711 1.13131 110 117 158
2.47767 -2.76500 1.13336 68 72 122
2.46488 -2.79199 1.13620 76 69 101
2.46400 -2.80967 1.13717 95 88 98
2.45721 -2.82308 1.13864 120 109 113
2.45530 -2.84021 1.13970 157 150 155
2.48259 -2.87941 1.13839 198 198 200
2.46985 -2.88871 1.14036 213 213 204
2.42429 -2.87310 1.14499 161 154 141
2.47852 -2.93353 1.14153 115 103 93
2.46199 -2.94385 1.12663 109 89 77
2.46460 -2.94217 1.14360 116 99 93
2.45840 -2.95679 1.14505 133 110 100
2.23416 -2.93512 1.17059 200 175 138
2.24930 -2.92785 1.16843 205 174 135
2.20889 -2.93411 1.17353 146 131 116
2.21414 -2.95809 1.17409 83 75 80
2.19998 -2.96254 1.19301 110 101 98
2.19895 -2.96537 1.17624 91 90 84
2.19792 -2.96820 1.15948 71 73 78
1.44322 -2.80381 1.25795 182 158 148
1.45594 -2.79981 1.24095 191 165 156
1.44230 -2.80635 1.24289 187 162 148
1.43434 -2.81501 1.25955 204 183 185
1.42314 -2.82399 1.26132 231 235 237
1.41009 -2.83117 1.26322 238 238 237
1.39781 -2.83912 1.26507 205 211 212
1.38537 -2.84693 1.26693 186 183 184
1.36993 -2.85172 1.26899 196 200 182
1.33886 -2.86105 1.27314 189 200 208
1.32428 -2.87015 1.25999 201 204 211
1.29248 -2.91702 1.28138 181 194 210
1.26816 -2.93366 1.28508 182 189 200
1.26544 -2.95220 1.28631 196 205 224
1.25068 -2.96141 1.27301 204 212 224
1.26777 -3.11070 1.29381 199 212 219
1.28303 -3.10118 1.30757 201 206 220
1.28207 -3.10384 1.29178 203 210 220
1.26874 -3.10804 1.30960 200 207 220
1.25955 -3.12448 1.29546 190 199 213
1.24304 -3.15223 1.29878 127 106 128
1.23867 -3.17077 1.30021 109 48 91
1.21273 -3.18807 1.30413 100 55 96
1.19712 -3.19362 1.30625 126 111 116
1.18914 -3.20826 1.30792 155 155 166
1.18526 -3.22794 1.30934 170 185 186
1.17384 -3.23868 1.31122 167 174 182
1.15822 -3.24433 1.31335 146 158 172
1.14867 -3.25743 1.31513 154 166 164
1.13939 -3.27094 1.31689 172 187 189
1.12950 -3.28379 1.31870 147 162 170
1.10093 -3.27329 1.32157 102 121 151
1.08827 -3.28265 1.32353 135 157 192
1.06542 -3.27907 1.32606 204 223 240
1.07775 -3.32040 1.32663 244 251 254
1.06409 -3.32470 1.34488 254 254 254
1.06310 -3.32743 1.32871 253 254 254
0.98912 -3.36155 1.33916 239 245 251
0.97349 -3.37130 1.32507 205 232 248
0.97291 -3.36647 1.34132 223 228 244
0.95729 -3.37622 1.32724 198 227 245
0.95829 -3.37351 1.34340 211 211 234
0.94404 -3.38105 1.34546 201 206 230
0.93630 -3.39757 1.34719 195 219 239
0.92827 -3.41383 1.34894 190 220 241
0.90917 -3.41474 1.35125 171 198 227
0.89236 -3.41880 1.35344 143 169 210
0.87670 -3.42858 1.33932 101 128 172
0.88492 -3.43610 1.35517 118 142 188
0.86921 -3.44590 1.34101 107 133 172
0.87411 -3.44874 1.35707 101 129 175
0.85837 -3.45855 1.34289 109 135 172
0.77502 -3.65542 1.37896 106 137 169
0.78920 -3.65096 1.36001 106 136 182
0.77895 -3.69295 1.38033 74 99 116
0.79860 -3.75597 1.38109 49 52 59
0.78202 -3.76632 1.36615 50 58 60
0.84077 -4.02687 1.38938 45 48 55
0.85605 -4.02206 1.36895 42 48 46
0.82327 -4.03779 1.37361 60 68 57
0.80237 -4.17931 1.40141 62 65 66
0.81802 -4.17439 1.38048 58 60 60
0.80124 -4.18244 1.38287 61 62 65
0.78445 -4.19049 1.38525 63 65 65
0.79872 -4.21062 1.40337 69 75 70
0.78071 -4.22186 1.38714 63 66 60
0.79344 -4.23941 1.40541 68 77 69
0.78636 -4.26532 1.40752 71 80 73
0.76714 -4.30877 1.41193 81 79 83
0.75829 -4.33226 1.41413 76 70 83
0.74774 -4.35284 1.41639 71 64 75
0.73052 -4.36110 1.41884 62 60 61
0.72632 -4.43547 1.42299 66 64 63
0.74257 -4.43036 1.40126 68 70 60
0.72514 -4.43872 1.40374 68 67 65
0.70771 -4.44708 1.40621 65 60 72
0.71756 -4.46057 1.42526 77 76 79
0.70767 -4.48378 1.42757 74 78 79
0.68474 -4.52473 1.43230 83 81 78
0.67899 -4.55697 1.43456 49 49 57
0.66007 -4.56878 1.41751 47 51 55
0.66406 -4.57111 1.43702 41 46 49
0.64511 -4.58293 1.41995 46 52 50
0.70549 -4.98753 1.45253 50 53 61
0.72323 -4.98195 1.42881 53 53 60
0.68557 -4.99473 1.45524 64 71 79
0.67106 -5.01376 1.45790 91 106 104
0.65072 -5.02645 1.43956 93 104 106
0.64167 -5.05156 1.46324 86 92 101
0.62623 -5.06907 1.46593 100 107 105
0.60943 -5.08364 1.46863 107 113 103
0.59407 -5.10164 1.47134 109 115 111
0.57357 -5.11444 1.45286 116 124 126
0.50814 -5.22870 1.48776 108 118 111
0.48736 -5.24166 1.46904 106 113 104
0.48782 -5.23592 1.49052 104 106 90
0.46930 -5.24759 1.49329 85 84 63
0.44853 -5.26055 1.47457 103 106 100
0.44274 -5.23898 1.49602 98 106 94
0.42204 -5.25190 1.47736 98 100 101
0.42525 -5.25314 1.49879 100 103 103
0.40174 -5.25190 1.50152 99 92 95
0.38106 -5.26480 1.48287 93 90 85
0.28468 -5.18244 1.51199 85 88 99
0.26439 -5.19510 1.49371 95 96 90
-0.49178 -4.57363 1.57423 180 168 142
-0.47675 -4.56890 1.55414 180 167 156
-0.50061 -4.61002 1.57706 144 122 92
-0.51970 -4.60633 1.57914 102 83 57
-0.53788 -4.60598 1.58128 41 36 36
-0.55512 -4.61674 1.56574 25 30 31
-0.88142 -5.69289 1.67532 11 11 15
-0.86255 -5.68385 1.67264 11 12 12
-0.88014 -5.68938 1.69615 11 14 9
-0.89748 -5.72172 1.67864 21 16 24
-0.91570 -5.73591 1.68150 34 28 40
-0.93523 -5.74065 1.68405 46 50 56
-0.95454 -5.74682 1.68664 60 72 67
-0.97474 -5.75942 1.66844 69 82 77
-0.97376 -5.75356 1.68925 67 78 71
-0.99395 -5.76615 1.67105 73 81 79
-1.43904 -5.74899 1.74421 64 69 84
-1.42203 -5.74364 1.72147 62 62 70
-1.45759 -5.75134 1.74652 81 93 106
-1.47531 -5.77118 1.74960 102 112 120
-1.49358 -5.77962 1.75218 106 109 119
-1.51201 -5.78400 1.75458 99 99 104
-1.53089 -5.77488 1.75637 67 65 69
-1.54936 -5.77485 1.75856 43 44 59
-1.56768 -5.77832 1.76090 68 77 87
-1.58601 -5.78037 1.76318 76 79 77
-1.60379 -5.80347 1.76642 74 77 69
-1.62144 -5.83730 1.77017 77 78 69
-1.63925 -5.87072 1.77392 74 73 68
-1.65742 -5.88944 1.77699 69 64 63
-1.67526 -5.94136 1.78166 73 73 85
-1.69248 -5.94678 1.80468 88 93 113
-1.69373 -5.95022 1.78428 79 87 105
2.52273 -2.69392 1.10790 243 253 253
2.53857 -2.68404 1.12217 254 254 254
2.53757 -2.68680 1.10579 254 254 254
2.51622 -2.70690 1.10927 224 237 241
2.51131 -2.72109 1.11051 187 183 212
2.49662 -2.72839 1.11261 119 119 165
2.48598 -2.73860 1.11436 75 73 117
2.48586 -2.75642 1.11519 57 56 89
2.47405 -2.76590 1.11704 60 63 81
2.46932 -2.78057 1.11828 92 92 104
2.45765 -2.79023 1.12012 128 126 129
2.45455 -2.80625 1.12123 163 165 160
2.47841 -2.86109 1.12087 208 209 196
2.46452 -2.86944 1.12292 223 205 213
2.44907 -2.87664 1.12511 223 203 207
2.44834 -2.89502 1.12603 181 169 176
2.47456 -2.93419 1.12467 127 112 103
2.43898 -2.94545 1.12946 126 105 94
2.44525 -2.96980 1.12983 159 133 103
2.43284 -2.97971 1.13177 183 153 114
2.41624 -2.99006 1.11681 191 158 117
2.25892 -2.93928 1.15082 202 174 141
2.27513 -2.92916 1.16543 200 171 129
2.27411 -2.93199 1.14866 200 169 132
2.27308 -2.93482 1.13190 201 170 131
2.23756 -2.94153 1.15349 172 150 135
2.21900 -2.94603 1.15593 100 89 95
2.20283 -2.95612 1.14135 58 55 58
2.21814 -2.96506 1.15690 61 60 63
1.43552 -2.81962 1.24431 185 165 165
1.44827 -2.81561 1.22727 189 165 152
1.43013 -2.83434 1.24563 223 225 223
1.41703 -2.84152 1.24753 233 233 233
1.40239 -2.85065 1.23434 229 229 224
1.40433 -2.84910 1.24941 220 223 218
1.39458 -2.85967 1.25106 205 199 184
1.37033 -2.85562 1.25379 204 211 188
1.33674 -2.86237 1.25814 193 204 210
1.32216 -2.87146 1.24499 199 205 213
1.30060 -2.90803 1.26457 197 205 214
1.31527 -2.89888 1.27779 197 202 208
1.31434 -2.90144 1.26261 198 204 210
1.31342 -2.90400 1.24744 197 206 212
1.28593 -2.91718 1.25135 170 179 194
1.29512 -2.92336 1.26593 172 185 199
1.27629 -2.94595 1.26922 193 199 208
1.26154 -2.95515 1.25593 207 212 226
1.27500 -2.96611 1.27030 202 209 226
1.26019 -2.97535 1.25695 208 214 228
1.26703 -3.06797 1.27592 204 217 228
1.28215 -3.05853 1.28955 204 213 224
1.28119 -3.06117 1.27390 208 216 229
1.26798 -3.06533 1.29156 204 209 223
1.27130 -3.09549 1.27666 195 203 209
1.28173 -3.13026 1.27700 168 151 182
1.26180 -3.13081 1.27942 129 102 137
1.26910 -3.16252 1.27999 107 51 103
1.23769 -3.17346 1.28427 110 59 99
1.21817 -3.17442 1.28666 138 112 128
1.21520 -3.19483 1.28795 160 156 171
1.20797 -3.21035 1.28953 174 186 186
1.19620 -3.22057 1.29141 171 178 183
1.17657 -3.22137 1.29380 131 132 160
1.16098 -3.22698 1.29593 98 102 149
1.14713 -3.23470 1.29795 117 142 165
1.14143 -3.25245 1.29945 152 159 188
1.13363 -3.26775 1.30109 152 154 198
1.11808 -3.27745 1.28707 103 103 169
1.11048 -3.26403 1.30370 135 144 186
1.09972 -3.27572 1.30553 101 123 165
1.06361 -3.25542 1.30894 76 98 157
1.06728 -3.28539 1.30987 128 153 196
1.04359 -3.28060 1.31250 201 222 240
1.03827 -3.29936 1.31399 242 250 254
1.02473 -3.30362 1.33209 254 254 254
1.02374 -3.30633 1.31606 252 254 254
1.00632 -3.33559 1.31949 243 251 252
1.02189 -3.32588 1.33352 254 254 254
1.02090 -3.32860 1.31742 250 254 254
1.00730 -3.33287 1.33559 253 254 254
0.99464 -3.34645 1.32139 231 247 251
0.98518 -3.36033 1.32316 218 240 250
0.94168 -3.38191 1.32938 192 222 240
0.92880 -3.39133 1.33136 174 206 227
0.90243 -3.38206 1.33410 148 174 203
0.88687 -3.39177 1.32008 102 126 167
0.90140 -3.40800 1.33541 121 142 184
0.88576 -3.41776 1.32132 107 131 170
0.89394 -3.42515 1.33709 102 127 176
0.87825 -3.43494 1.32296 110 135 171
0.77999 -3.66767 1.36188 108 139 171
0.79420 -3.66320 1.34288 108 138 181
0.77154 -3.68571 1.36372 81 106 127
0.79707 -3.75811 1.36396 52 60 58
0.78049 -3.76845 1.34902 50 58 69
0.78854 -4.27450 1.38861 69 78 63
0.78160 -4.30103 1.39065 85 94 82
0.76334 -4.31242 1.37419 95 99 104
0.77412 -4.32689 1.39274 90 93 91
0.76640 -4.35261 1.39484 86 88 84
0.75308 -4.36819 1.39715 76 77 70
0.74589 -4.39542 1.39926 67 69 62
0.71233 -4.49844 1.40801 64 63 75
0.72873 -4.49328 1.38608 61 63 71
0.71114 -4.50171 1.38858 64 63 68
0.70282 -4.52277 1.41026 77 81 80
0.68575 -4.53238 1.41275 87 87 83
0.68177 -4.56824 1.41487 57 54 66
0.66282 -4.58007 1.39779 48 54 56
0.70026 -4.98257 1.43160 54 62 60
0.68910 -5.00875 1.43414 84 96 80
0.66176 -4.99970 1.43701 96 106 105
0.62883 -5.02924 1.44232 104 111 107
0.61540 -5.05107 1.44493 114 120 114
0.59489 -5.05694 1.44767 115 125 116
0.58119 -5.07847 1.45030 117 126 120
0.56078 -5.09120 1.43191 120 130 131
0.54194 -5.20452 1.46078 122 129 129
0.56136 -5.19520 1.45802 122 132 129
0.56005 -5.19882 1.43657 124 137 131
0.54062 -5.20814 1.43933 124 136 133
0.52633 -5.22312 1.46351 115 122 123
0.50726 -5.23341 1.46627 107 112 118
0.48648 -5.24637 1.44754 100 106 105
0.46750 -5.25000 1.47181 106 112 93
0.46619 -5.25363 1.45032 105 108 105
0.44673 -5.26296 1.45309 107 107 105
0.40664 -5.27154 1.48011 96 97 92
0.42476 -5.26584 1.45588 106 105 105
0.35117 -5.24634 1.48562 90 93 98
0.33059 -5.25918 1.46707 105 112 116
-0.48894 -4.59189 1.55665 180 166 141
-0.47386 -4.58714 1.53650 178 166 153
-0.49823 -4.62676 1.55936 141 118 88
-0.51736 -4.62309 1.56149 102 83 55
-0.53263 -4.63473 1.56386 40 33 31
-0.54996 -4.64554 1.54824 24 28 32
-0.86780 -5.66046 1.65106 14 11 18
-0.84776 -5.64795 1.66913 14 14 14
-0.84902 -5.65145 1.64839 13 10 11
-0.88370 -5.68943 1.65429 21 19 27
-0.90066 -5.71177 1.65736 40 41 41
-0.91907 -5.72431 1.66014 56 62 52
-0.93680 -5.74202 1.66308 65 74 64
-0.95700 -5.75463 1.64488 81 87 77
-0.95531 -5.75427 1.66587 71 83 72
-0.97552 -5.76688 1.64765 80 85 86
-1.44090 -5.74002 1.72357 60 62 80
-1.42393 -5.73468 1.70088 63 68 71
-1.44213 -5.74341 1.70347 65 64 72
-1.45961 -5.73832 1.72574 74 79 106
-1.47739 -5.75574 1.72868 100 110 133
-1.49513 -5.77534 1.73171 113 118 137
-1.51406 -5.76603 1.73356 102 98 123
-1.53251 -5.76729 1.73583 67 61 90
-1.55058 -5.77870 1.73852 67 72 86
-1.56967 -5.75605 1.73978 95 107 123
-1.58756 -5.77134 1.74263 107 118 135
-1.60499 -5.80801 1.74640 121 130 132
-1.62276 -5.83661 1.74985 123 131 131
-1.63986 -5.90979 1.75525 116 118 119
-1.65806 -5.93367 1.75853 103 99 95
-1.69493 -5.95968 1.76415 79 75 88
-1.71217 -5.96511 1.78720 83 89 111
-1.71342 -5.96855 1.76678 77 66 81
2.51996 -2.69544 1.09167 213 205 191
2.53379 -2.69109 1.07319 254 253 238
2.51896 -2.69820 1.07530 222 215 183
2.50526 -2.70264 1.09377 128 124 149
2.48942 -2.71252 1.07950 78 65 70
2.49906 -2.71589 1.09509 81 78 127
2.49555 -2.73112 1.09616 73 72 98
2.48498 -2.74138 1.09788 87 84 80
2.46306 -2.74347 1.10064 106 103 93
2.46310 -2.76147 1.10140 129 134 134
2.45168 -2.77121 1.10320 157 155 154
2.43572 -2.78117 1.08881 171 164 169
2.45035 -2.78841 1.10410 173 172 162
2.43433 -2.79840 1.08966 182 175 184
2.45941 -2.81341 1.10405 193 197 193
2.44330 -2.82346 1.08953 182 174 182
2.45619 -2.82949 1.10513 197 193 190
2.44195 -2.85607 1.10799 195 156 218
2.43714 -2.87123 1.10922 219 196 222
2.42451 -2.88051 1.11115 219 213 212
2.40330 -2.88324 1.11385 167 158 146
2.43294 -2.92514 1.11202 117 99 81
2.41756 -2.93252 1.11421 121 95 80
2.41863 -2.95274 1.11493 152 125 104
2.41452 -2.96904 1.11613 179 148 117
2.26982 -2.95176 1.13301 185 162 130
2.24577 -2.95188 1.13594 124 112 102
2.23548 -2.96319 1.13768 69 63 65
1.43907 -2.82655 1.22885 181 161 163
1.45183 -2.82254 1.21179 190 166 151
1.43558 -2.84319 1.22998 213 205 210
1.42198 -2.84991 1.23192 225 224 228
1.39243 -2.86100 1.23599 225 222 205
1.37216 -2.86095 1.23846 203 205 196
1.35444 -2.86343 1.24072 191 197 190
1.33984 -2.87254 1.22756 198 205 212
1.30884 -2.92024 1.24869 190 201 210
1.28926 -2.94198 1.25199 180 192 203
1.28239 -2.95608 1.25343 200 207 219
1.26761 -2.96531 1.24010 209 217 228
1.26856 -3.02852 1.25819 207 221 233
1.28356 -3.01916 1.27170 205 214 226
1.28261 -3.02178 1.25619 210 218 231
1.26951 -3.02590 1.27369 206 214 226
1.26995 -3.05239 1.25903 200 206 222
1.28214 -3.08857 1.25908 178 164 197
1.27150 -3.09946 1.26084 139 112 141
1.28520 -3.13797 1.26080 111 50 103
1.28006 -3.15543 1.26217 94 41 80
1.26628 -3.16310 1.26418 111 62 109
1.22259 -3.13620 1.26835 139 114 129
1.20322 -3.16073 1.27175 179 190 192
1.20572 -3.18747 1.27258 161 171 185
1.20237 -3.20756 1.27384 140 144 181
1.18638 -3.21270 1.27601 131 135 178
1.16415 -3.21028 1.27861 98 91 144
1.14272 -3.20871 1.28116 72 79 145
1.13854 -3.22810 1.28249 91 115 161
1.12204 -3.23251 1.28468 118 121 170
1.11014 -3.24257 1.28656 129 116 172
1.07781 -3.25213 1.29090 99 115 170
1.05033 -3.24254 1.29384 66 80 151
1.03597 -3.24943 1.29588 58 82 153
1.02358 -3.25887 1.29779 124 144 192
1.01824 -3.27744 1.29923 205 219 237
1.01950 -3.30478 1.30024 238 250 253
1.00948 -3.31762 1.30200 234 248 251
0.99976 -3.33095 1.30375 221 241 248
0.98491 -3.33754 1.30584 210 236 248
0.97299 -3.34804 1.30774 200 234 248
0.96014 -3.35736 1.30970 193 229 244
0.94125 -3.35847 1.31204 180 209 235
0.92810 -3.36737 1.31402 157 181 215
0.91255 -3.37707 1.30001 103 128 168
0.92308 -3.38754 1.31549 126 149 186
0.90748 -3.39727 1.30143 107 133 168
0.91208 -3.39957 1.31734 105 129 169
0.78458 -3.67933 1.34474 108 138 172
0.79882 -3.67485 1.32570 109 140 179
0.77053 -3.68860 1.34684 94 121 139
0.79315 -3.75642 1.34697 62 65 67
0.77659 -3.76676 1.33204 48 58 76
0.81169 -3.88512 1.35017 58 63 59
0.82869 -3.87452 1.36549 54 61 67
0.82761 -3.87748 1.34791 53 62 62
0.81277 -3.88215 1.36775 54 57 58
0.79685 -3.88979 1.37001 50 52 49
0.83085 -3.95055 1.35061 54 55 52
0.81471 -3.95829 1.35291 47 51 49
0.81362 -3.96130 1.33509 47 53 57
0.83707 -4.06602 1.35476 60 63 63
0.85356 -4.05811 1.35241 50 54 56
0.82059 -4.07393 1.35710 69 70 68
0.81947 -4.07700 1.33889 62 65 70
0.80645 -4.27310 1.36728 67 65 68
0.82350 -4.26492 1.36485 62 60 67
0.82235 -4.26810 1.34602 60 59 66
0.79697 -4.29496 1.36936 77 82 75
0.79049 -4.32251 1.37131 88 99 93
0.77429 -4.37259 1.37541 92 93 93
0.77312 -4.37581 1.35631 99 99 107
0.76462 -4.39513 1.37755 84 87 85
0.75519 -4.41839 1.37968 75 82 80
0.74410 -4.43875 1.38190 77 76 73
0.73812 -4.46912 1.38391 73 74 68
0.71056 -4.54365 1.39043 73 75 67
0.72707 -4.53846 1.36836 59 58 64
0.69214 -4.55075 1.39298 89 91 69
0.68576 -4.58195 1.39508 57 57 65
0.66676 -4.59380 1.37796 48 55 59
0.70391 -4.94692 1.40836 50 53 63
0.72408 -4.93434 1.42653 51 53 62
0.72280 -4.93786 1.40567 44 50 63
0.69115 -4.96921 1.41086 59 71 71
0.67147 -4.97667 1.41357 93 112 106
0.65126 -4.98928 1.39536 111 123 130
0.65164 -4.98377 1.41629 104 114 116
0.63361 -4.99485 1.41895 102 109 115
0.61507 -5.00480 1.42163 109 119 120
0.59716 -5.01620 1.42430 116 125 125
0.57693 -5.02881 1.40607 130 138 142
0.57980 -5.02891 1.42695 119 129 129
0.55957 -5.04154 1.40871 126 137 143
0.56437 -5.04615 1.42956 121 131 131
0.54410 -5.05879 1.41129 125 133 132
0.52217 -5.21982 1.44207 115 120 122
0.54029 -5.21412 1.41785 120 130 131
0.50481 -5.23424 1.44480 106 106 116
0.48404 -5.24720 1.42608 100 108 105
0.40549 -5.27560 1.45864 101 103 98
0.40418 -5.27922 1.43718 106 109 104
0.35239 -5.25660 1.46430 99 101 110
0.33178 -5.26945 1.44573 105 106 112
0.09698 -5.03862 1.48615 157 151 141
0.11528 -5.02984 1.48355 138 140 128
0.11404 -5.03325 1.46334 108 104 107
0.09821 -5.03521 1.50636 168 157 143
0.07991 -5.04399 1.50897 170 157 142
0.07867 -5.04740 1.48875 167 157 140
-0.48626 -4.60958 1.53896 179 166 137
-0.47113 -4.60482 1.51875 178 166 153
-0.49571 -4.64407 1.54157 137 114 88
-0.51466 -4.64130 1.54376 98 81 51
-0.52950 -4.65492 1.54615 38 31 24
-0.54689 -4.66577 1.53048 25 27 33
-0.83527 -5.62162 1.62441 12 11 10
-0.81530 -5.60916 1.64240 16 16 8
-0.81656 -5.61265 1.62175 12 13 8
-0.83400 -5.61813 1.64506 13 12 7
-0.85231 -5.64156 1.62733 19 11 24
-0.86921 -5.66301 1.63030 29 27 35
-0.88559 -5.68865 1.63338 49 53 53
-0.90262 -5.71048 1.63638 66 72 60
-0.92057 -5.72622 1.63923 74 81 66
-0.94073 -5.73880 1.62106 86 89 86
-0.93839 -5.74324 1.64213 79 86 72
-0.95858 -5.75584 1.62393 88 88 86
-1.46083 -5.74175 1.70568 72 72 90
-1.44389 -5.73642 1.68303 69 69 70
-1.47901 -5.75034 1.70826 92 101 125
-1.49672 -5.77030 1.71126 110 118 134
-1.51585 -5.75501 1.71294 90 82 101
-1.53451 -5.74887 1.71495 57 51 83
-1.55238 -5.76440 1.71779 88 100 117
-1.57102 -5.75493 1.71965 122 130 146
-1.58864 -5.78025 1.72287 133 142 168
-1.60632 -5.80730 1.72617 138 146 166
-1.65969 -5.91097 1.73707 120 121 134
2.50719 -2.70748 1.07711 124 96 97
2.50618 -2.71024 1.06073 201 190 159
2.48319 -2.72578 1.08079 104 103 93
2.48893 -2.74772 1.08094 136 139 123
2.46511 -2.74846 1.08391 164 170 162
2.45128 -2.75638 1.08592 177 184 193
2.43537 -2.76631 1.07158 161 158 161
2.44403 -2.76914 1.08732 171 166 174
2.44995 -2.84700 1.08963 185 174 198
2.42639 -2.86669 1.09331 229 220 236
2.41017 -2.87681 1.07869 234 231 235
2.39318 -2.86023 1.09716 234 232 233
2.40205 -2.88591 1.09707 209 208 197
2.37824 -2.88657 1.10003 155 141 124
2.38811 -2.91332 1.09986 122 94 85
2.37854 -2.92511 1.10150 139 109 100
2.38564 -2.95005 1.10160 173 142 113
2.37466 -2.96091 1.10338 190 158 115
2.36030 -2.96543 1.12257 195 161 122
2.35926 -2.96830 1.10557 195 163 121
2.30238 -2.96207 1.11234 190 167 131
2.31871 -2.95188 1.12706 197 164 127
2.31768 -2.95473 1.11017 199 168 127
2.27471 -2.95939 1.11565 139 127 110
2.25373 -2.96204 1.11834 81 73 73
2.23976 -2.97038 1.12039 69 67 63
2.22988 -2.98211 1.12207 65 65 62
2.21463 -2.98943 1.12424 58 56 65
1.44258 -2.83346 1.21336 185 161 156
1.45536 -2.82943 1.19627 190 165 147
1.44165 -2.83601 1.19822 189 165 144
1.43456 -2.84566 1.21482 202 184 184
1.42554 -2.85694 1.21638 222 224 226
1.41051 -2.86225 1.21844 224 215 221
1.39583 -2.87141 1.20521 230 237 233
1.39993 -2.87204 1.22013 230 233 227
1.37774 -2.87010 1.22279 202 201 202
1.36309 -2.87925 1.20958 199 204 209
1.36012 -2.87271 1.22506 198 202 208
1.34548 -2.88184 1.21187 198 207 215
1.32100 -2.91548 1.23156 197 207 213
1.33571 -2.90630 1.24482 198 203 212
1.33478 -2.90887 1.22961 198 205 212
1.33385 -2.91144 1.21439 199 205 212
1.30629 -2.92466 1.21831 175 180 194
1.31607 -2.93141 1.23280 181 189 206
1.30439 -2.94032 1.23458 176 185 199
1.29316 -2.94973 1.23634 192 203 218
1.29207 -2.97007 1.23727 205 212 224
1.27314 -2.99307 1.24051 207 220 230
1.26833 -3.00977 1.24175 202 209 221
1.30299 -3.07020 1.23984 178 160 200
1.30148 -3.09113 1.24085 144 111 162
1.29414 -3.10573 1.24232 127 64 128
1.29067 -3.12479 1.24350 109 54 86
1.27850 -3.13416 1.24537 124 66 112
1.25308 -3.12842 1.24828 151 126 136
1.23348 -3.12920 1.25073 175 169 184
1.22856 -3.14689 1.25203 192 201 199
1.21614 -3.15599 1.25391 191 190 182
1.22034 -3.18463 1.25452 154 145 167
1.18808 -3.17048 1.25794 104 101 159
1.17727 -3.18156 1.25971 84 86 158
1.17597 -3.20408 1.26075 89 97 173
1.16072 -3.21001 1.26286 105 118 169
1.14579 -3.21631 1.26495 99 115 167
1.13333 -3.22562 1.26685 84 97 157
1.11464 -3.22729 1.26922 110 128 166
1.10864 -3.24463 1.27064 152 153 175
1.09139 -3.24805 1.27290 133 137 176
1.07335 -3.25044 1.27522 106 117 173
1.04913 -3.24493 1.27799 76 76 151
1.03619 -3.25363 1.27993 59 70 146
1.02108 -3.25958 1.28203 94 101 170
1.01277 -3.27431 1.28363 173 191 225
1.00963 -3.29591 1.28486 216 240 251
1.00166 -3.31135 1.28645 214 238 248
0.99050 -3.32272 1.28827 205 235 247
0.98017 -3.33524 1.29004 199 230 243
0.94563 -3.31537 1.29352 185 214 230
0.91462 -3.29988 1.29674 161 187 213
0.93681 -3.35648 1.29622 135 152 198
0.92129 -3.36616 1.28223 111 132 170
0.93064 -3.37492 1.29770 112 129 181
0.78729 -3.68807 1.32764 107 139 176
0.80155 -3.68358 1.30857 112 141 181
0.78626 -3.69092 1.31075 109 140 182
0.77419 -3.69889 1.32968 104 130 152
0.79182 -3.75886 1.32985 61 68 80
0.77526 -3.76919 1.31493 59 64 81
0.80152 -3.83985 1.33182 61 67 61
0.80046 -3.84278 1.31442 75 76 73
0.82778 -3.95029 1.33291 58 61 60
0.81056 -3.96103 1.31739 49 54 59
0.84096 -4.04194 1.33487 50 54 60
0.82344 -4.05287 1.31908 62 69 67
0.83281 -4.06377 1.33673 58 63 65
0.81523 -4.07474 1.32089 64 70 72
0.81565 -4.29484 1.34789 66 66 71
0.80339 -4.31183 1.35007 71 75 81
0.78508 -4.32326 1.33357 75 83 93
0.79239 -4.33129 1.35219 80 84 94
0.78726 -4.36170 1.35401 92 95 103
0.76881 -4.37321 1.33739 89 94 97
0.77057 -4.41170 1.35803 101 98 106
0.76940 -4.41494 1.33881 88 93 96
0.75200 -4.42329 1.34129 84 90 96
0.76082 -4.43447 1.36012 90 86 94
0.75050 -4.45643 1.36226 83 79 83
0.73182 -4.46809 1.34541 75 74 70
0.74023 -4.47872 1.36439 73 78 67
0.73089 -4.50305 1.36650 60 63 75
0.71697 -4.56196 1.37052 63 55 55
0.70670 -4.58541 1.37271 69 74 60
0.68768 -4.59727 1.35556 45 50 58
0.69527 -4.60678 1.37495 52 54 66
0.67620 -4.61868 1.35776 47 56 54
0.70805 -4.91279 1.38536 46 57 63
0.72684 -4.90378 1.38269 49 57 66
0.69526 -4.93465 1.38779 50 52 58
0.68369 -4.95937 1.39019 69 72 80
0.65637 -4.95003 1.39319 100 112 125
0.63627 -4.96257 1.37508 102 107 123
0.62151 -4.97428 1.39844 113 125 127
0.60392 -4.98615 1.40107 119 129 132
0.58379 -4.99871 1.38293 129 133 136
0.58895 -5.00401 1.40362 127 133 135
0.51083 -5.19906 1.42089 116 121 124
0.52888 -5.19338 1.39677 123 130 125
0.50953 -5.20266 1.39952 121 130 122
0.49813 -5.22467 1.42346 108 110 114
0.47741 -5.23759 1.40479 111 117 114
0.46099 -5.24751 1.42893 109 115 114
0.44056 -5.25426 1.43172 114 119 113
0.41984 -5.26719 1.41304 113 116 114
0.09197 -5.03111 1.46598 127 127 135
0.10900 -5.02575 1.44321 99 98 101
0.07310 -5.03810 1.46858 152 149 138
0.05607 -5.04345 1.49134 170 158 139
0.06064 -5.06407 1.47113 167 156 140
0.04356 -5.06944 1.49396 171 159 141
0.04233 -5.07285 1.47374 171 158 142
-0.48242 -4.63181 1.52119 178 164 136
-0.46724 -4.62703 1.50090 180 167 155
-0.49375 -4.65920 1.52366 134 109 88
-0.51204 -4.65925 1.52592 96 80 48
-0.52651 -4.67458 1.52831 37 30 26
-0.54396 -4.68547 1.51258 27 29 32
-0.81955 -5.60518 1.60088 14 13 16
-0.79962 -5.59275 1.61884 15 14 16
-0.80088 -5.59623 1.59823 11 12 16
-0.83679 -5.62341 1.60372 22 18 29
-0.85399 -5.64232 1.60658 37 30 50
-0.87120 -5.66164 1.60946 57 57 58
-0.88755 -5.68737 1.61249 75 81 74
-0.90764 -5.69990 1.59438 89 93 83
-0.90474 -5.70793 1.61541 83 87 76
-0.92487 -5.72049 1.59728 90 92 84
-0.92233 -5.72617 1.61830 83 86 80
-0.94249 -5.73875 1.60013 89 92 90
-1.46218 -5.74254 1.68552 68 69 77
-1.44524 -5.73721 1.66288 71 72 72
-1.46341 -5.74593 1.66546 65 70 76
-1.48124 -5.73112 1.68743 82 92 108
-1.49926 -5.74197 1.69007 101 112 123
-1.51790 -5.73683 1.69217 87 81 93
-1.53601 -5.74428 1.69470 74 73 91
-1.55402 -5.75473 1.69733 103 118 139
-1.57186 -5.77127 1.70018 136 146 162
-1.59118 -5.78333 1.68277 149 158 177
-1.58991 -5.78174 1.70281 142 151 174
-1.60760 -5.80828 1.70603 140 148 172
-1.62535 -5.83711 1.70935 135 140 167
-1.64307 -5.87447 1.71300 130 133 161
2.47507 -2.67080 1.06320 246 246 222
2.47408 -2.67354 1.04699 254 254 218
2.48550 -2.71321 1.06341 134 109 99
2.48450 -2.71597 1.04705 164 130 133
2.46968 -2.72308 1.04916 153 137 152
2.49014 -2.73424 1.06359 129 119 115
2.46694 -2.73540 1.06653 145 149 154
2.45107 -2.74529 1.05223 156 152 173
2.44598 -2.73811 1.06925 167 173 185
2.43684 -2.74938 1.07079 170 175 192
2.43116 -2.78135 1.07265 176 173 172
2.41521 -2.79130 1.05827 197 195 194
2.43147 -2.79983 1.07327 192 190 191
2.41546 -2.80982 1.05884 195 191 192
2.43315 -2.81947 1.07376 193 191 189
2.41708 -2.82949 1.05928 190 187 187
2.43170 -2.83690 1.07457 191 189 189
2.41383 -2.86076 1.07766 224 223 231
2.38112 -2.87345 1.08220 235 230 223
2.35760 -2.87425 1.08517 197 187 166
2.38090 -2.91136 1.08359 133 108 90
2.36180 -2.91567 1.08613 128 97 83
2.36243 -2.93547 1.08676 169 141 110
2.35273 -2.94724 1.08839 191 160 117
2.33637 -2.95745 1.07365 201 171 129
2.33593 -2.95342 1.09071 197 165 126
2.31315 -2.95478 1.09361 198 170 131
2.28142 -2.94886 1.09736 157 142 114
2.26517 -2.95900 1.08271 77 65 80
2.26177 -2.95257 1.09995 90 80 84
2.24807 -2.96110 1.10196 85 70 80
2.24427 -2.97777 1.10304 101 97 92
2.23188 -2.98745 1.10493 81 78 78
2.21891 -2.99669 1.10688 57 53 66
2.20467 -3.00117 1.12592 70 68 73
2.19679 -2.99829 1.10970 64 61 74
2.18257 -3.00277 1.12871 84 86 88
2.18154 -3.00561 1.11187 81 78 88
2.18051 -3.00845 1.09503 87 82 88
1.43726 -2.85181 1.19933 190 170 166
1.45008 -2.84778 1.18219 192 164 146
1.42834 -2.86321 1.20086 219 223 219
1.41535 -2.87060 1.20274 215 207 217
1.38506 -2.88103 1.20690 205 204 208
1.37037 -2.89020 1.19366 199 203 209
1.33851 -2.93738 1.21474 196 203 210
1.35144 -2.93332 1.19746 200 205 213
1.31667 -2.95693 1.21817 190 198 211
1.30600 -2.96704 1.21986 201 212 223
1.29356 -2.97528 1.22171 205 217 223
1.28285 -2.98542 1.22341 200 206 219
1.31263 -3.03978 1.22164 175 158 197
1.31631 -3.06611 1.22213 143 109 158
1.30671 -3.07802 1.22375 126 59 120
1.30483 -3.09860 1.22472 114 55 102
1.28763 -3.10218 1.22700 139 88 135
1.26423 -3.09874 1.22980 173 145 147
1.26229 -3.11953 1.23079 202 186 196
1.25845 -3.13833 1.23194 220 220 216
1.23408 -3.13366 1.23482 185 192 213
1.22468 -3.14619 1.23644 166 177 203
1.21675 -3.16050 1.23795 177 175 189
1.20755 -3.17343 1.23956 157 148 177
1.19831 -3.18640 1.24118 127 136 179
1.18166 -3.19062 1.24341 97 112 158
1.16792 -3.19830 1.24540 80 79 148
1.13908 -3.18774 1.24863 124 139 168
1.12159 -3.19074 1.25092 113 132 178
1.12128 -3.21474 1.25182 87 100 151
1.10482 -3.21906 1.25403 97 109 152
1.08778 -3.22262 1.25629 139 144 177
1.07603 -3.23275 1.25812 141 148 185
1.06867 -3.24846 1.25960 102 104 170
1.04950 -3.24930 1.26203 83 84 164
1.03560 -3.25681 1.26403 112 122 181
1.02363 -3.26679 1.26588 151 167 211
1.00827 -3.27637 1.25204 209 238 248
1.01326 -3.27889 1.26761 187 212 240
1.00375 -3.29219 1.26928 206 236 250
0.99239 -3.30316 1.27109 203 232 248
0.97177 -3.30191 1.27362 190 217 238
0.93835 -3.28349 1.27714 168 195 217
0.95655 -3.33403 1.27668 141 161 192
0.94108 -3.34368 1.26273 113 137 171
0.95085 -3.35288 1.27806 118 136 175
0.93787 -3.36197 1.28001 107 130 170
0.87021 -3.60506 1.29718 118 143 177
0.88640 -3.59497 1.31177 116 141 178
0.88538 -3.59779 1.29502 120 145 178
0.87124 -3.60224 1.31392 116 143 180
0.85607 -3.60951 1.31608 116 142 180
0.85946 -3.61896 1.29902 116 140 177
0.84529 -3.62341 1.31795 114 142 181
0.84915 -3.63364 1.30083 110 133 176
0.83496 -3.63810 1.31980 113 140 181
0.83746 -3.64632 1.30275 108 133 178
0.82325 -3.65079 1.32174 111 139 181
0.82222 -3.65363 1.30492 111 142 181
0.77641 -3.70691 1.31255 110 137 165
0.79071 -3.70241 1.29344 113 141 183
0.79389 -3.76674 1.31251 68 81 97
0.81096 -3.89337 1.31492 73 77 64
0.82581 -3.88870 1.29507 63 60 64
0.80988 -3.89634 1.29733 64 61 70
0.79395 -3.90398 1.29959 57 55 65
0.84422 -4.05233 1.31646 57 60 63
0.82667 -4.06328 1.30064 67 67 69
0.83836 -4.30182 1.32614 61 64 70
0.85669 -4.29039 1.34266 54 58 66
0.85553 -4.29358 1.32370 57 61 64
0.85437 -4.29678 1.30474 58 64 66
0.82194 -4.31138 1.32854 68 72 77
0.81154 -4.33186 1.33057 73 79 85
0.79458 -4.38054 1.33443 84 90 94
0.79341 -4.38377 1.31529 86 86 91
0.77607 -4.39209 1.31775 85 88 90
0.75550 -4.47146 1.34258 82 93 91
0.73676 -4.48315 1.32569 72 73 77
0.73472 -4.51607 1.34677 76 78 83
0.73353 -4.51935 1.32728 78 77 79
0.72665 -4.54326 1.34875 67 63 72
0.72118 -4.57595 1.35061 63 57 64
0.71312 -4.60391 1.35262 61 56 60
0.69404 -4.61582 1.33542 54 53 54
0.70755 -4.86936 1.36283 54 65 70
0.72746 -4.85694 1.38078 51 56 72
0.72620 -4.86041 1.36018 57 60 65
0.72494 -4.86389 1.33959 62 67 78
0.70629 -4.87284 1.34224 56 66 76
0.70439 -4.91120 1.36473 61 71 71
0.69077 -4.93126 1.36715 61 72 70
0.67679 -4.95073 1.36959 91 98 80
0.64948 -4.94126 1.37267 108 110 114
0.61281 -4.96126 1.37796 110 120 127
0.59275 -4.97377 1.35989 126 141 144
0.59591 -4.97452 1.38055 123 132 135
0.56497 -5.00782 1.38561 126 129 135
0.54484 -5.02038 1.36747 109 110 115
0.55042 -5.02685 1.38811 119 125 134
0.53153 -5.03591 1.39079 118 126 128
0.49415 -5.22173 1.40213 116 120 119
0.51223 -5.21604 1.37797 122 130 123
0.47346 -5.23464 1.38348 112 118 108
0.45473 -5.23867 1.40766 118 125 125
0.45342 -5.24228 1.38626 119 127 124
0.43404 -5.25158 1.38901 122 124 127
0.43147 -5.23812 1.41054 121 130 128
0.41082 -5.25101 1.39193 114 111 122
0.10101 -5.06431 1.44559 99 103 109
0.11814 -5.05892 1.42270 104 105 108
0.09977 -5.06773 1.42531 106 108 108
0.08106 -5.06847 1.44823 121 126 119
0.05898 -5.06622 1.45091 148 145 133
0.04070 -5.07511 1.45351 165 156 141
0.02363 -5.08048 1.47634 172 160 143
0.02239 -5.08390 1.45612 171 160 143
-0.47906 -4.65224 1.50328 177 165 137
-0.46383 -4.64745 1.48292 181 168 153
-0.49178 -4.67441 1.50566 130 104 84
-0.50810 -4.68253 1.50799 93 78 48
-0.52220 -4.69971 1.51037 36 28 30
-0.53973 -4.71065 1.49458 27 30 30
-0.58144 -4.75908 1.51990 32 28 14
-0.56382 -4.74809 1.53579 23 29 20
-0.56493 -4.75116 1.51755 26 28 16
-0.58033 -4.75601 1.53813 24 29 18
-0.59684 -4.76393 1.54048 28 26 25
-0.59611 -4.77511 1.52231 33 27 23
-0.61153 -4.77996 1.54292 24 25 23
-0.61264 -4.78304 1.52466 27 25 20
-0.80458 -5.58454 1.57737 18 13 25
-0.78470 -5.57214 1.59529 12 14 15
-0.78596 -5.57561 1.57473 13 13 14
-0.82199 -5.60113 1.58014 30 26 34
-0.83921 -5.61934 1.58295 43 44 49
-0.85652 -5.63737 1.58576 66 68 66
-0.87349 -5.65817 1.58862 80 83 73
-0.89349 -5.67066 1.57059 87 94 88
-0.88928 -5.68768 1.59165 86 90 82
-0.90935 -5.70020 1.57356 92 99 89
-1.48269 -5.72945 1.66728 74 83 93
-1.46582 -5.72415 1.64473 64 71 76
-1.50120 -5.72779 1.66953 85 89 108
-1.51953 -5.72929 1.67188 81 77 112
-1.53709 -5.75179 1.67488 95 108 125
-1.55539 -5.75352 1.67723 112 128 154
-1.57299 -5.77798 1.68030 142 155 177
-1.60867 -5.81854 1.68621 145 154 178
-1.62807 -5.83064 1.66873 143 149 177
-1.62642 -5.84827 1.68950 139 145 173
-1.64589 -5.86041 1.67195 142 146 174
-1.64412 -5.88910 1.69317 136 140 169
-1.66369 -5.90131 1.67553 141 146 174
-1.66238 -5.90292 1.69595 135 142 167
-1.68196 -5.91514 1.67830 141 146 170
2.48589 -2.66449 1.04520 253 253 192
2.50155 -2.65472 1.05931 252 245 175
2.50056 -2.65745 1.04311 253 246 134
2.49957 -2.66018 1.02691 254 252 169
2.48489 -2.66722 1.02900 254 254 196
2.46669 -2.68575 1.04832 236 233 206
2.45655 -2.73140 1.05109 157 158 183
2.43134 -2.74887 1.05485 163 161 179
2.42362 -2.77932 1.05681 190 192 187
2.40770 -2.78925 1.04246 192 188 191
2.40045 -2.83553 1.06158 199 197 198
2.40039 -2.85415 1.06219 221 218 221
2.38389 -2.86033 1.06448 236 230 229
2.36912 -2.86783 1.06659 243 235 227
2.35624 -2.87680 1.06851 229 223 203
2.37242 -2.90840 1.06750 163 147 133
2.34990 -2.91000 1.07040 134 109 98
2.34652 -2.92661 1.07136 172 146 114
2.33957 -2.94049 1.07270 195 166 121
2.30416 -2.95125 1.07752 182 154 132
2.27253 -2.94535 1.08133 117 96 102
2.25232 -2.96824 1.08464 99 92 98
2.24535 -2.98234 1.08598 107 107 106
2.23612 -2.99465 1.08755 79 77 86
2.22452 -3.00506 1.08935 62 49 65
2.20946 -3.01260 1.09150 73 60 78
1.44337 -2.86134 1.18348 187 163 161
1.45622 -2.85730 1.16631 190 163 155
1.43388 -2.87222 1.18504 214 208 205
1.42011 -2.87888 1.18700 210 204 215
1.40700 -2.88619 1.18890 229 230 226
1.39137 -2.89096 1.19103 209 211 216
1.34431 -2.94703 1.19881 196 202 213
1.35726 -2.94296 1.18149 202 209 218
1.33123 -2.95455 1.20071 188 195 205
1.32147 -2.96563 1.20230 199 213 221
1.30656 -2.97123 1.20437 194 200 214
1.31410 -3.00102 1.20439 172 152 194
1.33261 -3.04302 1.20341 143 110 163
1.31179 -3.04253 1.20603 125 62 133
1.30610 -3.05859 1.20727 112 54 117
1.30381 -3.07853 1.20821 139 84 127
1.29468 -3.09103 1.20977 177 147 146
1.28228 -3.09992 1.21163 208 198 203
1.27104 -3.11016 1.21339 236 234 225
1.25580 -3.11967 1.19966 248 246 246
1.25571 -3.11580 1.21551 242 243 238
1.24237 -3.12371 1.21746 239 239 242
1.23143 -3.13438 1.21919 147 161 213
1.22149 -3.14627 1.22083 115 133 193
1.20175 -3.14679 1.22335 164 181 217
1.18900 -3.15543 1.22524 172 164 192
1.18596 -3.17561 1.22628 140 130 175
1.17570 -3.18735 1.22796 96 93 142
1.16062 -3.19337 1.23007 75 78 136
1.11567 -3.16327 1.23477 148 163 175
1.10683 -3.17662 1.23633 126 130 181
1.10238 -3.19544 1.23750 87 85 145
1.08810 -3.20229 1.23953 80 79 146
1.08498 -3.22302 1.24060 116 114 179
1.07162 -3.23112 1.24255 121 128 190
1.05926 -3.24049 1.24442 110 119 187
1.03695 -3.23729 1.24714 134 151 207
1.02167 -3.24682 1.23337 213 240 249
1.01552 -3.23504 1.24978 176 201 231
1.01421 -3.25858 1.25071 203 234 246
0.99992 -3.29115 1.25358 199 223 242
0.97877 -3.28921 1.25619 174 200 227
0.95660 -3.28579 1.25888 148 168 208
0.94129 -3.29534 1.24509 114 136 175
0.96270 -3.31996 1.25923 122 139 183
0.95427 -3.33498 1.26078 110 132 170
0.93776 -3.36588 1.26388 119 142 172
0.93678 -3.36859 1.24781 126 148 178
0.92223 -3.37557 1.24988 126 148 178
0.92772 -3.37905 1.26558 121 142 174
0.91314 -3.38604 1.26765 122 144 176
0.91216 -3.38875 1.25155 127 148 178
0.88681 -3.57466 1.27712 123 145 178
0.90292 -3.56461 1.29164 121 145 177
0.90190 -3.56743 1.27498 125 150 182
0.88783 -3.57185 1.29379 121 145 177
0.87939 -3.59326 1.27867 112 136 169
0.86991 -3.60897 1.28038 104 124 160
0.86148 -3.62637 1.28201 98 113 153
0.85238 -3.64293 1.28370 83 88 141
0.83819 -3.65185 1.28579 74 91 158
0.82597 -3.66382 1.28772 102 135 182
0.81173 -3.66830 1.30675 112 141 179
0.81070 -3.67114 1.28989 114 145 180
0.78379 -3.72314 1.29499 116 142 172
0.79814 -3.71862 1.27582 118 144 181
0.79871 -3.77902 1.29492 77 94 113
0.79657 -3.80816 1.29614 58 57 66
0.77986 -3.81859 1.28108 62 62 70
0.84503 -4.31895 1.30665 69 72 77
0.83139 -4.33364 1.30885 78 81 86
0.81742 -4.34784 1.31108 85 91 88
0.80709 -4.36878 1.31307 87 92 90
0.78245 -4.44485 1.31867 89 91 86
0.77220 -4.46696 1.32068 97 96 84
0.76053 -4.48660 1.32280 86 93 83
0.74175 -4.49831 1.30587 61 74 80
0.73240 -4.56018 1.32875 70 68 73
0.74897 -4.55497 1.30661 69 78 80
0.73120 -4.56349 1.30913 68 78 80
0.72755 -4.59424 1.33047 71 67 67
0.71959 -4.62254 1.33240 64 61 59
0.69980 -4.90764 1.34419 64 73 76
0.68530 -4.92573 1.34662 69 81 85
0.65909 -4.91864 1.34970 104 119 107
0.63911 -4.93111 1.33169 128 134 130
0.63749 -4.92131 1.35252 117 124 124
0.61753 -4.93376 1.33453 125 122 131
0.62058 -4.93422 1.35508 115 118 130
0.60061 -4.94668 1.33708 122 126 134
0.60548 -4.95123 1.35754 119 130 134
0.57517 -4.98552 1.36249 130 142 147
0.56120 -5.00562 1.36492 121 124 127
0.08381 -5.08363 1.42785 104 111 111
0.10096 -5.07823 1.40492 114 115 109
0.08257 -5.08705 1.40754 108 112 107
0.06583 -5.09365 1.43045 114 119 111
0.04103 -5.08322 1.43325 133 137 129
-0.00292 -5.07837 1.43865 169 160 147
-0.01994 -5.08372 1.46140 172 159 145
-0.02117 -5.08713 1.44124 173 159 147
-0.47642 -4.66992 1.48524 175 162 133
-0.48987 -4.68940 1.48758 125 103 81
-0.50519 -4.70172 1.48992 89 76 53
-0.51775 -4.72547 1.49228 34 27 29
-0.53536 -4.73646 1.47641 26 29 32
-0.56551 -4.75654 1.49933 23 27 18
-0.54788 -4.74554 1.51522 31 29 22
-0.54899 -4.74862 1.49698 32 29 19
-0.55011 -4.75170 1.47875 31 28 18
-0.58023 -4.77225 1.50171 42 50 36
-0.59658 -4.78104 1.50406 41 45 44
-0.61275 -4.79063 1.50642 31 26 19
-0.62819 -4.79549 1.52705 24 26 24
-0.62930 -4.79857 1.50877 24 26 25
-0.63042 -4.80166 1.49049 24 27 22
-0.77485 -5.53272 1.55109 14 10 19
-0.75635 -5.52384 1.54846 11 13 13
-0.77360 -5.52927 1.57152 15 12 8
-0.78983 -5.56309 1.55398 23 16 28
-0.80640 -5.58448 1.55677 37 30 46
-0.82540 -5.59091 1.55938 53 56 56
-0.84202 -5.61276 1.56220 66 75 64
-0.86192 -5.62518 1.54426 84 89 82
-0.85926 -5.63104 1.56497 81 87 74
-0.87919 -5.64348 1.54701 85 88 88
-0.87613 -5.65229 1.56780 85 89 83
-0.89610 -5.66475 1.54980 87 92 90
-1.48440 -5.72158 1.64700 71 74 79
-1.46757 -5.71628 1.62450 70 73 75
-1.50265 -5.72552 1.64944 64 60 73
-1.52104 -5.72503 1.65175 52 49 72
-1.53895 -5.73658 1.65439 74 83 94
-1.55735 -5.73360 1.65662 94 102 130
-1.57407 -5.78638 1.66045 131 146 177
-1.59204 -5.80076 1.66320 143 158 182
-1.60966 -5.83227 1.66645 143 157 183
2.45890 -2.66628 1.03230 253 254 194
2.47254 -2.66198 1.01406 251 253 182
2.45791 -2.66900 1.01614 239 225 158
2.44867 -2.67642 1.03391 216 223 193
2.48797 -2.72192 1.03020 163 144 138
2.47157 -2.72791 1.03248 160 145 166
2.42663 -2.76693 1.03938 191 189 192
2.41074 -2.77684 1.02506 200 194 198
2.39581 -2.81707 1.04479 194 190 189
2.41079 -2.80988 1.04267 193 187 190
2.38696 -2.82890 1.04627 206 200 197
2.39398 -2.85286 1.04608 226 220 220
2.37787 -2.86291 1.03156 244 244 245
2.37941 -2.86050 1.04817 240 234 231
2.36580 -2.86887 1.05016 247 241 236
2.35185 -2.87701 1.05218 246 243 233
2.34415 -2.89001 1.05355 199 192 186
2.35493 -2.91758 1.05297 168 142 122
2.33437 -2.92067 1.05570 188 154 112
2.32783 -2.93484 1.05695 201 173 129
2.31622 -2.94504 1.05874 193 169 127
2.26832 -2.92613 1.06432 138 118 109
2.27114 -2.94789 1.06459 78 64 83
2.25457 -2.95406 1.06690 81 79 90
2.23836 -2.96418 1.05228 98 98 102
2.24663 -2.96727 1.06830 102 102 106
2.23149 -2.97463 1.07045 97 100 103
2.21861 -2.98386 1.07237 69 69 77
2.20373 -2.99146 1.07450 71 64 80
