ply
format ascii 1.0
element face 0
property list uchar int vertex_indices
element vertex 1310
property float x
property float y
property float z
property uchar diffuse_red
property uchar diffuse_green
property uchar diffuse_blue
end_header
-3.34309 -4.91115 3.43245 249 251 254
-3.34653 -4.90131 3.40650 216 206 242
-3.36383 -4.90743 3.42753 253 253 254
-3.36427 -4.90978 3.40791 244 241 247
-3.64907 -6.50539 4.12922 234 210 183
-3.62678 -6.49475 4.12745 250 231 221
-3.62733 -6.49771 4.10279 254 254 252
-3.64852 -6.50243 4.15389 144 87 78
-3.64962 -6.50835 4.10456 254 254 244
-3.68287 -6.43285 4.08947 220 207 161
-3.70434 -6.44044 4.11558 130 128 153
-3.70488 -6.44336 4.09122 219 214 208
1.43186 -3.61284 3.47737 84 81 78
1.45217 -3.60566 3.45267 89 81 87
1.43134 -3.61561 3.45433 87 81 86
0.55408 -3.26434 3.18258 63 72 90
0.57205 -3.25798 3.16072 65 69 72
0.54499 -3.27942 3.18841 99 113 135
0.52607 -3.29069 3.16944 110 128 155
-0.15707 -4.33114 3.58461 169 195 220
-0.13586 -4.31850 3.60587 174 194 219
-0.13637 -4.32125 3.58296 175 196 220
-0.15758 -4.33388 3.56171 130 144 190
-0.18199 -4.33670 3.58358 143 167 205
-0.21213 -4.33683 3.57921 99 118 180
-0.23334 -4.34608 3.58048 80 85 148
-0.25397 -4.35594 3.58212 94 101 126
-0.25448 -4.35868 3.55929 99 115 131
-0.30269 -4.36773 3.58055 84 97 122
-0.33225 -4.36801 3.57633 62 68 106
-0.40644 -4.35185 3.55773 208 216 222
-0.44752 -4.33905 3.54560 249 254 253
-0.46781 -4.34874 3.54722 251 253 252
-0.56557 -4.33647 3.52700 251 254 253
-0.54546 -4.32687 3.52540 251 252 251
-0.76789 -4.36406 3.51031 72 77 125
-0.76838 -4.36670 3.48830 126 110 159
-0.78827 -4.37620 3.48988 204 209 187
-0.83115 -4.32170 3.48087 135 149 138
-0.85130 -4.33370 3.46068 110 98 89
-0.81171 -4.37818 3.51057 64 57 41
-0.83207 -4.39031 3.49016 26 17 19
-3.14927 -4.81965 3.37608 7 26 73
-3.13194 -4.81352 3.35500 24 34 40
-3.16747 -4.83049 3.35783 162 204 228
-3.17894 -4.93020 3.42422 254 254 249
-3.17939 -4.93260 3.40423 254 254 250
-3.19745 -4.94122 3.40567 225 187 191
-3.17294 -5.02681 3.47100 211 169 187
-3.23095 -4.88857 3.39679 80 40 61
-3.24881 -4.89710 3.39821 65 61 87
-3.27548 -4.94924 3.41905 212 235 245
-3.27592 -4.95163 3.39915 177 196 221
-3.29815 -4.93936 3.41102 226 224 248
-3.31651 -4.95030 3.39262 76 93 203
-3.34361 -4.91733 3.39386 146 172 239
-3.36766 -4.89995 3.38206 210 228 242
-3.38491 -4.90605 3.40305 230 222 241
-3.38675 -4.90251 3.38047 195 176 223
-3.40398 -4.90860 3.40143 235 234 248
-3.40442 -4.91095 3.38188 212 213 240
-3.40485 -4.91330 3.36232 232 223 235
1.42660 -3.63574 3.46313 77 70 79
1.44697 -3.62855 3.43836 90 80 93
1.40572 -3.64571 3.46479 64 57 74
0.55076 -3.26487 3.16086 52 62 81
0.56873 -3.25852 3.13902 67 72 77
0.55031 -3.26731 3.14048 52 66 77
0.54893 -3.28484 3.17001 81 95 130
0.52999 -3.29612 3.15103 103 120 140
-0.12689 -4.30338 3.55179 176 194 224
-0.10573 -4.29078 3.57300 173 194 219
-0.10624 -4.29352 3.55015 174 193 222
-0.12638 -4.30064 3.57464 174 196 219
-0.14304 -4.31778 3.55623 165 188 220
-0.16422 -4.33039 3.53500 72 87 141
-0.19477 -4.32688 3.55300 83 98 149
-0.22401 -4.32784 3.54919 70 80 140
-0.23854 -4.34395 3.55467 83 95 131
-0.28232 -4.36093 3.55631 82 100 118
-0.31540 -4.35753 3.54989 65 79 114
-0.34241 -4.36044 3.54733 62 55 109
-0.36342 -4.37295 3.52627 186 230 229
-0.35978 -4.37359 3.55100 170 164 159
-0.38081 -4.38612 3.52993 205 240 254
-0.43182 -4.32763 3.51885 242 251 250
-0.45259 -4.34000 3.49804 205 232 252
-0.44802 -4.34175 3.52315 252 254 254
-0.48046 -4.33809 3.51671 252 254 254
-0.50019 -4.34507 3.54071 250 252 252
-0.50953 -4.33798 3.51242 248 253 253
-0.53990 -4.33628 3.50721 239 253 252
-0.58830 -4.31420 3.48975 220 212 230
-0.60029 -4.33279 3.49677 105 124 160
-0.62033 -4.34236 3.49837 50 57 110
-0.74037 -4.33391 3.47692 76 93 129
-0.72005 -4.32181 3.49729 77 85 132
-0.72054 -4.32445 3.47534 74 85 131
-0.72103 -4.32708 3.45340 64 77 123
-0.75296 -4.35192 3.48358 62 76 124
-3.14666 -4.83252 3.36182 9 23 81
-3.12930 -4.82638 3.34070 28 29 53
-3.22649 -4.90911 3.38630 90 47 57
-3.20901 -4.90293 3.36504 215 196 190
-3.24295 -4.92318 3.39054 67 65 78
-3.27287 -4.88596 3.36864 110 126 149
-3.28098 -5.01117 3.42648 165 171 207
-3.29959 -5.02225 3.40783 72 77 174
-3.33268 -4.96594 3.39764 97 130 219
-3.36142 -4.92986 3.37645 158 164 232
-3.38718 -4.90486 3.36092 196 166 211
-4.69659 -8.96674 5.08508 166 179 190
-4.66750 -8.94942 5.11423 159 176 183
-4.66820 -8.95319 5.08282 162 177 189
-4.66890 -8.95696 5.05140 167 180 195
-4.69589 -8.96297 5.11649 162 176 191
-4.72428 -8.97653 5.11875 162 165 174
-4.72518 -8.99523 5.09434 155 152 153
-4.75292 -9.00503 5.12807 80 81 99
-4.75432 -9.01258 5.06514 82 69 72
-4.75071 -8.83693 5.01601 82 75 78
-4.77861 -8.85025 5.01823 57 66 81
-4.77930 -8.85396 4.98735 62 68 83
1.43887 -3.64663 3.44566 82 74 82
1.45928 -3.63941 3.42084 90 80 94
1.41743 -3.65940 3.42417 75 67 69
1.43009 -3.66437 3.45269 71 60 63
1.40964 -3.67160 3.47756 55 58 75
1.40913 -3.67438 3.45436 61 56 66
1.40861 -3.67717 3.43116 63 53 69
0.53656 -3.27926 3.14409 68 79 98
0.55455 -3.27291 3.12223 65 69 75
-0.11040 -4.29261 3.52507 172 192 222
-0.08926 -4.28002 3.54626 174 192 220
-0.08977 -4.28276 3.52343 175 191 220
-0.09028 -4.28550 3.50060 173 191 218
-0.13511 -4.29837 3.52421 152 175 215
-0.15623 -4.31095 3.50304 53 63 128
-0.17932 -4.28436 3.51130 109 122 178
-0.21708 -4.30728 3.51659 60 72 120
-0.21758 -4.31000 3.49389 63 66 114
-0.23810 -4.31980 3.49552 62 69 116
-0.23448 -4.32029 3.52018 67 79 122
-0.25552 -4.33283 3.49909 55 70 117
-0.24458 -4.34094 3.52838 75 92 124
-0.26677 -4.34908 3.52900 71 88 128
-0.29447 -4.35140 3.52610 61 78 122
-0.32545 -4.35014 3.52106 45 67 131
-0.34645 -4.36264 3.50001 73 91 165
-0.36092 -4.34392 3.51305 115 114 181
-0.48180 -4.33986 3.49377 202 220 251
-0.51620 -4.33383 3.48601 191 203 249
-0.58764 -4.28631 3.45350 175 147 215
-0.60804 -4.29845 3.43306 121 32 76
-0.61934 -4.28258 3.44720 142 53 121
-0.62580 -4.30718 3.45778 67 36 69
-0.66520 -4.29450 3.44618 50 65 101
-0.68280 -4.30650 3.44927 57 74 118
-0.70214 -4.31333 3.47278 74 85 129
-0.70262 -4.31596 3.45084 65 75 121
-0.73742 -4.34058 3.45736 51 64 129
-0.75775 -4.35269 3.43697 122 135 183
-0.79025 -4.31114 3.43599 115 122 167
-0.82055 -4.30790 3.43012 204 215 220
-0.81861 -4.34310 3.44686 242 246 224
-0.83834 -4.35252 3.44843 156 136 126
-0.84714 -4.37523 3.45779 44 22 21
-0.86645 -4.38205 3.48127 9 8 14
-0.86694 -4.38468 3.45936 12 8 10
-3.14050 -4.85770 3.35374 10 30 88
-3.12306 -4.85153 3.33252 31 35 54
-3.14494 -4.91339 3.37915 136 200 226
-3.16299 -4.92201 3.38058 203 244 253
-3.23383 -4.88587 3.35349 89 56 51
-3.23427 -4.88824 3.33376 78 42 60
-3.24836 -4.90685 3.36122 46 54 57
-3.27135 -4.89581 3.35275 102 118 113
-3.27715 -4.95099 3.37773 118 133 174
-3.31020 -4.90003 3.34914 109 119 183
-3.33573 -4.95770 3.37244 86 80 161
-3.35408 -4.96863 3.35406 165 91 145
-3.35005 -4.98109 3.38133 147 90 142
-3.38762 -4.90721 3.34137 211 179 197
-3.38862 -4.98689 3.37849 246 244 246
-3.40654 -4.99545 3.37992 254 254 254
-3.40698 -4.99783 3.36009 254 254 254
-4.69701 -8.94511 5.04182 171 182 190
-4.66940 -8.93535 5.00824 170 186 200
-4.72602 -8.96239 5.01275 127 111 135
-4.72641 -9.03678 5.08047 145 136 144
-4.75566 -9.05421 5.05115 78 64 79
1.43744 -3.64883 3.42210 86 81 81
1.45785 -3.64161 3.39729 90 80 92
1.43693 -3.65160 3.39895 88 81 79
0.54103 -3.28503 3.12593 58 62 81
0.52212 -3.29629 3.10698 77 90 107
0.55327 -3.31468 3.14143 92 109 132
0.53516 -3.32108 3.16345 122 133 157
0.53470 -3.32355 3.14291 120 133 154
-0.11833 -4.28795 3.49775 160 180 207
-0.11884 -4.29069 3.47496 152 170 188
-0.13943 -4.30052 3.47660 61 77 134
-0.15941 -4.27721 3.48693 86 112 172
-0.18042 -4.28972 3.46587 34 40 100
-0.28282 -4.33554 3.49647 55 69 116
-0.30383 -4.34805 3.47542 56 51 99
-0.31298 -4.33516 3.49201 52 62 118
-0.33393 -4.34764 3.47100 45 45 114
-0.34006 -4.33788 3.48943 44 58 127
-0.36099 -4.35035 3.46845 46 41 125
-0.40043 -4.33637 3.48015 65 116 181
-0.44360 -4.32132 3.46704 59 93 175
-0.49447 -4.29751 3.44876 54 69 158
-0.53057 -4.28947 3.43990 52 64 154
-0.56361 -4.28456 3.43293 47 57 155
-0.58403 -4.29672 3.41247 87 69 117
-0.59147 -4.28524 3.42928 99 45 136
-0.63591 -4.29894 3.42933 83 35 51
-0.66525 -4.29763 3.42455 40 54 90
-0.68556 -4.30972 3.40420 92 89 116
-0.69649 -4.29398 3.41842 52 68 105
-0.71389 -4.30614 3.42160 62 74 111
-0.73621 -4.31261 3.42143 70 79 121
-0.75741 -4.32035 3.42201 54 72 133
-0.77764 -4.33241 3.40173 110 107 165
-0.79695 -4.33916 3.42513 215 237 243
-0.81667 -4.34862 3.42671 246 253 246
-0.87149 -4.31572 3.40366 199 195 176
-0.84267 -4.38389 3.43939 66 40 31
-0.86203 -4.39392 3.44129 16 8 17
-0.88137 -4.40075 3.46480 11 15 7
-0.88185 -4.40338 3.44287 11 13 16
-0.88234 -4.40601 3.42094 9 10 24
-3.13839 -4.86892 3.33842 18 21 71
-3.14515 -4.91661 3.35959 61 77 141
-3.17587 -4.88013 3.33829 92 115 173
-3.19333 -4.88630 3.35952 230 251 249
-3.18388 -4.92437 3.35769 150 155 195
-3.20235 -4.93537 3.33918 120 96 115
-3.21166 -4.89722 3.34114 152 122 163
-3.24867 -4.90969 3.34167 31 29 47
-3.27115 -4.90062 3.33427 96 105 86
-3.28905 -4.90879 3.33552 111 117 138
-3.30213 -4.93603 3.34630 93 102 149
-3.31671 -4.95778 3.35433 75 77 138
-3.34105 -4.94022 3.34272 89 44 106
-3.35676 -5.04123 3.38737 232 206 223
-3.35721 -5.04363 3.36731 207 218 235
-3.38480 -5.00751 3.36774 252 253 253
1.44376 -3.67933 3.41268 82 74 67
1.46426 -3.67209 3.38775 89 81 78
1.42274 -3.68937 3.41435 64 60 59
0.55848 -3.29958 3.11360 53 62 70
0.57655 -3.29319 3.09163 75 74 81
0.55803 -3.30204 3.09310 64 69 75
0.58288 -3.35926 3.14450 110 130 149
0.56460 -3.36572 3.16673 124 134 159
0.56414 -3.36821 3.14599 120 137 158
-0.11292 -4.26629 3.46455 172 190 212
-0.09188 -4.25376 3.48564 168 190 219
-0.09239 -4.25649 3.46292 168 189 216
-0.09289 -4.25921 3.44020 169 189 217
-0.30070 -4.32006 3.46297 64 65 95
-0.28078 -4.31302 3.43875 89 97 87
-0.30120 -4.32278 3.44037 74 81 93
-0.32162 -4.33253 3.44200 64 71 92
-0.43001 -4.30775 3.43915 39 37 123
-0.41031 -4.30079 3.41521 70 74 104
-0.43050 -4.31043 3.41681 74 71 96
-0.46677 -4.29941 3.43016 39 37 112
-0.51039 -4.28332 3.41662 35 32 103
-0.54383 -4.27808 3.40952 30 26 93
-0.57870 -4.27104 3.40138 30 35 102
-0.59904 -4.28315 3.38100 98 111 149
-0.64920 -4.25538 3.38428 129 99 103
-0.64969 -4.25800 3.36249 121 127 164
-0.66939 -4.26741 3.36405 91 112 150
-0.66856 -4.26517 3.38608 94 85 97
-0.68875 -4.27720 3.36584 82 90 125
-0.69292 -4.26927 3.38455 70 77 116
-0.71308 -4.28128 3.36434 89 74 105
-0.72692 -4.29426 3.39128 75 88 119
-0.73797 -4.31376 3.39871 95 107 127
-0.75820 -4.32581 3.37843 86 84 136
-0.75117 -4.33086 3.40473 112 117 169
-0.79606 -4.34342 3.40422 204 235 246
-0.81716 -4.35124 3.40486 228 246 252
-0.83565 -4.36218 3.40730 209 210 207
-0.84340 -4.38623 3.41729 75 61 78
-0.85805 -4.40203 3.42251 14 11 23
-0.87838 -4.41415 3.40213 9 13 24
-3.10810 -4.90651 3.33912 42 41 57
-3.11780 -4.94414 3.35508 48 46 80
-3.13181 -4.96744 3.36385 70 79 105
-3.17085 -4.90197 3.32822 119 130 146
-3.18926 -4.91293 3.30978 144 148 152
-3.19197 -4.89914 3.32396 134 128 157
-3.22706 -4.91909 3.32822 84 54 43
-3.24745 -4.91836 3.32502 39 25 43
-3.26579 -4.92928 3.30664 85 73 37
-3.26495 -4.92845 3.32721 88 89 65
-3.28504 -4.92847 3.32440 110 110 87
-3.30250 -4.93865 3.32664 94 99 105
-3.32094 -4.94495 3.32695 79 69 104
-3.34148 -4.94259 3.32299 108 52 90
-3.35976 -4.95348 3.30467 138 131 170
-3.32041 -5.11237 3.40412 175 149 171
-3.38255 -5.02141 3.35352 207 234 250
-3.40101 -5.03240 3.33501 75 107 168
-3.38564 -5.09498 3.38696 212 244 254
-3.40344 -5.10127 3.40860 254 254 254
-3.40389 -5.10369 3.38842 234 251 254
-3.40434 -5.10612 3.36823 159 185 222
1.46980 -3.69912 3.40087 85 79 68
1.49039 -3.69184 3.37583 93 81 75
1.46928 -3.70192 3.37751 90 81 73
1.45863 -3.71560 3.40685 72 64 64
1.43801 -3.72289 3.43193 59 58 67
1.43749 -3.72569 3.40853 64 58 67
1.43697 -3.72850 3.38513 66 56 67
0.55667 -3.32255 3.10229 65 68 89
0.57479 -3.31614 3.08025 63 72 76
0.58922 -3.36640 3.12683 100 114 141
0.57910 -3.38131 3.13224 121 133 157
0.56077 -3.38779 3.15454 122 137 161
0.56030 -3.39029 3.13374 123 134 161
0.55984 -3.39279 3.11294 124 132 158
-0.13899 -4.27379 3.44047 164 175 186
-0.11899 -4.26672 3.41614 170 189 218
-0.13950 -4.27651 3.41778 174 183 200
-0.15950 -4.28358 3.44210 97 96 119
-0.21747 -4.25542 3.42120 37 26 76
-0.23731 -4.26242 3.44532 49 56 109
-0.22875 -4.27436 3.42829 43 45 99
-0.24863 -4.28138 3.45246 80 77 104
-0.24125 -4.29218 3.43470 87 86 87
-0.26116 -4.29921 3.45891 89 86 104
-0.26167 -4.30193 3.43632 101 99 86
-0.26217 -4.30464 3.41374 73 59 69
-0.45653 -4.31374 3.41472 78 74 87
-0.43686 -4.30679 3.39081 48 37 83
-0.45702 -4.31642 3.39241 50 36 79
-0.47719 -4.32604 3.39401 45 26 70
-0.50830 -4.28881 3.39616 56 58 80
-0.52879 -4.30102 3.37561 42 23 86
-0.54125 -4.28411 3.38944 44 43 96
-0.56168 -4.29628 3.36896 55 44 106
-0.59088 -4.26071 3.37187 80 89 125
-0.61116 -4.27279 3.35154 57 66 135
-0.74668 -4.27456 3.35661 51 52 102
-0.74717 -4.27717 3.33492 48 49 72
-0.76677 -4.28653 3.33648 55 63 86
-0.75558 -4.29641 3.36536 66 90 133
-0.80452 -4.30382 3.36196 52 52 123
-0.79416 -4.34889 3.38399 163 200 236
-0.81441 -4.35775 3.38523 183 211 234
-0.83545 -4.36565 3.38592 212 232 224
-0.85405 -4.37649 3.38830 96 104 126
-0.85534 -4.40858 3.40278 19 17 34
-0.87570 -4.42071 3.38239 12 13 22
-3.09551 -5.02535 3.37413 73 78 98
-3.11442 -5.03661 3.35518 60 75 105
-3.12960 -4.97921 3.34832 75 90 119
-3.17513 -4.89070 3.30158 130 150 160
-3.19348 -4.90163 3.28318 131 133 160
-3.20908 -4.91468 3.30783 143 130 127
-3.22425 -4.93357 3.31435 113 87 74
-3.24267 -4.94454 3.29589 93 75 92
-3.24679 -4.92490 3.30727 54 28 43
-3.28440 -4.93507 3.30671 116 108 49
-3.30273 -4.94599 3.28833 120 123 115
-3.30315 -4.94021 3.30645 103 95 77
-3.31836 -4.95945 3.31313 88 82 104
-3.33672 -4.97038 3.29474 113 118 136
1.47023 -3.72621 3.38864 80 67 74
1.49089 -3.71891 3.36351 91 81 81
1.46970 -3.72902 3.36520 85 77 76
0.57962 -3.34095 3.09215 52 63 78
0.59783 -3.33451 3.07001 73 73 85
0.57916 -3.34343 3.07150 61 65 86
0.56909 -3.35543 3.09727 88 97 123
0.58746 -3.38989 3.11541 116 129 154
0.56817 -3.40138 3.09607 125 132 158
-0.15703 -4.28930 3.42117 131 128 146
-0.21797 -4.25812 3.39870 50 25 82
-0.23932 -4.26680 3.39971 43 25 77
-0.25820 -4.27798 3.40220 68 55 66
-0.67610 -4.23144 3.32392 54 99 188
-0.69480 -4.24177 3.32604 46 83 167
-0.71924 -4.24556 3.32441 35 66 136
-0.74167 -4.25158 3.32407 53 61 87
-0.76169 -4.26350 3.30401 86 103 111
-0.80341 -4.27589 3.32664 69 70 62
-0.81905 -4.28980 3.33081 46 63 90
-0.80354 -4.34091 3.35609 115 148 202
-0.81433 -4.36105 3.36375 169 209 236
-0.83410 -4.37049 3.36532 201 206 226
-0.85754 -4.37545 3.36436 139 140 152
-0.85108 -4.41706 3.38410 43 27 34
-3.09247 -5.03991 3.35967 63 69 89
-3.15914 -4.95167 3.31056 102 112 139
-3.20821 -4.92188 3.29034 143 140 154
-3.22449 -4.93669 3.29482 126 116 122
-3.24291 -4.94766 3.27636 73 72 106
-3.26501 -4.93634 3.28912 101 96 88
-3.28278 -4.94548 3.29083 118 122 95
-3.30993 -4.99753 3.31071 120 120 133
-3.32841 -5.00854 3.29218 102 113 129
0.57665 -3.36341 3.08014 74 81 103
0.59492 -3.35696 3.05794 72 69 84
0.58948 -3.39410 3.09568 110 125 149
-0.13285 -4.28640 3.39927 175 188 205
-0.11231 -4.27659 3.39764 171 188 217
-0.11281 -4.27932 3.37491 170 188 216
-0.13335 -4.28912 3.37654 172 190 208
-0.15655 -4.29302 3.39904 159 165 182
-0.19916 -4.28041 3.38762 107 96 132
-0.22303 -4.28665 3.38720 100 83 109
-0.24785 -4.29186 3.38619 108 87 101
-0.27040 -4.29935 3.38651 114 87 103
-0.29027 -4.30637 3.41068 68 53 65
-0.29365 -4.30608 3.38639 117 94 98
-0.31352 -4.31310 3.41054 65 54 78
-0.31402 -4.31580 3.38801 117 94 100
-0.31452 -4.31851 3.36548 209 207 189
-0.34400 -4.31535 3.38376 117 99 101
-0.36382 -4.32235 3.40786 50 44 80
-0.36675 -4.32246 3.38388 119 104 113
-0.38656 -4.32946 3.40797 47 42 85
-0.40439 -4.31358 3.37480 125 105 122
-0.43355 -4.31358 3.37086 128 103 122
-0.46682 -4.30899 3.36430 130 106 121
-0.52066 -4.28166 3.34474 136 111 113
-0.54110 -4.29384 3.32425 228 226 215
-0.58037 -4.24735 3.32125 145 127 143
-0.60013 -4.25678 3.32282 136 129 137
-0.65614 -4.22566 3.30125 100 96 146
-0.68311 -4.22668 3.29807 45 83 183
-0.70896 -4.22885 3.29555 43 76 157
-0.73247 -4.23359 3.29451 29 68 159
-0.75244 -4.24548 3.27449 99 106 122
-0.74811 -4.24732 3.29857 83 101 123
-0.76999 -4.28595 3.31298 112 122 119
-0.79006 -4.29791 3.29286 113 127 145
-0.76941 -4.31902 3.32792 126 135 123
-0.78960 -4.33104 3.30770 145 149 146
-0.78831 -4.32937 3.33003 126 131 132
-0.80353 -4.34412 3.33460 129 145 167
-0.82276 -4.35413 3.33651 99 121 174
-0.82824 -4.38080 3.34775 163 184 217
-0.84344 -4.39586 3.35247 167 179 181
-0.84605 -4.42649 3.36589 59 37 36
-0.86433 -4.43802 3.36860 15 12 25
-0.88377 -4.44489 3.39224 10 16 17
-0.88426 -4.44753 3.37019 11 15 16
-0.88475 -4.45018 3.34814 14 11 9
-2.16765 -4.18132 3.07709 56 74 63
-2.15046 -4.17311 3.07572 36 29 47
-2.16722 -4.17904 3.09611 67 81 75
-2.18442 -4.18725 3.09748 109 120 101
-2.18484 -4.18953 3.07846 113 123 108
-2.18526 -4.19181 3.05943 112 125 103
-3.09943 -5.09341 3.36128 49 59 81
-3.14920 -4.99117 3.30858 77 90 118
-3.17882 -4.95873 3.29000 100 109 146
-3.19745 -4.96544 3.29050 113 108 138
-3.21600 -4.97649 3.27191 82 70 98
-3.22459 -4.94036 3.27556 87 80 115
-3.24302 -4.95134 3.25709 64 66 81
-3.26400 -4.94431 3.27201 78 91 109
-3.28242 -4.95096 3.27251 79 92 108
-3.29654 -4.97462 3.28124 86 88 114
0.59182 -3.37661 3.06629 63 67 83
0.59136 -3.37911 3.04551 61 63 62
0.56598 -3.38071 3.06467 97 109 132
0.56445 -3.40162 3.07380 121 132 162
0.54610 -3.40811 3.09611 126 133 158
0.54564 -3.41061 3.07529 126 135 157
0.54517 -3.41311 3.05447 125 135 157
-0.15050 -4.30236 3.38015 174 188 205
-0.13045 -4.29527 3.35577 169 189 212
-0.15100 -4.30509 3.35741 174 190 215
-0.17282 -4.31038 3.38076 163 172 187
-0.18747 -4.32622 3.38587 168 170 181
-0.21817 -4.32563 3.38151 199 196 192
-0.23920 -4.33816 3.36043 207 225 236
-0.24839 -4.32539 3.37737 205 198 190
-0.26938 -4.33789 3.35633 203 221 244
-0.28259 -4.32085 3.37078 209 208 192
-0.35435 -4.30763 3.35531 210 209 190
-0.38220 -4.30924 3.35232 213 213 199
-0.42064 -4.29936 3.34278 216 216 205
-0.46208 -4.28597 3.33128 210 217 204
-0.50381 -4.27195 3.31947 217 218 205
-0.52424 -4.28412 3.29899 217 232 245
-0.53296 -4.27138 3.31532 227 223 200
-0.61743 -4.24072 3.29038 171 176 182
-0.66555 -4.21827 3.27395 100 101 141
-0.69375 -4.21782 3.26999 74 104 149
-0.71393 -4.22634 3.27110 69 82 124
-0.73390 -4.23823 3.25109 100 100 111
-0.73527 -4.23353 3.27146 72 86 138
-0.77533 -4.25084 3.27383 50 57 98
-0.79055 -4.26510 3.27816 74 87 111
-0.80519 -4.34533 3.31199 126 134 148
-0.80568 -4.34795 3.29017 113 126 135
-0.82667 -4.35263 3.31238 93 109 148
-0.83534 -4.37542 3.32139 124 151 195
-0.83669 -4.40733 3.33544 160 169 182
-0.84464 -4.43146 3.34514 77 41 70
-0.86270 -4.44330 3.34801 26 8 18
-2.13247 -4.20818 3.07378 25 23 43
-2.11515 -4.19991 3.07240 18 21 20
-2.11558 -4.20221 3.05323 14 16 22
-2.16647 -4.18649 3.05957 40 56 58
-2.18409 -4.19699 3.04190 106 125 105
-2.20442 -4.19642 3.05893 73 71 63
-2.22118 -4.20234 3.07930 23 24 19
-2.22160 -4.20462 3.06030 26 16 9
-3.13005 -5.06366 3.32225 70 81 104
-3.17708 -4.96906 3.27379 91 100 129
-3.19326 -4.98491 3.27870 106 102 129
-3.21186 -4.99600 3.26005 90 75 96
-3.26453 -4.94636 3.25200 64 78 95
-3.24703 -4.94018 3.23073 71 67 78
-3.26497 -4.94874 3.23215 66 70 89
-3.28478 -4.94588 3.24908 71 79 102
-3.29830 -4.97180 3.25884 81 81 106
-3.31671 -4.98276 3.24039 87 91 115
0.57446 -3.38938 3.04783 82 86 98
0.59279 -3.38290 3.02555 70 66 75
0.56461 -3.40456 3.05325 113 130 155
0.54533 -3.41604 3.03392 124 136 157
-0.16478 -4.32179 3.36298 174 188 215
-0.14470 -4.31469 3.33856 171 188 217
-0.16529 -4.32452 3.34020 171 187 219
-0.18761 -4.32933 3.36331 179 192 216
-0.22452 -4.32233 3.35536 213 227 231
-0.34575 -4.31996 3.33835 206 223 240
-0.38671 -4.30764 3.32750 207 224 244
-0.41882 -4.30452 3.32190 203 221 245
-0.47438 -4.27587 3.30191 156 184 241
-0.50430 -4.27460 3.29740 189 212 243
-0.56381 -4.27196 3.28840 221 234 241
-0.61791 -4.24333 3.26861 163 170 184
-0.66739 -4.21935 3.25149 80 59 88
-0.68693 -4.22865 3.25303 107 123 143
-0.71133 -4.23243 3.25149 117 118 134
-0.75506 -4.24560 3.25156 99 95 103
-0.77501 -4.25749 3.23156 72 69 83
-0.77404 -4.25547 3.25343 57 51 85
-0.78811 -4.27110 3.25849 69 63 89
-0.79640 -4.29361 3.26735 93 99 121
-0.79073 -4.33288 3.28548 128 143 138
-0.82912 -4.35289 3.28927 62 64 118
-0.84689 -4.36463 3.29213 74 87 150
-0.83161 -4.41677 3.31720 174 196 199
-0.85870 -4.41742 3.31392 150 143 147
-0.86424 -4.44463 3.32523 82 58 50
-0.88089 -4.45825 3.32907 50 33 8
-0.90035 -4.46513 3.35273 11 13 14
-0.91568 -4.44911 3.32044 42 22 6
-0.93506 -4.45596 3.34401 10 11 13
-0.93719 -4.45652 3.32089 40 17 4
-0.95656 -4.46337 3.34444 5 10 14
-0.95705 -4.46601 3.32247 36 16 4
-0.95754 -4.46864 3.30049 161 153 105
-0.99089 -4.45751 3.31425 30 10 5
-0.99040 -4.45488 3.33615 5 12 14
-1.01018 -4.46433 3.33772 7 12 19
-1.01489 -4.46148 3.31285 21 5 7
-1.03417 -4.46829 3.33629 13 15 18
-1.03514 -4.47354 3.29256 81 68 26
-1.02039 -4.48954 3.32454 21 6 6
-1.03974 -4.49638 3.34807 23 19 15
-1.04053 -4.49862 3.32591 21 11 8
-1.05988 -4.50546 3.34944 19 22 15
-1.06037 -4.50810 3.32749 17 17 20
-2.13017 -4.21535 3.05712 17 17 37
-2.11325 -4.20937 3.03656 10 16 19
-2.13059 -4.21765 3.03794 13 15 26
-2.14793 -4.22593 3.03932 10 24 33
-2.14955 -4.21996 3.05661 22 37 49
-2.16730 -4.23053 3.03882 102 119 104
-2.20803 -4.19288 3.03693 99 82 79
-2.21700 -4.21618 3.04606 29 16 9
-2.23379 -4.22212 3.06648 16 25 20
-2.23421 -4.22440 3.04743 15 23 17
-2.23464 -4.22669 3.02838 8 22 22
-3.10544 -5.15576 3.34474 58 59 91
-3.12472 -5.16724 3.32542 107 94 114
-3.17171 -4.99258 3.26382 84 87 111
-3.19096 -4.99742 3.26343 115 109 132
-3.28588 -4.94567 3.22804 71 74 99
-3.26843 -4.93951 3.20682 65 71 90
-3.28632 -4.94805 3.20824 70 77 98
-3.30421 -4.95660 3.20967 82 86 109
-3.29854 -4.97499 3.23934 82 83 111
0.57890 -3.39526 3.02916 65 65 91
0.55963 -3.40673 3.00985 89 101 123
0.57913 -3.41748 3.03894 104 119 145
-0.18874 -4.33143 3.34018 170 188 221
-0.21909 -4.33117 3.33613 174 193 226
-0.24559 -4.33477 3.33426 150 178 226
-0.32621 -4.31267 3.31409 142 170 225
-0.36691 -4.30076 3.30358 142 172 221
-0.39680 -4.30009 3.29940 142 173 222
-0.44697 -4.27748 3.28296 131 162 224
-0.47225 -4.28136 3.28137 69 103 218
-0.53180 -4.24782 3.25892 116 153 213
-0.58469 -4.25206 3.25391 150 173 224
-0.62160 -4.24238 3.24486 121 127 175
-0.66111 -4.22951 3.23409 65 50 84
-0.68222 -4.23710 3.23467 100 114 142
-0.70774 -4.23965 3.23248 120 128 151
-0.75586 -4.24782 3.22980 95 84 88
-0.79346 -4.26799 3.23377 76 83 86
-0.79394 -4.27058 3.21222 62 74 81
-0.80532 -4.28627 3.24025 83 91 115
-0.80313 -4.32136 3.25593 95 116 129
-0.82117 -4.33264 3.25854 76 94 123
-0.82842 -4.39025 3.28287 120 134 164
-0.82219 -4.43153 3.30179 186 216 216
-0.84090 -4.44256 3.30421 178 183 203
-0.85772 -4.45598 3.30791 184 179 169
-0.86696 -4.47892 3.31677 187 187 165
-0.87818 -4.49956 3.32437 181 177 158
-0.88486 -4.52613 3.33516 168 167 143
-0.90551 -4.53843 3.31447 226 234 214
-0.90465 -4.57177 3.35261 141 120 99
-0.93941 -4.56264 3.34409 106 88 61
-1.03256 -4.51240 3.30994 60 42 7
-1.07192 -4.49605 3.29765 47 26 7
-1.09121 -4.50286 3.32111 14 19 21
-1.09219 -4.50812 3.27734 172 170 125
-1.11068 -4.48011 3.28563 40 20 7
-1.12986 -4.48689 3.30896 14 19 21
-1.13035 -4.48951 3.28719 38 14 8
-1.21226 -4.41439 3.24359 31 6 10
-1.21178 -4.41182 3.26496 13 18 25
-1.23110 -4.42105 3.26650 15 17 31
-1.25756 -4.38805 3.22615 25 5 11
-1.27625 -4.39466 3.24888 19 19 34
-1.27720 -4.39975 3.20646 84 70 17
-1.38560 -4.38797 3.20947 28 34 38
-1.36616 -4.37639 3.22896 27 27 26
-1.36663 -4.37891 3.20796 22 24 34
-1.38513 -4.38545 3.23047 31 25 20
-1.32658 -4.50888 3.27019 46 60 70
-1.37954 -4.46970 3.24612 62 80 88
-1.39925 -4.48144 3.22636 48 38 49
-1.39566 -4.48343 3.25005 63 78 77
-1.41540 -4.49518 3.23027 47 47 61
-1.41378 -4.49429 3.25246 56 65 61
-1.43257 -4.50093 3.27531 31 22 28
-2.18563 -4.23697 3.03926 115 109 91
-2.21128 -4.22982 3.03279 34 22 11
-2.22896 -4.24035 3.01507 10 17 21
-3.11758 -5.11647 3.30406 87 64 87
-3.19718 -4.97860 3.23323 131 115 134
-3.22774 -4.94072 3.21264 95 74 101
-3.24570 -4.94929 3.21407 70 64 87
-3.30055 -5.22103 3.32617 203 197 190
-3.28183 -5.21209 3.32468 124 120 139
-3.28229 -5.21458 3.30396 146 151 183
-3.30101 -5.22352 3.30545 229 229 235
-3.31881 -5.22749 3.34838 185 175 178
0.59941 -3.39027 3.00778 73 69 83
0.61868 -3.37878 3.02710 79 74 84
0.61822 -3.38128 3.00629 82 78 88
0.61776 -3.38378 2.98547 84 78 86
0.58013 -3.40175 2.98847 61 64 71
0.58325 -3.40108 3.01042 57 57 85
0.56396 -3.41257 2.99109 70 76 97
0.05600 -4.12809 3.25919 156 176 206
0.07680 -4.11570 3.28003 158 174 207
0.07630 -4.11840 3.25757 157 173 204
0.05650 -4.12540 3.28165 158 177 208
0.03620 -4.13509 3.28326 159 178 204
0.03570 -4.13778 3.26080 157 177 204
-0.17057 -4.32241 3.31470 168 184 211
-0.15000 -4.31259 3.31306 171 188 217
-0.15051 -4.31532 3.29030 174 187 215
-0.19131 -4.33205 3.31623 156 176 205
-0.23896 -4.31392 3.30224 134 162 194
-0.35253 -4.25742 3.26309 86 127 167
-0.37907 -4.26023 3.26091 84 121 162
-0.40495 -4.26364 3.25907 81 121 155
-0.43220 -4.26550 3.25639 80 123 156
-0.45025 -4.27715 3.25914 74 114 168
-0.47076 -4.28936 3.23859 43 66 156
-0.51683 -4.26731 3.24632 64 102 149
-0.55775 -4.25370 3.23515 74 114 160
-0.58324 -4.25682 3.23324 76 111 159
-0.60348 -4.26888 3.21296 76 97 108
-0.61972 -4.24763 3.22457 74 100 137
-0.63987 -4.25963 3.20437 82 92 112
-0.64741 -4.24801 3.22118 73 83 105
-0.68210 -4.24038 3.21342 89 102 131
-0.72929 -4.24978 3.21145 92 91 102
-0.75470 -4.25230 3.20929 91 57 60
-0.77466 -4.26419 3.18928 72 58 83
-0.77307 -4.26289 3.21154 58 62 82
-0.79304 -4.27478 3.19153 65 69 87
-0.79883 -4.29708 3.22312 48 59 74
-0.81468 -4.34358 3.24133 24 58 76
-0.83217 -4.35562 3.24432 76 104 116
-0.83728 -4.45028 3.28486 181 188 213
-0.83151 -4.49177 3.30366 229 241 236
-0.84859 -4.50517 3.30730 242 248 244
-0.84681 -4.54237 3.32371 232 243 239
-0.86755 -4.55473 3.30292 223 231 246
-0.86107 -4.55964 3.32940 217 222 228
-0.88487 -4.60058 3.34416 221 220 206
-0.91975 -4.59149 3.33573 215 215 190
-0.94175 -4.59893 3.33615 212 214 177
-0.94799 -4.62712 3.34762 204 200 164
-1.06585 -4.50738 3.28040 187 182 151
-1.08615 -4.51947 3.26005 231 231 218
-1.18787 -4.41522 3.22465 167 151 113
-1.23675 -4.38433 3.20494 145 110 91
-1.25766 -4.39111 3.20521 116 90 42
-1.34326 -4.37918 3.18905 50 31 8
-1.32379 -4.36759 3.20856 21 17 16
-1.32426 -4.37011 3.18753 63 50 8
-1.34279 -4.37666 3.21007 21 23 30
-1.34373 -4.38171 3.16802 202 201 172
-1.36619 -4.38271 3.18764 44 20 10
-1.38747 -4.38849 3.18743 40 16 12
-2.18365 -4.24367 3.02232 124 131 104
-2.20387 -4.24661 3.02101 38 30 12
-2.22161 -4.25718 3.00323 12 17 11
-2.84551 -5.59459 3.52533 244 236 202
-2.82496 -5.58477 3.52370 250 244 210
-2.82546 -5.58750 3.50096 254 254 252
-2.91861 -5.58468 3.51165 230 203 167
-2.89871 -5.57765 3.48744 254 253 248
-2.91912 -5.58740 3.48907 253 251 244
-2.93953 -5.59714 3.49069 251 246 231
-2.95120 -5.55205 3.49327 210 176 141
-2.97196 -5.56442 3.47246 247 241 210
-3.19316 -4.99744 3.22090 136 116 131
-3.22999 -4.93636 3.18960 98 83 101
-3.24836 -4.94730 3.17118 76 77 86
-3.25115 -4.93265 3.18527 74 72 84
-3.26904 -4.94120 3.18670 68 76 78
-3.26949 -4.94357 3.16690 70 80 83
-3.30780 -5.02707 3.21910 72 84 123
-3.28970 -5.01843 3.21766 84 86 102
-3.29014 -5.02083 3.19763 82 83 101
0.60573 -3.39743 2.98984 78 72 84
0.62410 -3.39094 2.96750 81 79 90
0.60526 -3.39993 2.96900 79 77 96
1.40099 -4.26205 3.46357 130 147 170
1.42369 -4.25121 3.46177 125 134 160
1.42313 -4.25423 3.43664 126 138 156
1.37885 -4.26988 3.49050 139 153 175
1.37829 -4.27289 3.46538 138 152 177
1.37773 -4.27591 3.44026 135 151 180
0.09430 -4.10976 3.23256 156 174 195
0.11509 -4.09737 3.25340 158 173 195
0.11459 -4.10007 3.23094 157 172 197
0.09480 -4.10706 3.25501 159 173 199
0.07424 -4.11966 3.23429 147 170 191
0.05477 -4.13011 3.23634 138 160 193
0.03297 -4.13840 3.23716 139 162 202
0.01318 -4.14539 3.26123 160 178 205
0.01534 -4.15058 3.24019 152 176 208
-0.00446 -4.15758 3.26427 162 179 208
-0.00496 -4.16027 3.24180 161 179 207
-0.17928 -4.31678 3.28729 167 182 205
-0.15926 -4.30970 3.26295 173 185 215
-0.21316 -4.31290 3.28133 145 166 191
-0.32286 -4.26097 3.24505 74 104 114
-0.36622 -4.24628 3.23322 65 100 125
-0.39698 -4.24454 3.22858 66 99 124
-0.43313 -4.23693 3.22072 64 101 117
-0.45352 -4.24907 3.20028 72 92 126
-0.46609 -4.23248 3.21463 65 100 121
-0.48642 -4.24458 3.19426 66 79 133
-0.48802 -4.23971 3.21498 60 90 136
-0.50833 -4.25181 3.19461 59 75 159
-0.52964 -4.25651 3.21696 58 90 115
-0.53012 -4.25914 3.19503 69 92 123
-0.54994 -4.26860 3.19661 72 96 124
-0.56348 -4.25056 3.21012 66 98 113
-0.58900 -4.25361 3.20821 71 96 106
-0.67918 -4.24682 3.19387 82 89 117
-0.66009 -4.24008 3.17066 99 87 117
-0.67966 -4.24942 3.17222 100 93 108
-0.72597 -4.25674 3.19223 78 80 112
-0.75013 -4.26072 3.19089 98 51 66
-0.77012 -4.27262 3.17086 85 58 72
-0.79679 -4.30265 3.20309 53 63 66
-0.77771 -4.29591 3.17988 78 71 94
-0.78426 -4.35015 3.22517 29 42 38
-0.80892 -4.35368 3.22357 20 55 56
-0.83588 -4.35434 3.22045 60 83 104
-0.85555 -4.36373 3.22201 52 81 151
-0.83518 -4.42213 3.24979 124 120 169
-0.81562 -4.48025 3.27735 214 230 235
-0.81930 -4.51022 3.28982 241 250 252
-0.83979 -4.51947 3.29121 237 248 251
-0.86047 -4.53178 3.27049 216 223 242
-0.83878 -4.55581 3.30703 207 218 243
-0.88203 -4.60760 3.32391 192 208 227
-0.90928 -4.60842 3.32081 196 214 227
-0.95624 -4.58332 3.30404 215 224 233
-0.98522 -4.58139 3.29954 227 229 231
-1.00587 -4.59369 3.27885 230 232 236
-1.03507 -4.55156 3.28036 231 233 227
-1.05555 -4.56375 3.25983 230 231 235
-1.14846 -4.47161 3.23152 233 232 219
-1.14894 -4.47421 3.20986 231 232 234
-1.16851 -4.48355 3.21142 230 234 235
-1.16884 -4.47985 3.23249 231 229 210
-1.18889 -4.49179 3.21240 231 234 236
-1.18090 -4.49948 3.23944 228 229 191
-1.20759 -4.49906 3.23588 223 223 183
-1.21640 -4.52337 3.24526 218 216 186
-1.39054 -4.42357 3.18016 155 127 110
-1.47701 -4.55864 3.22752 37 18 16
-1.47653 -4.55607 3.24893 22 20 21
-1.49589 -4.56532 3.25047 19 20 20
-1.47472 -4.60104 3.24610 32 14 12
-1.49373 -4.60775 3.26922 18 21 17
-1.49469 -4.61293 3.22609 100 92 107
-1.48511 -4.62439 3.25487 31 13 11
-1.50418 -4.63113 3.27805 22 21 15
-1.50466 -4.63373 3.25642 34 15 12
-1.53240 -4.63020 3.25139 31 15 8
-1.53192 -4.62761 3.27296 24 20 20
-1.53288 -4.63279 3.22982 78 82 49
-1.55141 -4.63692 3.27451 17 20 19
-1.55842 -4.62917 3.24766 21 14 8
-1.57740 -4.63588 3.27073 14 18 27
-1.57524 -4.64266 3.25135 14 13 12
-1.59423 -4.64937 3.27444 12 16 29
-1.59471 -4.65196 3.25290 9 10 15
-1.67052 -4.61020 3.22529 9 10 20
-1.65082 -4.59846 3.24503 13 15 29
-1.65129 -4.60102 3.22376 9 10 23
-1.67004 -4.60765 3.24656 10 12 30
-1.68927 -4.61683 3.24809 9 12 28
-1.68974 -4.61938 3.22682 9 10 15
-2.16954 -4.23261 2.99921 76 85 106
-2.15265 -4.22664 2.97868 10 6 32
-2.16996 -4.23491 2.98005 48 54 80
-2.19677 -4.26285 3.00882 40 30 14
-2.21456 -4.27345 2.99098 25 22 28
-3.03783 -5.41058 3.39774 245 231 178
-3.01863 -5.40379 3.37439 254 254 250
-3.03832 -5.41319 3.37596 254 247 221
-3.05800 -5.42259 3.37753 144 122 129
-3.19764 -4.98500 3.19386 115 98 138
-3.22538 -4.95764 3.17855 91 82 106
-3.24383 -4.96862 3.16006 75 75 88
-3.30525 -5.12470 3.24054 157 168 193
-3.32365 -5.13349 3.24201 235 240 243
0.60434 -3.42134 2.97804 71 71 78
0.62278 -3.41483 2.95562 81 78 96
0.58498 -3.43288 2.95863 56 65 89
0.58961 -3.43327 2.98131 56 62 86
0.57116 -3.43979 3.00375 110 128 145
0.57023 -3.44482 2.96188 81 82 109
0.11345 -4.10218 3.20816 154 168 204
0.13424 -4.08980 3.22900 156 170 197
0.13374 -4.09249 3.20655 157 169 203
0.13324 -4.09519 3.18410 156 171 203
0.09314 -4.11185 3.20977 133 148 182
0.06107 -4.11068 3.20527 94 110 144
0.03662 -4.11643 3.20467 67 84 133
0.01879 -4.12832 3.20754 73 94 150
0.00100 -4.14027 3.21043 113 139 177
-0.00687 -4.16164 3.21860 153 175 205
-0.02666 -4.16863 3.24267 161 178 206
-0.02716 -4.17133 3.22021 162 178 206
-0.18640 -4.31276 3.26087 163 178 205
-0.16641 -4.30570 3.23656 170 185 213
-0.22203 -4.30703 3.25397 136 158 192
-0.40454 -4.23974 3.20240 62 87 114
-0.58785 -4.25805 3.18736 86 93 124
-0.72463 -4.26142 3.17174 80 79 115
-0.74650 -4.26806 3.17185 87 50 80
-0.76650 -4.27998 3.15180 88 61 70
-0.79389 -4.30925 3.18356 71 64 73
-0.77927 -4.35928 3.20680 24 17 22
-0.79952 -4.37134 3.18651 26 35 39
-0.79653 -4.37171 3.20997 19 25 42
-0.81626 -4.38122 3.21157 18 27 39
-0.83746 -4.38892 3.21223 9 20 72
-0.82363 -4.43951 3.23560 113 132 161
-0.80017 -4.50259 3.26552 214 240 244
-0.81403 -4.52007 3.27128 215 233 249
-0.83439 -4.52954 3.27279 201 211 241
-0.85193 -4.57790 3.29129 208 231 247
-0.86756 -4.59364 3.29608 112 134 226
-0.88514 -4.60695 3.29958 98 127 207
-0.94702 -4.59873 3.28834 188 209 240
-0.96778 -4.61109 3.26754 234 232 235
-0.97366 -4.59999 3.28556 223 230 238
-0.99438 -4.61233 3.26479 231 232 236
-1.18156 -4.53829 3.23321 233 234 238
-1.16233 -4.53149 3.20982 231 232 237
-1.18205 -4.54091 3.21139 232 233 238
-1.20177 -4.55033 3.21296 231 235 242
-1.18811 -4.56606 3.24428 233 234 240
-1.20839 -4.57814 3.22395 232 236 244
-1.19497 -4.59367 3.25524 236 237 238
-1.21534 -4.60580 3.23483 234 235 242
-1.20765 -4.61334 3.26208 237 239 231
-1.22805 -4.62549 3.24162 233 237 243
-1.22638 -4.62454 3.26453 236 235 225
-1.24587 -4.63467 3.26644 235 234 216
-1.26058 -4.69041 3.28845 223 231 189
-1.26964 -4.71621 3.29837 213 223 183
-1.28632 -4.73097 3.30260 201 207 167
-1.38862 -4.65679 3.25809 152 149 93
-1.41640 -4.65408 3.25347 129 125 111
-1.44216 -4.65427 3.25033 103 94 102
-1.52292 -4.68875 3.25501 67 64 23
-1.57863 -4.64060 3.22746 60 45 23
-1.59856 -4.65247 3.20748 147 155 137
-1.60889 -4.63248 3.22020 51 27 16
-1.62875 -4.64431 3.20030 141 146 128
-1.63284 -4.63431 3.21800 50 25 22
-1.69942 -4.60673 3.19789 52 26 20
-1.71812 -4.61333 3.22062 9 11 6
-1.71859 -4.61588 3.19941 43 17 14
-1.71906 -4.61843 3.17820 141 123 106
-1.77163 -4.60925 3.18995 26 13 9
-1.75209 -4.59761 3.20954 7 11 8
-1.75303 -4.60267 3.16734 120 113 75
-1.77116 -4.60671 3.21105 5 11 15
-1.79023 -4.61582 3.21257 8 10 14
-1.79117 -4.62088 3.17037 64 65 20
-2.18280 -4.25140 2.98551 99 118 112
-2.16588 -4.24542 2.96493 55 44 56
-2.18323 -4.25371 2.96632 69 80 73
-2.20057 -4.26199 2.96770 51 54 36
-3.20118 -4.97597 3.16853 83 72 105
-3.21971 -4.98701 3.14995 67 65 93
-3.21914 -4.98508 3.17018 77 71 96
-3.23767 -4.99612 3.15161 70 73 94
-3.28151 -5.05937 3.19419 80 80 98
-3.26284 -5.04825 3.21291 73 80 94
-3.26329 -5.05067 3.19274 73 79 94
-3.26374 -5.05309 3.17258 69 75 88
-3.30314 -5.13770 3.22502 162 178 198
-3.34397 -5.05303 3.18369 237 248 250
-3.36164 -5.05927 3.20517 254 254 254
-3.36208 -5.06168 3.18513 254 254 254
-3.36253 -5.06409 3.16508 254 254 254
0.59987 -3.48814 2.98392 115 132 154
0.60034 -3.48561 3.00505 124 133 161
0.58124 -3.49472 3.00657 128 138 161
0.58077 -3.49726 2.98544 125 140 157
0.58030 -3.49980 2.96431 125 136 162
0.04466 -4.12705 3.18672 26 35 79
-0.02262 -4.12121 3.17596 68 93 135
-0.00929 -4.16251 3.19513 133 156 192
-0.31825 -4.27214 3.20363 74 87 132
-0.40228 -4.21484 3.16897 50 63 93
-0.43752 -4.20810 3.16178 51 60 102
-0.45327 -4.22185 3.16568 86 67 107
-0.48449 -4.21910 3.16067 77 76 119
-0.50473 -4.23116 3.14038 66 64 112
-0.62852 -4.24726 3.15489 112 102 147
-0.69995 -4.26109 3.15197 99 97 109
-0.70043 -4.26369 3.13032 109 112 105
-0.77901 -4.29755 3.15771 84 78 99
-0.79580 -4.31016 3.16100 84 79 86
-0.77620 -4.36614 3.18717 29 18 46
-0.81121 -4.39052 3.19321 23 22 26
-0.81170 -4.39316 3.17129 23 23 17
-0.83032 -4.40084 3.19523 6 13 40
-0.82692 -4.43874 3.21173 105 127 160
-0.79620 -4.54555 3.26084 149 163 217
-0.84683 -4.51725 3.24260 192 201 241
-0.84222 -4.59359 3.27557 135 154 225
-0.89196 -4.56572 3.25761 94 109 212
-0.89208 -4.60134 3.27271 110 132 210
-0.90111 -4.62576 3.28197 192 203 240
-0.93623 -4.61621 3.27359 235 236 247
-0.95705 -4.62861 3.25273 229 229 234
-1.25397 -4.66468 3.25506 209 225 224
-1.27014 -4.71889 3.27608 180 221 199
-1.28682 -4.73364 3.28029 177 213 197
-1.29328 -4.76378 3.29228 181 205 195
-1.44932 -4.64664 3.22337 89 107 163
-1.47349 -4.64904 3.22141 93 108 171
-1.86050 -4.46181 3.09434 99 93 48
-2.41204 -4.10127 2.87347 33 39 44
-2.39509 -4.09118 2.89045 31 32 32
-2.41163 -4.09907 2.89177 36 39 42
-2.41244 -4.10346 2.85517 23 34 31
-2.42816 -4.10697 2.89308 43 42 44
-2.42857 -4.10916 2.87479 44 46 50
-3.18431 -3.55605 2.54707 23 33 48
-3.17028 -3.54769 2.56114 25 29 35
-3.17061 -3.54951 2.54598 23 28 44
-3.17095 -3.55133 2.53083 20 32 39
-3.19767 -3.56078 2.56332 64 79 96
-3.19801 -3.56260 2.54816 60 71 77
-3.15684 -5.06698 3.19162 161 133 141
-3.13887 -5.06063 3.16976 254 250 236
-3.17572 -5.07822 3.17270 74 53 77
-3.19733 -4.99426 3.15578 83 56 84
-3.29516 -5.09084 3.18473 93 81 124
-3.30570 -5.13150 3.20069 170 181 208
-3.34498 -5.05306 3.16257 238 251 253
-3.36353 -5.06411 3.14397 254 254 254
0.60088 -3.46919 2.95393 59 64 86
0.61992 -3.46010 2.95241 64 70 84
0.61945 -3.46263 2.93135 75 74 75
0.60855 -3.49715 2.96662 105 122 137
0.13210 -4.09730 3.16133 152 171 195
0.15288 -4.08492 3.18216 155 167 197
0.15238 -4.08762 3.15971 154 171 197
0.15188 -4.09031 3.13727 156 173 194
0.11299 -4.10806 3.16354 105 118 159
0.08264 -4.10853 3.16005 44 47 99
0.02545 -4.14085 3.16671 34 49 76
0.00005 -4.14569 3.16567 46 63 99
-0.03015 -4.17483 3.17426 155 179 205
-0.17911 -4.29606 3.20720 170 187 212
-0.15816 -4.28359 3.22819 167 183 215
-0.15867 -4.28630 3.20557 167 185 216
-0.20016 -4.30521 3.20849 160 176 196
-0.34538 -4.21677 3.15366 44 42 86
-0.37809 -4.21301 3.14811 36 57 115
-0.40959 -4.21033 3.14316 37 49 78
-0.42991 -4.22243 3.12279 42 34 45
-0.48176 -4.19470 3.12782 76 47 61
-0.51056 -4.19433 3.12417 93 86 84
-0.57347 -4.21807 3.12653 81 73 116
-0.55434 -4.21131 3.10326 80 88 132
-0.60225 -4.21734 3.12273 106 137 178
-0.62353 -4.22480 3.12329 119 139 175
-0.64651 -4.23032 3.12282 117 119 162
-0.72330 -4.26924 3.12988 102 97 107
-0.70423 -4.26250 3.10669 113 112 105
-0.72378 -4.27184 3.10825 110 110 109
-0.74105 -4.28066 3.13253 91 87 109
-0.77287 -4.30791 3.14014 85 86 104
-0.78992 -4.32029 3.14327 90 90 92
-0.77713 -4.36824 3.16500 38 38 68
-0.78854 -4.38773 3.17182 22 34 39
-0.83504 -4.43202 3.18481 69 91 123
-0.82610 -4.47714 3.20488 124 148 188
-0.87054 -4.56090 3.23473 97 105 204
-0.87469 -4.59119 3.24697 109 125 207
-0.83180 -4.68256 3.29062 183 185 233
-0.88318 -4.65246 3.27172 235 241 251
-0.91957 -4.64142 3.26266 233 237 249
-1.19583 -4.59911 3.21134 226 238 244
-1.17596 -4.58962 3.20976 234 237 243
-1.20879 -4.61841 3.21789 214 234 241
-1.22719 -4.63007 3.22056 195 216 233
-1.24825 -4.63796 3.22133 167 194 231
-1.25700 -4.66366 3.23108 142 175 216
-1.26432 -4.69172 3.24200 131 159 201
-1.29663 -4.68325 3.23451 122 141 191
-1.36952 -4.65304 3.21296 107 127 185
-1.37674 -4.68146 3.22404 97 113 184
-1.31270 -4.81866 3.28953 62 73 152
-1.44227 -4.70072 3.22419 8 24 127
-1.45861 -4.71562 3.22848 6 33 133
-1.52447 -4.69306 3.21100 31 66 146
-1.54463 -4.70507 3.19079 45 58 100
-1.68379 -4.59842 3.15184 141 174 209
-1.72848 -4.60604 3.14962 172 199 192
-1.75150 -4.60859 3.14790 181 195 183
-1.77105 -4.62023 3.12831 159 174 191
-1.77400 -4.61189 3.14656 175 172 143
-1.81537 -4.58277 3.12929 144 131 106
-1.83381 -4.58929 3.15172 57 55 37
-1.80360 -4.64479 3.15681 138 139 127
-1.82225 -4.65138 3.17949 62 59 40
-1.81577 -4.66604 3.16428 140 161 155
-1.83446 -4.67264 3.18701 63 50 29
-1.83493 -4.67519 3.16580 129 152 155
-1.83540 -4.67773 3.14460 69 54 89
-2.43376 -4.10188 2.85192 33 42 35
-2.44986 -4.10757 2.87149 47 48 46
-2.45526 -4.09979 2.84843 40 47 42
-2.47131 -4.10546 2.86796 47 52 42
-2.47172 -4.10765 2.84974 44 49 46
-3.18911 -3.54606 2.52640 21 33 39
-3.17580 -3.54135 2.51021 20 32 36
-3.20311 -3.55439 2.51238 57 77 76
-3.19913 -3.56231 2.53203 43 42 65
-3.21249 -3.56703 2.54826 69 98 118
-3.21283 -3.56885 2.53311 62 53 72
-3.14462 -5.11561 3.19220 168 144 156
-3.21298 -5.01634 3.14214 56 57 79
-3.21343 -5.01875 3.12202 56 52 70
-3.23105 -5.02546 3.14378 62 70 81
-3.24878 -5.03173 3.16535 66 73 85
-3.24923 -5.03414 3.14523 66 68 79
-3.28946 -5.11818 3.17571 113 97 149
-3.29658 -5.17333 3.19805 191 195 224
-3.31558 -5.18465 3.17901 249 254 254
-3.35251 -5.02584 3.12921 243 253 254
-3.37096 -5.03683 3.11072 254 254 254
0.61350 -3.48091 2.93827 61 63 65
0.61302 -3.48345 2.91716 65 62 75
0.60896 -3.50031 2.94582 88 96 116
0.59446 -3.51274 2.94927 121 135 166
0.57578 -3.51934 2.97198 126 137 160
0.57531 -3.52189 2.95079 129 135 158
0.57484 -3.52443 2.92960 130 134 158
0.13086 -4.09933 3.13852 136 150 178
0.09132 -4.09146 3.13050 75 82 119
0.07063 -4.10379 3.10976 35 35 56
0.07967 -4.10895 3.13640 34 38 70
0.06297 -4.12188 3.13980 39 42 70
0.04222 -4.13424 3.11900 47 47 78
-0.03054 -4.17762 3.15187 141 175 202
-0.05135 -4.18680 3.15321 149 180 202
-0.07114 -4.19379 3.17727 161 181 202
-0.06987 -4.19820 3.15575 149 181 203
-0.08966 -4.20519 3.17982 162 181 205
-0.09079 -4.20727 3.15703 153 182 204
-0.11058 -4.21426 3.18109 162 181 207
-0.10169 -4.22617 3.16361 154 181 203
-0.12152 -4.23317 3.18772 162 181 209
-0.11413 -4.24366 3.16942 156 180 205
-0.13400 -4.25068 3.19357 164 181 210
-0.12765 -4.26020 3.17470 156 179 208
-0.14754 -4.26723 3.19889 166 183 215
-0.14167 -4.27631 3.17974 149 175 213
-0.16306 -4.28510 3.18085 147 172 214
-0.18347 -4.29487 3.18248 147 170 210
-0.20615 -4.30231 3.18288 140 160 198
-0.24922 -4.28877 3.17208 100 108 131
-0.34754 -4.21769 3.13067 30 30 50
-0.36797 -4.22987 3.11019 43 36 55
-0.38045 -4.21370 3.12506 21 28 76
-0.47818 -4.20165 3.10834 58 37 24
-0.52595 -4.18096 3.09400 94 84 44
-0.60385 -4.18797 3.08760 86 76 89
-0.61815 -4.20296 3.09215 98 106 149
-0.62959 -4.22121 3.09839 115 131 174
-0.64919 -4.23046 3.09991 118 121 164
-0.66864 -4.23987 3.10151 112 90 145
-0.74018 -4.28483 3.11171 99 97 125
-0.72109 -4.27809 3.08850 114 107 100
-0.74066 -4.28743 3.09005 103 102 123
-0.76023 -4.29677 3.09161 86 80 109
-0.78439 -4.33000 3.12526 95 88 104
-0.78241 -4.36516 3.14016 55 61 83
-0.78791 -4.39170 3.15058 17 14 29
-0.80483 -4.40468 3.15397 21 20 30
-0.82804 -4.44386 3.16754 58 68 74
-0.79874 -4.51423 3.20040 173 178 202
-0.82966 -4.54540 3.20970 175 189 242
-0.85473 -4.54896 3.20819 96 116 213
-0.87334 -4.56065 3.21084 95 119 213
-0.82554 -4.65760 3.25700 169 168 223
-0.85704 -4.65333 3.25145 232 238 248
-0.87398 -4.66783 3.25547 233 237 246
-0.90819 -4.65972 3.24800 213 211 227
-0.94107 -4.65311 3.24131 225 230 234
-0.96098 -4.66015 3.26552 230 232 234
-0.96148 -4.66286 3.24293 233 235 237
-0.96198 -4.66557 3.22035 237 238 239
-1.16264 -4.57437 3.18196 232 240 246
-1.14231 -4.56227 3.20233 235 238 239
-1.14280 -4.56490 3.18038 237 238 243
-1.16215 -4.57174 3.20391 236 235 240
-1.17906 -4.58862 3.18594 203 220 248
-1.20741 -4.58616 3.18152 157 168 233
-1.20063 -4.63331 3.20200 112 123 198
-1.21440 -4.65170 3.20802 85 108 171
-1.23033 -4.66711 3.21254 78 107 164
-1.24556 -4.68363 3.21762 79 103 156
-1.26611 -4.69588 3.19702 83 97 125
-1.24943 -4.71690 3.23103 78 98 150
-1.27008 -4.72920 3.21034 82 97 121
-1.25286 -4.79097 3.26152 78 95 141
-1.27374 -4.80341 3.24060 80 92 116
-1.25415 -4.82931 3.27736 79 92 136
-1.27515 -4.84182 3.25631 79 90 106
-1.25706 -4.86566 3.29218 62 77 118
-1.27817 -4.87824 3.27102 69 83 88
-1.40668 -4.71884 3.21303 28 23 67
-1.42710 -4.73100 3.19257 44 47 59
-1.46527 -4.74926 3.21871 18 15 84
-1.61374 -4.67544 3.17016 72 101 147
-1.69801 -4.57839 3.11959 76 109 162
-1.73718 -4.55420 3.10482 87 121 169
-1.75809 -4.55991 3.10470 101 134 182
-1.77251 -4.57651 3.10990 125 155 194
-1.78688 -4.63491 3.13254 161 169 167
-1.78735 -4.63745 3.11140 156 192 162
-1.81389 -4.67267 3.14506 103 105 130
-2.39173 -4.10667 2.83983 66 58 60
-2.37557 -4.10096 2.82017 38 35 48
-2.44009 -4.09235 2.82807 39 28 18
-2.46295 -4.08739 2.82326 30 33 35
-2.47976 -4.09740 2.80642 29 26 35
-2.48318 -4.08750 2.82089 37 40 49
-2.49915 -4.09315 2.84031 48 47 45
-2.49955 -4.09532 2.82219 45 43 47
-3.18398 -3.56235 2.51799 12 27 30
-3.17061 -3.55763 2.50173 19 28 37
-3.09976 -5.12919 3.18169 253 254 254
-3.08061 -5.11778 3.20088 254 254 254
-3.08107 -5.12027 3.18020 254 254 254
-3.09930 -5.12671 3.20237 254 254 254
-3.12089 -5.12935 3.17923 242 251 232
-3.19022 -5.02869 3.12894 74 54 71
-3.22811 -5.04078 3.12945 57 64 74
-3.24679 -5.05190 3.11073 71 60 51
-3.24443 -5.05687 3.13421 66 70 77
-3.26314 -5.06801 3.11547 75 54 54
-3.27676 -5.09098 3.14457 69 68 100
-3.29552 -5.10215 3.12577 146 154 192
-3.29410 -5.10366 3.14779 125 118 163
-3.31804 -5.08929 3.13893 211 214 230
-3.33673 -5.10043 3.12020 253 254 254
1.44636 -3.84199 3.16369 116 97 88
1.46831 -3.82892 3.18569 112 101 91
1.46778 -3.83176 3.16199 116 100 94
1.46725 -3.83461 3.13828 118 99 97
1.42546 -3.84938 3.18910 81 68 83
1.42728 -3.85380 3.16633 84 74 86
1.40638 -3.86119 3.19175 85 74 73
1.40585 -3.86403 3.16803 80 74 79
1.40532 -3.86688 3.14432 85 69 81
0.62149 -3.51205 2.92999 63 75 102
0.60079 -3.52013 2.93089 114 129 154
0.15321 -4.09465 3.11572 156 171 190
0.17401 -4.08227 3.13656 151 167 192
0.17351 -4.08496 3.11410 151 167 194
0.17301 -4.08766 3.09165 154 168 193
0.13297 -4.10438 3.11735 109 121 157
0.09367 -4.09674 3.10956 48 51 91
0.05601 -4.11860 3.11416 44 45 70
0.01329 -4.13578 3.11623 38 37 66
-0.04143 -4.14152 3.11215 58 74 101
-0.09612 -4.20526 3.13206 105 121 163
-0.12502 -4.20646 3.12915 107 122 167
-0.15434 -4.20714 3.12598 110 132 178
-0.17701 -4.21431 3.12627 102 128 163
-0.18877 -4.23237 3.13235 72 86 121
-0.22006 -4.26095 3.14048 60 78 134
-0.25023 -4.26049 3.13673 55 69 126
-0.28329 -4.25692 3.13136 49 60 95
-0.30393 -4.26922 3.11067 41 45 62
-0.34763 -4.22076 3.10882 39 36 47
-0.36806 -4.23293 3.08834 48 48 59
-0.41002 -4.21617 3.09957 44 25 57
-0.51988 -4.16037 3.06353 108 86 53
-0.54160 -4.16730 3.06384 103 80 31
-0.58103 -4.15507 3.05414 96 85 83
-0.62503 -4.16788 3.05425 94 94 100
-0.62551 -4.17046 3.03281 95 94 102
-0.64488 -4.17970 3.03435 90 85 80
-0.64138 -4.21124 3.07025 103 109 139
-0.65712 -4.22473 3.07397 112 125 164
-0.67613 -4.23457 3.07580 117 125 161
-0.68843 -4.25205 3.08158 107 114 134
-0.70797 -4.26138 3.08313 110 110 103
-0.70845 -4.26398 3.06152 101 108 112
-0.77717 -4.34174 3.10821 98 100 113
-0.77766 -4.34435 3.08643 103 108 113
-0.78833 -4.36129 3.11498 92 88 99
-0.78719 -4.39578 3.12938 46 44 58
-0.80249 -4.41074 3.13376 44 56 69
-0.82865 -4.44635 3.14540 124 133 149
-0.78583 -4.53350 3.18650 213 235 237
-0.80205 -4.54822 3.19067 198 211 242
-0.82283 -4.56060 3.16984 117 138 218
-0.82767 -4.55120 3.18888 124 145 212
-0.86212 -4.54292 3.18139 105 120 207
-0.82628 -4.62394 3.21913 161 159 220
-0.83530 -4.64845 3.22820 227 236 244
-0.85888 -4.65433 3.22785 238 248 248
-0.86788 -4.67916 3.23706 206 206 232
-0.91385 -4.65567 3.22192 222 222 231
-0.93481 -4.66815 3.20092 236 236 239
-0.95955 -4.63203 3.20676 236 239 238
-0.98036 -4.64443 3.18590 238 236 240
-1.14745 -4.56181 3.15557 237 240 245
-1.12714 -4.54972 3.17592 235 237 242
-1.12763 -4.55235 3.15399 242 244 248
-1.17674 -4.55814 3.15060 180 203 222
-1.20012 -4.56253 3.14965 100 124 175
-1.22034 -4.57458 3.12938 79 86 118
-1.20093 -4.59860 3.16447 71 87 151
-1.22127 -4.61071 3.14409 81 91 118
-1.21423 -4.61737 3.17067 75 89 138
-1.23460 -4.62951 3.15025 80 91 117
-1.22989 -4.63291 3.17525 82 95 133
-1.24111 -4.65495 3.18304 84 96 131
-1.26157 -4.66713 3.16254 78 90 116
-1.26255 -4.66234 3.18357 84 95 128
-1.28300 -4.67452 3.16308 77 89 118
-1.72960 -4.57004 3.09033 56 80 114
-1.74517 -4.58479 3.09460 64 92 136
-1.76856 -4.58648 3.09254 78 114 154
-1.77318 -4.61994 3.10583 130 169 191
-1.80822 -4.64352 3.11145 167 199 133
-1.82778 -4.65517 3.09185 178 188 173
-2.38862 -4.11572 2.82474 150 171 154
-2.37244 -4.11000 2.80505 22 27 49
-2.38903 -4.11792 2.80637 152 184 192
-2.45092 -4.07386 2.80008 112 80 49
