ply
format ascii 1.0
element face 0
property list uchar int vertex_indices
element vertex 1318
property float x
property float y
property float z
property uchar diffuse_red
property uchar diffuse_green
property uchar diffuse_blue
end_header
-4.79366 -5.90010 2.06994 149 144 121
-4.79564 -5.90087 2.05095 146 140 112
-4.79761 -5.90163 2.03196 139 132 112
-4.82477 -5.97327 2.06924 145 144 139
-4.84045 -5.99872 2.07562 169 187 202
0.80198 -4.10010 1.60714 101 93 105
0.81959 -4.09070 1.58211 134 147 126
0.77401 -4.10540 1.60833 94 83 103
0.75174 -4.11660 1.58831 86 91 109
0.76360 -4.12168 1.61238 99 105 120
0.75074 -4.13648 1.61604 98 109 115
0.74485 -4.15578 1.62087 89 85 88
0.73326 -4.17153 1.62478 84 85 91
0.71084 -4.18280 1.60464 72 82 74
0.65523 -4.30983 1.65923 90 82 94
0.63980 -4.32366 1.66264 84 80 87
0.64015 -4.34826 1.66884 74 67 80
0.46061 -4.96092 1.82230 61 69 72
0.47996 -4.95059 1.79480 70 74 83
0.45803 -4.96192 1.79754 62 67 76
0.45982 -4.98944 1.82949 45 50 62
0.44725 -5.00853 1.83423 90 88 94
-0.53179 -4.43492 1.68457 181 162 140
-0.51508 -4.42600 1.66082 189 170 158
-0.53875 -4.45513 1.68962 145 121 95
-0.54119 -4.47946 1.69574 125 100 79
-0.56881 -4.48173 1.69617 71 51 43
-0.58925 -4.49029 1.69822 33 26 22
-0.60603 -4.49924 1.72206 30 25 27
-0.60826 -4.50011 1.70060 27 25 23
-0.61050 -4.50097 1.67913 26 24 18
-2.37325 -3.32538 1.39534 84 100 112
-2.37478 -3.32597 1.38066 27 36 49
-2.55178 -3.19850 1.36243 206 196 196
-2.57140 -3.19720 1.36200 216 206 194
-2.59805 -3.18828 1.35961 229 220 206
-2.59923 -3.20655 1.36421 239 234 226
-3.20069 -3.26044 1.37466 231 247 252
-3.18775 -3.25394 1.38629 250 254 254
-3.18911 -3.25446 1.37321 239 249 253
-3.21949 -3.27868 1.37916 181 197 241
-3.21996 -3.30076 1.38472 153 157 201
-3.23300 -3.30731 1.37300 145 136 133
-3.21644 -3.32888 1.39182 142 133 159
-3.22958 -3.33549 1.38002 149 140 131
-3.21982 -3.34723 1.39643 144 132 142
-3.23302 -3.35386 1.38458 152 143 131
-3.25269 -3.41759 1.41399 146 142 130
-3.24073 -3.41142 1.41250 152 146 134
-3.25128 -3.41705 1.42750 152 146 127
-3.26330 -3.42584 1.41601 132 134 125
-3.27209 -3.43695 1.41877 107 107 118
-3.27527 -3.45688 1.42378 69 69 97
-3.28872 -3.46365 1.41169 44 45 62
-3.28668 -3.46409 1.42553 34 50 66
-3.30014 -3.47085 1.41344 47 50 60
-3.29059 -3.48321 1.43033 28 44 62
-3.30410 -3.49001 1.41819 45 52 71
-3.59745 -4.02254 1.56465 22 18 17
-3.58271 -4.01513 1.57790 22 26 19
-3.58426 -4.01573 1.56301 19 17 20
-3.59590 -4.02194 1.57955 20 25 19
-3.60750 -4.03631 1.56807 31 25 27
-3.61825 -4.04865 1.57113 44 44 43
-3.63303 -4.05609 1.55784 96 90 72
-3.62967 -4.05957 1.57382 68 74 77
-3.64215 -4.06816 1.57592 87 97 70
-3.65696 -4.07560 1.56261 85 80 51
-3.65384 -4.07861 1.57849 95 93 54
-3.66867 -4.08606 1.56517 84 79 55
-4.08183 -4.13997 1.59172 94 89 67
-4.09040 -4.16020 1.59678 108 111 90
-4.10747 -4.20192 1.60720 141 152 151
-4.11740 -4.21868 1.61137 146 156 161
-4.13191 -4.22597 1.59834 157 169 181
-4.12837 -4.23217 1.61472 147 161 167
-4.13838 -4.24916 1.61894 152 168 178
-4.16259 -4.26916 1.62386 159 167 185
-4.17344 -4.28378 1.62749 153 160 169
-4.18437 -4.29832 1.63110 146 152 154
-4.19902 -4.30569 1.61793 137 132 120
-4.19379 -4.31860 1.63616 140 142 136
-4.20849 -4.32599 1.62295 136 133 121
-4.20694 -4.32539 1.63780 137 136 125
-4.22164 -4.33278 1.62459 136 137 116
-4.55317 -5.02202 1.81156 149 143 119
-4.54025 -5.01512 1.79319 149 148 119
-4.57401 -4.98898 1.80312 99 81 102
-4.59024 -4.99714 1.78854 72 70 86
-4.59094 -4.98029 1.80084 83 70 89
-4.60711 -4.98842 1.78631 69 72 81
-4.62056 -5.60118 1.95717 58 66 70
-4.60244 -5.59207 1.97345 63 73 86
-4.60434 -5.59280 1.95514 60 65 75
-4.61865 -5.60044 1.97548 58 70 77
-4.63606 -5.61534 1.96066 75 76 86
-4.65119 -5.63291 1.96500 95 98 97
-4.66937 -5.64205 1.94867 152 145 118
-4.66680 -5.64693 1.96846 126 128 119
-4.68499 -5.65607 1.95211 151 142 114
-4.68168 -5.66768 1.97361 148 140 113
-4.69992 -5.67685 1.95722 153 139 110
-4.75055 -5.84074 2.01686 138 133 121
-4.73384 -5.83210 2.01477 155 149 121
-4.76443 -5.87944 2.02654 112 101 112
-4.77910 -5.91170 2.03460 133 127 108
-4.80983 -5.96485 2.04783 138 134 117
-4.82557 -5.98880 2.05378 151 157 149
-4.84127 -6.01457 2.06020 184 203 213
-4.86036 -6.02416 2.04305 220 233 244
-4.85666 -6.04593 2.06802 212 227 241
-4.87582 -6.05556 2.05080 220 231 243
0.79842 -4.10025 1.58441 131 134 122
0.81602 -4.09085 1.55939 90 89 80
0.77456 -4.10812 1.58629 103 102 92
0.75428 -4.14112 1.59442 89 98 96
0.74518 -4.15840 1.59869 87 90 89
0.73573 -4.17554 1.60292 79 83 79
0.71329 -4.18682 1.58276 79 76 79
0.67887 -4.30405 1.63468 95 96 104
0.69923 -4.29353 1.63214 83 85 94
0.69684 -4.29446 1.60915 85 88 92
0.66184 -4.31681 1.63780 103 104 107
0.64392 -4.32899 1.64076 94 93 95
0.64533 -4.35435 1.64708 78 78 81
0.64340 -4.37761 1.65286 56 49 63
0.50445 -5.02886 1.81436 56 59 60
0.48366 -5.04147 1.81742 58 54 58
0.44631 -5.04045 1.81703 127 125 126
0.37153 -5.00824 1.80876 171 160 152
0.34702 -5.02056 1.78673 176 166 151
-0.52219 -4.44602 1.66577 191 170 148
-0.50544 -4.43708 1.64196 187 169 161
-0.51843 -4.47567 1.67316 159 133 105
-0.53063 -4.49155 1.67707 131 110 82
-0.54811 -4.50286 1.67982 88 74 47
-0.57882 -4.50241 1.67960 43 34 19
-2.40135 -3.31857 1.37872 70 81 99
-2.46946 -3.26747 1.36577 133 141 159
-2.56450 -3.20662 1.35030 210 200 193
-2.56596 -3.20718 1.33633 176 179 196
-2.57834 -3.21357 1.33788 209 199 195
-2.59620 -3.19236 1.34664 220 210 198
-2.60994 -3.19926 1.33430 220 207 197
-2.60355 -3.20402 1.34952 231 224 216
-2.60810 -3.21879 1.35318 239 231 226
-2.62044 -3.22516 1.35472 241 232 229
-2.62190 -3.22572 1.34078 237 229 223
-3.18467 -3.24096 1.35666 241 251 254
-3.17176 -3.23447 1.36826 252 254 254
-3.17312 -3.23499 1.35522 245 250 254
-3.18331 -3.24044 1.36971 252 254 254
-3.19503 -3.24860 1.35853 227 243 253
-3.20848 -3.27430 1.36487 156 167 214
-3.22146 -3.28082 1.35321 145 135 127
-3.20112 -3.30750 1.37316 137 137 168
-3.21422 -3.31408 1.36139 152 141 118
-3.20486 -3.32509 1.37752 140 131 142
-3.21801 -3.33170 1.36570 155 144 128
-3.24144 -3.38887 1.39325 144 145 132
-3.22955 -3.38272 1.39177 150 145 131
-3.24004 -3.38833 1.40668 152 146 135
-3.24474 -3.40802 1.39801 129 134 118
-3.25789 -3.41235 1.39904 103 104 99
-3.26694 -3.42295 1.40164 63 66 84
-3.28030 -3.42967 1.38964 43 47 63
-3.27368 -3.43721 1.40516 33 42 71
-3.28707 -3.44395 1.39313 50 50 69
-3.28108 -3.45056 1.40846 34 37 70
-3.29451 -3.45731 1.39639 50 50 69
-3.57959 -3.99451 1.54271 20 17 34
-3.56491 -3.98713 1.55590 19 25 22
-3.56646 -3.98772 1.54107 13 22 24
-3.57805 -3.99391 1.55754 21 21 24
-3.59160 -4.00374 1.54496 32 24 48
-3.60553 -4.00880 1.54617 49 53 66
-3.62021 -4.01618 1.53298 92 87 75
-3.61523 -4.02322 1.54972 86 86 71
-3.62368 -4.04057 1.55401 101 99 71
-3.64371 -4.06876 1.56095 88 83 67
-3.64527 -4.06936 1.54598 84 80 53
-3.65852 -4.07620 1.54764 81 80 51
-3.72442 -4.44137 1.65335 81 60 30
-3.70854 -4.43339 1.66762 75 70 47
-3.71022 -4.43404 1.65157 78 64 38
-3.72275 -4.44073 1.66939 75 70 45
-3.73696 -4.44807 1.67117 77 66 47
-3.74929 -4.42026 1.64801 85 69 54
-3.76174 -4.42691 1.66571 80 64 54
-3.76340 -4.42755 1.64977 88 81 67
-3.76506 -4.42819 1.63384 94 88 66
-4.04765 -4.11236 1.57038 91 80 68
-4.03337 -4.10518 1.58321 93 88 69
-4.03487 -4.10576 1.56878 92 82 70
-4.04614 -4.11178 1.58480 92 89 65
-4.05984 -4.12077 1.57242 93 87 80
-4.07118 -4.13193 1.57516 114 114 107
-4.07920 -4.15371 1.58055 135 143 128
-4.08849 -4.17179 1.58501 145 157 148
-4.10290 -4.17903 1.57207 157 169 184
-4.09876 -4.18698 1.58876 149 159 163
-4.11320 -4.19424 1.57578 157 171 180
-4.10896 -4.20263 1.59261 149 159 170
-4.11939 -4.21772 1.59633 153 162 177
-4.14218 -4.24196 1.60228 155 171 180
-4.15246 -4.25816 1.60627 152 159 171
-4.16065 -4.28201 1.61217 145 144 151
-4.17529 -4.28937 1.59902 136 131 116
-4.16906 -4.30549 1.61799 140 136 138
-4.18376 -4.31288 1.60478 138 132 111
-4.18199 -4.31309 1.61983 138 134 125
-4.19670 -4.32048 1.60662 138 133 110
-4.55639 -5.01302 1.79261 140 136 106
-4.57273 -5.02123 1.77793 75 72 74
-4.57523 -4.99283 1.78752 85 74 86
-4.59147 -5.00099 1.77293 63 71 80
-4.60792 -5.58062 1.93361 74 70 72
-4.58984 -5.57153 1.94985 61 68 74
-4.59174 -5.57227 1.93159 57 67 55
-4.62274 -5.59975 1.93832 91 91 87
-4.63956 -5.60306 1.93908 125 123 111
-4.65766 -5.61216 1.92282 152 143 117
-4.65481 -5.61938 1.94309 149 144 113
-4.67293 -5.62849 1.92680 150 145 121
-4.73861 -5.80479 1.98891 152 143 125
-4.72198 -5.79620 1.98683 152 143 119
-4.72394 -5.79695 1.96806 150 139 119
-4.75041 -5.86328 2.00342 107 103 111
-4.76683 -5.87572 2.00645 95 91 108
-4.77926 -5.93268 2.02058 131 130 117
-4.79818 -5.94219 2.00357 153 151 119
-4.79397 -5.96688 2.02903 147 140 121
-4.81034 -5.98327 2.03305 143 143 129
-4.82369 -6.03757 2.04651 172 181 188
0.79384 -4.09977 1.56154 90 91 101
0.81143 -4.09037 1.53652 88 88 82
0.79149 -4.10067 1.53901 85 83 81
0.77280 -4.10939 1.56386 98 106 116
0.75051 -4.12059 1.54383 85 87 99
0.76181 -4.12533 1.56775 96 108 100
0.73949 -4.13655 1.54769 88 88 95
0.75332 -4.14291 1.57205 92 98 87
0.74741 -4.16223 1.57678 87 78 83
0.73741 -4.17904 1.58089 84 73 77
0.68023 -4.30749 1.61231 91 94 103
0.67783 -4.30841 1.58931 70 72 79
0.66576 -4.32198 1.61585 107 114 116
0.64296 -4.33344 1.59536 95 99 92
0.65230 -4.33721 1.61956 98 95 100
0.65393 -4.36278 1.62584 83 69 74
0.65578 -4.38868 1.63220 64 45 50
0.65945 -4.41601 1.63891 54 46 42
0.55849 -5.04629 1.79343 64 70 77
0.58081 -5.03476 1.79064 69 73 82
0.57818 -5.03577 1.76544 76 79 88
0.55586 -5.04730 1.76822 75 78 82
0.54241 -5.06290 1.79748 66 67 61
0.50912 -5.06547 1.79805 35 45 43
0.51596 -5.10103 1.80679 95 97 100
0.40188 -5.03655 1.79076 156 152 142
-0.50210 -4.46625 1.64913 192 173 156
-0.48527 -4.45726 1.62521 185 169 160
-0.50434 -4.46712 1.62759 189 173 158
-0.51543 -4.48111 1.65275 173 154 129
-0.52275 -4.50132 1.65770 138 118 90
-0.53844 -4.51426 1.66085 113 91 63
-0.56465 -4.51788 1.66169 60 45 31
-0.58453 -4.52709 1.66391 28 26 25
-0.60141 -4.53610 1.68790 26 23 32
-0.60366 -4.53696 1.66630 27 24 33
-0.60591 -4.53783 1.64470 28 25 29
-2.46127 -3.29820 1.35886 116 124 156
-3.16601 -3.22533 1.33969 243 252 254
-3.15312 -3.21885 1.35127 252 254 254
-3.15447 -3.21937 1.33825 245 252 254
-3.16465 -3.22481 1.35272 253 254 254
-3.17626 -3.23306 1.34157 232 244 253
-3.18593 -3.24163 1.34366 207 221 249
-3.20289 -3.24001 1.34322 171 179 228
-3.21577 -3.24648 1.33165 139 130 135
-3.18913 -3.28169 1.35348 141 139 174
-3.20217 -3.28825 1.34177 147 139 130
-3.19669 -3.29357 1.35638 138 129 145
-3.20975 -3.30013 1.34465 151 144 126
-3.22372 -3.37021 1.37515 144 147 129
-3.21186 -3.36408 1.37366 152 148 131
-3.23164 -3.38223 1.37808 126 130 121
-3.24447 -3.38695 1.37922 97 94 93
-3.25776 -3.39363 1.36728 31 42 64
-3.25527 -3.39474 1.38111 58 58 71
-3.26856 -3.40142 1.36917 40 50 57
-3.26146 -3.40959 1.38474 31 43 67
-3.27478 -3.41629 1.37277 40 53 53
-3.27054 -3.42011 1.38731 33 42 62
-3.28389 -3.42682 1.37532 45 52 59
-3.46887 -3.98868 1.52650 40 36 42
-3.45402 -3.98121 1.53984 29 35 31
-3.45558 -3.98182 1.52484 37 36 35
-3.46730 -3.98807 1.54150 24 32 42
-3.48059 -3.99493 1.54316 21 29 42
-3.48967 -3.98021 1.52439 35 32 41
-3.50134 -3.98644 1.54098 21 27 35
-3.51111 -3.97015 1.52188 27 23 28
-3.52272 -3.97635 1.53839 20 25 32
-3.52427 -3.97695 1.52352 19 21 17
-3.55737 -3.97624 1.52329 14 23 21
-3.54271 -3.96887 1.53646 17 25 27
-3.54425 -3.96947 1.52165 15 22 14
-3.55582 -3.97565 1.53810 14 26 18
-3.57003 -3.98398 1.52517 21 29 39
-3.58855 -3.97911 1.52394 45 53 59
-3.60317 -3.98646 1.51080 90 86 76
-3.59693 -3.99609 1.52809 80 84 86
-3.60873 -4.00576 1.53044 93 92 86
-3.62599 -4.03946 1.53868 90 83 69
-3.62754 -4.04006 1.52378 85 78 53
-3.64074 -4.04688 1.52543 83 78 49
-3.63369 -4.05872 1.54339 86 79 57
-3.64849 -4.06616 1.53010 82 78 47
-3.71029 -4.39471 1.62572 74 61 38
-3.69454 -4.38679 1.63988 76 68 52
-3.69620 -4.38743 1.62396 76 62 44
-3.70864 -4.39407 1.64164 76 66 44
-3.71195 -4.39535 1.60981 90 86 44
-3.73307 -4.37929 1.62190 82 73 60
-3.74874 -4.38716 1.60782 95 89 68
-3.74525 -4.39139 1.62485 88 83 64
-3.76093 -4.39928 1.61075 93 88 69
-3.75426 -4.41206 1.62990 92 87 62
-3.76999 -4.41997 1.61576 95 88 77
-4.01393 -4.12871 1.55988 94 81 57
-3.99953 -4.12147 1.57281 93 88 66
-4.00105 -4.12206 1.55827 89 82 53
-4.01241 -4.12812 1.57442 92 87 69
-4.03288 -4.11692 1.55695 98 89 65
-4.04886 -4.11385 1.55617 118 122 99
-4.05883 -4.12918 1.55991 147 159 146
-4.07314 -4.13638 1.54705 164 175 188
-4.06970 -4.14189 1.56301 160 171 170
-4.08404 -4.14910 1.55013 162 171 189
-4.08174 -4.15103 1.56524 159 166 177
-4.09131 -4.16819 1.56943 156 164 184
-4.12106 -4.21783 1.58156 155 166 180
-4.13041 -4.23683 1.58621 149 157 166
-4.13944 -4.25722 1.59120 141 147 142
-4.15404 -4.26456 1.57808 135 132 114
-4.14841 -4.27821 1.59633 136 136 131
-4.16305 -4.28558 1.58317 138 133 111
-4.15898 -4.29392 1.60017 136 132 122
-4.17366 -4.30130 1.58697 137 134 106
-4.54066 -5.02405 1.77868 151 148 119
-4.52426 -5.01580 1.79342 149 146 130
-4.52599 -5.01647 1.77685 149 146 130
-4.52771 -5.01713 1.76028 148 144 125
-4.55469 -5.03574 1.78153 128 126 102
-4.57111 -5.04399 1.76678 66 66 65
-4.59318 -5.57650 1.91419 87 90 66
-4.61067 -5.57476 1.91373 119 121 94
-4.62872 -5.58384 1.89751 151 144 113
-4.62565 -5.59245 1.91804 146 138 111
-4.64374 -5.60155 1.90179 152 143 115
-4.64160 -5.60275 1.92054 155 143 114
-4.65969 -5.61185 1.90429 151 141 121
-4.75202 -5.86781 1.98540 103 92 98
-4.76838 -5.88101 1.98861 110 112 104
-4.78716 -5.89045 1.97174 151 150 124
-4.77846 -5.96438 2.00905 140 142 121
-4.79749 -5.97395 1.99196 155 149 122
-4.81158 -5.99312 2.01605 150 147 129
-4.82387 -6.06120 2.03274 182 192 208
-4.84040 -6.07921 2.03713 214 232 247
-4.85970 -6.08891 2.01979 211 226 244
0.77281 -4.11177 1.54170 82 85 89
0.79042 -4.10237 1.51668 87 84 86
0.77047 -4.11268 1.51917 83 86 85
0.75052 -4.12298 1.52166 85 88 94
0.74523 -4.16326 1.55416 91 95 103
0.76292 -4.15381 1.52901 91 89 94
0.73725 -4.18136 1.55855 91 95 110
0.73781 -4.20508 1.56429 85 74 81
0.72002 -4.21458 1.58958 80 76 85
0.72912 -4.22295 1.56862 84 77 76
0.71129 -4.23246 1.59396 91 84 94
0.71970 -4.24043 1.57285 95 92 90
0.70184 -4.24996 1.59823 93 87 100
0.69945 -4.25088 1.57538 93 91 96
0.69850 -4.27409 1.58100 90 87 92
0.70089 -4.27316 1.60393 88 82 90
0.68432 -4.28865 1.58452 82 81 88
0.65810 -4.31937 1.59196 85 86 79
0.65570 -4.32029 1.56895 78 80 76
0.65526 -4.36626 1.60331 96 92 77
0.64484 -4.40855 1.61355 58 50 43
0.57567 -5.09315 1.77933 76 71 72
0.59551 -5.08256 1.75113 75 79 81
0.53273 -5.08800 1.77808 53 55 56
0.52058 -5.10803 1.78293 68 67 71
0.50787 -5.12770 1.78769 135 132 128
0.39131 -5.06072 1.77145 172 160 151
0.37180 -5.07114 1.79919 180 166 154
0.36919 -5.07214 1.77422 181 165 155
0.36659 -5.07314 1.74924 179 164 148
-0.50746 -4.49091 1.63335 187 168 147
-0.49057 -4.48189 1.60935 184 170 158
-0.51325 -4.51252 1.63858 151 132 107
-0.52162 -4.53200 1.64330 128 107 82
-0.54025 -4.54248 1.64584 73 62 42
-0.57470 -4.53879 1.64494 34 31 26
-0.59613 -4.54956 1.62568 28 27 21
-2.45292 -3.30919 1.34694 39 47 86
-2.44159 -3.30314 1.33083 20 23 33
-2.45443 -3.30977 1.33244 19 20 43
-2.46727 -3.31640 1.33404 33 42 75
-2.45883 -3.32319 1.35032 92 109 146
-2.47170 -3.32983 1.35193 169 174 189
-3.11741 -3.20711 1.32213 245 251 252
-3.10449 -3.20062 1.33374 254 254 254
-3.10585 -3.20114 1.32069 254 254 254
-3.11605 -3.20659 1.33518 254 254 254
-3.12760 -3.21255 1.33662 252 254 254
-3.13163 -3.20950 1.32271 237 236 245
-3.14181 -3.21494 1.33718 250 254 254
-3.14317 -3.21547 1.32415 237 236 244
-3.15667 -3.21875 1.32495 235 242 250
-3.16769 -3.22540 1.32656 211 225 252
-3.19011 -3.21630 1.32435 178 189 237
-3.17073 -3.26522 1.33620 147 145 194
-3.18375 -3.27176 1.32450 147 136 127
-3.17644 -3.27957 1.33967 134 125 151
-3.18949 -3.28613 1.32794 151 143 131
-3.21842 -3.33365 1.35276 143 144 134
-3.20665 -3.32757 1.35129 150 145 128
-3.21994 -3.35479 1.35788 125 126 124
-3.23117 -3.36179 1.35958 95 85 100
-3.24439 -3.36843 1.34769 41 43 58
-3.23843 -3.37472 1.36271 55 54 79
-3.25168 -3.38138 1.35080 46 53 53
-3.24677 -3.38614 1.36547 29 42 68
-3.26004 -3.39282 1.35354 47 53 55
-3.44749 -4.00177 1.51453 46 47 40
-3.43256 -3.99427 1.52794 33 39 34
-3.43413 -3.99488 1.51286 35 40 36
-3.43570 -3.99548 1.49778 33 37 32
-3.45661 -4.01723 1.51827 64 67 43
-3.47123 -4.02162 1.51933 66 66 43
-3.50314 -3.99034 1.51176 46 39 34
-3.52628 -3.97659 1.50842 29 20 18
-3.54228 -3.97745 1.50863 29 22 15
-3.55897 -3.97671 1.50845 41 41 35
-3.57363 -3.98408 1.49528 89 83 54
-3.57601 -3.97509 1.50805 65 69 59
-3.59064 -3.98245 1.49491 87 80 57
-3.58999 -3.97992 1.50922 89 86 66
-3.60461 -3.98727 1.49609 84 79 55
-3.61659 -3.99246 1.51225 88 84 70
-3.61813 -3.99305 1.49749 84 78 50
-3.63120 -3.99981 1.49912 84 78 44
-3.62733 -4.00440 1.51515 87 80 60
-3.64196 -4.01176 1.50200 81 77 38
-3.68564 -4.37605 1.60514 79 64 31
-3.66990 -4.36814 1.61928 75 70 48
-3.67156 -4.36878 1.60338 77 66 39
-3.68398 -4.37541 1.62103 73 67 52
-3.70137 -4.38396 1.59100 97 91 65
-3.71415 -4.34632 1.59794 86 73 45
-3.72974 -4.35416 1.58393 96 89 59
-3.98722 -4.12323 1.54388 93 81 61
-3.97280 -4.11598 1.55683 94 86 67
-3.97432 -4.11656 1.54226 89 82 62
-3.98570 -4.12264 1.55844 91 85 61
-3.99879 -4.13382 1.54644 99 93 73
-4.02625 -4.09687 1.53749 115 118 102
-4.03654 -4.11097 1.54090 128 134 120
-4.04838 -4.12052 1.54321 145 157 151
-4.06063 -4.12882 1.54522 163 176 184
-4.09312 -4.16782 1.55466 160 171 189
-4.09464 -4.16840 1.54013 148 152 151
-4.10751 -4.17505 1.54173 139 143 138
-4.10342 -4.18288 1.55831 155 167 177
-4.11784 -4.19012 1.54535 135 134 121
-4.11175 -4.20465 1.56358 148 156 155
-4.12622 -4.21193 1.55057 135 133 118
-4.11998 -4.22716 1.56903 139 143 145
-4.13451 -4.23447 1.55597 136 132 113
-4.12948 -4.24575 1.57353 133 135 136
-4.14406 -4.25308 1.56043 136 133 106
-4.13853 -4.26623 1.57849 133 133 119
-4.15316 -4.27359 1.56534 139 133 108
-4.53740 -5.05626 1.76976 153 150 121
-4.52437 -5.04930 1.75123 149 146 123
-4.53914 -5.05693 1.75308 153 148 124
-4.55391 -5.06456 1.75492 100 86 87
-4.55308 -5.05802 1.77018 116 111 103
-4.58045 -5.55742 1.89111 111 110 91
-4.59850 -5.56649 1.87490 150 147 115
-4.59823 -5.55334 1.89012 142 138 107
-4.61624 -5.56239 1.87394 152 145 113
-4.61230 -5.57756 1.89599 152 147 110
-4.63036 -5.58664 1.87976 151 143 114
-4.74801 -5.93096 1.98155 135 127 115
-4.73303 -5.92296 1.96026 150 144 121
-4.75000 -5.93173 1.96238 148 145 124
-4.76698 -5.94050 1.96450 149 144 132
-4.76250 -5.96651 1.99016 143 141 122
-4.78156 -5.97610 1.97303 151 142 128
-4.81214 -6.01131 2.00100 153 150 134
-4.82504 -6.07264 2.01585 190 202 206
-4.84116 -6.09653 2.02164 217 231 244
-4.86051 -6.10626 2.00425 219 230 242
0.75204 -4.17002 1.53290 103 96 99
0.74365 -4.18790 1.53718 106 102 105
0.73777 -4.20750 1.54187 96 97 100
0.72649 -4.22370 1.54576 86 92 97
0.71742 -4.24141 1.55001 73 81 79
0.70532 -4.25722 1.55380 71 81 78
0.70133 -4.27846 1.55888 91 101 86
0.68987 -4.29486 1.56282 97 100 90
0.67432 -4.30859 1.56612 86 82 85
0.64931 -4.34030 1.57373 90 85 92
0.65089 -4.36585 1.57984 106 102 89
0.64182 -4.38428 1.58425 107 102 89
0.63149 -4.40194 1.58849 82 78 72
0.62203 -4.42029 1.59289 53 34 41
0.59123 -5.10902 1.75746 78 76 78
0.56235 -5.11548 1.75905 73 63 67
0.53717 -5.12814 1.73642 53 53 60
0.52884 -5.11805 1.75971 47 45 64
0.54345 -5.16048 1.76983 107 106 114
0.42225 -5.08976 1.75312 161 150 147
-0.49837 -4.50168 1.61409 191 173 158
-0.48145 -4.49265 1.59003 182 168 155
-0.50063 -4.50255 1.59243 188 171 158
-0.50013 -4.52692 1.62012 165 148 127
-0.52886 -4.52847 1.62054 137 119 93
-0.54703 -4.53933 1.62316 94 85 55
-0.57074 -4.54523 1.62461 47 41 23
-3.10160 -3.20910 1.30941 251 251 253
-3.08865 -3.20259 1.32104 254 254 254
-3.09001 -3.20312 1.30796 253 254 254
-3.11729 -3.20960 1.30955 216 228 249
-3.13226 -3.21100 1.30991 215 227 249
-3.14642 -3.21342 1.31051 226 245 250
-3.15822 -3.21901 1.31186 201 215 241
-3.15170 -3.24976 1.31920 161 154 201
-3.16470 -3.25629 1.30752 140 134 129
-3.16050 -3.25968 1.32158 136 126 154
-3.17352 -3.26622 1.30989 148 141 127
-3.17114 -3.26710 1.32337 137 128 133
-3.20165 -3.31428 1.33469 139 145 129
-3.18991 -3.30822 1.33322 151 148 139
-3.20416 -3.33372 1.33934 120 122 115
-3.21989 -3.33406 1.33944 86 81 102
-3.23304 -3.34067 1.32762 39 46 67
-3.22856 -3.34470 1.34200 51 52 85
-3.24173 -3.35132 1.33016 45 49 54
-3.23310 -3.36153 1.34603 37 39 70
-3.24632 -3.36818 1.33415 49 51 53
-3.44425 -4.01202 1.50175 43 43 39
-3.43244 -4.00571 1.48496 31 34 21
-3.45631 -4.02163 1.50406 65 65 49
-3.46666 -4.03478 1.50722 84 83 57
-3.48166 -4.04232 1.49374 95 88 67
-3.48573 -4.03006 1.50612 84 78 60
-3.50259 -4.02971 1.50607 77 69 56
-3.52638 -4.01468 1.50251 83 73 50
-3.55566 -3.98759 1.49609 89 85 50
-3.69545 -4.31357 1.57418 82 76 64
-3.67993 -4.30577 1.58812 73 69 37
-3.68320 -4.30703 1.55677 87 91 72
-3.69708 -4.31420 1.55850 98 93 61
-3.71096 -4.32137 1.56024 96 87 68
-3.96670 -4.05660 1.51322 93 82 57
-3.95247 -4.04944 1.52601 94 85 62
-3.95396 -4.05002 1.51163 91 83 65
-3.96521 -4.05602 1.52760 94 86 60
-3.97794 -4.06260 1.52919 88 86 64
-3.97222 -4.08389 1.51974 93 82 57
-3.97777 -4.11155 1.52636 97 95 79
-4.00529 -4.07525 1.51773 112 119 112
-4.01953 -4.08240 1.50494 144 155 160
-4.01531 -4.08991 1.52125 135 144 135
-4.02578 -4.10336 1.52448 140 147 139
-4.04007 -4.11055 1.51164 158 171 176
-4.03805 -4.11154 1.52645 138 148 156
-4.05028 -4.11987 1.52846 149 162 177
-4.06212 -4.12946 1.53077 160 172 187
-4.07644 -4.13666 1.51791 146 146 142
-4.07283 -4.14271 1.53395 159 172 183
-4.08717 -4.14992 1.52107 139 138 116
-4.58482 -5.53972 1.86848 152 147 111
-4.60281 -5.54877 1.85232 148 146 104
-4.79560 -6.02001 1.98354 152 142 127
-4.78045 -6.01193 1.96202 151 141 120
-4.81318 -6.02383 1.98448 160 158 149
-4.82407 -6.11107 2.00534 199 214 218
-4.84350 -6.12083 1.98788 227 235 242
-4.84172 -6.11656 2.00668 223 238 247
-4.86114 -6.12632 1.98923 217 224 236
0.75833 -4.15330 1.50603 95 89 90
0.77838 -4.14294 1.50353 82 81 82
0.77068 -4.18434 1.51330 135 131 127
0.74591 -4.19179 1.51514 140 146 137
0.73429 -4.20770 1.51893 109 115 115
0.71175 -4.21904 1.49867 110 102 105
0.72372 -4.22436 1.52289 92 86 89
0.71137 -4.23993 1.52659 90 81 81
0.70816 -4.26158 1.53170 94 90 84
0.70258 -4.28179 1.53649 104 109 91
0.69424 -4.30029 1.54087 111 112 101
0.66159 -4.35119 1.55297 95 93 102
0.65305 -4.36990 1.55741 119 118 122
0.63434 -4.38174 1.56026 123 123 121
0.65152 -4.41839 1.56883 82 71 88
0.64720 -4.44041 1.57404 48 36 52
0.62405 -4.45204 1.55324 59 40 61
0.64560 -5.12634 1.73564 80 82 81
0.67095 -5.11360 1.75843 74 81 88
0.66829 -5.11462 1.73281 72 80 91
0.61161 -5.12884 1.73634 83 87 82
0.56547 -5.12124 1.73470 82 79 73
0.51211 -5.13767 1.73875 73 76 77
0.46101 -5.12539 1.73602 138 138 134
0.41056 -5.11336 1.73335 174 162 143
0.39089 -5.12386 1.76132 183 165 153
0.38826 -5.12487 1.73614 181 166 148
0.38564 -5.12588 1.71096 179 164 144
-0.50162 -4.52847 1.59854 181 161 142
-0.48463 -4.51940 1.57439 186 170 157
-0.52845 -4.53171 1.59939 146 125 101
-0.55730 -4.53306 1.59980 119 102 69
-0.56390 -4.55426 1.60482 65 53 30
-0.56746 -4.57836 1.61051 31 26 26
-0.58449 -4.58745 1.63471 26 26 31
-0.58676 -4.58832 1.61292 28 25 28
-0.58903 -4.58920 1.59112 31 22 31
-3.05834 -3.20446 1.29496 253 254 254
-3.04533 -3.19793 1.30665 254 254 254
-3.04670 -3.19845 1.29351 254 254 254
-3.05697 -3.20394 1.30810 254 254 254
-3.06860 -3.20995 1.30956 254 254 254
-3.06997 -3.21047 1.29642 254 254 254
-3.08667 -3.20982 1.29632 250 249 251
-3.10201 -3.21089 1.29662 237 230 244
-3.11779 -3.21128 1.29676 206 204 244
-3.13273 -3.21271 1.29715 206 208 251
-3.13179 -3.23561 1.30254 173 162 228
-3.14477 -3.24213 1.29087 139 132 135
-3.13687 -3.25052 1.30607 138 134 165
-3.14989 -3.25707 1.29437 146 140 142
-3.14777 -3.25757 1.30777 132 123 147
-3.17877 -3.28122 1.31344 151 144 136
-3.18774 -3.29108 1.31579 139 139 132
-3.19847 -3.29850 1.31758 115 113 129
-3.20906 -3.30615 1.31941 71 68 100
-3.22214 -3.31272 1.30766 43 46 70
-3.21063 -3.32688 1.32430 41 39 78
-3.22378 -3.33349 1.31249 47 52 73
-3.22383 -3.33085 1.32528 34 38 75
-3.23697 -3.33745 1.31348 45 54 67
-3.43975 -4.02482 1.48948 36 36 24
-3.42790 -4.01850 1.47264 30 35 25
-3.45454 -4.02902 1.49052 57 59 50
-3.46865 -4.03454 1.49187 84 82 69
-3.48364 -4.04208 1.47839 92 85 67
-3.51094 -4.01620 1.48768 102 93 64
-3.53586 -3.99864 1.48363 104 94 64
-3.55733 -3.98794 1.48118 97 87 59
-3.58234 -3.96931 1.47687 88 79 58
-3.59540 -3.97605 1.47850 84 77 60
-3.94712 -4.03182 1.49279 92 83 59
-3.93293 -4.02469 1.50554 92 88 48
-3.93442 -4.02527 1.49120 90 86 57
-3.94563 -4.03125 1.50713 91 87 54
-3.95881 -4.04121 1.49504 98 89 71
-3.96949 -4.05351 1.49797 106 102 93
-3.98451 -4.05352 1.49802 114 119 109
-3.99660 -4.06186 1.50003 126 133 125
-4.00610 -4.07785 1.50383 133 141 143
-4.02034 -4.08501 1.49103 157 170 178
-4.02810 -4.10151 1.50947 154 167 168
-4.05205 -4.11965 1.51383 158 168 176
-4.05355 -4.12023 1.49938 142 145 134
-4.06635 -4.12684 1.50098 133 132 120
-4.06386 -4.12933 1.51614 154 158 165
-4.07817 -4.13652 1.50328 131 132 116
-4.79622 -6.03703 1.96798 149 139 129
-4.78104 -6.02892 1.94640 152 140 121
-4.81600 -6.01488 1.96283 171 172 172
-4.82554 -6.11914 1.98742 209 223 228
-4.84499 -6.12892 1.96994 221 226 238
0.76602 -4.13754 1.47947 84 80 82
0.78839 -4.12630 1.49957 80 82 88
0.78604 -4.12720 1.47697 81 82 78
0.78368 -4.12811 1.45436 100 98 99
0.76367 -4.13845 1.45686 95 94 96
0.76009 -4.15682 1.48398 97 90 94
0.77070 -4.18679 1.49089 130 135 133
0.74327 -4.19253 1.49236 138 157 149
0.72076 -4.20385 1.47213 102 92 101
0.73810 -4.21261 1.49705 123 121 115
0.71955 -4.24776 1.50530 126 121 110
0.72264 -4.27361 1.51129 123 126 111
0.71143 -4.29016 1.51520 111 106 114
0.68870 -4.32329 1.52300 102 104 98
0.67791 -4.34036 1.52702 94 93 96
0.66126 -4.35352 1.53016 105 111 109
0.64989 -4.37032 1.53412 110 117 106
0.65212 -4.39655 1.54020 105 104 89
0.62911 -4.40812 1.51952 84 75 90
0.65801 -4.42549 1.54690 84 80 92
0.65727 -4.45004 1.55260 74 68 78
0.64906 -4.49492 1.56307 86 75 59
0.67518 -5.12337 1.70894 78 86 104
0.70058 -5.11060 1.73176 73 78 98
0.69791 -5.11163 1.70610 77 78 97
0.69523 -5.11266 1.68044 94 92 96
0.62015 -5.13901 1.71284 116 120 111
0.61048 -5.16142 1.71810 110 110 88
0.56333 -5.15298 1.71637 74 71 46
0.53802 -5.16570 1.69363 39 48 51
0.53867 -5.16299 1.71882 39 45 42
0.52984 -5.18624 1.72426 110 117 111
0.42738 -5.13075 1.71188 165 152 140
-0.49598 -4.53631 1.57837 189 171 148
-0.47896 -4.52722 1.55418 184 168 158
-0.50578 -4.55468 1.58269 157 137 106
-0.55725 -4.56313 1.58491 87 72 41
-0.56711 -4.58160 1.58925 46 29 33
-0.58870 -4.59245 1.56985 33 20 30
-2.75596 -3.16472 1.27096 234 225 215
-2.74257 -3.15799 1.28298 235 228 217
-2.74398 -3.15853 1.26946 224 213 198
-2.76652 -3.17036 1.28597 251 247 244
-2.77907 -3.15827 1.26957 245 242 236
-2.78959 -3.16388 1.28452 252 249 243
-2.79099 -3.16442 1.27106 250 248 245
-3.04024 -3.18811 1.27780 250 253 251
-3.02725 -3.18158 1.28947 252 248 252
-3.02862 -3.18211 1.27635 253 253 253
-3.03887 -3.18758 1.29092 254 254 254
-3.04905 -3.19771 1.28008 237 238 245
-3.06356 -3.20000 1.28068 222 216 245
-3.07314 -3.20866 1.28274 223 241 252
-3.08617 -3.21281 1.28377 240 249 253
-3.10403 -3.21054 1.28333 210 226 243
-3.10613 -3.22919 1.28768 169 176 218
-3.11914 -3.23573 1.27599 143 127 140
-3.11414 -3.24009 1.29025 142 142 186
-3.12717 -3.24663 1.27854 145 141 132
-3.12544 -3.24659 1.29181 128 118 152
-3.16092 -3.26396 1.29602 145 148 132
-3.17235 -3.27029 1.29755 136 142 126
-3.17553 -3.28824 1.30174 113 105 119
-3.18253 -3.30095 1.30473 68 70 82
-3.19564 -3.30754 1.29295 44 50 61
-3.19780 -3.30196 1.30504 40 46 73
-3.21088 -3.30854 1.29328 41 53 61
-3.20712 -3.31145 1.30729 36 39 72
-3.22022 -3.31803 1.29551 45 52 59
-3.43603 -4.03608 1.47676 32 35 23
-3.42415 -4.02973 1.45987 28 34 18
-3.44811 -4.04588 1.47910 54 56 52
-3.46557 -4.04468 1.47891 81 81 75
-3.48061 -4.05224 1.46540 87 81 67
-3.50880 -4.02453 1.47444 99 91 67
-3.53351 -4.00745 1.47059 110 102 88
-3.54832 -4.01489 1.45729 118 118 86
-3.55730 -3.99190 1.46710 117 111 92
-3.60615 -3.95669 1.45916 95 77 74
-3.61762 -3.96281 1.47545 79 76 48
-3.62887 -3.94213 1.45589 79 73 59
-3.64026 -3.94821 1.47209 81 75 35
-3.64178 -3.94880 1.45751 79 72 42
-3.93274 -3.99342 1.46932 92 78 58
-3.91865 -3.98633 1.48198 94 84 54
-3.92013 -3.98691 1.46774 90 80 57
-3.93126 -3.99285 1.48355 91 85 60
-3.94137 -4.01087 1.47341 94 88 67
-3.95009 -4.02829 1.47751 110 112 104
-3.95912 -4.04512 1.48146 140 154 135
-3.97111 -4.05376 1.48353 150 151 124
-3.98459 -4.05816 1.48461 141 141 134
-3.99880 -4.06531 1.47184 158 172 183
-3.99558 -4.06976 1.48736 144 152 160
-4.00687 -4.08058 1.48993 155 165 171
-4.02112 -4.08774 1.47713 149 155 157
-4.04178 -4.11053 1.49706 150 160 164
-4.03049 -4.10451 1.48103 138 142 137
-4.04328 -4.11111 1.48263 136 135 124
-4.05606 -4.11771 1.48423 134 130 107
-4.79567 -6.06807 1.95556 150 137 126
-4.78040 -6.05992 1.93386 156 143 126
-4.81203 -6.08843 1.96038 177 182 184
-4.82580 -6.14242 1.97299 215 230 235
-4.84533 -6.15224 1.95544 224 235 245
0.76833 -4.16447 1.46279 97 109 111
0.76021 -4.18251 1.46698 100 109 123
0.74638 -4.19697 1.47038 102 106 116
0.72385 -4.20830 1.45014 109 121 125
0.73083 -4.23392 1.47895 109 103 104
0.71612 -4.24799 1.48227 113 118 116
0.72027 -4.27455 1.48832 114 120 111
0.70639 -4.28934 1.49180 113 114 113
0.69995 -4.30915 1.49638 126 130 111
0.69296 -4.32870 1.50091 118 128 97
0.68310 -4.34642 1.50503 102 110 88
0.66384 -4.35784 1.50778 94 97 93
0.64093 -4.36936 1.48719 69 69 71
0.66535 -4.38347 1.51363 81 85 87
0.64235 -4.39503 1.49297 79 75 91
0.66967 -4.41121 1.51996 81 75 91
0.65893 -4.45384 1.52979 80 68 80
0.65649 -4.45478 1.50634 78 66 57
0.66107 -4.48060 1.53591 49 48 73
0.63776 -4.49231 1.51497 56 43 49
0.65451 -4.50144 1.54072 71 60 61
0.65137 -4.52482 1.54610 97 84 54
0.66362 -4.55933 1.55392 99 87 71
0.64502 -4.56926 1.58036 96 89 90
0.64254 -4.57021 1.55656 96 91 88
0.64006 -4.57117 1.53275 97 87 78
0.67437 -5.12590 1.68361 101 108 108
0.69442 -5.11519 1.65510 88 99 90
0.64362 -5.13113 1.68501 99 111 123
0.61992 -5.14204 1.68767 115 126 140
0.59642 -5.15309 1.69036 132 131 125
0.56297 -5.15591 1.69122 97 99 75
0.50862 -5.17172 1.69521 84 86 89
0.43833 -5.14321 1.68915 150 141 135
0.41305 -5.15238 1.69141 175 161 140
0.39327 -5.16294 1.71953 182 165 148
0.39063 -5.16396 1.69422 179 164 143
0.38800 -5.16497 1.66890 177 163 142
-0.48220 -4.55133 1.55972 189 171 156
-0.46513 -4.54221 1.53545 185 168 158
-0.48448 -4.55221 1.53787 189 171 153
-0.52380 -4.56873 1.56399 142 122 84
-0.56859 -4.55586 1.56134 111 92 68
-0.55838 -4.59243 1.56964 62 38 45
-2.67165 -3.18197 1.26069 39 50 73
-2.65950 -3.17570 1.25918 20 24 33
-2.66093 -3.17625 1.24546 24 25 20
-2.67022 -3.18142 1.27441 125 135 155
-2.68237 -3.18769 1.27593 185 194 198
-2.57825 -3.30468 1.28818 99 118 148
-2.58941 -3.31064 1.30403 216 208 201
-2.59089 -3.31121 1.28976 172 181 195
-2.73875 -3.16650 1.25760 214 209 202
-2.75689 -3.16579 1.25756 224 213 199
-2.77350 -3.16672 1.25788 230 221 216
-2.79524 -3.16171 1.25688 243 238 237
-2.80575 -3.16732 1.27181 253 252 246
-2.80715 -3.16786 1.25837 251 249 247
-2.80855 -3.16840 1.24492 240 235 228
-3.02010 -3.15393 1.25659 253 254 254
-3.00719 -3.14744 1.26819 254 254 254
-3.00855 -3.14797 1.25515 254 254 254
-3.01874 -3.15341 1.26964 254 254 253
-3.03029 -3.15937 1.27108 254 253 252
-3.02766 -3.16493 1.25916 247 253 249
-3.03568 -3.17541 1.26162 235 243 233
-3.05169 -3.17573 1.26180 216 205 209
-3.06164 -3.18379 1.26371 176 152 174
-3.07457 -3.19029 1.25209 142 125 111
-3.06151 -3.20495 1.26855 138 122 138
-3.07531 -3.20814 1.26938 130 136 158
-3.08666 -3.21449 1.27091 183 186 225
-3.09539 -3.22434 1.27322 170 167 215
-3.10399 -3.23441 1.27559 145 137 153
-3.13716 -3.25493 1.28050 145 144 130
-3.14865 -3.26119 1.28202 133 135 125
-3.16313 -3.26331 1.28260 105 101 99
-3.17460 -3.26959 1.28411 62 68 69
-3.18763 -3.27613 1.27241 40 48 50
-3.17713 -3.28846 1.28845 35 45 55
-3.19021 -3.29503 1.27670 44 49 64
-3.18799 -3.29570 1.29018 38 44 57
-3.20108 -3.30228 1.27842 48 50 72
-3.42730 -4.05746 1.46624 31 31 23
-3.41534 -4.05107 1.44925 28 31 26
-3.42889 -4.05807 1.45094 23 27 31
-3.44029 -4.06558 1.46818 52 48 45
-3.46274 -4.05434 1.46576 76 77 63
-3.47781 -4.06191 1.45222 88 82 62
-3.53323 -4.01194 1.45652 106 103 83
-3.58343 -3.97477 1.44834 128 121 79
-3.58497 -3.97536 1.43357 126 120 85
-3.59804 -3.98211 1.43521 133 124 82
-3.60183 -3.96996 1.44736 127 112 67
-3.63050 -3.94248 1.44126 107 89 47
-3.65022 -3.93409 1.43947 91 70 35
-3.66157 -3.94015 1.45560 81 69 42
-3.66308 -3.94074 1.44108 78 64 41
-3.91366 -3.96861 1.44913 95 80 47
-3.89961 -3.96154 1.46175 89 86 66
-3.90109 -3.96212 1.44756 91 83 57
-3.91218 -3.96803 1.46332 92 85 61
-3.92439 -3.98002 1.45181 94 86 54
-3.92838 -4.00988 1.45868 120 124 105
-3.94253 -4.01700 1.44596 142 164 167
-3.93878 -4.02265 1.46167 140 156 140
-3.95296 -4.02978 1.44893 151 164 158
-3.94974 -4.03400 1.46435 145 160 150
-3.96393 -4.04114 1.45159 156 171 174
-3.96114 -4.04421 1.46676 151 168 163
-3.97535 -4.05136 1.45399 157 174 182
-3.97349 -4.05181 1.46858 154 166 161
-3.98605 -4.05883 1.47027 156 166 169
-4.00877 -4.07998 1.47527 159 169 180
-4.02302 -4.08714 1.46247 136 132 115
-4.79338 -6.11965 1.94763 155 150 139
-4.80771 -6.16693 1.95855 191 201 202
-4.82493 -6.18043 1.96176 221 236 241
-4.84458 -6.19031 1.94410 228 237 244
0.79887 -4.11714 1.42893 90 98 94
0.82123 -4.10590 1.44903 95 101 98
0.81888 -4.10680 1.42643 93 112 107
0.81653 -4.10771 1.40384 78 83 91
0.80122 -4.11623 1.45153 96 94 97
0.78694 -4.13255 1.43251 91 93 98
0.76455 -4.14380 1.41239 79 75 87
0.77289 -4.14668 1.43582 89 87 93
0.75048 -4.15795 1.41568 81 75 92
0.76776 -4.16652 1.44034 86 83 98
0.76118 -4.18556 1.44469 89 87 103
0.73866 -4.19688 1.42446 104 101 98
0.75468 -4.20475 1.44908 101 106 119
0.73491 -4.23905 1.45699 108 110 110
0.71226 -4.25043 1.43663 85 88 96
0.72983 -4.25946 1.46164 90 98 107
0.73863 -4.28915 1.46827 78 84 88
0.71581 -4.30062 1.44776 80 67 73
0.73135 -4.30840 1.47267 76 80 90
0.72002 -4.32507 1.47653 82 81 94
0.69712 -4.33658 1.45595 78 77 75
0.70421 -4.33879 1.47976 81 87 92
0.68129 -4.35031 1.45916 69 74 75
0.69696 -4.35834 1.48423 79 85 88
0.67399 -4.36988 1.46359 78 79 92
0.68064 -4.37183 1.48741 78 72 79
0.67196 -4.44039 1.50296 88 75 80
0.67237 -4.49118 1.51442 63 62 62
0.64901 -4.50292 1.49344 50 47 58
0.66247 -4.53539 1.52449 88 71 49
0.68935 -4.58041 1.53443 97 83 61
0.66568 -4.59231 1.51315 98 83 89
0.68724 -4.82101 1.58875 106 127 137
0.66823 -5.12413 1.65734 85 85 75
0.68827 -5.11343 1.62885 74 77 89
0.66556 -5.12516 1.63169 89 97 84
0.65834 -5.14629 1.66242 54 55 77
0.59113 -5.15197 1.66427 119 129 122
0.56353 -5.15961 1.66622 102 106 88
0.53765 -5.16864 1.66848 59 55 59
0.51500 -5.18033 1.67131 56 50 60
0.46903 -5.17236 1.66989 127 122 120
0.41693 -5.15893 1.66730 168 156 138
-0.51195 -4.58224 1.54488 151 130 88
-0.53847 -4.58585 1.54592 128 106 79
-0.53063 -4.62047 1.55367 76 56 61
-0.54550 -4.63473 1.55701 35 26 26
-0.56271 -4.64392 1.58147 30 24 37
-0.56500 -4.64480 1.55945 27 24 28
-0.56730 -4.64569 1.53743 26 25 28
-2.67192 -3.18379 1.24725 18 22 29
-2.66120 -3.17806 1.23201 29 26 30
-2.67335 -3.18434 1.23353 26 24 28
-2.68979 -3.18376 1.24740 29 42 70
-2.71114 -3.19954 1.25114 161 169 187
-2.75782 -3.16687 1.24415 208 206 204
-2.77698 -3.16491 1.24387 221 211 203
-2.79033 -3.17162 1.23188 220 212 199
-2.79730 -3.16150 1.24327 228 218 210
-2.81061 -3.16819 1.23132 227 216 205
-3.00746 -3.13129 1.23821 253 254 254
-2.99460 -3.12483 1.24976 254 254 254
-2.99596 -3.12535 1.23677 254 254 254
-3.00611 -3.13077 1.25120 254 254 254
-3.01575 -3.14123 1.24052 244 251 251
-3.02498 -3.15004 1.24259 231 235 240
-3.04097 -3.15037 1.24280 208 190 208
-3.04309 -3.16825 1.24685 175 159 160
-3.05600 -3.17474 1.23524 148 138 125
-3.04860 -3.18195 1.24999 153 140 150
-3.06155 -3.18847 1.23835 143 134 122
-3.05161 -3.19900 1.25386 142 129 130
-3.07072 -3.21646 1.25796 135 124 125
-3.07209 -3.21699 1.24480 148 137 122
-3.08135 -3.22383 1.25971 142 129 154
-3.09254 -3.23047 1.26131 148 133 152
-3.10450 -3.23609 1.26268 147 142 134
-3.11510 -3.24355 1.26445 147 144 133
-3.12541 -3.25142 1.26631 131 127 134
-3.13574 -3.25928 1.26817 97 86 114
-3.14879 -3.26585 1.25644 38 43 59
-3.14774 -3.26488 1.26954 57 63 68
-3.16079 -3.27144 1.25781 40 50 55
-3.16123 -3.26839 1.27044 36 45 42
-3.17427 -3.27495 1.25872 44 53 54
-3.17541 -3.27091 1.27113 39 47 49
-3.18843 -3.27746 1.25942 43 53 52
-3.43409 -4.08203 1.45639 44 46 41
-3.42208 -4.07562 1.43933 23 27 38
-3.45699 -4.06999 1.45387 77 77 50
-3.47213 -4.07760 1.44027 86 80 66
-3.50151 -4.04753 1.44917 92 86 69
-3.50309 -4.04814 1.43403 90 82 63
-3.51650 -4.05506 1.43570 98 92 66
-3.53274 -4.01687 1.44251 101 99 76
-3.56194 -3.98980 1.43664 114 116 81
-3.62888 -3.94993 1.42820 136 125 79
-3.61747 -3.94384 1.41198 133 124 91
-3.63040 -3.95052 1.41359 138 126 92
-3.64334 -3.95720 1.41521 140 126 94
-3.65225 -3.93354 1.42470 126 109 72
-3.69102 -3.91733 1.42136 71 56 42
-3.70227 -3.92334 1.43735 74 67 34
-3.70901 -3.91199 1.42030 75 58 30
-3.72022 -3.91797 1.43624 71 67 26
-3.72172 -3.91855 1.42189 82 70 43
-3.72321 -3.91913 1.40754 92 89 56
-3.89254 -3.94958 1.43032 91 78 51
-3.87852 -3.94253 1.44292 90 87 49
-3.88000 -3.94310 1.42876 88 82 58
-3.89107 -3.94901 1.44449 90 87 42
-3.90456 -3.95745 1.43220 101 89 76
-3.90771 -3.98895 1.43934 120 121 98
-3.91800 -4.00178 1.44232 120 135 107
-3.93215 -4.00889 1.42961 110 135 118
-3.93146 -4.00612 1.44341 132 165 158
-3.98755 -4.05941 1.45591 156 167 170
-3.99949 -4.06826 1.45801 148 153 151
-4.01371 -4.07541 1.44523 132 129 111
-4.01601 -4.06362 1.45710 139 139 130
-4.03020 -4.07075 1.44436 135 129 108
-4.79250 -6.15513 1.93572 160 163 153
-4.80890 -6.17849 1.94113 192 206 214
-4.82503 -6.20634 1.94756 216 230 240
-4.84477 -6.21626 1.92982 222 232 244
0.79520 -4.11722 1.40617 81 78 89
0.81285 -4.10780 1.38108 74 77 73
0.79284 -4.11813 1.38358 80 69 70
0.77284 -4.12846 1.38608 81 73 82
0.78407 -4.13313 1.40982 82 79 88
0.76167 -4.14439 1.38970 75 73 83
0.76974 -4.19347 1.42339 93 88 94
0.78755 -4.18396 1.39807 79 79 91
0.75298 -4.22962 1.43160 101 97 84
0.75060 -4.23054 1.40871 94 97 99
0.73033 -4.24101 1.41124 93 94 90
0.74895 -4.25067 1.43632 92 91 74
0.72624 -4.26209 1.41591 93 96 103
0.74488 -4.29579 1.44640 74 72 80
0.72364 -4.33002 1.45422 90 84 83
0.72123 -4.33095 1.43106 98 100 102
0.67993 -4.42350 1.47546 94 84 99
0.69821 -4.41374 1.44948 86 81 91
0.67750 -4.42444 1.45207 94 84 97
0.65678 -4.43514 1.45465 98 92 100
0.67535 -4.44537 1.48037 103 94 99
0.66540 -4.46364 1.48453 85 71 78
0.67737 -4.49736 1.49191 69 62 69
0.67627 -4.54789 1.50317 69 54 58
0.70279 -4.59275 1.51288 88 77 70
0.79688 -4.79502 1.55693 74 83 92
0.82143 -4.78268 1.57898 68 81 78
0.81884 -4.78368 1.55418 64 82 84
0.79947 -4.79402 1.58173 72 85 91
0.77751 -4.80537 1.58447 67 88 96
0.77492 -4.80636 1.55967 75 89 105
0.65123 -4.90898 1.58374 71 75 85
0.63176 -4.91938 1.61142 75 82 89
0.62916 -4.92038 1.58650 69 72 91
0.64204 -5.13625 1.63439 101 97 92
0.62045 -5.14890 1.63742 99 88 88
0.56870 -5.16713 1.64200 83 98 101
0.54278 -5.17616 1.64427 75 73 69
0.52648 -5.19322 1.64823 35 36 62
0.48884 -5.19234 1.64841 90 91 105
0.44277 -5.18414 1.64705 154 146 137
0.41548 -5.19174 1.64901 175 159 141
0.39560 -5.20236 1.67728 182 165 145
0.39295 -5.20338 1.65183 183 161 147
0.39029 -5.20441 1.62638 179 162 146
-0.50060 -4.59530 1.52555 167 145 109
-0.48344 -4.58614 1.50115 193 178 154
-0.51567 -4.60929 1.52881 138 114 83
-0.52815 -4.62568 1.53258 96 83 74
-0.52637 -4.65515 1.53912 46 37 36
-2.68821 -3.18763 1.23441 20 21 31
-2.67749 -3.18192 1.21918 26 25 31
-2.68963 -3.18819 1.22070 27 25 26
-2.70112 -3.19305 1.23574 28 36 53
-2.72377 -3.20741 1.23917 145 147 173
-2.77972 -3.16394 1.23006 202 201 202
-2.99871 -3.10421 1.21898 252 254 253
-2.98593 -3.09778 1.23046 254 254 254
-2.98727 -3.09830 1.21755 254 254 254
-2.99736 -3.10369 1.23189 254 254 254
-3.00679 -3.11424 1.22129 243 249 244
-3.01999 -3.11800 1.22226 229 228 222
-3.03174 -3.12353 1.22361 199 190 196
-3.02833 -3.14806 1.22903 164 157 160
-3.04121 -3.15454 1.21746 150 139 129
-3.03415 -3.16121 1.23201 154 138 145
-3.04706 -3.16770 1.22041 152 140 131
-3.03967 -3.17486 1.23510 150 136 128
-3.05261 -3.18136 1.22347 152 142 130
-3.06020 -3.21127 1.24341 147 133 122
-3.04991 -3.20578 1.22879 150 140 129
-3.06157 -3.21180 1.23025 148 148 133
-3.08206 -3.22522 1.24673 149 136 128
-3.09378 -3.23117 1.24818 147 140 132
-3.10574 -3.23680 1.24955 119 124 122
-3.11164 -3.25060 1.25268 90 82 91
-3.12470 -3.25717 1.24093 41 47 62
-3.11949 -3.26185 1.25526 50 55 85
-3.13258 -3.26843 1.24350 41 49 56
-3.13370 -3.26448 1.25599 33 37 73
-3.14678 -3.27105 1.24424 42 51 58
-3.42679 -4.10077 1.44497 42 46 44
-3.44698 -4.09443 1.44376 76 75 55
-3.46221 -4.10209 1.43008 86 81 59
-3.55652 -4.00525 1.42502 111 106 71
-3.54487 -3.99903 1.40846 94 88 65
-3.55807 -4.00585 1.41011 104 103 64
-3.58958 -3.96933 1.41737 124 119 83
-3.60417 -3.97667 1.40426 132 122 84
-3.67476 -3.92254 1.40781 141 126 91
-3.66348 -3.91651 1.39177 139 125 99
-3.67627 -3.92312 1.39337 139 128 108
-3.71739 -3.89687 1.40253 102 86 46
-3.87058 -3.93297 1.41210 92 76 53
-3.85658 -3.92593 1.42469 91 85 58
-3.85805 -3.92650 1.41054 89 82 44
-3.86911 -3.93240 1.42625 89 85 58
-3.88049 -3.94620 1.41515 94 87 79
-3.88779 -3.96638 1.41971 120 124 118
-3.90188 -3.97346 1.40706 163 172 183
-3.90516 -3.96033 1.41854 156 163 157
-3.91919 -3.96738 1.40593 161 169 178
-3.91548 -3.97278 1.42141 163 170 154
-3.92299 -3.99291 1.42596 130 149 116
-3.93710 -4.00000 1.41329 144 160 146
-3.94597 -4.01220 1.43049 117 140 147
-3.95385 -4.03201 1.43497 138 162 165
-3.96472 -4.04372 1.43769 149 166 169
-3.97887 -4.04617 1.43837 144 150 152
-3.99306 -4.05330 1.42563 132 128 106
-3.99333 -4.04761 1.43884 135 136 134
-4.00750 -4.05474 1.42611 134 129 113
-4.00646 -4.05285 1.44014 131 129 123
-4.02062 -4.05997 1.42741 135 130 112
-4.77638 -6.15402 1.91529 154 146 134
-4.76087 -6.14574 1.89324 157 153 126
-4.79702 -6.12682 1.90945 171 171 174
-4.80886 -6.20528 1.92702 203 215 225
-4.82862 -6.21521 1.90926 230 243 248
-4.82564 -6.22600 1.93179 220 230 242
-4.84544 -6.23595 1.91400 231 238 245
0.77615 -4.20001 1.40172 87 86 96
0.79398 -4.19049 1.37637 78 76 87
0.77377 -4.20093 1.37889 82 78 91
0.78218 -4.22737 1.40764 93 91 104
0.75238 -4.30325 1.42463 87 83 93
0.77045 -4.29361 1.39894 99 96 101
0.73835 -4.31811 1.42805 87 72 86
0.71544 -4.32963 1.40746 86 86 82
0.67671 -4.47417 1.46297 95 89 87
0.69511 -4.46435 1.43682 98 99 102
0.67426 -4.47512 1.43942 104 103 92
0.68390 -4.50462 1.46956 87 78 65
0.69500 -4.53806 1.47676 68 46 38
0.67868 -4.55231 1.48008 57 37 37
0.70187 -4.59484 1.48912 76 66 65
0.77994 -4.75808 1.52398 70 77 91
0.80433 -4.74582 1.54591 84 87 85
0.80177 -4.74681 1.52126 87 88 97
0.75554 -4.77035 1.50206 61 63 62
0.77099 -4.77885 1.52864 67 69 78
0.64860 -4.90995 1.55881 59 59 72
0.64600 -4.91095 1.53389 62 58 51
0.62393 -4.92235 1.53665 54 54 69
0.65953 -5.12349 1.60548 68 75 93
0.68224 -5.11176 1.60265 61 58 68
0.67957 -5.11279 1.57701 65 72 70
0.63834 -5.13644 1.60857 94 97 116
0.60807 -5.14198 1.61014 107 112 113
0.58569 -5.15394 1.61303 116 129 122
0.56067 -5.16371 1.61546 103 132 128
0.53385 -5.17196 1.61759 98 97 99
0.53018 -5.19960 1.62369 53 41 61
0.50532 -5.20955 1.62616 57 59 61
0.47408 -5.21404 1.62751 120 122 121
0.43405 -5.21092 1.62730 164 155 142
-0.48137 -4.61544 1.50755 186 166 133
-0.46412 -4.60623 1.48304 195 182 158
-0.48367 -4.61632 1.48548 199 180 148
-0.49306 -4.63260 1.51145 148 123 93
-0.50473 -4.64986 1.51537 123 99 83
-0.51375 -4.66965 1.51981 68 47 47
-0.52747 -4.68524 1.52339 34 25 29
-0.54483 -4.69450 1.54806 26 27 31
-0.54714 -4.69540 1.52584 30 26 28
-0.54946 -4.69629 1.50363 28 27 25
-2.70125 -3.19504 1.22234 22 25 22
-2.69054 -3.18931 1.20711 28 26 33
-2.70268 -3.19559 1.20863 26 26 24
-2.71483 -3.20186 1.21014 22 23 24
-2.71963 -3.19432 1.22240 23 29 46
-2.73303 -3.19913 1.22361 62 63 96
-2.74956 -3.20036 1.22407 127 131 152
-2.80776 -3.15382 1.21456 190 196 196
-2.81962 -3.15995 1.21604 219 211 201
-2.94416 -3.09312 1.20286 253 253 251
-2.93132 -3.08667 1.21440 253 253 254
-2.93267 -3.08719 1.20142 246 244 242
-2.94280 -3.09260 1.21583 254 254 254
-2.95429 -3.09854 1.21727 254 254 254
-2.95564 -3.09906 1.20429 254 254 254
-2.97892 -3.09082 1.20276 250 254 253
-2.97758 -3.09030 1.21567 254 254 254
-2.99116 -3.09574 1.20399 239 246 246
-3.00937 -3.09337 1.20368 226 218 228
-3.01311 -3.10866 1.20707 193 177 198
-3.01338 -3.12836 1.21140 165 151 161
-3.02622 -3.13481 1.19986 151 143 128
-3.01905 -3.14154 1.21435 156 145 145
-3.03192 -3.14801 1.20279 153 143 130
-3.02628 -3.15286 1.21692 148 140 128
-3.03918 -3.15934 1.20533 154 143 134
-3.07194 -3.21951 1.23206 138 144 125
-3.08287 -3.22650 1.23372 126 120 124
-3.08767 -3.24165 1.23710 91 77 95
-3.10075 -3.24823 1.22535 37 45 60
-3.09561 -3.25275 1.23962 43 57 80
-3.10871 -3.25933 1.22785 39 50 52
-3.10631 -3.26017 1.24138 33 45 69
-3.11942 -3.26676 1.22960 44 51 55
-3.41015 -4.10356 1.42979 21 24 30
-3.39483 -4.09585 1.44355 32 29 30
-3.39644 -4.09648 1.42807 28 28 18
-3.39805 -4.09710 1.41260 28 29 18
-3.41176 -4.10418 1.41431 25 23 16
-3.42053 -4.11740 1.43294 38 42 40
-3.43751 -4.11781 1.43323 73 72 50
-3.45283 -4.12551 1.41947 85 81 51
-3.58871 -3.97512 1.40374 119 117 69
-3.57717 -3.96896 1.38734 90 90 75
-3.59024 -3.97571 1.38898 104 109 80
-3.69027 -3.92699 1.39438 143 136 108
-3.67899 -3.92097 1.37835 137 127 101
-3.69177 -3.92757 1.37995 140 130 102
-3.70455 -3.93417 1.38155 144 134 105
-3.71095 -3.91554 1.39212 144 128 90
-3.73904 -3.88664 1.38611 109 93 36
-3.75015 -3.89258 1.40191 93 86 54
-3.75167 -3.89305 1.38767 98 80 54
-3.76278 -3.89898 1.40346 91 85 48
-3.76427 -3.89956 1.38924 92 80 50
-3.84314 -3.89264 1.38865 91 71 21
-3.82922 -3.88564 1.40116 90 82 60
-3.83069 -3.88621 1.38710 85 78 35
-3.85413 -3.89851 1.40427 90 84 52
-3.85163 -3.90901 1.39234 94 76 33
-3.86206 -3.92065 1.39501 98 93 78
-3.87490 -3.92627 1.39640 123 124 111
-3.88717 -3.93333 1.39809 147 156 149
-3.90115 -3.94036 1.38553 157 168 175
-3.89611 -3.94911 1.40165 158 171 170
-3.91012 -3.95616 1.38906 157 172 179
-3.92779 -3.98455 1.40979 152 163 159
-3.94835 -4.01031 1.41568 144 161 144
-3.95588 -4.03110 1.42032 144 145 134
-3.97006 -4.03823 1.40758 133 128 102
-3.96754 -4.04054 1.42253 135 134 121
-3.98173 -4.04768 1.40978 134 131 99
-3.98404 -4.03625 1.42178 130 130 106
-3.99818 -4.04337 1.40907 136 131 105
-4.77687 -6.17292 1.89938 152 145 137
-4.76131 -6.16461 1.87727 159 151 122
-4.79655 -6.15766 1.89627 178 182 186
-4.80829 -6.23884 1.91420 217 231 236
-4.82816 -6.24883 1.89635 226 243 249
0.79209 -4.23622 1.38626 84 82 94
0.81005 -4.22664 1.36075 78 75 88
0.78970 -4.23715 1.36329 77 73 89
0.76936 -4.24765 1.36583 76 73 88
0.78361 -4.25442 1.39031 86 88 94
0.76322 -4.26495 1.39285 89 87 94
0.76326 -4.31296 1.40322 99 93 98
0.74595 -4.32569 1.40620 93 82 88
0.70203 -4.41896 1.42693 86 70 70
0.67885 -4.43061 1.40610 88 82 92
0.70540 -4.44629 1.43278 96 86 95
0.68351 -4.50702 1.44618 117 121 83
0.68104 -4.50797 1.42251 98 98 101
0.67790 -4.52869 1.45094 103 97 74
0.70601 -4.57445 1.46044 52 58 53
0.72593 -4.64115 1.47457 88 75 63
0.74829 -4.71073 1.48929 87 82 78
0.74574 -4.71171 1.46485 88 80 73
0.74806 -4.73761 1.49509 70 64 73
0.72189 -4.77286 1.50306 57 63 65
0.70328 -4.78648 1.50625 49 56 74
0.62917 -4.78594 1.50713 83 90 101
0.64676 -5.11634 1.57822 80 94 88
0.62834 -5.13150 1.58174 92 107 109
0.60650 -5.14391 1.58471 105 113 123
0.58033 -5.15275 1.58697 105 111 122
0.56199 -5.16805 1.59052 53 60 82
0.55292 -5.19114 1.59563 42 39 58
0.53029 -5.20297 1.59849 53 48 59
0.50809 -5.21518 1.60142 34 42 49
0.48106 -5.22327 1.60353 59 68 64
0.44515 -5.22373 1.60411 128 128 137
0.40393 -5.21946 1.60374 172 162 153
0.38399 -5.23011 1.63209 183 166 152
