ply
format ascii 1.0
element face 0
property list uchar int vertex_indices
element vertex 1311
property float x
property float y
property float z
property uchar diffuse_red
property uchar diffuse_green
property uchar diffuse_blue
end_header
0.52848 -3.22648 3.23641 127 144 165
-0.14940 -4.34238 3.57150 179 199 237
-0.13036 -4.33046 3.59439 188 208 234
-0.12865 -4.33334 3.57192 188 209 240
-0.17408 -4.34610 3.56818 126 125 208
-0.19310 -4.35800 3.54532 54 79 131
-0.20547 -4.34053 3.55985 67 91 148
-0.23718 -4.37192 3.56623 102 117 118
-0.25843 -4.38021 3.56541 115 121 122
-0.28956 -4.37455 3.55709 83 94 129
-0.31507 -4.37665 3.55297 73 85 126
-0.34716 -4.36918 3.54374 28 57 134
-0.44309 -4.26914 3.48508 162 183 206
-0.49719 -4.34343 3.50426 253 254 254
-0.47692 -4.33460 3.50467 254 254 254
-0.50801 -4.36647 3.51136 248 254 254
-0.52312 -4.38324 3.51513 237 254 253
-0.59092 -4.31949 3.47645 197 208 210
-0.62996 -4.29892 3.46063 95 83 97
-0.65348 -4.30200 3.45729 82 75 107
-0.67165 -4.31340 3.45831 72 84 120
-0.68858 -4.32681 3.46038 61 88 132
-0.70687 -4.33826 3.43839 57 74 123
-0.71562 -4.32415 3.45405 68 98 141
-0.73387 -4.33558 3.43212 50 59 121
-0.73210 -4.33830 3.45650 69 109 148
-0.75201 -4.34698 3.45610 88 105 158
-0.79397 -4.31956 3.43697 180 202 213
-0.80684 -4.33955 3.44246 242 250 245
-0.83267 -4.33815 3.43688 219 220 203
-0.84088 -4.36619 3.44649 103 83 66
-0.85436 -4.38563 3.45164 23 12 11
-0.87261 -4.39706 3.42970 15 10 16
-2.13616 -4.17679 3.11877 26 35 33
-2.14447 -4.21138 3.13098 51 77 54
-2.19083 -4.19190 3.11417 230 231 216
-2.21262 -4.18574 3.10747 170 142 125
-2.24500 -4.14609 3.08532 39 11 11
-2.26072 -4.15593 3.06642 7 19 30
1.43445 -3.56074 3.54356 87 74 79
1.45657 -3.55466 3.52184 92 81 88
1.41569 -3.57248 3.52101 76 66 68
1.42115 -3.57527 3.54675 62 48 69
0.55726 -3.20441 3.23322 50 58 88
0.57678 -3.19905 3.21406 68 65 77
0.54071 -3.21477 3.21333 76 82 110
0.56443 -3.23406 3.24635 97 110 146
-0.14150 -4.31673 3.53893 184 207 237
-0.12253 -4.30486 3.56173 186 208 234
-0.12083 -4.30773 3.53935 188 208 236
-0.17561 -4.30762 3.52874 139 162 204
-0.20165 -4.30919 3.52434 66 82 144
-0.22051 -4.32100 3.50166 59 82 124
-0.23616 -4.33622 3.52838 67 89 120
-0.23447 -4.33907 3.50608 59 82 122
-0.24197 -4.36576 3.53896 99 113 109
-0.26884 -4.36611 3.53392 82 95 120
-0.29920 -4.36138 3.52619 70 82 131
-0.32741 -4.35951 3.52000 71 82 123
-0.35617 -4.35668 3.51334 31 62 136
-0.45555 -4.25150 3.45251 176 210 238
-0.44149 -4.30990 3.47835 226 252 254
-0.46901 -4.30799 3.47228 207 248 254
-0.48631 -4.32103 3.47411 199 244 253
-0.57068 -4.27238 3.43857 178 196 250
-0.58707 -4.28642 3.44097 145 144 224
-0.62585 -4.26626 3.42550 99 77 150
-0.64555 -4.27508 3.42519 126 58 90
-0.66317 -4.28712 3.42657 116 35 90
-0.68022 -4.30013 3.42843 77 50 102
-0.70070 -4.30778 3.42750 51 65 107
-0.75885 -4.33597 3.42745 56 69 136
-0.79116 -4.32424 3.41657 168 202 226
-0.80448 -4.34350 3.42163 234 251 253
-0.82795 -4.34604 3.41811 230 226 225
-0.84087 -4.36621 3.42361 120 106 117
-0.85276 -4.38832 3.43007 37 25 30
-2.13199 -4.18725 3.10366 25 30 38
-2.14558 -4.20620 3.10854 52 70 85
-2.17140 -4.18864 3.09660 182 199 202
-2.18966 -4.19350 3.09501 237 239 229
-2.21374 -4.18028 3.08513 184 155 146
-2.24047 -4.15823 3.07124 44 14 14
-2.25622 -4.16809 3.05230 10 18 29
0.54725 -3.24402 3.22605 118 138 163
0.56688 -3.23862 3.20678 53 63 91
0.52762 -3.24941 3.24533 132 147 165
0.52911 -3.25192 3.22568 134 148 171
-0.12858 -4.29804 3.51024 185 204 232
-0.10967 -4.28620 3.53298 187 206 230
-0.10797 -4.28905 3.51066 187 203 230
-0.10627 -4.29191 3.48834 188 204 228
-0.16890 -4.28067 3.49571 151 173 212
-0.19846 -4.27738 3.48877 72 92 138
-0.21704 -4.28883 3.48970 55 74 122
-0.23582 -4.30058 3.46714 56 68 122
-0.26128 -4.33940 3.50108 62 86 115
-0.23903 -4.33329 3.47924 57 66 124
-0.25959 -4.34225 3.47882 59 69 121
-0.28015 -4.35121 3.47840 59 68 118
-0.28586 -4.34273 3.49768 62 80 121
-0.31245 -4.34313 3.49276 59 74 125
-0.33126 -4.35490 3.47014 48 59 114
-0.33986 -4.34223 3.48716 58 76 119
-0.35863 -4.35398 3.46459 46 49 117
-0.37067 -4.33629 3.47894 44 67 134
-0.42444 -4.29689 3.45320 122 144 211
-0.44463 -4.30569 3.45279 115 129 195
-0.47725 -4.29621 3.44283 48 97 182
-0.50299 -4.29665 3.43808 33 68 160
-0.52141 -4.30818 3.41593 35 41 104
-0.53191 -4.29219 3.43080 25 35 142
-0.55644 -4.29413 3.42687 23 31 140
-0.58534 -4.28931 3.41945 18 30 132
-0.61741 -4.27942 3.40943 56 31 98
-0.64758 -4.27217 3.40082 116 58 72
-0.66245 -4.28846 3.40437 113 51 36
-0.68791 -4.28824 3.39941 116 91 39
-0.70607 -4.29961 3.37758 112 127 117
-0.71459 -4.28597 3.39341 105 82 52
-0.74051 -4.28471 3.38796 101 106 123
-0.75333 -4.30436 3.39322 134 126 125
-0.77950 -4.30255 3.38750 65 63 134
-0.79636 -4.31579 3.38947 148 188 221
-0.80482 -4.34299 3.39853 204 221 250
-0.82298 -4.35437 3.37668 216 236 239
-0.82610 -4.34916 3.39687 217 219 227
-0.84070 -4.36650 3.40088 158 141 150
-0.84853 -4.39547 3.41075 62 39 44
-0.86869 -4.40371 3.41013 17 10 13
-0.89024 -4.40963 3.43128 17 12 23
-0.88860 -4.41239 3.40972 14 14 23
-0.88696 -4.41515 3.38817 12 19 19
-2.10918 -4.19352 3.09040 16 18 30
-2.09028 -4.18832 3.07184 11 19 14
-2.10774 -4.19593 3.07149 12 16 22
-2.12664 -4.20113 3.09004 16 18 41
-2.14105 -4.21782 3.09384 44 57 98
-2.17116 -4.18748 3.07617 162 189 218
-2.18941 -4.19229 3.07457 221 231 234
-2.21019 -4.18926 3.06941 174 150 148
-2.23698 -4.16711 3.05559 43 13 14
-2.25275 -4.17698 3.03663 9 16 28
1.39453 -3.58232 3.49727 61 47 72
1.41496 -3.57342 3.49768 82 71 78
1.37242 -3.58839 3.51897 49 41 65
1.37410 -3.59122 3.49685 49 40 64
0.55564 -3.25253 3.21005 101 124 154
0.54854 -3.27015 3.21555 131 146 178
0.52883 -3.27556 3.23490 133 146 164
0.53033 -3.27809 3.21518 134 147 169
0.53183 -3.28061 3.19546 132 145 174
-0.13941 -4.28426 3.47908 177 192 214
-0.11718 -4.27816 3.45726 186 206 227
-0.16956 -4.28037 3.47185 100 109 160
-0.21294 -4.25843 3.45510 47 56 114
-0.22279 -4.28156 3.46222 51 69 122
-0.32822 -4.32130 3.45767 52 61 115
-0.32654 -4.32413 3.43558 67 60 112
-0.34694 -4.33301 3.43517 70 70 116
-0.41838 -4.30606 3.43465 42 42 134
-0.39649 -4.30005 3.41317 72 69 98
-0.44965 -4.29874 3.42587 36 37 121
-0.47826 -4.29509 3.41903 32 37 115
-0.50474 -4.29438 3.41373 40 40 112
-0.56223 -4.28570 3.39946 40 53 115
-0.59255 -4.27864 3.39096 38 56 119
-0.62602 -4.26649 3.37989 66 80 118
-0.67245 -4.23400 3.35847 111 117 126
-0.72224 -4.23455 3.34924 107 125 112
-0.76201 -4.25054 3.34791 93 118 139
-0.77994 -4.26176 3.32634 42 38 89
-0.77168 -4.27495 3.35556 105 120 139
-0.78701 -4.29045 3.35867 49 73 162
-0.79489 -4.31827 3.36799 113 151 221
-0.80495 -4.34282 3.37562 173 198 231
-0.83503 -4.37602 3.38281 194 194 193
-0.84572 -4.40021 3.39018 87 65 60
-0.86461 -4.41063 3.39065 21 15 7
-0.88290 -4.42208 3.36867 10 14 24
-2.12127 -4.21510 3.07637 9 13 33
-2.10232 -4.20990 3.05778 9 16 17
-2.13580 -4.23155 3.08001 30 44 83
-2.17191 -4.18332 3.05442 116 147 180
-2.17940 -4.22086 3.06759 169 187 217
-2.20370 -4.20729 3.05771 135 122 134
-2.23081 -4.18434 3.04365 33 14 13
-2.24664 -4.19425 3.02462 7 15 18
1.42200 -3.58046 3.47819 88 75 80
1.44077 -3.56871 3.50075 88 78 88
1.44246 -3.57155 3.47860 90 77 84
1.44414 -3.57438 3.45645 91 76 80
1.42369 -3.58329 3.45604 91 78 78
1.40069 -3.58870 3.47735 67 55 73
1.39348 -3.60816 3.48348 48 43 63
1.37129 -3.61426 3.50527 49 42 62
1.37298 -3.61710 3.48307 46 44 54
1.37467 -3.61994 3.46086 46 45 60
0.57291 -3.24506 3.18950 50 62 83
0.58957 -3.23463 3.20953 65 64 69
0.59107 -3.23714 3.18987 67 68 73
0.59257 -3.23966 3.17021 67 69 76
0.57441 -3.24757 3.16984 54 64 73
0.62192 -3.31145 3.22426 77 94 129
0.54695 -3.26996 3.19420 121 140 176
-0.14170 -4.28182 3.45406 175 190 207
-0.11949 -4.27572 3.43226 182 205 230
-0.17659 -4.27153 3.44354 104 108 146
-0.20955 -4.26355 3.43427 41 40 99
-0.24233 -4.29219 3.43913 74 83 115
-0.26053 -4.30413 3.44030 103 94 107
-0.28095 -4.31303 3.43989 103 97 110
-0.30492 -4.31696 3.43689 82 85 105
-0.32364 -4.32868 3.41439 68 58 96
-0.40992 -4.31869 3.41781 70 82 95
-0.46684 -4.31222 3.40462 82 91 94
-0.50401 -4.29580 3.39132 55 65 90
-0.52717 -4.29989 3.38854 49 54 101
-0.58292 -4.25482 3.36071 64 90 137
-0.61767 -4.24075 3.34877 75 88 139
-0.64486 -4.23789 3.34256 103 119 143
-0.68022 -4.22223 3.32988 108 126 160
-0.70230 -4.22683 3.32750 113 134 154
-0.72207 -4.23499 3.32692 67 107 149
-0.74357 -4.24042 3.32497 71 69 118
-0.75752 -4.25784 3.32905 52 44 102
-0.80410 -4.26280 3.32220 36 33 104
-0.81677 -4.28252 3.32741 71 83 156
-0.80010 -4.35088 3.35684 163 206 225
-0.81617 -4.36574 3.35954 216 222 242
-0.83340 -4.37877 3.36131 202 192 196
-0.84421 -4.40274 3.36850 92 69 60
-0.86132 -4.41622 3.37047 21 14 9
-0.87961 -4.42767 3.34848 10 13 26
-2.11705 -4.22566 3.06107 4 13 18
-2.09807 -4.22045 3.04244 9 16 30
-2.11561 -4.22809 3.04208 5 13 23
-2.13476 -4.23277 3.06047 18 31 55
-2.16892 -4.19043 3.03776 73 99 121
-2.19274 -4.17826 3.02860 117 137 152
-2.20361 -4.20555 3.03706 109 107 95
-2.22292 -4.20698 3.03398 29 28 6
-2.23881 -4.21693 3.01487 8 16 29
1.40912 -3.59687 3.45850 83 72 72
1.43128 -3.59079 3.43674 92 78 81
1.39937 -3.61435 3.46334 58 47 67
1.38054 -3.62614 3.44070 48 42 44
0.56173 -3.26026 3.17231 52 67 90
0.58141 -3.25485 3.15299 63 66 75
0.55989 -3.28251 3.18044 107 127 155
0.55967 -3.30637 3.18949 130 143 177
0.53983 -3.31182 3.20897 129 143 168
0.54134 -3.31436 3.18912 130 143 172
0.54285 -3.31689 3.16927 134 143 170
-0.13411 -4.29251 3.43593 180 198 219
-0.11186 -4.28640 3.41409 180 203 229
-0.16679 -4.28523 3.42707 133 136 161
-0.20083 -4.27587 3.41715 40 30 87
-0.22773 -4.27594 3.41217 32 51 106
-0.25034 -4.28173 3.41016 55 78 102
-0.26689 -4.29585 3.41245 90 99 84
-0.28604 -4.30645 3.41292 90 85 97
-0.31074 -4.30927 3.40940 79 77 100
-0.42502 -4.29722 3.38350 66 47 79
-0.47893 -4.29480 3.37253 43 30 72
-0.50309 -4.29749 3.36906 41 25 81
-0.51522 -4.31805 3.37463 43 28 88
-0.55355 -4.29934 3.36036 49 49 109
-0.58906 -4.28446 3.34807 57 71 118
-0.64032 -4.24509 3.32352 73 90 132
-0.67544 -4.22982 3.31115 58 93 172
-0.70035 -4.23007 3.30660 50 90 177
-0.71829 -4.24129 3.28504 50 83 165
-0.72608 -4.22889 3.30136 25 83 166
-0.75209 -4.22709 3.29583 47 72 119
-0.76995 -4.23827 3.27436 108 139 157
-0.77248 -4.23410 3.29470 82 93 105
-0.78085 -4.26042 3.30317 121 134 140
-0.78677 -4.29103 3.31372 135 142 155
-0.79439 -4.31924 3.32305 144 149 166
-0.80466 -4.34340 3.33035 136 160 189
-0.82388 -4.35293 3.33040 151 170 199
-0.82726 -4.38909 3.34354 184 190 203
-0.85000 -4.39292 3.34076 110 100 106
-0.85772 -4.42233 3.35053 31 26 27
-2.12744 -4.25265 3.04924 16 25 50
-2.10839 -4.24742 3.03054 4 11 23
-2.15361 -4.23457 3.03747 67 80 99
-2.18245 -4.20765 3.02184 117 127 124
-2.19796 -4.22097 3.02402 113 111 85
-2.21585 -4.22701 3.02299 30 35 17
1.41277 -3.60127 3.43728 90 76 74
1.43495 -3.59518 3.41551 89 78 86
1.41446 -3.60411 3.41509 91 79 80
1.40041 -3.61668 3.44081 65 55 58
0.55755 -3.25783 3.14971 50 61 80
0.57720 -3.25243 3.13041 69 67 82
0.55904 -3.26035 3.13005 53 63 76
0.55770 -3.30584 3.16784 126 142 171
0.54089 -3.31636 3.14764 137 144 165
-0.13169 -4.29631 3.41417 185 203 224
-0.10944 -4.29020 3.39233 181 202 227
-0.13000 -4.29916 3.39191 184 204 224
-0.15050 -4.30762 3.41496 159 164 175
-0.20070 -4.27661 3.39399 63 54 94
-0.21558 -4.29300 3.39742 38 24 84
-0.24730 -4.28642 3.38908 46 35 83
-0.28257 -4.27472 3.37815 57 38 70
-0.30639 -4.27862 3.37522 60 45 71
-0.32087 -4.29554 3.37893 72 65 70
-0.34831 -4.29428 3.37338 69 76 77
-0.37079 -4.29991 3.37135 84 80 74
-0.38888 -4.31180 3.37250 111 93 91
-0.41974 -4.30525 3.36433 125 111 109
-0.44854 -4.30148 3.35758 134 120 127
-0.46866 -4.31025 3.35717 149 132 133
-0.49796 -4.30542 3.34994 159 146 142
-0.52053 -4.31043 3.34766 166 161 165
-0.56210 -4.28675 3.33105 186 192 191
-0.58265 -4.29446 3.33016 195 205 196
-0.66276 -4.21097 3.28386 142 137 180
-0.67644 -4.22851 3.28795 77 98 174
-0.70144 -4.22857 3.28335 62 75 170
-0.74998 -4.23059 3.27515 75 102 149
-0.77799 -4.26514 3.28301 97 109 149
-0.78520 -4.29367 3.29244 110 129 161
-0.78256 -4.33868 3.30991 149 165 162
-0.81267 -4.33022 3.30116 128 146 171
-0.82738 -4.34712 3.30481 110 133 165
-0.83053 -4.38359 3.31799 140 155 183
-0.85843 -4.37860 3.31095 142 147 157
-0.86123 -4.41629 3.32466 76 60 49
-0.87231 -4.44020 3.33163 35 14 12
-0.89393 -4.44613 3.35285 11 12 32
-0.89052 -4.45197 3.33271 31 10 15
-0.91216 -4.45791 3.35394 12 10 24
-0.91701 -4.44928 3.32680 29 9 11
-0.93859 -4.45521 3.34798 11 11 32
-0.94741 -4.43943 3.31746 25 10 14
-0.96892 -4.44534 3.33857 12 13 32
-1.00339 -4.42745 3.30260 22 10 8
-1.02477 -4.43332 3.32359 16 18 14
-1.02753 -4.42808 3.29838 20 16 6
-1.04887 -4.43394 3.31933 16 20 16
-1.04724 -4.43667 3.29798 19 19 12
-2.12050 -4.27138 3.03734 13 23 44
-2.10139 -4.26613 3.01858 5 9 11
-2.13671 -4.28152 3.01786 36 51 62
-2.14233 -4.26653 3.03148 54 69 82
-2.17718 -4.22176 3.00815 114 124 123
-2.19468 -4.22907 3.00767 117 116 98
-2.21226 -4.23616 3.00710 40 41 39
-2.22678 -4.25292 3.01074 13 13 18
-2.24566 -4.25811 3.02928 20 24 31
-2.24279 -4.26294 2.99149 22 15 19
-2.24398 -4.26130 3.01073 18 24 30
-2.26287 -4.26649 3.02927 32 28 34
-2.26143 -4.26891 3.01037 26 30 35
1.41649 -3.63101 3.42551 80 72 65
1.43876 -3.62489 3.40365 95 77 84
1.41301 -3.65370 3.43335 57 42 58
1.39066 -3.65984 3.45529 46 45 58
1.39236 -3.66270 3.43293 49 43 51
1.39406 -3.66556 3.41058 52 43 53
0.55095 -3.30108 3.14378 115 133 160
-0.14706 -4.31279 3.39388 177 191 202
-0.12479 -4.30668 3.37202 183 202 223
-0.17987 -4.30527 3.38506 140 145 166
-0.20307 -4.31054 3.38278 135 130 154
-0.22678 -4.31506 3.38013 152 142 157
-0.23506 -4.34081 3.38823 173 161 175
-0.25621 -4.34892 3.38739 180 174 173
-0.33057 -4.31978 3.36288 198 204 183
-0.34924 -4.33146 3.34045 227 231 242
-0.36020 -4.31543 3.35583 204 207 182
-0.37881 -4.32708 3.33346 224 237 246
-0.42362 -4.30002 3.33846 225 230 206
-0.44307 -4.30983 3.33857 228 231 216
-0.47015 -4.30841 3.33308 230 234 219
-0.50987 -4.28810 3.31822 232 239 224
-0.53968 -4.28212 3.31053 238 244 234
-0.60882 -4.25498 3.28773 222 223 227
-0.68109 -4.22154 3.26200 90 115 170
-0.70284 -4.22659 3.25991 91 112 156
-0.72988 -4.22328 3.25372 94 98 127
-0.74852 -4.23305 3.25396 88 103 129
-0.76543 -4.24563 3.25556 78 87 114
-0.77596 -4.26852 3.26218 47 49 72
-0.79907 -4.27124 3.25896 87 100 111
-0.79878 -4.31219 3.27431 131 143 151
-0.81582 -4.32508 3.27601 116 122 151
-0.82832 -4.34559 3.28138 62 73 144
-0.82890 -4.38634 3.29650 132 145 198
-0.83557 -4.41733 3.30685 199 207 218
-0.87688 -4.38948 3.28888 168 162 159
-0.87213 -4.44044 3.30879 140 122 116
-0.88956 -4.45356 3.31050 136 108 97
-0.88224 -4.51019 3.33299 129 107 85
-0.90075 -4.52178 3.31073 233 238 213
-0.89451 -4.53298 3.33926 116 104 78
-0.88951 -4.63261 3.37739 82 78 34
-0.91394 -4.63453 3.37363 74 61 21
-1.33324 -4.34286 3.18790 34 21 11
-1.31581 -4.33195 3.20885 20 23 16
-1.31424 -4.33458 3.18829 39 20 12
-1.33480 -4.34023 3.20847 24 24 17
-1.35380 -4.34850 3.20808 21 25 12
-2.11456 -4.28714 3.02401 9 12 23
-2.09539 -4.28187 3.00520 11 9 11
-2.13081 -4.29731 3.00448 43 47 57
-2.17178 -4.23621 2.99451 105 118 127
-2.17034 -4.23863 2.97561 102 115 124
-2.18781 -4.24624 2.97525 116 117 118
-2.18925 -4.24382 2.99416 118 117 114
-2.20527 -4.25385 2.97490 67 60 61
-2.19928 -4.27464 3.00383 56 54 54
-2.22176 -4.26668 2.99674 31 11 11
-2.23781 -4.27672 2.97745 33 26 22
1.43912 -3.65057 3.41321 89 74 78
1.46148 -3.64443 3.39126 90 78 89
1.44082 -3.65343 3.39084 87 78 93
1.43173 -3.67023 3.41914 64 52 70
0.55591 -3.28265 3.11686 47 60 86
0.57563 -3.27724 3.09751 65 65 82
0.56802 -3.31736 3.13190 97 111 138
0.55844 -3.33315 3.13600 128 144 169
0.53855 -3.33861 3.15553 134 144 159
0.54006 -3.34116 3.13562 132 146 166
0.54157 -3.34371 3.11572 133 146 176
-0.14380 -4.31775 3.37266 182 201 219
-0.12151 -4.31163 3.35079 180 200 222
-0.14210 -4.32060 3.35037 180 200 222
-0.16269 -4.32957 3.34995 180 201 223
-0.16470 -4.32629 3.37203 177 195 215
-0.18359 -4.33811 3.34932 180 201 221
-0.18417 -4.33677 3.37237 181 197 214
-0.21080 -4.33748 3.36780 207 214 223
-0.21510 -4.36887 3.37863 229 235 241
-0.23575 -4.37787 3.37821 230 231 238
-0.41527 -4.31250 3.32145 219 234 249
-0.44113 -4.31301 3.31695 212 228 248
-0.46849 -4.31120 3.31131 206 223 247
-0.49112 -4.31622 3.30906 176 205 248
-0.53486 -4.28963 3.29129 203 237 252
-0.57409 -4.26926 3.27664 215 241 252
-0.57937 -4.29998 3.28704 193 209 224
-0.65994 -4.21576 3.24127 65 70 140
-0.68284 -4.21907 3.23834 70 91 126
-0.69665 -4.23643 3.24225 116 142 151
-0.72776 -4.22679 3.23304 130 131 128
-0.74890 -4.23261 3.23136 97 97 107
-0.76635 -4.24429 3.23251 81 88 102
-0.78208 -4.25879 3.23502 72 70 83
-0.79755 -4.27382 3.23777 95 100 111
-0.79495 -4.31853 3.25477 111 128 141
-0.82267 -4.31380 3.24799 78 104 130
-0.83714 -4.33092 3.25170 93 102 136
-0.83088 -4.38300 3.27209 148 175 201
-0.83180 -4.42370 3.28698 183 206 233
-0.84580 -4.44257 3.29142 223 234 236
-0.86415 -4.45406 3.26936 243 253 252
-0.86561 -4.45161 3.29116 244 247 229
-0.88894 -4.45452 3.28801 241 248 221
-0.90584 -4.46864 3.29016 233 239 213
-0.92419 -4.48012 3.26810 196 211 235
-0.90862 -4.69070 3.37178 217 218 193
-1.31047 -4.34162 3.16975 140 121 73
-1.29302 -4.33070 3.19073 46 18 16
-1.29145 -4.33334 3.17014 158 126 107
-1.28989 -4.33597 3.14955 240 244 220
-1.56953 -4.63486 3.23118 50 29 25
-1.55155 -4.62361 3.25280 11 10 20
-1.54993 -4.62632 3.23158 54 32 27
-1.54832 -4.62904 3.21036 133 147 138
-1.56792 -4.63758 3.20996 131 143 127
-1.59074 -4.64069 3.25200 8 7 13
-1.57873 -4.66837 3.24190 43 23 19
-1.60005 -4.67422 3.26282 7 6 8
-1.59669 -4.68116 3.24337 35 16 11
-1.61803 -4.68702 3.26431 6 7 10
-1.61641 -4.68975 3.24297 32 18 18
-1.75396 -4.63142 3.19643 19 15 9
-1.75555 -4.62874 3.21736 6 7 5
-1.77488 -4.63716 3.21696 5 6 8
-1.78105 -4.61946 3.18710 11 12 7
-1.80188 -4.62519 3.20755 6 5 8
-1.78646 -4.66462 3.20281 10 10 6
-1.80744 -4.67039 3.22341 7 6 7
-1.78797 -4.72115 3.22344 12 11 5
-1.80915 -4.72697 3.24424 7 8 6
-1.81004 -4.78520 3.24313 8 9 8
-1.83141 -4.79107 3.26410 5 10 5
-1.82816 -4.79654 3.22134 24 29 38
1.44725 -3.68421 3.40327 77 69 78
1.46973 -3.67804 3.38120 88 79 76
1.44896 -3.68709 3.38078 85 73 75
1.43112 -3.69701 3.40505 56 43 53
1.40862 -3.70319 3.42714 55 47 51
1.41033 -3.70607 3.40463 54 45 53
1.41205 -3.70895 3.38212 47 46 44
0.56462 -3.29150 3.10075 58 63 82
0.58437 -3.28608 3.08137 70 67 94
0.56613 -3.29403 3.08099 66 65 82
0.54788 -3.30198 3.08062 57 65 89
0.55588 -3.33207 3.11403 117 138 169
-0.20706 -4.34313 3.34694 188 208 230
-0.18479 -4.33702 3.32508 178 200 220
-0.21450 -4.37022 3.35552 197 223 248
-0.24956 -4.35916 3.34516 181 207 239
-0.29060 -4.33939 3.33054 176 206 237
-0.32902 -4.32288 3.31759 174 203 226
-0.35685 -4.32105 3.31191 169 195 230
-0.40397 -4.29135 3.29256 165 194 240
-0.43116 -4.28990 3.28714 157 187 235
-0.45162 -4.29808 3.28646 148 179 231
-0.49592 -4.27121 3.26865 143 169 225
-0.51416 -4.28240 3.26947 63 103 213
-0.58742 -4.21138 3.23029 112 156 210
-0.63357 -4.21791 3.22438 128 145 183
-0.65430 -4.22465 3.22312 68 85 113
-0.68930 -4.20932 3.21121 71 78 95
-0.69350 -4.24153 3.22225 103 131 152
-0.72173 -4.23643 3.21530 121 134 136
-0.74798 -4.23423 3.20978 95 95 89
-0.76458 -4.24724 3.21155 80 82 92
-0.78055 -4.26137 3.21386 79 83 97
-0.79503 -4.27800 3.21734 80 85 94
-0.80924 -4.29521 3.22108 52 57 72
-0.82385 -4.31191 3.22457 38 63 77
-0.83552 -4.33364 3.23042 88 117 118
-0.85492 -4.34263 3.23022 91 107 173
-0.84137 -4.40745 3.25639 162 177 217
-0.84355 -4.44638 3.27025 229 240 245
-0.88639 -4.45887 3.26712 223 237 249
-0.89084 -4.49484 3.27949 206 220 235
-1.19279 -4.62506 3.27285 237 242 209
-1.21122 -4.63660 3.25069 229 236 241
-1.19812 -4.66386 3.28609 237 240 208
-1.21561 -4.67826 3.28822 234 240 204
-1.23751 -4.68428 3.30971 87 83 42
-1.21834 -4.72342 3.30426 223 232 200
-1.24039 -4.72947 3.32590 80 74 43
-1.22278 -4.76571 3.31894 209 227 192
-1.24497 -4.77181 3.34072 78 65 47
-1.24328 -4.77465 3.31853 202 221 186
-1.24159 -4.77749 3.29633 172 212 207
-1.59085 -4.69414 3.22654 103 98 68
-1.61556 -4.69056 3.22078 103 109 106
-1.73882 -4.61085 3.16943 94 102 64
-1.76457 -4.60243 3.16172 73 89 61
-1.77925 -4.62269 3.16650 52 62 42
-1.79772 -4.63314 3.16700 44 54 35
-1.79852 -4.75253 3.21056 33 40 18
1.46072 -3.72245 3.39569 62 50 55
0.55324 -3.33092 3.09206 101 118 144
0.55475 -3.33346 3.07220 82 91 106
0.56538 -3.36621 3.10702 129 144 170
0.54538 -3.37170 3.12665 133 145 162
0.54690 -3.37426 3.10664 134 144 167
0.54843 -3.37682 3.08663 132 145 169
-0.20629 -4.34471 3.32404 170 196 220
-0.25063 -4.32083 3.30749 130 164 208
-0.27696 -4.32152 3.30304 97 133 170
-0.34542 -4.30015 3.28310 87 138 163
-0.41376 -4.24040 3.24926 79 128 152
-0.42971 -4.25480 3.25164 75 125 161
-0.45370 -4.25765 3.24839 71 121 168
-0.47449 -4.26509 3.24739 70 115 163
-0.49003 -4.28022 3.25010 77 113 171
-0.52635 -4.26464 3.23798 33 59 178
-0.54914 -4.26890 3.23546 70 109 142
-0.62008 -4.23868 3.21187 78 111 132
-0.63809 -4.24996 3.19021 88 99 119
-0.65498 -4.22385 3.20027 75 101 110
-0.67291 -4.23507 3.17872 97 100 116
-0.68454 -4.21689 3.19248 86 96 105
-0.70240 -4.22807 3.17100 68 90 118
-0.70545 -4.22313 3.19102 87 105 133
-0.72331 -4.23431 3.16955 77 78 130
-0.73257 -4.21959 3.18490 87 97 130
-0.74316 -4.24201 3.19113 83 69 102
-0.76103 -4.25319 3.16966 92 47 57
-0.76187 -4.25171 3.19131 86 58 86
-0.77815 -4.26534 3.19335 81 80 114
-0.79334 -4.28083 3.19626 88 95 106
-0.80244 -4.30641 3.20390 46 57 61
-0.81882 -4.32025 3.20600 26 60 61
-0.84208 -4.32274 3.20275 54 81 79
-0.85514 -4.34226 3.20750 59 70 110
-0.83431 -4.41939 3.23916 158 186 211
-0.84190 -4.44915 3.24859 229 246 252
-0.86220 -4.45735 3.24794 240 252 252
-0.86920 -4.48868 3.25805 173 196 242
-0.88764 -4.50022 3.23589 87 119 220
-0.87792 -4.51740 3.26690 116 138 223
-0.89809 -4.52619 3.26649 99 136 223
-1.21394 -4.68107 3.26631 223 234 237
-1.21666 -4.72624 3.28220 203 226 227
-1.22109 -4.76855 3.29674 184 225 213
-1.65611 -4.58985 3.15445 125 156 169
-1.65452 -4.59253 3.13355 58 92 129
-1.67382 -4.60094 3.13315 62 98 134
-1.72593 -4.64251 3.16109 161 175 173
-1.70496 -4.63675 3.14049 70 100 145
-1.75493 -4.62600 3.14994 150 159 144
-1.78170 -4.61476 3.14109 130 121 100
-1.79469 -4.63964 3.14779 120 115 99
-1.81104 -4.65592 3.15078 110 117 102
-1.82100 -4.68972 3.16125 84 84 69
-1.81716 -4.76212 3.18817 57 67 53
-1.86968 -4.80606 3.19473 66 85 77
-1.89101 -4.81192 3.21567 44 47 34
-1.88776 -4.81738 3.17299 26 21 38
-2.38916 -4.09054 2.84286 29 18 9
-2.37388 -4.08098 2.86123 16 20 18
-2.37251 -4.08328 2.84320 28 30 24
-2.37113 -4.08559 2.82517 31 30 50
-2.39053 -4.08823 2.86089 16 19 10
-2.40718 -4.09549 2.86055 18 16 19
-2.40541 -4.09919 2.84310 44 20 16
-2.42407 -4.09940 2.83985 28 7 7
-2.44207 -4.10434 2.85752 22 23 17
-2.44070 -4.10665 2.83951 16 11 7
1.49511 -3.72570 3.37896 88 80 79
1.51605 -3.71657 3.37938 89 80 87
1.51778 -3.71947 3.35670 91 80 71
1.49683 -3.72860 3.35628 90 81 85
1.47809 -3.73801 3.38037 77 64 64
1.45886 -3.75005 3.35724 61 49 64
1.45538 -3.74572 3.37912 49 42 57
1.43270 -3.75195 3.40139 50 50 57
1.43442 -3.75485 3.37869 50 46 61
1.43615 -3.75776 3.35600 51 43 57
0.55728 -3.36015 3.08222 121 139 155
0.54036 -3.37074 3.06188 128 149 165
-0.18306 -4.33992 3.30284 175 202 223
-0.16419 -4.32811 3.32553 178 199 222
-0.16249 -4.33096 3.30326 177 200 223
-0.16080 -4.33381 3.28099 177 200 223
-0.20644 -4.34504 3.30055 155 185 210
-0.25991 -4.30853 3.27801 106 138 165
-0.32374 -4.25688 3.24821 86 114 128
-0.39326 -4.23296 3.22736 73 112 120
-0.41889 -4.23351 3.22302 71 106 119
-0.44122 -4.23868 3.22093 70 104 120
-0.46353 -4.24380 3.21883 67 102 119
-0.48286 -4.25323 3.21880 72 105 129
-0.49908 -4.26725 3.22096 72 103 151
-0.52584 -4.26573 3.21569 51 68 161
-0.55858 -4.25509 3.20609 73 101 112
-0.57672 -4.26644 3.18429 94 93 139
-0.58878 -4.24798 3.19821 87 111 121
-0.60685 -4.25929 3.17648 108 91 137
-0.74587 -4.23788 3.16684 81 72 111
-0.77750 -4.26650 3.17152 78 72 108
-0.79539 -4.27769 3.15002 93 98 99
-0.79539 -4.27760 3.17234 88 98 102
-0.79554 -4.31778 3.18672 44 46 55
-0.80109 -4.34960 3.19715 15 20 32
-0.81919 -4.36093 3.17539 27 25 42
-0.82368 -4.35342 3.19454 10 22 49
-0.84467 -4.35985 3.19314 27 38 73
-0.83333 -4.42103 3.21708 149 181 196
-0.83099 -4.46775 3.23425 207 225 241
-0.85363 -4.47207 3.23180 220 236 246
-0.85591 -4.51171 3.24561 135 153 231
-0.88172 -4.55503 3.25659 139 160 229
-1.17893 -4.60283 3.22124 235 243 245
-1.15892 -4.59411 3.22165 238 244 243
-1.19394 -4.62164 3.22534 223 238 246
-1.19669 -4.66560 3.24061 205 228 238
-1.20880 -4.69103 3.24759 179 211 222
-1.18227 -4.79699 3.29028 147 188 208
-1.20566 -4.80020 3.28730 138 170 211
-1.24318 -4.77340 3.27106 120 139 185
-1.26534 -4.77948 3.29282 167 204 210
-1.25538 -4.80002 3.27846 100 124 177
-1.27762 -4.80613 3.30028 163 196 218
-1.27592 -4.80897 3.27804 90 116 170
-1.26305 -4.89086 3.30968 84 106 162
-1.26477 -4.88798 3.33223 157 180 211
-1.28227 -4.90350 3.31082 83 104 140
-1.30139 -4.91547 3.28783 61 62 83
-1.27565 -5.03039 3.35750 25 23 75
-1.29516 -5.04260 3.33404 33 47 70
-1.57305 -4.73488 3.19899 51 73 112
-1.59130 -4.74630 3.17705 63 78 102
-1.74905 -4.58180 3.11300 83 114 154
-1.72834 -4.57611 3.09267 60 89 108
-1.75691 -4.61942 3.12511 116 148 160
-1.77397 -4.63354 3.12715 142 165 137
-1.79311 -4.64229 3.12691 143 158 101
-1.81475 -4.64435 3.12383 122 132 66
-1.83241 -4.65541 3.10260 167 178 123
-1.79683 -4.75375 3.16623 90 93 39
-1.81823 -4.82060 3.18642 51 36 42
-1.83656 -4.83342 3.18778 47 29 27
-2.39266 -4.07615 2.81798 77 72 101
-2.37470 -4.07122 2.80035 46 52 70
-2.39971 -4.11658 2.83123 161 179 139
-2.43130 -4.07136 2.80944 135 105 57
-2.44046 -4.10489 2.81984 69 34 8
-2.45964 -4.10284 2.81572 28 8 4
-2.47759 -4.10777 2.83334 16 24 11
-2.47622 -4.11007 2.81539 16 11 6
1.49580 -3.75385 3.36506 87 76 76
1.51856 -3.74760 3.34272 91 81 90
1.49753 -3.75677 3.34229 90 80 84
0.56798 -3.37093 3.06678 105 128 141
0.55103 -3.38154 3.04639 125 148 172
0.05595 -4.12174 3.24365 163 187 214
0.07447 -4.11015 3.26592 165 186 212
0.07614 -4.11295 3.24406 165 186 212
0.05429 -4.11895 3.26551 166 188 214
0.03410 -4.12774 3.26510 168 190 212
0.04145 -4.13751 3.24671 163 190 213
0.01957 -4.14352 3.26819 170 191 211
0.02122 -4.14630 3.24629 166 192 210
-0.00066 -4.15231 3.26777 170 192 213
0.00100 -4.15511 3.24588 168 192 210
-0.18726 -4.33476 3.27670 163 186 222
-0.23215 -4.31031 3.26016 117 133 200
-0.28994 -4.30442 3.24796 113 141 149
-0.39803 -4.22665 3.20144 66 97 113
-0.42030 -4.23192 3.19941 69 102 124
-0.43663 -4.24567 3.20144 69 104 127
-0.47048 -4.23413 3.19142 63 94 113
-0.50041 -4.26565 3.19737 71 92 147
-0.52432 -4.26830 3.19412 53 78 168
-0.55276 -4.26410 3.18765 79 93 140
-0.72687 -4.22890 3.14469 97 87 129
-0.70744 -4.22043 3.14509 104 107 114
-0.70584 -4.22312 3.12405 106 110 103
-0.72527 -4.23159 3.12366 103 104 105
-0.74528 -4.23897 3.14504 79 88 138
-0.76092 -4.25350 3.14747 91 50 78
-0.77574 -4.26946 3.15053 86 75 97
-0.79362 -4.28065 3.12903 98 101 110
-0.80859 -4.29649 3.15438 67 73 68
-0.80275 -4.34690 3.17329 40 34 31
-0.83828 -4.37058 3.17548 11 32 71
-0.82245 -4.43944 3.20269 108 147 192
-0.82463 -4.47858 3.21620 189 215 235
-0.83807 -4.49882 3.22103 179 202 239
-0.85750 -4.50884 3.22119 124 137 212
-0.87601 -4.52052 3.22209 104 129 211
-0.85507 -4.60209 3.25471 172 197 238
-0.86154 -4.63598 3.26560 234 241 250
-0.88041 -4.64778 3.24293 236 240 244
-1.15859 -4.59426 3.19882 234 245 244
-1.14024 -4.58278 3.22088 238 242 244
-1.13859 -4.58555 3.19922 241 246 247
-1.17355 -4.61306 3.20287 207 225 232
-1.16698 -4.67544 3.22616 159 184 208
-1.21181 -4.63424 3.20369 118 138 191
-1.21597 -4.67566 3.21766 86 107 166
-1.22428 -4.91973 3.30284 75 93 121
-1.24352 -4.93177 3.27971 72 87 102
-1.22993 -4.96230 3.31696 73 91 116
-1.24929 -4.97441 3.29369 69 87 94
-1.24556 -4.98354 3.32176 67 87 101
-1.26496 -4.99568 3.29844 71 83 88
-1.76297 -4.54472 3.07546 35 65 104
-1.78388 -4.54801 3.07297 52 95 121
-1.77731 -4.62329 3.10084 105 155 132
-1.78900 -4.65167 3.10887 152 191 131
-1.79816 -4.68730 3.11991 171 196 127
-1.81544 -4.76340 3.14390 157 158 126
-1.83486 -4.77251 3.14373 148 145 124
-1.88147 -4.70506 3.11164 134 130 95
-1.88521 -4.75797 3.12976 113 103 60
-1.88411 -4.82596 3.15408 90 70 40
-1.90547 -4.83182 3.17504 21 25 43
-1.86571 -5.01443 3.22419 49 31 12
-1.88775 -5.02048 3.24583 26 37 46
-1.87614 -5.05309 3.23609 47 24 16
-1.89830 -5.05918 3.25785 40 36 41
-1.88023 -5.11177 3.25620 46 23 17
-1.90259 -5.11791 3.27815 51 51 58
-1.90089 -5.12077 3.25578 46 30 24
-1.89919 -5.12363 3.23341 81 75 37
-2.39454 -4.06730 2.79549 105 96 152
-2.37663 -4.06238 2.77791 25 35 66
-2.40225 -4.10527 2.80762 210 236 230
-2.42285 -4.09863 2.80166 230 228 195
-2.43944 -4.10595 2.80135 196 181 141
-2.47160 -4.05675 2.77826 128 95 69
-2.47894 -4.09733 2.79138 66 34 13
-2.49683 -4.10224 2.80894 15 13 15
-2.49912 -4.09088 2.78556 31 11 11
-2.51695 -4.09578 2.80307 15 15 19
-2.51560 -4.09806 2.78522 15 9 8
-3.22867 -3.52066 2.45550 215 241 238
-3.24340 -3.52470 2.46995 231 230 222
-3.24228 -3.52659 2.45522 243 244 240
-3.24116 -3.52847 2.44049 249 250 248
1.47449 -3.76429 3.34094 80 65 64
1.49724 -3.75804 3.31860 97 85 88
1.45347 -3.77345 3.34051 56 47 47
0.56843 -3.34803 3.03764 53 64 73
0.64544 -3.44150 3.08383 90 104 139
0.09798 -4.10694 3.22262 163 186 214
0.11651 -4.09535 3.24488 162 183 216
0.11817 -4.09815 3.22303 162 184 214
0.09632 -4.10415 3.24447 164 184 214
0.07836 -4.11642 3.22254 150 176 207
0.05579 -4.12233 3.22070 131 155 200
0.03381 -4.12891 3.21920 121 146 199
0.02014 -4.14572 3.22274 135 166 210
0.00160 -4.15658 3.22334 160 186 221
-0.02028 -4.16259 3.24481 168 190 215
-0.01861 -4.16539 3.22293 168 190 219
-0.17524 -4.31488 3.24827 174 197 219
-0.15645 -4.30312 3.27086 176 197 221
-0.15476 -4.30596 3.24869 173 196 219
-0.15308 -4.30879 3.22652 171 193 221
-0.20057 -4.31719 3.24469 148 168 198
-0.24223 -4.29702 3.23039 66 82 153
-0.28801 -4.27071 3.21321 78 111 162
-0.28441 -4.31260 3.22855 112 159 186
-0.40444 -4.21803 3.17452 58 75 98
-0.43298 -4.21428 3.16825 52 73 104
-0.45073 -4.22581 3.16922 54 84 113
-0.49686 -4.19632 3.15087 44 70 94
-0.50484 -4.25946 3.17166 78 77 143
-0.52864 -4.26222 3.16850 74 93 181
-0.57051 -4.23787 3.15269 98 123 170
-0.58856 -4.24917 3.13100 135 154 213
-0.58882 -4.24849 3.15325 105 108 147
-0.63028 -4.22396 3.13744 112 79 115
-0.65143 -4.22977 3.15820 115 89 137
-0.65733 -4.22097 3.13170 116 79 135
-0.67843 -4.22676 3.15241 110 93 124
-0.68305 -4.21984 3.12685 106 86 122
-0.73908 -4.24896 3.12736 95 104 134
-0.71801 -4.24317 3.10668 107 114 99
-0.75712 -4.25971 3.12801 91 74 93
-0.77231 -4.27509 3.13077 95 81 97
-0.79021 -4.28629 3.10926 101 107 121
-0.80482 -4.30273 3.13485 85 87 86
-0.79780 -4.35512 3.15446 50 53 28
-0.81823 -4.36255 3.15353 30 28 21
-0.83535 -4.37551 3.15511 11 13 40
-0.82767 -4.43059 3.17579 89 88 131
-0.83593 -4.45921 3.18441 181 203 222
-0.84123 -4.49330 3.19546 140 160 237
-0.85494 -4.51321 3.20008 98 124 216
-0.87673 -4.51912 3.19838 129 143 210
-0.86430 -4.58559 3.22388 199 214 236
-0.87201 -4.61710 3.23361 231 240 246
-0.89079 -4.62886 3.21103 239 242 243
-1.14006 -4.58220 3.17487 240 248 245
-1.12173 -4.57072 3.19691 242 245 247
-1.12008 -4.57349 3.17528 248 250 249
-1.17737 -4.55663 3.15943 197 214 218
-1.18992 -4.57985 3.16541 115 134 169
-1.19009 -4.62829 3.18239 66 90 136
-1.20850 -4.63981 3.16026 71 91 115
-1.19689 -4.66402 3.19376 64 89 136
-1.21539 -4.67560 3.17152 74 90 114
-1.20181 -4.70414 3.20699 74 93 127
-1.22043 -4.71579 3.18462 74 88 112
-1.21208 -4.73376 3.21562 80 94 124
-1.23077 -4.74546 3.19315 72 88 109
-1.22226 -4.76401 3.22448 78 94 122
-1.24102 -4.77576 3.20192 70 86 104
-1.22510 -4.81021 3.24021 74 92 117
-1.24400 -4.82204 3.21749 71 83 102
-1.22934 -4.85415 3.25491 74 91 110
-1.24837 -4.86606 3.23204 67 82 102
-1.76534 -4.53727 3.05068 59 77 87
-1.78599 -4.54112 3.04845 38 63 65
-1.79680 -4.57069 3.05696 62 103 94
-1.79274 -4.64020 3.08208 136 169 151
-1.80769 -4.66010 3.08648 179 196 180
-1.82539 -4.67118 3.06520 187 189 181
-1.83901 -4.75918 3.11584 168 160 159
-1.85630 -4.77411 3.11809 166 165 154
-1.87235 -4.79276 3.12186 164 166 140
-1.86832 -4.86959 3.14954 160 159 124
-1.89721 -4.98772 3.18602 135 126 79
-1.91577 -4.99934 3.16371 171 173 151
-1.90797 -5.02527 3.19734 118 103 60
-1.92662 -5.03694 3.17492 168 167 138
-2.39385 -4.06730 2.77665 114 114 151
-2.37594 -4.06238 2.75907 36 18 46
-2.40106 -4.10695 2.78932 211 233 243
-2.41634 -4.11652 2.77094 240 247 248
-2.41840 -4.11180 2.78802 228 236 240
-2.43943 -4.10340 2.78142 220 220 218
-2.46544 -4.07646 2.76745 212 209 192
-2.47513 -4.10863 2.77707 190 181 140
-2.51490 -4.02906 2.74223 133 112 63
-2.51850 -4.08416 2.76095 53 35 13
-2.53628 -4.08904 2.77840 11 15 8
-2.53666 -4.08461 2.75796 17 12 10
-2.55441 -4.08948 2.77538 12 17 6
-2.55306 -4.09175 2.75763 9 13 12
-2.55171 -4.09402 2.73988 21 15 11
-3.22720 -3.52546 2.44185 218 248 250
-3.23969 -3.53327 2.42684 253 253 253
1.49559 -3.78299 3.32699 93 79 76
1.51843 -3.77671 3.30457 101 89 89
1.45693 -3.77778 3.31854 58 51 55
1.43417 -3.78403 3.34088 54 51 62
1.43591 -3.78694 3.31811 54 49 63
0.60633 -3.35848 3.02672 69 76 89
0.62633 -3.35299 3.00710 80 76 82
0.60785 -3.36104 3.00673 74 74 83
0.57360 -3.37835 3.02800 62 70 97
0.56307 -3.39358 3.03149 116 134 153
0.54302 -3.39909 3.05117 130 147 164
0.54454 -3.40166 3.03111 131 146 166
0.11874 -4.09964 3.20053 161 185 211
0.13726 -4.08805 3.22279 159 182 211
0.13892 -4.09085 3.20094 158 182 208
0.14058 -4.09364 3.17909 160 182 206
0.09893 -4.10888 3.20033 142 164 196
0.07724 -4.11586 3.19904 94 111 153
0.04484 -4.10978 3.19136 59 72 125
0.03455 -4.13058 3.19682 48 61 131
0.01138 -4.13565 3.19460 72 95 161
-0.00705 -4.14656 3.19523 128 157 203
-0.01741 -4.16762 3.20076 163 189 216
-0.03928 -4.17362 3.22223 169 189 220
-0.03762 -4.17642 3.20035 169 189 216
-0.03595 -4.17922 3.17847 167 190 213
-0.18289 -4.30511 3.22012 172 194 218
-0.20617 -4.31012 3.21786 145 159 172
-0.23547 -4.30681 3.21168 49 58 94
-0.28241 -4.27895 3.19394 24 36 87
-0.31774 -4.26668 3.18360 51 81 142
-0.32194 -4.29776 3.19368 92 126 174
-0.44787 -4.19346 3.13581 36 38 87
-0.47598 -4.18994 3.12975 44 68 94
-0.52813 -4.18826 3.12021 82 56 63
-0.53056 -4.22198 3.13151 94 82 140
-0.55498 -4.22348 3.12784 88 101 185
-0.59514 -4.20134 3.11325 110 138 188
-0.63526 -4.21665 3.11168 142 137 176
-0.66577 -4.20828 3.10352 121 71 121
-0.68215 -4.22145 3.10529 101 78 113
-0.69999 -4.23262 3.08384 109 113 112
-0.70038 -4.23182 3.10576 105 107 106
-0.71823 -4.24300 3.08430 110 115 104
-0.73499 -4.25559 3.10808 99 106 122
-0.75286 -4.26678 3.08659 92 99 115
-0.75235 -4.26745 3.10922 85 80 110
-0.77024 -4.27865 3.08771 105 104 118
-0.76745 -4.28303 3.11204 97 97 109
-0.79856 -4.31306 3.11713 97 102 102
-0.79356 -4.36218 3.13506 38 33 25
-0.81330 -4.37078 3.13466 23 19 29
-0.83305 -4.37939 3.13426 12 15 59
-0.82218 -4.43986 3.15713 128 147 166
-0.83013 -4.46909 3.16593 186 198 230
-0.84663 -4.48392 3.16825 135 137 209
-0.85360 -4.51543 3.17800 95 114 209
-0.86313 -4.54288 3.18590 161 177 230
-0.86508 -4.58405 3.19987 219 228 245
-0.88545 -4.59292 3.19946 232 236 240
-0.90413 -4.60462 3.17700 237 243 243
-1.12460 -4.56431 3.14844 242 247 243
-1.10631 -4.55286 3.17042 247 246 247
-1.10467 -4.55562 3.14884 253 253 252
-1.15308 -4.55624 3.14074 211 225 212
-1.17834 -4.55424 3.13571 141 159 159
-1.18696 -4.58523 3.14500 62 83 116
-1.20523 -4.59667 3.12303 72 83 105
-1.20077 -4.60622 3.14992 66 86 108
-1.78606 -4.53953 3.02621 58 75 73
-1.79446 -4.57535 3.03721 97 119 122
-1.79106 -4.64312 3.06135 175 198 202
-1.81552 -4.63750 3.05519 203 221 215
-1.82456 -4.73489 3.08748 181 179 169
-1.82295 -4.73759 3.06637 200 199 191
-1.86092 -4.82343 3.11201 180 182 177
-1.87004 -4.86265 3.12407 176 179 167
-2.39376 -4.06522 2.75700 121 116 167
-2.37587 -4.06031 2.73944 147 146 130
-2.40121 -4.10396 2.76918 219 238 246
-2.41648 -4.11351 2.75082 240 245 249
-2.43963 -4.10010 2.76124 228 237 241
-2.45484 -4.10962 2.74295 226 229 238
-2.46236 -4.08501 2.75209 222 228 231
-2.48492 -4.06988 2.74296 221 221 216
-2.50846 -4.05039 2.73214 214 210 166
-2.53273 -4.02732 2.71995 127 101 65
-2.54271 -4.05838 2.72903 44 24 15
-3.22458 -3.53951 2.43160 219 250 254
-3.23711 -3.54736 2.41654 254 254 254
1.49677 -3.78545 3.30389 100 88 81
1.51960 -3.77918 3.28148 103 91 88
1.49851 -3.78838 3.28105 103 91 87
1.47741 -3.79757 3.28062 100 83 81
1.46833 -3.78863 3.30015 80 72 67
1.43702 -3.78934 3.29506 61 50 67
1.41426 -3.79559 3.31740 58 53 67
1.41599 -3.79850 3.29464 57 56 66
1.41773 -3.80142 3.27187 56 55 62
0.60172 -3.38007 3.01222 61 66 70
0.62176 -3.37457 2.99254 79 73 81
0.58319 -3.38814 3.01185 48 58 86
0.56764 -3.39890 3.01290 97 107 139
0.55923 -3.41617 3.01741 128 142 173
0.53912 -3.42169 3.03715 129 145 159
0.54065 -3.42427 3.01703 130 145 165
0.54218 -3.42684 2.99691 131 147 165
0.11924 -4.10105 3.17800 154 177 199
0.09840 -4.10905 3.17721 102 115 151
0.07625 -4.11545 3.17564 43 47 86
0.06051 -4.12961 3.17783 28 32 65
0.04004 -4.13805 3.17725 31 35 79
0.01996 -4.14699 3.17690 38 50 107
-0.00838 -4.14563 3.17161 85 114 163
-0.01768 -4.16799 3.17772 151 181 207
-0.16396 -4.29479 3.19642 169 195 222
-0.14524 -4.28307 3.21893 170 194 217
-0.14356 -4.28590 3.19684 168 193 220
-0.18328 -4.30514 3.19670 171 198 219
-0.20822 -4.30786 3.19339 153 172 181
-0.24840 -4.28961 3.18028 77 78 90
-0.25175 -4.32181 3.19078 18 9 23
-0.30680 -4.28239 3.16785 18 25 63
-0.37882 -4.21841 3.13361 39 57 113
-0.42010 -4.19675 3.11913 37 61 115
-0.43820 -4.20808 3.09738 24 27 75
-0.45163 -4.18852 3.11094 32 31 81
-0.51013 -4.17786 3.09732 38 41 53
-0.53063 -4.18497 3.09628 57 41 42
-0.55968 -4.17946 3.08944 100 103 110
-0.57526 -4.19374 3.09170 103 105 167
-0.60014 -4.19418 3.08761 105 111 149
-0.61296 -4.21267 3.09179 106 107 167
-0.64338 -4.20459 3.08384 117 119 161
-0.66974 -4.20244 3.07861 114 78 119
-0.68754 -4.21357 3.05722 111 134 145
-0.68268 -4.22085 3.08274 108 103 125
-0.73079 -4.26240 3.08884 104 109 118
-0.74868 -4.27360 3.06733 88 91 112
-0.77558 -4.31014 3.09763 108 111 127
-0.79322 -4.32186 3.09866 120 122 116
-0.79854 -4.35400 3.10880 62 79 76
-0.81586 -4.36655 3.11017 47 62 82
-0.83309 -4.37932 3.11163 24 54 96
-0.81957 -4.44426 3.13626 134 196 192
-0.83882 -4.45418 3.13639 149 184 224
-0.84661 -4.48388 3.14528 132 156 223
-0.86631 -4.49324 3.14514 132 140 206
-0.84955 -4.56659 3.17321 195 212 233
-0.86819 -4.57826 3.15080 216 219 238
-0.86907 -4.57683 3.17341 214 226 242
-0.88231 -4.59834 3.17855 224 230 239
-0.90101 -4.61004 3.15608 236 242 245
-1.08618 -4.54382 3.12512 249 252 252
-1.06791 -4.53238 3.14708 251 250 251
-1.06627 -4.53514 3.12552 252 253 254
-1.08782 -4.54106 3.14667 253 253 252
-1.10880 -4.54729 3.12246 238 244 237
-1.13967 -4.53464 3.11286 210 222 198
-1.16623 -4.53004 3.10676 174 194 174
-1.19259 -4.52557 3.10074 142 152 160
-1.19005 -4.57856 3.11939 81 81 94
-1.21327 -4.62951 3.13296 71 86 105
-1.21698 -4.67172 3.14684 69 83 101
-1.23711 -4.68050 3.14643 68 81 100
-1.76598 -4.53288 3.00569 62 80 90
-1.77837 -4.55803 3.01223 100 112 132
-1.77618 -4.62178 3.03452 168 179 201
-1.79466 -4.63202 3.03489 214 229 237
-1.82078 -4.62182 3.02694 212 223 225
-1.83833 -4.63280 3.00584 194 195 196
-1.83205 -4.65147 3.03522 201 204 199
-2.38485 -4.09333 2.74926 179 184 191
-2.36686 -4.08839 2.73160 176 175 180
-2.40045 -4.10414 2.75032 231 244 248
-2.41571 -4.11369 2.73198 243 249 249
-2.43971 -4.09722 2.74126 231 237 244
-2.48458 -4.06843 2.72373 223 230 237
-2.50800 -4.04935 2.71319 227 230 217
-2.53854 -4.00249 2.69188 170 139 128
-2.54516 -4.04603 2.70573 64 33 27
-2.55886 -4.06305 2.70924 26 20 7
-2.57648 -4.06789 2.72654 20 18 16
-2.57514 -4.07015 2.70891 26 28 17
-3.18729 -3.59742 2.44223 20 30 69
-3.17226 -3.59329 2.42747 30 38 49
-3.20415 -3.57997 2.43336 95 117 153
-3.21916 -3.57623 2.42952 219 249 254
-3.23180 -3.58414 2.41432 254 254 254
1.45592 -3.80644 3.28002 67 58 64
0.59051 -3.39591 2.99453 53 60 85
0.57478 -3.40653 2.99550 72 81 110
0.55793 -3.41617 2.99594 119 136 166
0.14037 -4.09422 3.15616 163 183 204
0.15888 -4.08263 3.17842 157 180 203
0.16054 -4.08543 3.15657 157 179 206
0.16220 -4.08822 3.13473 157 179 206
0.11990 -4.10265 3.15558 138 158 182
0.06458 -4.06929 3.13491 70 78 112
0.08193 -4.12310 3.15614 31 32 59
0.06136 -4.13142 3.15550 37 42 56
0.04284 -4.14301 3.13324 49 57 67
0.04341 -4.14295 3.15640 49 50 66
0.02192 -4.15015 3.15523 39 46 89
-0.00654 -4.14866 3.14992 63 85 135
-0.02089 -4.16468 3.15295 137 168 195
-0.03939 -4.17558 3.15354 162 192 216
-0.06124 -4.18158 3.17498 166 189 214
-0.05756 -4.18693 3.15434 162 191 215
-0.07942 -4.19294 3.17579 168 188 213
-0.07423 -4.20025 3.15606 162 190 217
-0.09611 -4.20626 3.17753 170 189 213
-0.08951 -4.21542 3.15864 162 190 216
-0.11141 -4.22144 3.18015 169 191 214
-0.10315 -4.23282 3.16226 160 190 212
-0.12510 -4.23885 3.18380 167 193 217
-0.11664 -4.25055 3.16602 160 192 213
-0.13862 -4.25659 3.18760 167 194 220
-0.13188 -4.26609 3.16873 158 190 214
-0.14878 -4.27954 3.17046 148 182 216
-0.16747 -4.29066 3.17109 143 171 220
-0.18397 -4.30477 3.17311 137 166 209
-0.20643 -4.31084 3.17139 122 144 185
-0.24756 -4.29128 3.15780 82 80 110
-0.28435 -4.27727 3.14684 33 25 27
-0.31113 -4.27685 3.14218 29 31 42
-0.32959 -4.28841 3.11998 37 38 51
-0.36946 -4.23200 3.11710 29 33 57
-0.41402 -4.20580 3.10067 30 34 67
-0.48249 -4.18138 3.08083 38 46 74
-0.51138 -4.17642 3.07427 74 49 79
-0.53548 -4.17824 3.07083 78 65 65
-0.56911 -4.16593 3.06098 110 106 93
-0.59257 -4.16838 3.05785 114 107 131
-0.61773 -4.16817 3.05354 109 115 122
-0.63548 -4.17928 3.03221 88 89 93
-0.65299 -4.15260 3.04231 81 91 115
-0.65951 -4.18032 3.05063 97 106 124
-0.66414 -4.21126 3.06038 110 127 152
-0.69164 -4.24583 3.06750 106 122 126
-0.70952 -4.25703 3.04600 105 108 99
-0.71001 -4.25609 3.06789 110 112 91
-0.72790 -4.26728 3.04638 101 102 96
-0.75751 -4.29927 3.07457 98 101 118
-0.73633 -4.29345 3.05378 96 96 114
-0.77207 -4.31593 3.07778 110 122 126
-0.78880 -4.32918 3.07947 124 128 129
-0.81478 -4.36837 3.08842 69 80 95
-0.82854 -4.38697 3.09243 27 52 108
-0.82462 -4.43569 3.10966 94 147 191
-0.83952 -4.45294 3.11301 123 157 217
-0.85832 -4.46362 3.11348 109 136 224
-0.85628 -4.51058 3.12979 161 170 222
-0.85289 -4.56059 3.14737 217 229 239
-0.87150 -4.57224 3.12500 218 227 239
-0.88555 -4.59239 3.15268 224 228 241
-0.90421 -4.60407 3.13025 242 242 246
-1.06447 -4.53822 3.10410 244 252 248
-1.04620 -4.52678 3.12607 249 250 252
-1.04456 -4.52954 3.10451 253 254 253
-1.08723 -4.54145 3.10137 215 224 224
-1.11474 -4.53548 3.09470 187 194 195
-1.14572 -4.52248 3.08506 182 203 192
-1.16546 -4.53109 3.08466 183 200 199
-1.21211 -4.48650 3.06163 151 151 162
-1.20352 -4.55115 3.08506 98 102 118
-1.21235 -4.58177 3.09399 70 78 94
-1.21655 -4.62225 3.10705 60 75 91
-1.22717 -4.65016 3.11475 54 74 84
-1.74248 -4.47924 2.96977 66 62 81
-1.72526 -4.46846 2.99047 57 72 83
-1.72371 -4.47106 2.97015 52 61 72
-1.72217 -4.47366 2.94983 70 93 59
-1.75829 -4.49488 2.97242 80 81 118
-1.75609 -4.55684 2.99387 136 151 169
-1.76345 -4.59527 3.00570 200 217 218
-1.77574 -4.62146 3.01253 229 240 244
-1.79252 -4.63616 3.01470 223 233 237
-1.81014 -4.64719 2.99352 191 195 179
-1.81531 -4.63491 3.01044 198 207 209
-1.88110 -4.89288 3.08709 203 201 195
-2.38157 -4.10218 2.73381 201 210 207
-2.36356 -4.09723 2.71613 193 194 198
-2.40092 -4.10007 2.72984 234 243 249
-2.41616 -4.10961 2.71151 253 254 253
-2.44141 -4.08857 2.71910 235 238 246
-2.45657 -4.09806 2.70088 245 248 249
-2.46622 -4.06573 2.70715 231 235 242
-2.48737 -4.05546 2.70009 229 232 239
-2.50792 -4.04691 2.69372 227 230 221
-2.53733 -4.00427 2.67426 172 146 129
-2.55376 -4.01007 2.67347 87 52 30
-2.55976 -4.05657 2.68827 45 23 7
-2.57236 -4.07812 2.69348 37 22 13
-2.59000 -4.08296 2.71079 29 26 22
-2.58451 -4.10196 2.69954 35 24 19
-2.59486 -4.13372 2.70859 29 31 29
-2.61266 -4.13861 2.72607 18 23 15
-2.61130 -4.14088 2.70826 30 29 31
-2.62140 -4.17496 2.71815 32 26 27
-2.62276 -4.17266 2.73606 19 19 14
-2.63930 -4.17987 2.73572 19 17 21
-2.63212 -4.20722 2.72731 25 20 21
-2.65012 -4.21216 2.74498 16 15 21
-2.64875 -4.21447 2.72697 16 14 17
-3.18696 -3.59310 2.42493 22 31 71
-3.17195 -3.58898 2.41020 32 40 50
-3.20105 -3.59736 2.42400 95 115 155
-3.21373 -3.61292 2.42716 221 249 254
-3.22648 -3.62090 2.41183 254 254 254
1.47535 -3.79737 3.25610 111 92 80
1.49643 -3.78819 3.25653 107 94 91
1.49817 -3.79111 3.23370 110 98 96
1.47709 -3.80029 3.23327 109 98 85
1.45416 -3.80647 3.25562 84 75 67
1.44132 -3.82250 3.25887 63 57 69
1.41846 -3.82878 3.28130 62 59 62
1.42020 -3.83170 3.25844 63 57 66
1.42194 -3.83463 3.23558 62 59 68
0.58239 -3.41459 2.97826 51 65 92
0.60251 -3.40907 2.95851 68 73 77
0.59195 -3.44826 2.99118 99 117 145
0.56895 -3.45249 2.98877 129 147 167
0.54872 -3.45805 3.00863 129 147 164
0.55026 -3.46064 2.98839 130 150 165
0.55180 -3.46323 2.96815 130 147 172
0.14196 -4.09693 3.13429 162 183 200
0.16379 -4.09094 3.11286 156 179 204
0.12075 -4.10448 3.13328 114 137 165
0.09108 -4.10186 3.12745 48 58 91
0.07262 -4.11342 3.10526 32 38 52
0.08097 -4.12273 3.13278 30 33 52
0.05899 -4.12931 3.13133 38 45 58
0.04050 -4.14089 3.10909 45 59 74
0.01863 -4.14683 3.13048 40 49 79
-0.01013 -4.14492 3.12504 58 73 111
-0.02549 -4.15963 3.12742 112 141 171
-0.04093 -4.17434 3.12980 131 162 205
-0.06624 -4.17658 3.12633 125 152 197
-0.08838 -4.18279 3.12472 122 148 192
-0.10986 -4.18980 3.12349 119 145 188
-0.13074 -4.19758 3.12262 112 139 185
-0.15354 -4.20283 3.12058 117 146 184
-0.17005 -4.21632 3.12236 112 144 173
-0.22113 -4.18390 3.10293 70 96 145
-0.21907 -4.22207 3.11612 55 67 126
-0.20794 -4.27294 3.13509 51 66 120
-0.22617 -4.28451 3.13594 48 63 117
-0.26449 -4.26858 3.12418 47 50 84
-0.28298 -4.28016 3.10195 42 50 66
-0.29581 -4.26193 3.11671 44 44 50
-0.31424 -4.27347 3.09456 44 53 66
-0.32708 -4.25511 3.10920 49 47 55
-0.41196 -4.20914 3.07957 34 36 54
-0.41033 -4.21188 3.05818 27 32 44
-0.44992 -4.19180 3.06739 40 47 68
-0.48375 -4.17996 3.05777 52 55 90
-0.54896 -4.12237 3.02750 125 121 145
-0.55390 -4.15171 3.03655 150 155 129
-0.58747 -4.13925 3.02675 124 119 87
-0.61271 -4.13881 3.02239 110 88 70
-0.63439 -4.14355 3.02037 108 108 108
-0.66562 -4.17130 3.02449 90 96 112
-0.67006 -4.20243 3.03422 91 106 149
-0.68186 -4.22256 3.03903 76 107 129
-0.69267 -4.24442 3.04457 83 106 112
-0.75365 -4.30560 3.05498 102 98 109
-0.73245 -4.29978 3.03417 98 90 107
-0.76791 -4.32277 3.05837 113 126 124
-0.78565 -4.33441 3.05933 112 123 129
-0.80222 -4.34802 3.06114 97 105 116
-0.80711 -4.38117 3.07148 59 63 88
-0.82504 -4.39284 3.07241 28 36 84
-0.84488 -4.40133 3.07195 37 60 136
-0.85525 -4.42600 3.07852 81 102 178
-0.86881 -4.44545 3.08280 97 115 194
-0.84088 -4.53728 3.11835 181 206 232
-0.85942 -4.54889 3.09606 209 214 240
-0.85792 -4.55165 3.12035 207 230 247
-0.88905 -4.58596 3.12669 237 237 243
-0.90767 -4.59762 3.10430 251 251 251
-1.04533 -4.52779 3.08103 249 249 240
-1.02708 -4.51637 3.10297 250 253 252
-1.02544 -4.51912 3.08144 253 254 254
-1.06739 -4.53237 3.07889 211 209 184
-1.08871 -4.53827 3.07732 155 162 135
-1.11712 -4.53051 3.06996 145 168 156
-1.14072 -4.53177 3.06645 172 197 201
-1.16496 -4.53162 3.06235 177 200 209
-1.19012 -4.52950 3.05744 162 180 180
-1.23579 -4.48623 3.03526 130 142 140
-1.21891 -4.56801 3.06559 81 84 80
-1.24138 -4.57115 3.06289 55 48 38
-1.26096 -4.58013 3.06264 39 48 36
-1.29158 -4.56619 3.05284 36 50 36
-1.30963 -4.57749 3.03115 45 41 21
-1.56458 -4.42523 2.95985 36 43 49
-1.54731 -4.41441 2.98062 66 62 71
-1.54576 -4.41702 2.96023 62 70 70
-1.56614 -4.42262 2.98023 44 51 58
-1.58496 -4.43082 2.97985 43 49 59
-1.58137 -4.43813 2.96138 26 37 47
-1.60177 -4.44373 2.98141 34 36 46
-1.60540 -4.43431 2.95609 28 27 35
-1.62575 -4.43990 2.97606 26 23 39
-1.62420 -4.44250 2.95571 30 31 36
-1.73930 -4.48593 2.95110 119 138 113
-1.74789 -4.51990 2.96110 174 189 180
-1.76521 -4.53074 2.94027 222 239 243
-1.74779 -4.57672 2.98023 214 230 229
