ply
format ascii 1.0
element face 0
property list uchar int vertex_indices
element vertex 1331
property float x
property float y
property float z
property uchar diffuse_red
property uchar diffuse_green
property uchar diffuse_blue
end_header
1.07850 -3.36996 0.92402 106 101 134
1.06916 -3.38449 0.92524 104 104 129
1.06017 -3.39944 0.92644 112 120 137
1.04577 -3.40943 0.92798 108 114 131
1.05764 -3.44408 0.92790 70 65 107
1.04005 -3.45461 0.91100 60 64 98
1.04431 -3.45530 0.92938 67 74 105
1.02732 -3.46309 0.93108 73 78 106
1.00485 -3.56323 0.93582 67 80 126
1.02150 -3.55812 0.91517 70 74 116
1.01362 -3.59680 0.93598 130 152 160
0.99625 -3.60476 0.93772 131 141 162
1.01057 -3.64437 0.93756 56 58 100
0.99243 -3.65523 0.92012 53 55 98
0.95691 -3.71946 0.94434 55 51 88
0.97521 -3.70850 0.96192 54 60 83
0.97458 -3.71136 0.94257 52 53 83
0.95755 -3.71660 0.96370 53 62 93
0.93988 -3.72469 0.96547 54 58 89
0.95115 -3.73990 0.94541 59 57 86
0.94086 -3.75578 0.94675 59 65 91
0.96677 -3.80981 0.94597 93 94 109
0.95694 -3.82662 0.94730 110 114 132
0.93831 -3.83778 0.92939 132 137 148
0.94354 -3.83975 0.94884 116 126 150
0.92489 -3.85092 0.93091 135 137 160
0.93082 -3.85368 0.95034 127 137 152
0.91523 -3.86458 0.95201 118 127 152
0.89713 -3.87278 0.95382 111 114 138
0.91229 -3.91736 0.95372 56 53 92
0.87393 -3.93185 0.95749 32 40 113
0.86409 -3.97832 0.95964 193 199 214
0.84511 -3.98968 0.94140 195 199 211
0.86925 -4.10235 0.96261 117 120 120
0.87596 -4.14042 0.96307 65 57 59
0.85647 -4.15209 0.94434 48 47 53
0.85423 -4.17640 0.96597 59 61 61
0.89143 -4.25154 0.96478 94 95 88
0.87599 -4.29665 0.96738 86 78 92
0.87797 -4.33122 0.96816 82 73 90
0.87749 -4.36316 0.96908 68 61 79
0.85731 -4.37525 0.94968 50 45 54
0.87560 -4.39367 0.97009 58 55 74
0.86922 -4.41895 0.97135 55 51 67
0.85638 -4.47010 0.97389 70 53 59
0.85293 -4.49977 0.97501 78 69 73
0.84894 -4.52904 0.97617 96 93 88
0.83892 -4.55090 0.97765 114 116 112
0.82781 -4.57152 0.97920 128 127 128
0.81846 -4.59459 0.98066 140 141 145
0.79763 -4.60706 0.96065 154 157 159
0.80036 -4.60643 0.98257 150 158 154
0.77952 -4.61890 0.96255 157 161 163
0.65831 -4.66924 0.99677 166 169 169
0.67914 -4.65677 1.01679 160 159 160
0.67770 -4.66328 0.97272 168 170 167
0.65903 -4.66598 1.01881 162 163 164
0.65759 -4.67250 0.97474 169 176 172
0.62933 -4.66616 0.99923 170 175 177
0.60041 -4.66298 1.00168 156 158 170
0.56943 -4.69413 1.00526 155 159 153
0.54865 -4.70657 0.98529 170 172 172
0.55709 -4.71434 1.00690 165 170 171
0.53627 -4.72681 0.98689 173 174 167
-0.22832 -5.02269 1.08435 158 157 141
-0.20909 -5.01678 1.06049 160 162 148
-0.22904 -5.02592 1.06249 156 158 141
-0.24898 -5.03507 1.06450 151 155 138
-2.12822 -4.00216 1.22293 107 106 90
-2.11344 -3.99331 1.23713 105 107 94
-2.11395 -3.99562 1.22150 106 106 98
-2.11446 -3.99793 1.20586 103 110 95
-2.12771 -3.99985 1.23856 105 105 96
-2.14198 -4.00639 1.24000 98 101 97
-2.14147 -4.01394 1.22442 90 91 85
-2.14909 -4.05534 1.22623 64 61 70
-2.16153 -4.07235 1.22779 46 34 51
-2.17648 -4.08130 1.21343 24 23 35
-2.17147 -4.10338 1.22952 31 26 42
-2.18650 -4.11238 1.21508 23 23 34
-2.18144 -4.13514 1.23127 27 26 40
-2.19656 -4.14419 1.21675 28 24 44
1.37037 -3.18386 0.87492 193 202 216
1.38640 -3.17894 0.85505 192 196 205
1.36978 -3.18655 0.85671 199 204 213
1.35316 -3.19417 0.85838 202 204 214
1.15612 -3.11242 0.89232 202 205 218
1.17222 -3.10503 0.89070 204 204 220
1.17165 -3.10764 0.87305 204 207 219
1.17944 -3.15292 0.89122 164 167 204
1.23140 -3.21803 0.88816 94 94 165
1.21428 -3.22829 0.87171 61 66 114
1.19001 -3.20447 0.89153 66 70 126
1.17497 -3.21319 0.89309 71 76 120
1.15964 -3.22168 0.89466 90 91 133
1.14320 -3.22921 0.89631 90 93 128
1.13882 -3.24726 0.89714 82 84 123
1.12174 -3.25748 0.88073 65 67 121
1.12965 -3.26123 0.89830 75 74 127
1.11254 -3.27147 0.88186 62 67 123
1.09981 -3.32406 0.90249 81 86 120
1.08255 -3.33439 0.88590 107 115 145
1.11276 -3.35846 0.90217 107 118 149
1.09537 -3.36887 0.88546 106 107 139
1.09803 -3.36803 0.90372 110 107 143
1.08512 -3.37928 0.90514 108 104 137
1.07557 -3.39367 0.90635 114 117 142
1.05812 -3.40411 0.88958 126 137 155
1.06515 -3.40734 0.90761 120 128 147
1.04863 -3.41540 0.90928 116 117 140
1.06612 -3.45536 0.90869 71 66 110
1.04095 -3.47936 0.91152 65 67 101
1.04033 -3.48213 0.89283 57 60 106
1.02450 -3.48442 0.93192 75 78 101
1.02389 -3.48718 0.91323 69 75 109
1.02533 -3.58671 0.91552 62 78 120
1.04207 -3.58157 0.89476 69 72 111
1.00736 -3.59747 0.89825 71 84 126
1.03437 -3.62069 0.91554 98 116 133
1.00505 -3.61693 0.91807 96 102 138
1.03104 -3.66828 0.91699 64 58 98
0.97658 -3.71692 0.92304 61 56 76
0.99489 -3.70596 0.94063 56 55 87
0.99426 -3.70882 0.92126 57 52 71
0.97956 -3.74633 0.92349 73 81 109
1.01155 -3.80615 0.92208 95 97 104
0.98577 -3.80625 0.92439 114 121 131
0.96716 -3.81739 0.90651 136 147 161
0.97383 -3.82081 0.92581 131 139 146
0.96454 -3.83827 0.92706 139 143 158
0.94587 -3.84945 0.90912 131 129 151
0.92466 -3.87838 0.93160 121 128 154
0.94210 -3.87302 0.90996 135 139 157
0.92401 -3.88131 0.91177 125 131 155
0.91089 -3.89137 0.93314 116 122 140
0.89893 -3.93468 0.93526 49 47 98
0.88005 -3.94599 0.91712 43 45 92
0.88070 -3.94303 0.93709 24 36 104
0.85537 -3.94345 0.93937 98 109 169
0.84951 -4.05351 0.94256 194 197 203
0.86736 -4.04802 0.92042 191 195 208
0.81135 -4.03931 0.94563 151 159 146
0.86426 -4.19207 0.94461 58 54 63
0.88329 -4.24581 0.94422 80 87 82
0.88386 -4.27812 0.94495 85 92 95
0.87431 -4.29858 0.94630 79 74 85
0.88218 -4.34030 0.94661 71 60 78
0.86207 -4.35235 0.92728 53 50 55
0.87995 -4.37016 0.94754 54 51 64
0.86120 -4.41310 0.95026 55 48 65
0.85523 -4.43906 0.95142 66 60 73
0.85257 -4.46942 0.95240 82 76 83
0.84979 -4.49992 0.95339 99 101 100
0.84394 -4.52684 0.95456 113 117 114
0.84151 -4.55838 0.95554 126 134 130
0.82696 -4.57460 0.95724 144 147 150
0.80620 -4.58704 0.93728 159 161 157
0.61295 -4.64768 0.97812 170 180 178
0.63220 -4.64177 0.95423 167 172 168
0.58484 -4.64547 0.98058 158 154 158
0.57174 -4.66422 0.98220 151 146 146
0.55106 -4.67660 0.96233 165 168 167
-0.60994 -5.03269 1.09667 132 131 127
-0.59119 -5.02693 1.07341 141 145 128
-0.60924 -5.02954 1.11798 123 126 122
-0.61064 -5.03584 1.07536 141 144 129
-0.62869 -5.03845 1.11993 122 124 120
-0.63008 -5.04475 1.07731 140 145 132
-2.12992 -3.99848 1.20726 101 102 84
-2.14217 -4.01529 1.20876 70 66 67
-2.15696 -4.02414 1.19454 22 24 43
-2.15382 -4.03559 1.21029 33 35 57
-2.16866 -4.04447 1.19603 23 25 37
-2.16521 -4.05780 1.21185 26 25 43
-2.18011 -4.06672 1.19754 24 25 36
1.16252 -3.12086 0.87416 196 203 214
1.17808 -3.11608 0.85485 205 207 217
1.19743 -3.17117 0.87204 135 142 183
1.17356 -3.21515 0.87513 75 79 111
1.15997 -3.22513 0.87658 90 91 123
1.14294 -3.23533 0.86021 67 66 119
1.14684 -3.23554 0.87799 79 79 124
1.12979 -3.24575 0.86160 63 66 117
1.13864 -3.25028 0.87904 68 70 119
1.12156 -3.26051 0.86262 61 67 117
1.11979 -3.32261 0.88227 71 69 115
1.12462 -3.34960 0.88240 102 110 130
1.09037 -3.38736 0.88630 113 118 140
1.07293 -3.39780 0.86954 127 133 152
1.08208 -3.40296 0.88738 122 132 149
1.06461 -3.41342 0.87059 131 136 158
1.06028 -3.42956 0.88992 123 131 142
1.05921 -3.45220 0.89049 84 89 121
1.05591 -3.47291 0.89123 62 58 100
1.05021 -3.51570 0.89264 64 66 109
1.03366 -3.52079 0.91318 70 76 114
1.03305 -3.52357 0.89436 69 72 114
1.03243 -3.52635 0.87555 69 67 112
1.03249 -3.59715 0.89596 60 71 119
1.01448 -3.60793 0.87865 100 112 137
1.01768 -3.63293 0.89805 79 88 124
1.02250 -3.66322 0.89825 69 66 111
1.01975 -3.68619 0.89899 50 51 97
1.00274 -3.69142 0.92008 55 52 85
1.00211 -3.69428 0.90076 51 53 89
1.00539 -3.72368 0.90108 67 71 87
1.02945 -3.80139 0.90052 122 137 146
1.01774 -3.81617 0.90190 122 125 148
0.98695 -3.81107 0.90458 132 138 162
0.96630 -3.84374 0.90714 144 144 160
0.91324 -3.89756 0.91309 117 126 142
0.92100 -3.93421 0.91316 59 66 98
0.90210 -3.94553 0.89500 54 54 98
0.90263 -3.94243 0.91500 53 53 99
0.86977 -3.96321 0.91842 47 55 122
0.89310 -4.01836 0.91746 153 173 201
0.89049 -4.04477 0.91825 191 198 208
0.87130 -4.05627 0.89980 190 194 204
0.85904 -4.06821 0.92160 192 194 206
0.85837 -4.07121 0.90126 189 193 203
0.84946 -4.08709 0.92286 180 185 177
0.82844 -4.09281 0.92489 88 86 95
0.88127 -4.18499 0.92203 51 43 52
0.86642 -4.19849 0.92366 58 54 65
0.86667 -4.22999 0.92430 65 70 74
0.87674 -4.27354 0.92430 66 67 76
0.85685 -4.28545 0.90518 53 53 64
0.88307 -4.31308 0.92455 66 64 73
0.86305 -4.32507 0.90531 59 50 57
0.88103 -4.34289 0.92536 62 53 65
0.86055 -4.38324 0.92807 54 45 53
0.85386 -4.40806 0.92920 64 57 73
0.85230 -4.43947 0.93000 74 78 83
0.85135 -4.47197 0.93077 92 96 94
0.84934 -4.50347 0.93161 116 118 111
0.84144 -4.52778 0.93284 132 139 126
0.83745 -4.55733 0.93382 141 149 135
0.81674 -4.56974 0.91391 158 160 156
0.82164 -4.57190 0.93556 155 160 159
0.80090 -4.58432 0.91563 160 161 156
0.59222 -4.62315 0.95747 165 171 170
0.61137 -4.61727 0.93371 166 165 165
0.59151 -4.62637 0.93571 164 167 166
0.57165 -4.63547 0.93770 163 163 152
0.56893 -4.62745 0.95968 161 158 151
0.54838 -4.63976 0.93993 163 162 152
0.55184 -4.64043 0.96150 162 157 148
0.53128 -4.65274 0.94173 165 165 167
-2.12008 -3.97492 1.19016 92 97 96
-2.10539 -3.96612 1.20428 106 106 97
-2.10589 -3.96842 1.18874 105 107 102
-2.13225 -3.99157 1.19162 73 75 56
-2.14593 -4.00086 1.19305 47 35 41
-2.16067 -4.00969 1.17889 24 24 34
1.17833 -3.15824 0.85558 140 142 173
1.20192 -3.19943 0.85413 68 65 123
1.17578 -3.22022 0.85691 67 68 106
1.17519 -3.22288 0.83889 60 61 106
1.15874 -3.23041 0.84054 63 61 107
1.16020 -3.22850 0.85849 71 70 111
1.14316 -3.23870 0.84212 64 63 111
1.13191 -3.31414 0.86262 61 64 115
1.14857 -3.30650 0.86094 57 67 118
1.14797 -3.30920 0.84268 58 66 112
1.13161 -3.33642 0.86304 81 83 130
1.12926 -3.35703 0.86362 108 118 146
1.11533 -3.36731 0.86509 106 108 132
1.10557 -3.38143 0.86624 106 112 137
1.09652 -3.39628 0.86734 119 124 147
1.06966 -3.44163 0.87062 130 140 156
1.06905 -3.44438 0.85203 132 141 162
1.05877 -3.45510 0.87186 119 126 151
1.07130 -3.49081 0.87134 87 88 118
1.05218 -3.49674 0.87321 70 62 94
1.05304 -3.52178 0.87357 68 62 97
1.03524 -3.53243 0.85647 68 67 111
1.02776 -3.57103 0.87677 76 81 116
1.04567 -3.56030 0.89399 71 76 116
1.04505 -3.56310 0.87504 70 67 112
1.05217 -3.61990 0.87538 94 106 147
1.01909 -3.79426 0.88152 128 139 157
1.01709 -3.81909 0.88214 119 119 145
0.98630 -3.81398 0.88490 118 125 159
0.96758 -3.84870 0.88724 132 135 157
0.95789 -3.86589 0.88844 127 130 157
0.94135 -3.87583 0.89014 131 140 163
0.92961 -3.89099 0.89149 124 130 155
0.91684 -3.90512 0.89292 106 116 141
0.92490 -3.94216 0.89283 61 63 96
0.90598 -3.95349 0.87465 56 53 99
0.89120 -3.96205 0.89629 52 49 87
0.89055 -3.96501 0.87626 54 50 89
0.87582 -3.97367 0.89792 26 33 96
0.86096 -3.98592 0.89951 120 134 169
0.89069 -4.04874 0.89787 183 192 206
0.87148 -4.06024 0.87942 191 194 203
0.84421 -4.08480 0.90280 193 196 193
0.86212 -4.07929 0.88057 190 193 203
0.83397 -4.10304 0.90407 128 130 124
0.88981 -4.19885 0.90061 59 43 44
0.87808 -4.21613 0.90200 51 51 60
0.85838 -4.22793 0.88306 51 50 55
0.87414 -4.24277 0.90283 55 56 63
0.85436 -4.25461 0.88382 48 52 51
0.87910 -4.28030 0.90304 48 50 57
0.85919 -4.29222 0.88391 54 56 61
0.87364 -4.37047 0.90514 61 55 59
0.86245 -4.38961 0.90651 66 54 68
0.85843 -4.41775 0.90738 76 69 85
0.85436 -4.44610 0.90825 85 94 91
0.85355 -4.47883 0.90891 111 121 111
0.84680 -4.50438 0.90998 136 140 126
0.83535 -4.52417 0.91139 148 154 138
0.81475 -4.53650 0.89159 157 161 151
0.82651 -4.54745 0.91262 151 156 139
0.80585 -4.55983 0.89276 159 162 158
-2.10633 -3.97106 1.17319 100 102 99
-2.09164 -3.96226 1.18731 106 104 102
-2.09215 -3.96456 1.17177 109 108 112
-2.12031 -3.97858 1.17462 71 68 69
-2.13469 -3.98414 1.17604 43 43 21
-2.14938 -3.99294 1.16192 22 27 27
-2.14691 -4.00076 1.17746 30 26 23
-2.16164 -4.00958 1.16331 23 26 37
1.22306 -3.17774 0.83374 204 204 213
1.23885 -3.17289 0.81416 205 205 219
1.22248 -3.18039 0.81580 205 206 216
1.18113 -3.16372 0.83748 170 170 184
1.19319 -3.19519 0.83680 98 94 130
1.19313 -3.21662 0.83711 59 56 102
1.17609 -3.22682 0.82074 54 57 107
1.14368 -3.32784 0.84335 60 69 117
1.15979 -3.32289 0.82335 58 66 107
1.13650 -3.34405 0.84426 85 91 131
1.13212 -3.36287 0.84494 97 108 139
1.11934 -3.37422 0.84630 92 96 123
1.10958 -3.38836 0.84742 96 96 127
1.10190 -3.40450 0.84837 116 119 138
1.09555 -3.42197 0.84922 128 135 152
1.08851 -3.43891 0.85013 131 137 155
1.06348 -3.46286 0.85282 140 145 167
1.05554 -3.47924 0.85380 133 135 153
1.04387 -3.49218 0.85508 118 121 139
1.07002 -3.54142 0.85333 82 89 122
1.05214 -3.55212 0.83616 62 65 111
1.06503 -3.63599 0.85516 105 103 155
1.04687 -3.64686 0.83771 75 68 128
1.03771 -3.63435 0.85770 84 86 130
1.01960 -3.64519 0.84029 73 81 124
1.03867 -3.66073 0.85799 77 74 120
1.02463 -3.67231 0.85947 68 61 108
1.00880 -3.73420 0.86185 64 60 99
1.02591 -3.72894 0.84062 56 54 100
1.00816 -3.73707 0.84240 57 56 97
1.01089 -3.81622 0.86283 76 78 112
1.00999 -3.84238 0.86329 73 82 123
0.98758 -3.84609 0.86545 94 99 136
0.97444 -3.85959 0.86688 104 118 150
0.96703 -3.87928 0.86785 112 116 140
0.94826 -3.89052 0.84981 109 108 139
0.94737 -3.88594 0.86979 113 117 147
0.93359 -3.89894 0.87127 112 111 139
0.92300 -3.91548 0.87251 87 96 130
0.92694 -3.94808 0.87260 63 61 103
0.90801 -3.95941 0.85441 55 53 98
0.88246 -3.98480 0.87731 35 38 88
0.90013 -3.97937 0.85538 56 50 88
0.88181 -3.98777 0.85722 48 45 82
0.84333 -3.96976 0.88076 83 84 129
0.84681 -4.09160 0.88219 193 196 199
0.86475 -4.08608 0.85994 191 193 203
0.84615 -4.09461 0.86181 189 193 202
0.83567 -4.10881 0.88348 164 167 159
0.90562 -4.22128 0.87853 69 57 72
0.89078 -4.23501 0.88012 46 42 55
0.87384 -4.34214 0.88325 62 57 59
0.87288 -4.37356 0.88379 67 58 68
0.86180 -4.39282 0.88511 74 64 81
0.85735 -4.42045 0.88593 90 85 96
0.85002 -4.44476 0.88696 109 113 110
0.85512 -4.48489 0.88706 141 150 140
0.83995 -4.49981 0.88870 158 161 150
0.81942 -4.51210 0.86898 164 168 162
0.81940 -4.50796 0.89074 158 162 151
0.79888 -4.52024 0.87102 162 166 158
-2.09465 -3.95726 1.15627 104 105 109
-2.07999 -3.94848 1.17036 112 113 100
-2.08050 -3.95077 1.15485 111 107 103
-2.10864 -3.96456 1.15769 75 77 63
-2.12203 -3.97487 1.15909 34 36 23
-2.13702 -3.97722 1.16053 24 27 18
-2.43938 -3.84659 1.18703 33 39 36
-2.42555 -3.83831 1.20032 24 28 26
-2.42603 -3.84047 1.18569 30 36 29
-2.42651 -3.84263 1.17106 31 36 33
-2.45186 -3.85944 1.18839 45 51 52
-2.46467 -3.87001 1.18974 41 38 45
-2.47758 -3.87398 1.20575 23 22 29
-2.47668 -3.88749 1.19112 33 31 22
-2.48962 -3.89147 1.20717 17 26 22
-2.48512 -3.93580 1.19260 30 34 10
-2.49818 -3.93982 1.20882 20 27 29
-2.49641 -3.96169 1.19404 31 30 17
-2.50954 -3.96572 1.21032 30 30 28
-2.51003 -3.96793 1.19540 31 28 21
1.24966 -3.22462 0.81370 195 196 203
1.26561 -3.21972 0.79390 204 207 220
1.18287 -3.18959 0.81968 137 135 156
1.19509 -3.22146 0.81887 63 60 108
1.15404 -3.34031 0.82410 61 73 116
1.17020 -3.33534 0.80405 62 66 102
1.13668 -3.35071 0.80741 87 87 130
1.14493 -3.35485 0.82513 85 91 131
1.12931 -3.36360 0.82671 85 89 127
1.11778 -3.37607 0.82795 69 67 106
1.11075 -3.39271 0.82880 72 71 116
1.11279 -3.41779 0.82889 95 101 124
1.09525 -3.42830 0.81203 102 108 137
1.10706 -3.43590 0.82963 110 120 145
1.09874 -3.45174 0.83060 115 120 146
1.08191 -3.45972 0.83230 127 135 169
1.06961 -3.47196 0.83360 136 143 167
1.05817 -3.48507 0.83484 129 137 170
1.04542 -3.49701 0.83619 122 126 166
1.07432 -3.54893 0.83401 82 86 127
1.05642 -3.55965 0.81681 62 63 110
1.04795 -3.57272 0.83678 72 80 125
1.05637 -3.60581 0.83635 86 97 140
1.03833 -3.61661 0.81901 73 74 122
1.04353 -3.61830 0.83771 80 66 131
1.02547 -3.62912 0.82035 83 84 136
1.02803 -3.67920 0.83986 66 68 116
1.00533 -3.76055 0.84293 54 55 98
1.02251 -3.75527 0.82161 54 57 95
1.00469 -3.76344 0.82340 56 54 92
0.98688 -3.77160 0.82519 55 56 88
1.00413 -3.78592 0.84332 54 56 89
0.98560 -3.79702 0.82551 56 58 94
0.99372 -3.80192 0.84449 57 58 93
0.97516 -3.81303 0.82665 59 61 102
0.99887 -3.83433 0.84436 57 62 99
0.98020 -3.84551 0.82641 59 60 93
0.98922 -3.85144 0.84547 62 68 100
0.97591 -3.86477 0.84689 64 77 112
0.96849 -3.88447 0.84781 104 110 128
0.94970 -3.89572 0.82976 112 117 138
0.93923 -3.90870 0.85087 102 102 128
0.92988 -3.92664 0.85196 76 86 121
0.93591 -3.96160 0.85177 62 62 109
0.91693 -3.97297 0.83353 54 54 93
0.87683 -4.01122 0.85796 41 48 103
0.89456 -4.00577 0.83596 52 50 85
0.88578 -4.05068 0.85754 138 158 189
0.88895 -4.08396 0.85761 187 192 204
0.86965 -4.09552 0.83907 192 192 201
0.84322 -4.12141 0.86238 184 189 185
0.86123 -4.11588 0.84004 188 190 200
0.89654 -4.24572 0.85867 53 39 54
0.88935 -4.26869 0.85961 57 52 54
0.88717 -4.29784 0.86014 60 59 57
0.86721 -4.30979 0.84097 70 70 66
0.88101 -4.32249 0.86100 64 64 62
0.86098 -4.33448 0.84176 73 70 69
0.87434 -4.34673 0.86191 68 64 66
0.84764 -4.41245 0.86518 102 104 99
0.85442 -4.45432 0.86500 128 133 132
0.82257 -4.48190 0.86834 168 167 165
0.80213 -4.49414 0.84870 165 170 160
0.51178 -4.59651 0.89924 164 164 165
0.53142 -4.58751 0.89727 168 173 167
0.51248 -4.59333 0.92077 160 157 153
0.49284 -4.60233 0.92274 159 161 166
0.49213 -4.60551 0.90122 161 162 162
0.46650 -4.60594 0.90367 161 166 163
0.46721 -4.60276 0.92516 159 163 167
0.44760 -4.61175 0.92712 167 168 169
0.44689 -4.61492 0.90563 167 170 169
0.29258 -4.69077 0.92119 166 174 167
0.31221 -4.68178 0.91922 164 173 171
0.31150 -4.68495 0.89771 168 175 180
0.27366 -4.69659 0.94467 162 157 154
0.27296 -4.69976 0.92316 165 164 160
0.27225 -4.70294 0.90165 165 169 161
-2.08152 -3.95063 1.13936 105 101 108
-2.06687 -3.94186 1.15344 106 105 101
-2.06738 -3.94415 1.13794 107 111 106
-2.09505 -3.96011 1.14076 83 74 74
-2.10917 -3.96674 1.14218 35 32 17
-2.12384 -3.97552 1.12809 9 10 6
-2.12356 -3.97208 1.14361 10 14 11
-2.13822 -3.98086 1.12952 8 11 8
-2.13815 -3.97632 1.14505 10 17 15
-2.15281 -3.98509 1.13097 11 12 11
-2.15212 -3.98370 1.14646 15 19 24
-2.16879 -3.97694 1.14798 19 24 34
-2.18239 -3.98112 1.16485 27 26 29
-2.18289 -3.98341 1.14939 27 29 28
-2.43841 -3.85976 1.17239 30 36 40
-2.42551 -3.85579 1.15638 24 30 30
-2.45076 -3.87395 1.17372 55 68 73
-2.46069 -3.90801 1.17504 74 87 92
-2.50053 -3.93219 1.17911 79 71 47
1.18040 -3.19064 0.80193 177 174 185
1.17711 -3.20927 0.80240 101 97 123
1.18878 -3.24090 0.80151 57 54 94
1.17287 -3.24579 0.82125 63 62 108
1.17228 -3.24846 0.80317 63 63 108
1.17169 -3.25113 0.78508 60 58 107
1.15198 -3.34172 0.80586 70 72 111
1.16813 -3.33676 0.78582 63 66 102
1.13462 -3.35211 0.78918 94 95 125
1.12280 -3.38390 0.80901 69 66 102
1.10776 -3.46345 0.81109 101 98 134
1.09395 -3.47432 0.81251 113 115 156
1.07976 -3.48485 0.81397 120 125 157
1.06716 -3.49694 0.81528 112 116 150
1.07771 -3.53116 0.81453 89 93 143
1.07848 -3.55632 0.81465 70 71 115
1.06056 -3.56705 0.79743 60 60 105
1.05405 -3.58206 0.81721 68 72 122
1.04743 -3.60049 0.81800 69 74 130
1.03112 -3.66014 0.82004 76 83 121
1.01294 -3.67102 0.80258 58 67 108
1.02169 -3.67632 0.82108 63 68 115
1.01532 -3.69569 0.82185 55 60 101
0.99706 -3.70663 0.80430 57 63 92
0.98022 -3.87297 0.82663 52 58 92
0.99768 -3.86760 0.80496 65 61 97
0.97550 -3.89561 0.82726 94 101 120
0.94474 -3.91832 0.83042 93 105 126
0.95201 -3.95446 0.82999 70 79 114
0.93716 -3.96667 0.83153 59 61 104
0.91817 -3.97804 0.81328 54 52 90
0.88529 -4.02449 0.83700 30 42 97
0.90307 -4.01903 0.81495 54 55 91
0.91481 -4.08742 0.83463 101 117 155
0.89548 -4.09522 0.83656 173 184 202
0.85199 -4.13545 0.84109 191 195 193
0.87004 -4.12990 0.81869 187 191 200
0.90340 -4.25774 0.83706 70 45 65
0.88355 -4.26962 0.81799 62 61 60
0.89383 -4.27795 0.83814 62 55 62
0.87394 -4.28986 0.81902 68 72 63
0.88763 -4.30235 0.83893 66 66 65
0.86767 -4.31430 0.81975 69 73 67
0.86299 -4.36947 0.84184 84 83 69
0.85130 -4.38792 0.84312 97 100 92
0.84162 -4.44239 0.84448 146 151 145
0.82129 -4.45456 0.82494 165 163 159
0.82498 -4.45513 0.84619 160 160 159
0.80463 -4.46732 0.82664 162 165 165
0.54962 -4.58065 0.87384 158 157 160
0.56996 -4.56847 0.89339 169 171 165
0.55032 -4.57747 0.89536 170 173 167
0.54891 -4.58383 0.85231 154 156 164
0.52770 -4.58645 0.87600 164 167 171
0.50643 -4.59313 0.87812 176 176 177
0.48611 -4.60529 0.85859 179 188 187
0.43297 -4.59899 0.88528 173 178 167
0.41413 -4.60477 0.90865 170 173 168
0.41343 -4.60794 0.88724 171 176 170
0.28545 -4.68407 0.90023 168 177 173
0.26516 -4.69622 0.88073 164 164 160
-0.39696 -4.85965 0.96769 152 154 159
-0.37709 -4.84776 0.98678 157 158 145
-0.37778 -4.85086 0.96577 160 159 156
-0.39627 -4.85654 0.98871 153 151 147
-0.41545 -4.86533 0.99063 146 147 143
-0.41682 -4.87154 0.94860 138 139 144
-2.06881 -3.94213 1.12250 111 113 109
-2.05417 -3.93336 1.13656 105 110 108
-2.05468 -3.93565 1.12108 105 109 107
-2.05519 -3.93794 1.10559 107 112 105
-2.08239 -3.95123 1.12388 89 85 99
-2.09766 -3.95224 1.12537 44 28 31
-2.11229 -3.96100 1.11131 11 11 6
-2.11194 -3.95797 1.12680 13 8 3
-2.12656 -3.96673 1.11274 12 16 8
-2.17325 -3.95842 1.13274 15 15 26
-2.18779 -3.96713 1.11877 31 30 28
-2.18964 -3.95220 1.13428 26 27 30
-2.20314 -3.95635 1.15102 32 31 28
-2.20364 -3.95862 1.13569 33 35 33
-2.43839 -3.86573 1.15770 22 25 35
-2.42547 -3.86176 1.14168 18 27 26
-2.43887 -3.86790 1.14302 19 24 30
-2.45163 -3.87306 1.15904 35 40 59
-2.47632 -3.90279 1.16166 100 127 144
-2.49059 -3.90200 1.16304 144 156 152
-2.49969 -3.94599 1.16426 112 109 89
-2.51045 -3.97731 1.16555 48 38 24
-2.52457 -3.98576 1.15198 24 23 13
1.18993 -3.22339 0.78316 143 143 151
1.19869 -3.25260 0.78243 67 67 100
1.15488 -3.34756 0.78717 81 78 110
1.13581 -3.37600 0.78917 84 83 112
1.11838 -3.38643 0.77242 72 69 98
1.11267 -3.40103 0.79156 79 74 109
1.13184 -3.44191 0.78986 100 99 126
1.11421 -3.45247 0.77292 110 120 152
1.12200 -3.48005 0.79100 98 99 139
1.11701 -3.49926 0.79157 88 92 138
1.10276 -3.50989 0.79302 102 108 144
1.10034 -3.53178 0.79336 101 104 135
1.08994 -3.54621 0.79445 71 71 117
1.07205 -3.55693 0.77725 59 56 86
1.07727 -3.55855 0.79575 62 61 105
1.05935 -3.56928 0.77853 54 57 100
1.05201 -3.58348 0.79834 62 63 112
1.05139 -3.58629 0.77935 57 59 103
1.03405 -3.59423 0.78109 56 60 109
1.04528 -3.60181 0.79909 58 63 118
1.02727 -3.61259 0.78179 60 62 109
1.04335 -3.62500 0.79938 66 71 117
1.02528 -3.63582 0.78201 62 66 104
1.04343 -3.65037 0.79949 71 75 123
1.02528 -3.66124 0.78205 58 69 100
1.03718 -3.66965 0.80019 61 68 112
1.02771 -3.71171 0.80131 58 65 102
0.98723 -3.88406 0.80606 60 61 95
1.00472 -3.87868 0.78436 61 62 95
0.98060 -3.90471 0.80681 80 85 109
0.96468 -3.91550 0.80842 104 115 130
0.94916 -3.92677 0.81000 83 95 125
0.95578 -3.96227 0.80951 60 69 107
0.93679 -3.97364 0.79125 56 54 98
0.89507 -4.03927 0.81582 47 48 92
0.91289 -4.03379 0.79371 54 58 93
0.89441 -4.04226 0.79557 54 57 89
0.88668 -4.05922 0.81674 57 67 118
0.90342 -4.10809 0.81531 150 167 194
0.89092 -4.12381 0.81661 188 192 203
0.87151 -4.13543 0.79796 186 193 204
0.86086 -4.14963 0.81968 187 193 198
0.86018 -4.15266 0.79912 183 192 206
0.86405 -4.18406 0.81952 167 165 169
0.91655 -4.27723 0.81478 85 68 89
0.86494 -4.34327 0.82015 72 72 66
0.85898 -4.36855 0.82085 98 102 68
0.85268 -4.39365 0.82158 122 127 109
0.83547 -4.40540 0.82333 148 150 140
0.81527 -4.41750 0.80392 164 161 156
0.82038 -4.41986 0.82487 163 161 151
0.80016 -4.43197 0.80544 164 164 158
0.72521 -4.46775 0.83445 163 166 166
0.74545 -4.45564 0.85390 162 165 158
0.74475 -4.45880 0.83249 163 165 160
0.74405 -4.46197 0.81108 167 170 166
0.72591 -4.46459 0.85586 158 157 160
0.70638 -4.47354 0.85782 163 162 160
0.70384 -4.47431 0.83658 172 175 165
0.68502 -4.48010 0.85994 159 161 155
0.68712 -4.48695 0.83828 169 173 166
0.66688 -4.49907 0.81883 183 182 179
0.66896 -4.49773 0.84012 170 173 174
0.65011 -4.50352 0.86350 171 173 171
0.64941 -4.50668 0.84208 177 178 177
0.64871 -4.50985 0.82066 181 179 177
0.55860 -4.56105 0.85126 162 162 167
0.57889 -4.54891 0.87075 170 172 167
0.57818 -4.55208 0.84929 170 170 167
0.57748 -4.55525 0.82783 172 170 165
0.55790 -4.56423 0.82980 171 173 171
0.51791 -4.57687 0.85533 159 162 165
0.51721 -4.58004 0.83388 163 166 166
0.49763 -4.58901 0.83585 167 168 169
0.49977 -4.58788 0.85717 172 175 175
0.42713 -4.59472 0.86434 183 186 179
0.40693 -4.60682 0.84493 181 188 182
0.40224 -4.59581 0.86680 177 178 176
0.38346 -4.60158 0.89009 170 172 171
0.38276 -4.60473 0.86875 172 174 175
0.27407 -4.67082 0.87974 162 162 159
0.25385 -4.68293 0.86031 167 169 155
-0.24457 -4.79182 0.93130 158 158 150
-0.22471 -4.77993 0.95039 160 163 162
-0.22540 -4.78303 0.92938 162 166 155
-0.22608 -4.78614 0.90836 168 173 158
-0.24388 -4.78871 0.95231 158 161 153
-0.26443 -4.80371 0.91222 149 145 150
-0.25457 -4.81793 0.93240 147 144 150
-0.27312 -4.82363 0.95542 147 145 154
-0.27381 -4.82675 0.93433 145 137 153
-0.40206 -4.85389 0.94707 150 151 143
-0.38360 -4.84822 0.92417 152 151 135
-0.40274 -4.85699 0.92609 146 147 138
-0.42189 -4.86577 0.92802 145 149 149
-2.06987 -3.94184 1.10705 112 110 97
-2.08335 -3.95134 1.10842 65 63 58
-2.09824 -3.95420 1.10990 24 9 17
-2.11286 -3.96296 1.09584 12 17 7
-2.14262 -3.96336 1.11431 12 12 17
-2.15948 -3.95545 1.11593 17 12 19
-2.17613 -3.94813 1.11754 21 21 27
-2.20716 -3.94437 1.12057 28 29 26
-2.22060 -3.94850 1.13725 29 34 33
-2.22110 -3.95075 1.12197 20 24 24
-2.22160 -3.95301 1.10669 12 12 14
-2.45035 -3.88901 1.14425 19 21 35
-2.43739 -3.88503 1.12817 20 27 30
-2.45083 -3.89119 1.12952 22 25 28
-2.46428 -3.89735 1.13087 21 21 24
-2.47490 -3.92065 1.14680 53 73 98
-2.48799 -3.93032 1.14814 93 108 127
-2.50050 -3.94530 1.14943 78 82 79
1.50856 -3.36284 0.73342 198 193 211
1.50794 -3.36564 0.71447 198 191 206
1.49189 -3.36796 0.75411 203 204 218
1.49127 -3.37076 0.73516 202 203 215
1.27307 -3.27573 0.75684 207 206 219
1.28978 -3.26808 0.75516 204 206 221
1.28918 -3.27078 0.73685 204 207 223
1.27247 -3.27844 0.73853 207 207 221
1.18263 -3.22030 0.76581 181 180 186
1.15658 -3.35233 0.76856 89 87 112
1.15041 -3.36955 0.76920 98 105 123
1.13794 -3.38119 0.77046 79 78 110
1.12050 -3.39163 0.75370 66 63 101
1.11670 -3.40801 0.77261 78 77 113
1.14528 -3.45760 0.76982 107 117 144
1.12593 -3.48706 0.77179 103 110 145
1.12152 -3.50685 0.77225 75 86 130
1.11443 -3.52427 0.77298 81 90 130
1.11063 -3.54492 0.77338 85 89 122
1.09311 -3.55263 0.77514 67 73 101
1.03596 -3.72356 0.78105 75 82 97
1.03829 -3.75211 0.78085 70 73 85
1.02112 -3.75739 0.80216 56 59 83
1.03217 -3.77225 0.78149 59 63 81
1.01494 -3.77754 0.80286 57 58 90
1.01430 -3.78044 0.78328 57 57 88
1.01366 -3.78333 0.76371 59 59 100
1.00063 -3.90196 0.78479 65 64 98
1.01818 -3.89656 0.76301 61 61 83
0.98176 -3.91325 0.76667 79 90 106
0.99123 -3.91975 0.78575 77 82 105
0.97209 -3.95535 0.78771 74 78 117
0.95311 -3.96672 0.76946 59 58 93
0.96091 -3.97156 0.78884 57 60 99
0.94189 -3.98295 0.77056 57 53 100
0.89285 -4.07000 0.79576 30 46 101
0.91075 -4.06450 0.77355 48 61 90
0.90089 -4.10899 0.79500 125 142 172
0.89803 -4.13582 0.79532 182 191 207
0.87859 -4.14746 0.77663 185 194 205
0.85516 -4.17744 0.79965 174 182 190
0.87332 -4.17186 0.77712 180 191 210
0.89871 -4.29163 0.79543 68 64 52
0.87947 -4.30044 0.79737 66 70 59
0.86305 -4.31267 0.79902 67 72 67
0.85210 -4.33160 0.80014 77 81 83
0.85640 -4.36938 0.79975 120 122 111
0.83336 -4.37380 0.80206 150 152 141
0.81327 -4.38583 0.78275 163 160 157
0.83172 -4.40477 0.80226 159 160 152
0.81154 -4.41686 0.78286 167 162 162
0.70355 -4.44372 0.81511 169 171 167
0.72228 -4.43797 0.79187 178 179 170
0.70286 -4.44687 0.79382 179 179 170
0.68343 -4.45577 0.79577 183 185 172
0.68824 -4.45800 0.81665 179 181 168
0.66810 -4.47007 0.79729 188 187 176
0.66729 -4.46493 0.81875 186 187 176
0.64716 -4.47699 0.79940 188 185 182
0.43578 -4.57435 0.84201 176 180 177
0.45454 -4.56859 0.81874 168 172 161
0.43509 -4.57750 0.82069 162 165 157
0.41252 -4.57774 0.84433 180 189 185
0.37343 -4.59519 0.84826 178 183 177
0.35470 -4.60094 0.87150 168 173 170
0.35331 -4.60724 0.82892 163 167 164
0.30231 -4.67941 0.85546 164 162 148
0.32118 -4.67361 0.83204 176 177 171
0.30160 -4.68258 0.83401 170 172 163
0.28202 -4.69155 0.83597 170 174 173
0.27174 -4.67148 0.85850 159 159 152
0.25153 -4.68358 0.83908 169 172 163
-2.05640 -3.93696 1.09017 107 110 103
-2.04178 -3.92821 1.10423 106 107 109
-2.04228 -3.93049 1.08876 111 112 117
-2.04279 -3.93278 1.07328 113 114 115
-2.07052 -3.94344 1.09159 104 101 82
-2.08427 -3.95170 1.09297 56 55 32
-2.09880 -3.95624 1.09443 28 16 27
-2.11342 -3.96499 1.08038 9 18 8
-2.12857 -3.96154 1.09741 16 25 16
-2.14616 -3.95020 1.09915 25 24 36
-2.16345 -3.93976 1.10087 33 31 38
-2.18195 -3.92236 1.10270 34 42 32
-2.19467 -3.93507 1.10398 31 32 23
-2.20876 -3.94056 1.10540 19 16 15
-2.22318 -3.94919 1.09154 12 13 6
-2.48594 -3.95413 1.13310 35 44 64
-2.49922 -3.96299 1.13443 33 39 44
-2.51330 -3.97142 1.12091 21 28 18
-2.51191 -3.97735 1.13572 28 28 22
-2.52601 -3.98580 1.12216 21 27 23
1.54203 -3.34938 0.71105 207 187 181
1.55870 -3.34426 0.69036 206 179 169
1.52811 -3.36008 0.71244 204 192 195
1.51019 -3.37081 0.69521 201 192 196
1.50165 -3.38271 0.71507 200 199 211
1.48494 -3.38784 0.73581 203 205 217
1.48432 -3.39065 0.71681 204 206 218
1.20644 -3.26566 0.74525 152 149 163
1.20954 -3.29031 0.74488 71 69 109
1.15900 -3.33514 0.74991 63 71 102
1.17513 -3.33019 0.72991 61 68 104
1.16737 -3.36523 0.74900 93 101 118
1.14995 -3.37566 0.73225 103 112 138
1.15551 -3.37739 0.75018 104 114 132
1.14354 -3.38953 0.75137 76 81 116
1.12847 -3.42207 0.75283 72 74 108
1.14663 -3.46218 0.75090 101 113 127
1.14658 -3.48580 0.75086 103 110 128
1.13166 -3.49575 0.75235 96 101 124
1.12032 -3.53320 0.75342 73 81 119
1.11271 -3.55029 0.75415 72 76 108
1.09614 -3.55893 0.75582 63 67 93
1.08640 -3.57414 0.75677 68 67 81
1.06907 -3.58209 0.75851 60 61 96
1.05266 -3.69208 0.75994 60 70 100
1.07030 -3.68399 0.75817 63 68 99
1.06967 -3.68685 0.73884 63 67 98
1.04687 -3.71210 0.76049 72 84 116
1.06553 -3.75702 0.75850 110 119 119
1.04525 -3.76274 0.76055 99 95 102
1.04402 -3.78795 0.76062 65 71 83
1.01745 -3.92354 0.76303 71 76 98
0.98921 -3.94931 0.76584 79 89 111
0.98301 -3.97090 0.76642 67 66 106
0.96397 -3.98230 0.74812 59 58 95
0.89781 -4.07941 0.77483 28 46 95
0.90779 -4.12070 0.77373 118 133 160
0.90383 -4.14634 0.77408 178 190 205
0.88436 -4.15800 0.75536 183 193 204
0.86112 -4.18831 0.77832 176 187 200
0.87931 -4.18272 0.75575 178 189 205
0.87816 -4.23956 0.77648 137 138 140
0.89662 -4.29307 0.77450 78 65 63
0.87990 -4.30490 0.77617 65 65 62
0.85999 -4.31292 0.77817 83 85 80
0.85256 -4.33613 0.77887 111 117 123
0.83115 -4.34239 0.78103 147 151 151
0.81657 -4.35704 0.78248 159 162 156
0.79656 -4.36901 0.76326 169 165 153
0.39323 -4.55393 0.82499 162 171 166
0.41185 -4.54821 0.80188 167 170 164
0.39253 -4.55706 0.80382 164 166 164
0.37321 -4.56592 0.80576 165 169 164
0.37932 -4.57069 0.82636 165 173 165
0.35927 -4.58269 0.80710 159 162 170
0.36283 -4.58377 0.82801 161 166 166
0.34277 -4.59578 0.80873 164 171 167
0.14405 -4.63264 0.85009 168 168 167
0.16396 -4.62072 0.86921 168 175 166
0.16327 -4.62383 0.84816 166 172 169
0.14474 -4.62953 0.87114 172 173 165
0.14336 -4.63575 0.82903 175 171 178
0.12415 -4.64456 0.83096 160 162 155
-0.13582 -4.69395 0.87833 160 160 158
-0.11613 -4.68216 0.89726 155 156 147
-0.11681 -4.68524 0.87642 157 159 153
-0.13514 -4.69087 0.89917 152 153 151
-0.15416 -4.69958 0.90108 158 161 155
-0.15564 -4.70124 0.88033 157 159 164
-0.17396 -4.70687 0.90306 159 165 154
-0.17465 -4.70995 0.88223 150 152 165
-2.05719 -3.93798 1.07473 108 111 100
-2.04358 -3.93379 1.05784 112 112 114
-2.05769 -3.94026 1.05926 114 113 101
-2.07130 -3.94445 1.07615 99 91 82
-2.08466 -3.95454 1.07748 46 41 33
-2.09939 -3.95808 1.07897 23 22 29
-2.13131 -3.95262 1.08222 21 33 29
-2.15230 -3.92377 1.08440 46 51 49
-2.16697 -3.92641 1.08589 49 63 54
-2.18244 -3.92463 1.08746 39 52 37
-2.19581 -3.93390 1.08879 24 28 23
-2.20876 -3.94556 1.09008 16 13 8
-2.22319 -3.95420 1.07622 19 19 7
1.54980 -3.35903 0.69120 209 182 169
1.56650 -3.35390 0.67048 204 176 167
1.54918 -3.36184 0.67222 207 179 161
1.53467 -3.36877 0.69271 208 189 180
1.50856 -3.39178 0.69527 197 194 203
1.50794 -3.39459 0.67624 199 193 197
1.49477 -3.40272 0.69663 202 202 213
1.47801 -3.40787 0.71742 204 207 222
1.47739 -3.41069 0.69837 204 206 220
1.20718 -3.29148 0.72682 111 112 141
1.22323 -3.28654 0.70690 203 205 213
1.20748 -3.31390 0.72667 62 56 105
1.19136 -3.31886 0.74667 63 67 103
1.19076 -3.32156 0.72835 62 66 105
1.16486 -3.34359 0.73089 60 69 102
1.18101 -3.33863 0.71086 62 65 99
1.16426 -3.34630 0.71254 59 62 95
1.15970 -3.36162 0.73133 85 92 117
1.14698 -3.39592 0.73245 86 90 120
1.14338 -3.41575 0.73271 66 59 91
1.13084 -3.42754 0.73394 66 66 93
1.13061 -3.45073 0.73384 74 83 107
1.14062 -3.48362 0.73263 75 85 110
1.14098 -3.50781 0.73246 72 83 108
1.13153 -3.52299 0.73335 73 76 112
1.11698 -3.55774 0.73466 71 71 107
1.10111 -3.56708 0.73625 83 86 120
1.09329 -3.58418 0.73696 103 115 115
1.08221 -3.59824 0.73802 71 79 101
1.06543 -3.60339 0.75884 58 60 98
1.06481 -3.60621 0.73977 61 63 94
1.06419 -3.60903 0.72071 62 62 94
1.06389 -3.70681 0.73932 54 65 102
1.08096 -3.70157 0.71815 57 61 90
1.07103 -3.73993 0.73841 90 99 122
1.06455 -3.75957 0.73897 125 138 149
1.05003 -3.77115 0.74040 117 116 130
1.05415 -3.80191 0.73981 88 92 99
1.04646 -3.82077 0.74050 71 65 102
1.02845 -3.82902 0.74231 76 79 106
1.03171 -3.85954 0.74181 58 63 93
1.03235 -3.85661 0.76166 59 62 91
1.03106 -3.86247 0.72197 61 60 98
1.01424 -3.86491 0.76347 58 64 84
1.01360 -3.86784 0.74363 55 61 83
1.02047 -3.93043 0.74258 78 93 111
1.01000 -3.94723 0.74357 76 86 107
0.99698 -3.96139 0.74483 68 73 103
0.97795 -3.97278 0.72655 56 58 90
0.98178 -3.97326 0.74633 61 61 95
0.96274 -3.98466 0.72804 59 58 99
0.92074 -4.07957 0.75204 43 54 87
0.94002 -4.06802 0.77057 55 59 93
0.93936 -4.07104 0.75017 57 58 89
0.90620 -4.09275 0.75347 61 65 113
0.90661 -4.12315 0.75326 143 157 183
0.88721 -4.13476 0.73462 184 195 205
0.91200 -4.15959 0.75251 180 193 205
0.89248 -4.17128 0.73375 182 192 203
0.86813 -4.20044 0.75680 176 189 204
0.88636 -4.19483 0.73419 178 189 203
0.87007 -4.23384 0.75642 155 165 172
0.88819 -4.28693 0.75427 90 77 96
0.87106 -4.29822 0.75597 75 72 84
0.85649 -4.31263 0.75740 115 118 113
0.83724 -4.32140 0.75933 149 154 152
0.82317 -4.33655 0.76069 164 167 165
0.80817 -4.35063 0.76216 166 170 158
0.78821 -4.36258 0.74298 178 177 154
-0.14133 -4.68850 0.85804 172 175 178
-0.12303 -4.68287 0.83533 162 169 159
-0.14201 -4.69157 0.83724 166 172 167
-0.16099 -4.70027 0.83914 168 168 165
-0.16004 -4.69769 0.85991 173 171 176
-0.17970 -4.70946 0.84102 166 165 163
-2.07164 -3.94751 1.06066 103 94 80
-2.05803 -3.94333 1.04377 117 113 107
-2.07215 -3.94980 1.04519 107 104 84
-2.08471 -3.95899 1.06194 42 41 28
-2.09935 -3.96775 1.04787 16 21 25
-2.09960 -3.96182 1.06346 18 24 26
-2.11449 -3.96453 1.06498 11 18 15
-2.13393 -3.94430 1.06708 33 45 45
-2.15241 -3.92803 1.06907 57 66 53
-2.16714 -3.93036 1.07058 48 58 63
-2.18157 -3.93901 1.05670 34 39 34
-2.18290 -3.92709 1.07222 36 46 37
-2.19730 -3.93572 1.05838 35 37 34
-2.19710 -3.93189 1.07365 28 35 26
-2.21092 -3.93869 1.07504 29 25 11
-2.22532 -3.94731 1.06120 26 23 16
1.54308 -3.37901 0.67271 210 184 168
1.55982 -3.37386 0.65193 205 177 164
1.52924 -3.38989 0.67406 207 192 188
1.51124 -3.40067 0.65676 204 196 196
1.50120 -3.41145 0.67680 199 194 204
1.50058 -3.41426 0.65772 197 193 197
1.47268 -3.41005 0.67979 203 204 216
1.45594 -3.41520 0.70056 204 207 221
1.45531 -3.41801 0.68153 204 205 218
1.45469 -3.42082 0.66250 204 205 218
1.21397 -3.30059 0.70775 155 159 175
1.21640 -3.32493 0.70728 72 78 120
1.20379 -3.33625 0.70850 60 60 98
1.18642 -3.34665 0.69180 61 61 96
1.16611 -3.37062 0.71213 74 73 107
1.18233 -3.36564 0.69201 60 59 94
1.16297 -3.39066 0.71229 102 107 130
1.14747 -3.39964 0.71383 105 108 125
1.14931 -3.42446 0.71342 83 75 98
1.13507 -3.43472 0.71482 71 60 94
1.12422 -3.44816 0.71584 68 67 106
1.14130 -3.48760 0.71371 68 67 108
1.14047 -3.51070 0.71360 71 75 108
1.13126 -3.52611 0.71442 76 74 113
1.12360 -3.54307 0.71508 77 81 116
1.13917 -3.58227 0.71311 101 101 139
1.12370 -3.59212 0.71464 124 136 160
1.10304 -3.59700 0.71675 114 121 139
1.09000 -3.60922 0.71801 71 79 105
1.07195 -3.62004 0.70066 63 63 95
1.06925 -3.71568 0.71925 45 60 89
1.08634 -3.71043 0.69805 52 57 84
1.05601 -3.72832 0.72052 82 80 114
1.05598 -3.78078 0.72007 120 128 141
1.04203 -3.79303 0.72142 112 112 133
1.05571 -3.83391 0.71964 83 84 110
1.04445 -3.84926 0.72068 77 73 89
1.02657 -3.88514 0.72224 59 63 92
1.00775 -3.89641 0.70415 78 86 101
1.02267 -3.90860 0.72244 76 83 94
1.02483 -3.93874 0.72195 78 87 120
1.01142 -3.95244 0.72323 69 71 106
0.99241 -3.96382 0.70497 58 58 97
0.94170 -4.07745 0.72943 58 55 91
0.96100 -4.06589 0.74797 59 56 96
0.96033 -4.06891 0.72756 62 57 100
0.92815 -4.09174 0.73072 67 67 103
0.92442 -4.11731 0.73089 124 125 163
0.93103 -4.15500 0.72987 171 185 205
0.91150 -4.16669 0.71111 182 192 204
0.87458 -4.21190 0.73527 175 187 204
0.89284 -4.20629 0.71261 176 188 204
0.86723 -4.23435 0.73584 159 173 194
0.86727 -4.26583 0.73556 116 111 141
0.85708 -4.28531 0.73646 113 112 127
0.84816 -4.30648 0.73721 145 153 147
0.82829 -4.31838 0.71811 174 177 170
0.83121 -4.31800 0.73888 166 170 167
0.81669 -4.33255 0.74026 174 173 174
0.80020 -4.34474 0.74188 179 181 165
0.78028 -4.35667 0.72273 191 193 177
0.58071 -4.43113 0.76405 184 182 178
0.60059 -4.41922 0.78315 187 189 184
0.59990 -4.42233 0.76212 188 186 187
0.56220 -4.43682 0.78701 175 173 165
0.56151 -4.43992 0.76597 175 176 168
0.56083 -4.44303 0.74494 179 178 166
-2.08503 -3.96217 1.04642 39 41 24
-2.07140 -3.95798 1.02951 101 95 78
-2.09967 -3.97093 1.03235 15 23 28
-2.11432 -3.97013 1.04941 16 23 25
-2.13673 -3.93505 1.05206 47 64 58
-2.15129 -3.93852 1.05355 49 61 40
-2.16577 -3.94718 1.03963 32 33 19
-2.16756 -3.93301 1.05529 38 40 40
-2.18200 -3.94166 1.04142 36 36 34
-2.21172 -3.93931 1.05985 37 32 21
-2.21221 -3.94156 1.04462 31 30 32
-2.22611 -3.94793 1.04602 27 24 28
1.55062 -3.38855 0.65273 205 178 168
1.56740 -3.38339 0.63192 204 174 164
1.55000 -3.39136 0.63367 203 174 166
1.53502 -3.39801 0.65427 207 190 185
1.47478 -3.41516 0.66044 201 201 210
1.49153 -3.41001 0.63966 202 194 199
1.45678 -3.42594 0.64315 203 206 215
1.28385 -3.34211 0.68154 207 211 220
1.30135 -3.33164 0.69835 205 209 221
1.30074 -3.33437 0.67984 205 210 222
1.30014 -3.33711 0.66133 204 210 219
1.28324 -3.34485 0.66303 206 210 221
1.21506 -3.30475 0.68927 186 191 198
1.21557 -3.32744 0.68895 115 119 145
1.21117 -3.34599 0.68919 65 56 99
1.17116 -3.37841 0.69304 69 69 104
1.18740 -3.37342 0.67289 57 62 99
1.16907 -3.39944 0.69301 106 112 127
1.15130 -3.40640 0.69481 127 130 140
1.14013 -3.41938 0.69583 118 116 134
1.13828 -3.46446 0.69549 99 96 122
1.13827 -3.48813 0.69521 100 97 123
1.12042 -3.49531 0.69701 106 107 124
1.13824 -3.53605 0.69464 114 115 132
1.12035 -3.54676 0.67745 163 172 184
1.15105 -3.57246 0.69285 128 138 164
1.13623 -3.58288 0.69429 143 152 172
1.11894 -3.59098 0.69603 133 144 161
1.11437 -3.61135 0.69627 87 86 118
1.09628 -3.62219 0.67888 66 66 96
1.10049 -3.62284 0.69760 66 66 103
1.08238 -3.63368 0.68020 64 66 86
1.07201 -3.72195 0.69943 41 58 83
1.08911 -3.71669 0.67821 55 60 87
1.05735 -3.73318 0.70085 72 71 107
1.07357 -3.77580 0.69862 114 123 150
1.04789 -3.80263 0.70102 121 122 153
1.04370 -3.82509 0.70119 105 110 135
1.05296 -3.86173 0.69978 85 81 105
1.04325 -3.87886 0.70060 76 68 100
1.03528 -3.89796 0.70121 76 84 103
1.02778 -3.94557 0.70144 70 69 112
1.00878 -3.95695 0.68318 55 59 101
1.02190 -3.96739 0.70180 61 60 100
1.00284 -3.97880 0.68348 56 56 101
0.97762 -4.06263 0.70535 66 58 99
0.99691 -4.05108 0.72389 58 57 97
0.99624 -4.05410 0.70348 62 58 98
0.97828 -4.05962 0.72576 60 56 98
0.96969 -4.08314 0.70595 69 66 107
0.95035 -4.09096 0.70790 78 79 121
0.94411 -4.11362 0.70829 108 113 141
0.94020 -4.13914 0.70840 152 163 186
0.93146 -4.15932 0.70908 173 185 199
0.88004 -4.22223 0.71378 170 182 194
0.89833 -4.21660 0.69108 175 186 202
0.87084 -4.24253 0.71451 155 163 184
0.86159 -4.26294 0.71524 151 153 167
0.84942 -4.28001 0.71633 163 166 160
0.83957 -4.29998 0.71713 174 176 167
0.81974 -4.31186 0.69807 178 177 171
0.81051 -4.32890 0.71986 181 182 180
0.79063 -4.34080 0.70076 190 191 185
0.79316 -4.33999 0.72157 189 189 181
0.77327 -4.35190 0.70245 193 196 184
0.58914 -4.41204 0.74231 184 182 187
0.60896 -4.40017 0.76137 184 189 182
0.60828 -4.40327 0.74039 183 184 184
0.56931 -4.42391 0.72326 170 171 171
0.48754 -4.48306 0.75222 171 173 173
0.46902 -4.48875 0.77521 174 173 177
0.45975 -4.47986 0.75521 173 177 176
0.43990 -4.49174 0.73613 162 159 152
0.43484 -4.48055 0.75783 165 165 163
0.41503 -4.49241 0.73879 153 155 152
-2.08332 -3.97501 1.03057 37 37 20
-2.09800 -3.98380 1.01646 20 33 22
-2.11350 -3.97894 1.03372 30 35 41
-2.11401 -3.98123 1.01822 39 47 41
-2.12815 -3.98771 1.01964 43 42 47
-2.14833 -3.95846 1.03765 40 38 39
-2.16287 -3.96717 1.02368 29 36 27
-2.19833 -3.93510 1.04323 38 32 43
1.54022 -3.40565 0.63450 207 182 175
1.55702 -3.40049 0.61365 204 172 160
1.52423 -3.41484 0.63608 209 195 192
1.24240 -3.33176 0.66761 205 206 211
1.25860 -3.32679 0.64752 204 208 220
1.22571 -3.33955 0.66929 162 162 174
1.21649 -3.35393 0.67006 82 83 116
1.20538 -3.36670 0.67106 56 58 92
1.18793 -3.37716 0.65428 55 64 98
1.17918 -3.38888 0.67353 64 67 106
1.17599 -3.40896 0.67357 101 103 128
1.17049 -3.42711 0.67388 132 136 153
1.17148 -3.45131 0.67341 143 148 165
1.14756 -3.45282 0.67595 135 137 149
1.15793 -3.48596 0.67434 132 131 147
1.15857 -3.51036 0.67389 136 133 141
1.15980 -3.53552 0.67338 145 150 149
1.15737 -3.55744 0.67331 157 163 160
1.13447 -3.58462 0.67535 141 155 169
1.13341 -3.60829 0.67510 99 117 139
1.13630 -3.63597 0.67437 70 70 95
1.11811 -3.64686 0.65689 67 70 91
1.07739 -3.73085 0.67925 46 58 94
1.09451 -3.72559 0.65800 59 60 95
1.07848 -3.75804 0.67872 82 83 113
1.07502 -3.78083 0.67875 109 119 144
1.06351 -3.79558 0.67976 112 118 137
1.05280 -3.81124 0.68067 117 123 150
1.03419 -3.82239 0.66278 111 119 148
1.04404 -3.82902 0.68134 119 123 151
1.03903 -3.85083 0.68154 99 110 135
1.04230 -3.88150 0.68073 94 95 115
1.03325 -3.89945 0.68143 86 98 107
1.03240 -3.92624 0.68111 71 70 112
1.01345 -3.93758 0.66291 57 62 105
1.03260 -3.95440 0.68066 62 62 106
1.01357 -3.96579 0.66237 54 57 103
1.01376 -4.01924 0.68169 54 53 95
0.99589 -4.02473 0.70387 58 57 103
1.01401 -4.04837 0.68122 61 62 106
0.99296 -4.05423 0.68339 73 72 106
0.98363 -4.07308 0.68411 77 74 103
0.97873 -4.09704 0.68427 99 107 132
0.96064 -4.10635 0.68607 114 125 150
0.94124 -4.11796 0.66743 88 88 131
0.94264 -4.11575 0.68786 113 122 149
0.92666 -4.12748 0.68940 119 118 153
0.90725 -4.13910 0.67074 151 161 181
0.94537 -4.17916 0.68660 155 164 184
0.92832 -4.19000 0.68827 177 186 200
0.91006 -4.19561 0.71092 181 192 204
0.90938 -4.19867 0.69017 178 190 202
0.90871 -4.20174 0.66942 180 188 194
0.88326 -4.22990 0.69250 173 182 181
0.87536 -4.25180 0.69301 163 164 167
0.85785 -4.26238 0.69473 180 184 180
0.83812 -4.27419 0.67577 197 196 194
0.84646 -4.28035 0.69568 190 193 179
0.83389 -4.29702 0.69678 184 181 172
0.81409 -4.30888 0.67774 188 186 182
0.45117 -4.47191 0.73522 167 164 157
0.43136 -4.48376 0.71619 161 167 161
0.17697 -4.54621 0.76354 172 184 180
0.19662 -4.53445 0.78242 163 164 161
0.19526 -4.54059 0.74085 164 169 181
0.17629 -4.54928 0.74275 179 182 181
0.15800 -4.55490 0.76544 173 181 165
-2.06789 -3.97909 1.01330 100 90 68
-2.05318 -3.97028 1.02743 110 111 107
-2.05369 -3.97258 1.01187 111 113 103
-2.05420 -3.97488 0.99631 112 113 94
-2.08059 -3.99276 1.01445 37 35 11
-2.09532 -4.00158 1.00030 32 41 38
-2.19952 -3.93362 1.02813 47 48 64
-2.28792 -3.85209 1.03887 35 31 41
-2.30153 -3.85775 1.04024 27 23 28
-2.31456 -3.86176 1.05641 13 14 10
-2.31526 -3.86260 1.04164 17 22 17
-2.32829 -3.86661 1.05781 10 15 9
-2.32878 -3.86879 1.04300 12 20 16
-2.32926 -3.87098 1.02819 18 30 24
1.54445 -3.41250 0.61480 207 176 162
1.56127 -3.40733 0.59393 203 172 160
1.54383 -3.41533 0.59568 205 175 158
1.53585 -3.42788 0.61545 211 187 178
1.26839 -3.35763 0.64588 206 208 215
1.28469 -3.35262 0.62566 203 205 219
1.26779 -3.36037 0.62736 204 205 217
1.24146 -3.35660 0.64883 188 192 198
1.22013 -3.36038 0.65109 122 129 147
1.21317 -3.37687 0.65154 61 62 97
1.18830 -3.40034 0.65381 61 63 100
1.17361 -3.41011 0.65523 82 85 121
1.17099 -3.43087 0.65513 123 129 164
1.17849 -3.46104 0.65376 146 148 178
1.17224 -3.47884 0.65411 153 158 174
1.17287 -3.50313 0.65359 151 153 170
1.17155 -3.52581 0.65331 151 149 157
1.15991 -3.53901 0.65434 154 154 160
1.15600 -3.55955 0.65438 154 161 169
1.14399 -3.57258 0.65545 139 143 162
1.14677 -3.59978 0.65464 103 117 133
1.15795 -3.63529 0.65277 77 99 118
1.14872 -3.65142 0.65347 70 70 93
1.13047 -3.66234 0.63594 63 67 91
1.08074 -3.73773 0.65928 57 64 109
1.09059 -3.77380 0.65754 91 91 127
1.07205 -3.78491 0.63972 105 108 135
1.08094 -3.79040 0.65828 109 115 136
1.06235 -3.80152 0.64043 97 95 132
1.06852 -3.80427 0.65938 104 103 127
1.05973 -3.82196 0.66001 106 111 143
1.04079 -3.85626 0.66144 99 113 137
1.03603 -3.87854 0.66154 92 104 126
1.04533 -3.91585 0.65984 78 85 107
1.02641 -3.92718 0.64166 57 62 94
1.03592 -3.93365 0.66053 62 64 106
1.01767 -3.99859 0.66132 59 56 103
1.00871 -4.01744 0.66194 69 69 117
1.02300 -4.06200 0.65956 100 106 136
1.00667 -4.07314 0.66113 117 125 142
0.99733 -4.09212 0.66180 100 107 120
0.97321 -4.09464 0.66438 115 124 148
0.96042 -4.10988 0.66549 103 106 134
0.92821 -4.13305 0.66857 101 94 144
0.91165 -4.23612 0.66847 187 191 200
0.88182 -4.23208 0.67179 194 200 190
0.86879 -4.24788 0.67292 188 189 181
0.84909 -4.25967 0.65399 196 197 191
0.85605 -4.26412 0.67400 195 195 186
0.83632 -4.27593 0.65504 192 192 194
0.59290 -4.35717 0.70094 186 185 186
0.61255 -4.34540 0.71982 182 187 182
0.61187 -4.34848 0.69903 185 187 185
0.61119 -4.35155 0.67825 182 186 184
0.58165 -4.37605 0.70181 177 174 175
0.56196 -4.38784 0.68290 169 169 163
0.49056 -4.42500 0.71083 168 169 164
0.50959 -4.41628 0.70892 165 164 164
0.48988 -4.42808 0.68998 177 181 179
0.47554 -4.43926 0.71220 167 164 164
0.45581 -4.45107 0.69324 165 172 157
-0.03794 -4.59509 0.76524 156 159 161
-0.05608 -4.60066 0.78774 151 151 145
-0.05675 -4.60371 0.76713 155 154 153
-0.05743 -4.60676 0.74651 152 152 162
-2.06675 -3.98912 0.99742 101 93 67
-2.05303 -3.98490 0.98040 109 105 92
-2.07725 -4.01342 0.99811 38 30 18
-2.09205 -4.02227 0.98389 35 44 58
-2.29056 -3.84141 1.02453 61 55 47
-2.30294 -3.85430 1.02564 41 34 32
-2.31497 -3.86967 1.02666 21 30 24
-2.32898 -3.87806 1.01319 23 34 22
2.24033 -3.46768 0.51764 67 69 62
2.25955 -3.45617 0.53611 65 59 65
2.25888 -3.45917 0.51578 76 67 57
2.25822 -3.46218 0.49545 97 86 74
2.22244 -3.47317 0.53984 127 125 120
2.22177 -3.47618 0.51950 91 96 95
1.53987 -3.43459 0.59570 208 181 166
1.55674 -3.42941 0.57477 203 174 161
1.53925 -3.43743 0.57652 206 177 164
1.52175 -3.44545 0.57828 207 184 172
1.26976 -3.38466 0.62661 202 203 212
1.28613 -3.37963 0.60630 202 205 216
1.26915 -3.38741 0.60800 205 206 214
1.23117 -3.37338 0.63112 168 168 180
1.21738 -3.38388 0.63241 89 89 120
1.21480 -3.40441 0.63225 55 57 94
1.19723 -3.41493 0.61536 54 62 89
1.20145 -3.41544 0.63348 57 62 95
1.19066 -3.42880 0.63438 63 71 109
1.16770 -3.43118 0.63686 108 115 157
1.18585 -3.47110 0.63399 147 153 184
1.19201 -3.50038 0.63267 161 162 181
1.17418 -3.51106 0.61553 165 172 190
1.17727 -3.53452 0.63356 162 167 182
1.15839 -3.54096 0.63550 152 156 166
1.15330 -3.56040 0.63564 128 138 155
1.19101 -3.62063 0.63016 90 96 127
1.18716 -3.64180 0.63013 74 81 104
1.17490 -3.65504 0.63119 72 80 101
1.15661 -3.66599 0.61362 60 62 93
1.16807 -3.67361 0.63154 67 69 94
1.14973 -3.68459 0.61392 58 61 92
1.10205 -3.73663 0.63746 68 66 107
1.12049 -3.72559 0.65517 61 66 86
1.11985 -3.72847 0.63567 62 61 93
1.10514 -3.76577 0.63648 85 92 127
1.08661 -3.77687 0.61867 108 116 141
1.09478 -3.78159 0.63728 101 108 137
1.07621 -3.79270 0.61944 101 107 141
1.06486 -3.83083 0.63951 96 98 136
1.05378 -3.84630 0.64040 105 113 137
1.04947 -3.86893 0.64038 90 99 127
1.05831 -3.90557 0.63860 69 80 116
