ply
format ascii 1.0
element face 0
property list uchar int vertex_indices
element vertex 1303
property float x
property float y
property float z
property uchar diffuse_red
property uchar diffuse_green
property uchar diffuse_blue
end_header
0.22413 -4.10565 2.48099 113 118 133
0.21830 -4.12649 2.48511 105 91 71
0.20637 -4.14154 2.48747 36 24 50
0.19242 -4.15471 2.48925 63 56 65
0.18102 -4.17044 2.49180 84 94 102
0.15848 -4.17522 2.49105 57 60 32
0.11181 -4.18305 2.48904 30 28 34
-0.00991 -4.16868 2.47613 40 50 91
0.03570 -4.24371 2.49629 96 105 143
-1.01915 -3.93151 2.34312 229 221 211
-1.00237 -3.92541 2.32473 233 227 220
-1.01894 -3.93268 2.32500 234 227 217
-1.03551 -3.93996 2.32528 233 224 217
-1.03834 -3.93538 2.34244 228 217 209
-1.05469 -3.94381 2.32461 231 222 218
-1.05778 -3.93886 2.34165 226 214 208
-1.07639 -3.94338 2.34115 223 211 203
-1.09347 -3.94991 2.34122 220 204 185
-1.11176 -3.95479 2.34083 214 196 155
-1.12848 -3.96177 2.34103 204 183 124
-1.15108 -3.96072 2.33899 190 166 91
-1.19192 -3.93449 2.32995 167 141 69
-1.25880 -3.87171 2.31077 142 115 79
-1.31209 -3.82681 2.29663 126 100 66
-1.33032 -3.83041 2.29596 112 93 48
-1.34710 -3.83602 2.29585 99 87 66
-1.36095 -3.84578 2.29689 91 79 77
-1.41378 -3.85886 2.29554 80 79 77
-1.44891 -3.83736 2.28800 47 45 41
-2.17875 -3.90089 2.24355 35 29 30
-2.16406 -3.89331 2.25958 17 18 28
-2.16387 -3.89436 2.24330 23 19 24
-2.19345 -3.90848 2.22752 51 55 46
-2.18957 -3.91594 2.24599 46 47 32
-2.20298 -3.92566 2.24706 45 42 48
-2.21772 -3.93327 2.23098 28 27 38
-2.21800 -3.93202 2.24726 28 24 36
-2.23274 -3.93963 2.23118 26 32 36
-2.28740 -3.93677 2.24275 21 23 32
-2.27236 -3.93129 2.22626 27 32 36
-2.28721 -3.93781 2.22651 21 27 22
-2.30206 -3.94433 2.22675 15 23 16
-2.30756 -3.93139 2.23995 18 20 40
-2.32563 -3.93050 2.23830 22 31 49
-2.34022 -3.93803 2.22239 30 35 40
-2.33712 -3.94450 2.24047 29 40 59
-2.35173 -3.95204 2.22452 34 38 41
-2.35300 -3.94850 2.24007 32 36 59
-2.36938 -3.95130 2.23938 27 34 61
-2.36389 -4.00556 2.25176 63 73 96
-2.38843 -3.98930 2.24622 113 118 134
-2.40057 -4.00242 2.24814 151 146 156
-2.41144 -4.01876 2.25086 174 162 159
-2.44723 -4.10578 2.26715 191 181 177
-2.43187 -4.10019 2.25032 188 179 168
-2.44703 -4.10684 2.25058 191 182 173
-2.46219 -4.11350 2.25083 191 181 174
-2.45999 -4.11856 2.26894 194 188 179
-2.47725 -4.11983 2.26784 196 193 175
-2.49222 -4.12755 2.25151 187 177 161
-2.49574 -4.11775 2.26590 193 187 166
-2.51067 -4.12545 2.24961 185 176 155
-2.50959 -4.12779 2.26700 187 176 151
-2.52453 -4.13551 2.25070 184 177 154
-2.52656 -4.12951 2.26602 180 166 138
-2.56096 -4.13138 2.26368 143 122 86
-2.58140 -4.12313 2.26023 96 82 56
-2.60824 -4.09650 2.25222 45 37 36
-2.62931 -4.08554 2.24812 26 34 75
-2.64417 -4.09201 2.24835 31 43 107
-2.68300 -4.02864 2.23130 72 85 149
-2.67770 -4.09369 2.24604 121 154 198
-2.69755 -4.08513 2.24256 164 199 218
-2.71510 -4.08315 2.24073 190 211 216
-2.73171 -4.08383 2.23955 151 137 158
-2.75528 -4.06277 2.23302 60 59 72
-2.75824 -4.10573 2.24224 26 19 34
-2.77297 -4.11220 2.24249 29 25 27
-2.79603 -4.09184 2.23616 72 44 83
-2.80849 -4.10534 2.23813 95 53 113
-2.82474 -4.10652 2.23709 105 55 127
-2.83920 -4.11398 2.22132 105 78 125
-2.87228 -4.11338 2.23479 111 56 123
-2.87209 -4.11441 2.21883 99 58 98
-2.88783 -4.11644 2.23422 89 55 131
-2.90011 -4.13103 2.23645 150 136 190
-2.90937 -4.15664 2.24135 227 226 242
-2.92535 -4.15835 2.24044 252 254 254
-2.93983 -4.16582 2.22465 254 254 254
-3.87375 -4.35701 2.20824 253 254 253
-3.85977 -4.35087 2.20801 254 254 254
-3.88775 -4.36288 2.20841 247 247 245
-3.90395 -4.31290 2.19612 225 210 216
-3.91711 -4.33662 2.20028 172 150 146
-3.93030 -4.36305 2.20505 99 80 79
-3.94418 -4.37080 2.20564 78 65 77
-3.95850 -4.36218 2.20260 93 87 98
-3.97106 -4.42491 2.21540 114 116 110
-3.98518 -4.42831 2.21502 128 133 130
-3.99942 -4.42331 2.21278 130 123 124
-4.01328 -4.44113 2.21559 98 75 101
-4.02680 -4.49732 2.22687 51 35 56
-4.04083 -4.50456 2.21157 39 33 35
-4.04091 -4.51653 2.22997 31 26 38
-4.05498 -4.52379 2.21462 34 35 35
-4.08382 -4.61641 2.24852 39 45 47
-4.06912 -4.61106 2.23242 32 40 30
-4.08363 -4.61743 2.23266 37 46 38
-4.09843 -4.64366 2.25335 47 55 59
0.84326 -3.52657 2.38327 151 125 103
0.86088 -3.51747 2.40250 148 126 107
0.86111 -3.51873 2.38298 148 123 107
0.86134 -3.51999 2.36345 165 139 120
0.84303 -3.52531 2.40280 144 125 104
0.80427 -3.51905 2.37858 159 134 115
0.78672 -3.52811 2.35943 191 174 152
0.83514 -3.58352 2.39497 194 170 146
0.26817 -4.12258 2.46723 133 143 164
0.28734 -4.11561 2.44621 134 148 170
0.24165 -4.12359 2.46536 116 128 137
0.25482 -4.16293 2.47492 88 71 72
0.23238 -4.16797 2.47425 29 27 68
0.21016 -4.17319 2.47363 67 53 79
0.24817 -4.23779 2.49062 105 121 122
0.21667 -4.23410 2.48734 64 69 59
0.16255 -4.20764 2.47736 44 30 57
0.14278 -4.21528 2.47746 56 40 52
0.12397 -4.22499 2.45695 73 36 58
-1.07658 -3.94401 2.32293 229 222 218
-1.05984 -3.93792 2.30458 235 228 226
-1.07637 -3.94517 2.30485 233 228 225
-1.09309 -3.95129 2.32321 228 219 206
-1.10904 -3.95933 2.32370 226 215 189
-1.13383 -3.95540 2.32090 222 209 174
-1.15580 -3.95516 2.31912 217 200 148
-1.20287 -3.92030 2.30787 208 188 137
-1.21586 -3.93201 2.30939 197 177 144
-1.25787 -3.90330 2.29987 187 166 119
-1.31940 -3.84659 2.28275 173 154 95
-1.33275 -3.85717 2.28400 158 142 93
-1.34819 -3.86481 2.28444 149 126 87
-1.36445 -3.87130 2.28457 142 115 92
-1.39029 -3.86388 2.28093 130 107 81
-1.41028 -3.86479 2.27956 106 85 63
-1.45077 -3.83543 2.27002 66 53 52
-1.47204 -3.83401 2.26804 53 43 46
-1.48788 -3.83978 2.28541 39 46 49
-1.49433 -3.83095 2.26563 52 39 40
-1.51013 -3.83670 2.28295 41 47 50
-1.52507 -3.81499 2.25975 53 46 47
-1.54078 -3.82070 2.27697 44 45 45
-1.54058 -3.82179 2.26001 52 47 49
-2.17180 -3.87875 2.22278 33 22 34
-2.15717 -3.87120 2.23874 19 27 22
-2.15697 -3.87224 2.22253 18 23 17
-2.17955 -3.89989 2.22675 50 45 43
-2.20410 -3.92394 2.23003 41 37 49
-2.21883 -3.93154 2.21396 31 36 35
-2.32807 -3.92560 2.22065 19 29 30
-2.34263 -3.93311 2.20476 36 38 40
-2.37256 -3.94450 2.22125 33 27 45
-2.35761 -3.93906 2.20488 31 34 28
-2.37238 -3.98615 2.23029 68 62 81
-2.39027 -3.98553 2.22875 104 102 114
-2.39824 -4.00862 2.23313 140 133 126
-2.41245 -4.01688 2.23380 170 157 144
-2.42718 -4.02448 2.21773 184 174 155
-2.42519 -4.02881 2.23539 182 169 158
-2.44013 -4.03537 2.23563 185 174 161
-2.43994 -4.03642 2.21929 187 176 161
-2.48535 -4.09938 2.24595 189 177 170
-2.47007 -4.09382 2.22921 187 177 166
-2.48515 -4.10044 2.22946 186 175 162
-2.50024 -4.10706 2.22971 185 174 159
-2.54837 -4.11854 2.24515 173 171 147
-2.56517 -4.12034 2.24422 141 135 113
-2.58526 -4.11290 2.24103 98 87 60
-2.61029 -4.09125 2.23437 59 58 23
-2.62499 -4.09883 2.21834 26 25 34
-2.63204 -4.07827 2.22986 37 35 40
-2.64666 -4.08582 2.21390 18 28 35
-2.65109 -4.07256 2.22712 21 26 51
-2.66567 -4.08009 2.21121 20 27 36
-2.66604 -4.07853 2.22724 17 24 73
-2.68616 -4.06924 2.22365 27 40 92
-2.72827 -3.99391 2.20402 42 75 126
-2.72580 -4.05127 2.21664 92 98 137
-2.74147 -4.05442 2.21609 66 32 98
-2.75195 -4.07354 2.21941 43 37 55
-2.77033 -4.06821 2.21681 71 54 57
-2.77871 -4.09437 2.22182 107 93 68
-2.79689 -4.08949 2.21934 122 96 89
-2.80882 -4.10470 2.22170 107 67 99
-2.82579 -4.10345 2.22009 100 62 118
-2.85842 -4.10483 2.21783 102 67 113
-2.88956 -4.11078 2.21667 83 58 99
-2.90678 -4.10778 2.21467 146 143 173
-2.92112 -4.11518 2.19902 241 247 245
-2.91363 -4.14171 2.22148 224 230 238
-2.92807 -4.14916 2.20573 253 253 252
-2.92973 -4.14278 2.22045 252 254 254
-2.94415 -4.15022 2.20472 254 253 252
-3.87459 -4.33592 2.18809 238 245 236
-3.88964 -4.31551 2.18248 208 173 182
-3.90329 -4.32255 2.16759 138 125 106
-3.90350 -4.32076 2.18253 154 131 124
-3.91741 -4.32457 2.18227 138 119 99
-3.92994 -4.36955 2.19103 105 86 66
-3.94391 -4.37469 2.19104 75 65 51
-3.95767 -4.38179 2.17603 75 64 66
-3.97099 -4.42111 2.19897 70 68 71
-3.98486 -4.42827 2.18384 63 57 40
-3.98501 -4.42852 2.19948 75 76 72
-3.99889 -4.43568 2.18434 58 53 49
-4.01239 -4.49306 2.21131 60 44 62
-4.02642 -4.50031 2.19600 46 42 49
-4.02655 -4.50464 2.21270 50 34 47
-4.04060 -4.51189 2.19738 33 35 41
-4.09813 -4.62245 2.23261 45 53 53
-4.08344 -4.61711 2.21651 33 48 46
-4.09795 -4.62348 2.21675 44 52 52
-4.11245 -4.62984 2.21699 46 51 52
-4.26803 -4.96103 2.29261 83 94 100
-4.28167 -4.92723 2.28422 80 83 89
-4.29668 -4.93498 2.26785 75 63 79
-4.29602 -4.91467 2.28037 79 77 82
-4.32693 -4.94026 2.28349 93 90 100
0.82598 -3.53592 2.36412 191 174 138
0.80835 -3.54502 2.34488 178 160 149
0.83181 -3.58217 2.37443 189 166 153
0.83204 -3.58344 2.35473 181 160 150
0.81403 -3.59134 2.35503 180 160 147
0.82545 -3.59870 2.37746 184 161 141
0.80763 -3.60790 2.35802 179 157 147
1.42918 -4.85175 2.69108 126 144 155
1.45198 -4.84174 2.69070 116 131 146
1.45227 -4.84335 2.66577 125 134 147
1.40609 -4.86015 2.71639 137 146 168
1.40638 -4.86176 2.69145 134 149 170
0.27676 -4.13189 2.44887 142 148 171
0.29597 -4.12491 2.42781 132 146 169
0.27700 -4.13323 2.42813 136 150 170
0.25720 -4.13965 2.44902 128 131 152
0.26486 -4.17375 2.45688 45 28 44
0.25160 -4.18780 2.45885 8 7 38
0.22726 -4.19106 2.45767 69 60 96
0.28495 -4.27519 2.48005 131 141 145
0.24837 -4.26669 2.47542 83 79 99
0.24173 -4.28789 2.47942 72 57 68
0.27015 -4.34453 2.49369 120 99 93
-0.04865 -4.18583 2.43530 59 42 69
0.03031 -4.29690 2.46506 116 93 142
-1.09275 -3.95263 2.30518 234 228 218
-1.07601 -3.94654 2.28683 237 234 232
-1.09254 -3.95380 2.28711 237 233 228
-1.10878 -3.96055 2.30564 233 226 210
-1.13180 -3.95903 2.30354 232 222 205
-1.15687 -3.95457 2.30066 230 217 196
-1.18656 -3.94359 2.29603 222 208 190
-1.21046 -3.94035 2.29350 214 200 183
-1.23405 -3.93738 2.29105 210 193 159
-1.27968 -3.90328 2.28027 203 187 138
-1.32105 -3.87458 2.27096 198 181 130
-1.34245 -3.87384 2.26915 195 174 128
-1.36502 -3.87130 2.26688 190 168 121
-1.38170 -3.87715 2.26684 179 156 106
-1.39398 -3.88942 2.26851 165 139 97
-1.41868 -3.88347 2.26534 148 124 99
-1.45485 -3.86033 2.25762 133 109 74
-1.49704 -3.82769 2.24741 117 93 46
-1.53206 -3.80525 2.23993 103 84 43
-1.55432 -3.80171 2.23746 73 60 49
-1.56995 -3.80739 2.25458 48 49 54
-1.58938 -3.77843 2.22980 61 50 35
-1.60488 -3.78406 2.24679 45 50 50
-1.61259 -3.77295 2.22684 58 42 36
-1.62804 -3.77857 2.24378 43 48 51
-1.62974 -3.77669 2.22632 58 41 42
-1.64518 -3.78230 2.24324 43 45 53
-1.63035 -3.80633 2.23259 59 44 43
-1.64588 -3.81198 2.24962 41 44 49
-1.63931 -3.82313 2.23548 58 46 46
-1.65488 -3.82880 2.25255 42 37 53
-1.64867 -3.83946 2.23824 60 44 55
-1.66428 -3.84514 2.25535 43 39 51
-1.66408 -3.84623 2.23850 57 47 51
-2.16233 -3.86201 2.20349 35 24 34
-2.14774 -3.85448 2.21941 19 25 18
-2.14755 -3.85553 2.20325 26 20 24
-2.17134 -3.88035 2.20671 53 37 48
-2.17996 -3.89969 2.21017 70 59 47
-2.19028 -3.91576 2.21280 58 51 45
-2.20376 -3.92531 2.21379 38 37 45
-2.21849 -3.93292 2.19773 30 34 34
-2.37500 -3.93939 2.20361 42 41 33
-2.38113 -3.96614 2.20884 80 75 79
-2.38891 -3.98934 2.21318 115 111 105
-2.40350 -3.99654 2.21360 151 144 130
-2.41731 -4.00565 2.21447 175 166 148
-2.43199 -4.01323 2.19845 186 176 159
-2.53805 -4.09976 2.22524 178 169 158
-2.52304 -4.09318 2.22499 186 176 161
-2.55556 -4.09955 2.22384 126 126 123
-2.58630 -4.06285 2.21365 49 56 50
-2.60093 -4.07040 2.19769 29 30 26
-2.60294 -4.06431 2.21268 24 25 35
-2.61755 -4.07186 2.19674 28 28 22
-2.61921 -4.06669 2.21194 24 24 23
-2.63381 -4.07423 2.19601 25 30 23
-2.69026 -4.05762 2.20453 23 27 29
-2.67541 -4.05221 2.18825 28 32 38
-2.71342 -4.03870 2.19871 15 35 62
-2.72781 -4.04613 2.18302 39 48 65
-2.73103 -4.03594 2.19677 34 38 79
-2.75584 -4.01089 2.18952 76 74 90
-2.75503 -4.06445 2.20100 114 119 119
-2.76757 -4.07734 2.20278 144 143 130
-2.77735 -4.09914 2.20668 155 147 126
-2.79920 -4.08248 2.20144 155 139 115
-2.81031 -4.10025 2.20437 131 109 86
-2.82476 -4.10770 2.18861 135 135 127
-2.83051 -4.08829 2.20027 111 92 98
-2.84387 -4.09871 2.20146 101 81 115
-2.85836 -4.10545 2.20178 94 73 105
-2.87309 -4.11134 2.20190 95 73 82
-2.88882 -4.11375 2.20121 133 112 108
-2.90945 -4.09870 2.19641 198 198 193
-2.92376 -4.10608 2.18080 252 254 252
-3.85040 -4.25213 2.15665 252 252 252
-3.83689 -4.24516 2.17138 254 254 254
-3.83671 -4.24612 2.15642 254 254 254
-3.86383 -4.26328 2.15799 233 241 230
-3.88957 -4.31394 2.16681 143 115 114
-3.91710 -4.32921 2.16794 137 125 98
-3.92960 -4.37537 2.17682 101 84 69
-3.94338 -4.38249 2.16179 71 67 71
-3.94354 -4.38226 2.17722 78 65 64
-3.95732 -4.38937 2.16218 72 69 63
-4.20639 -4.93054 2.27385 47 54 71
-4.19088 -4.92490 2.25685 41 49 58
-4.22253 -4.96528 2.28002 58 66 80
-4.23796 -4.97281 2.28043 70 82 92
-4.25316 -4.98066 2.26384 76 85 97
-4.28025 -4.89890 2.26142 76 71 83
-4.31106 -4.92435 2.26447 82 67 94
-4.32687 -4.94406 2.26746 94 83 110
-4.34323 -4.97248 2.27226 100 96 109
-4.35829 -4.98026 2.25582 104 93 83
0.82889 -3.53913 2.34520 181 164 145
0.82912 -3.54039 2.32566 178 157 145
0.81125 -3.54824 2.32596 180 158 141
0.68842 -3.94514 2.41974 173 149 149
0.70712 -3.93549 2.44014 175 152 139
0.70736 -3.93683 2.41943 176 154 145
0.70760 -3.93816 2.39871 176 155 144
0.68866 -3.94648 2.39902 179 156 148
0.66923 -3.95212 2.44077 130 132 149
0.66947 -3.95346 2.42005 140 132 149
0.65028 -3.96044 2.44109 121 133 150
0.65053 -3.96178 2.42037 126 128 151
0.65077 -3.96311 2.39965 132 133 144
1.45015 -4.87169 2.67155 123 135 151
1.47332 -4.86325 2.64615 128 134 147
1.45044 -4.87330 2.64653 122 129 141
0.27695 -4.15976 2.43368 138 140 145
0.29624 -4.15274 2.41254 139 148 166
0.27790 -4.18749 2.43957 61 29 36
0.25876 -4.19589 2.43989 25 8 32
0.24943 -4.21391 2.44296 83 75 112
0.23050 -4.22369 2.42230 134 151 179
0.29645 -4.28768 2.46198 132 147 163
0.27871 -4.29795 2.46280 104 117 129
0.26710 -4.31437 2.46537 68 57 71
0.27075 -4.34627 2.47233 95 91 65
0.28223 -4.38639 2.48161 115 97 92
0.23243 -4.36444 2.47325 95 80 58
0.05337 -4.29368 2.44489 166 143 99
-1.10850 -3.96181 2.28758 237 231 223
-1.09176 -3.95572 2.26923 241 236 232
-1.10829 -3.96298 2.26950 241 236 230
-1.12482 -3.97023 2.26978 239 234 227
-1.13394 -3.95700 2.28465 235 228 219
-1.15021 -3.96540 2.26690 239 231 224
-1.15292 -3.96083 2.28402 235 226 215
-1.16918 -3.96922 2.26629 238 230 222
-1.18193 -3.95082 2.27973 233 223 213
-1.20493 -3.94888 2.27759 230 220 206
-1.22852 -3.94596 2.27520 226 214 190
-1.25754 -3.93526 2.27076 221 206 173
-1.28466 -3.92699 2.26698 216 201 167
-1.31741 -3.91043 2.26104 213 196 167
-1.34242 -3.90465 2.25793 212 192 161
-1.35825 -3.91282 2.24067 230 215 193
-1.37059 -3.89409 2.25359 209 188 156
-1.39996 -3.88150 2.24874 205 183 145
-1.41564 -3.88959 2.23163 224 210 179
-1.42535 -3.87448 2.24535 200 177 136
-1.44097 -3.88254 2.22830 220 207 186
-1.44522 -3.87542 2.24404 192 170 130
-1.46082 -3.88347 2.22703 217 201 174
-1.48688 -3.84369 2.23424 182 159 106
-1.52751 -3.81290 2.22472 171 150 94
-1.55146 -3.80685 2.22164 155 135 93
-1.57786 -3.79684 2.21755 149 125 81
-1.60936 -3.77870 2.21137 141 112 78
-1.60689 -3.81302 2.21875 131 104 66
-1.61827 -3.82605 2.22063 125 93 40
-1.62817 -3.84152 2.22312 112 84 47
-1.64617 -3.84422 2.22233 104 69 38
-1.65738 -3.85777 2.22433 77 68 25
-1.67303 -3.86347 2.24148 51 45 51
-1.67138 -3.86691 2.22519 65 61 34
-1.68704 -3.87261 2.24235 48 48 59
-1.69000 -3.86855 2.22413 63 50 54
-1.70564 -3.87424 2.24127 46 48 52
-1.70254 -3.88011 2.22560 60 46 35
-1.71820 -3.88581 2.24277 45 49 48
-1.71370 -3.89403 2.22768 59 44 33
-1.72939 -3.89974 2.24488 44 46 46
-1.72475 -3.90828 2.22983 58 44 31
-1.74047 -3.91400 2.24706 43 43 47
-1.73713 -3.92039 2.23144 57 41 37
-1.75287 -3.92611 2.24869 39 39 46
-1.75297 -3.92671 2.23157 49 41 40
-1.76871 -3.93243 2.24882 35 35 42
-1.76851 -3.93353 2.23182 41 41 40
-2.15232 -3.84659 2.18462 37 27 33
-2.13776 -3.83908 2.20049 22 25 38
-2.13758 -3.84012 2.18437 24 23 29
-2.16179 -3.86377 2.18750 49 45 30
-2.17294 -3.87772 2.18959 73 67 48
-2.19736 -3.86431 2.18493 105 93 74
-2.19382 -3.90901 2.19457 55 53 56
-2.20850 -3.91659 2.17855 27 13 29
-2.20266 -3.92828 2.19795 25 28 32
-2.36104 -3.93175 2.18672 38 39 25
-2.34632 -3.92529 2.18648 37 32 37
-2.36115 -3.97230 2.19521 63 68 53
-2.37479 -3.98167 2.19615 100 97 98
-2.38699 -3.99453 2.19793 141 134 132
-2.41263 -3.97516 2.19193 170 163 151
-2.42723 -3.98269 2.17600 185 175 160
-2.42762 -3.98116 2.19206 183 174 156
-2.44221 -3.98869 2.17613 187 174 162
-2.53282 -4.06778 2.20228 183 175 165
-2.51790 -4.06124 2.20203 187 177 166
-2.51771 -4.06229 2.18573 187 174 159
-2.55491 -4.05503 2.19794 142 142 128
-2.57033 -4.05998 2.19781 53 64 55
-2.58497 -4.06754 2.18183 30 34 41
-2.58896 -4.05605 2.19558 29 27 26
-2.60357 -4.06359 2.17964 34 38 37
-2.70025 -4.02865 2.18143 32 39 29
-2.68550 -4.02328 2.16527 28 38 43
-2.70006 -4.02967 2.16551 31 41 40
-2.71462 -4.03606 2.16575 38 49 49
-2.71998 -4.01958 2.17804 33 45 48
-2.73430 -4.02697 2.16242 43 54 62
-2.76259 -3.99068 2.16876 57 69 87
-2.76241 -3.99170 2.15307 49 60 78
-2.76004 -4.04939 2.18127 81 96 114
-2.76794 -4.07662 2.18638 105 111 128
-2.78011 -4.09080 2.18844 112 118 136
-2.79640 -4.09193 2.18744 125 125 131
-2.80987 -4.10209 2.18856 132 129 109
-2.84559 -4.09335 2.18403 139 135 144
-2.86214 -4.09301 2.18271 146 144 148
-2.87921 -4.09067 2.18093 173 171 155
-2.89477 -4.09336 2.18032 211 207 185
-2.91133 -4.09242 2.17887 241 242 231
-3.83750 -4.22999 2.13780 248 249 249
-3.82404 -4.22305 2.15248 254 254 254
-3.82387 -4.22401 2.13758 253 254 253
-3.87612 -4.29689 2.14892 136 111 123
-3.90312 -4.32336 2.15243 135 128 107
-3.91524 -4.37628 2.16261 109 91 70
-3.92904 -4.38340 2.14756 71 63 72
-3.92940 -4.37706 2.16170 83 65 68
-3.94318 -4.38417 2.14667 74 66 72
-4.20587 -4.91933 2.25455 47 53 66
-4.19040 -4.91370 2.23759 37 48 55
-4.22145 -4.93639 2.25695 58 65 80
-4.23656 -4.94419 2.24047 70 78 96
-4.23692 -4.94805 2.25823 70 79 91
-4.25205 -4.95586 2.24173 73 82 92
-4.29568 -4.91812 2.24752 76 62 66
-4.32755 -4.96247 2.25441 106 98 97
-4.34328 -4.97826 2.25654 111 95 95
-4.37508 -5.01276 2.26137 103 95 91
-4.37488 -5.01384 2.24460 102 97 90
-4.39022 -5.02057 2.24486 106 101 93
-4.43592 -5.03261 2.26094 136 138 145
0.67293 -3.95750 2.40013 161 146 144
0.69214 -3.95051 2.37909 177 153 146
0.28820 -4.17169 2.41585 156 153 170
0.30754 -4.16465 2.39465 135 146 170
0.28844 -4.17304 2.39496 145 154 176
0.31780 -4.22724 2.42950 121 107 113
0.26942 -4.20739 2.42182 92 84 80
0.31588 -4.28021 2.44028 122 131 147
0.29666 -4.29013 2.41930 135 152 175
0.31340 -4.33355 2.45110 133 143 155
0.30694 -4.35535 2.45511 80 78 82
0.26480 -4.34140 2.44912 40 38 44
0.28227 -4.38756 2.45993 103 103 116
0.23406 -4.36723 2.45217 165 156 138
0.20816 -4.36942 2.45071 184 161 128
0.17935 -4.36852 2.44839 191 169 129
0.16004 -4.37849 2.42732 198 183 162
0.14561 -4.36237 2.44463 195 180 134
0.11838 -4.36283 2.44271 194 174 139
0.09044 -4.36244 2.44056 187 166 151
-0.03792 -4.28391 2.41487 215 215 222
-0.05692 -4.29225 2.41518 214 215 218
-0.05667 -4.29359 2.39440 215 213 225
-1.20300 -3.95241 2.26032 236 228 221
-1.18642 -3.94638 2.24214 243 237 229
-1.20279 -3.95356 2.24241 242 236 228
-1.22817 -3.94731 2.25740 234 226 215
-1.25802 -3.93543 2.25274 233 223 205
-1.28064 -3.93353 2.25068 232 219 197
-1.30207 -3.93318 2.24902 231 217 197
-1.31803 -3.94142 2.23160 240 232 223
-1.32647 -3.92844 2.24624 231 216 199
-1.34238 -3.93666 2.22887 241 234 220
-1.38112 -3.90986 2.23836 226 211 183
-1.38092 -3.91099 2.22088 241 235 218
-1.52907 -3.81133 2.20710 215 199 160
-1.51339 -3.80563 2.18991 238 230 213
-1.52887 -3.81243 2.19017 236 226 205
-1.54435 -3.81922 2.19043 234 223 199
-1.56762 -3.78308 2.19842 214 196 155
-1.58276 -3.79090 2.18190 233 219 197
-1.58924 -3.78019 2.19623 211 189 149
-1.60435 -3.78799 2.17975 231 218 196
-1.60067 -3.79289 2.19800 204 182 142
-1.60493 -3.81684 2.20263 199 177 130
-1.62602 -3.81466 2.20061 195 169 103
-1.63019 -3.83911 2.20535 184 158 102
-1.63689 -3.85978 2.20912 178 148 86
-1.64886 -3.87223 2.21080 167 149 79
-1.66237 -3.88228 2.21187 160 141 88
-1.67668 -3.89107 2.21263 155 133 98
-1.69292 -3.89672 2.21259 152 126 84
-1.70998 -3.90098 2.21221 147 123 85
-1.72841 -3.90291 2.21124 134 109 62
-1.74248 -3.91212 2.21210 120 91 51
-1.75427 -3.92524 2.21393 88 65 52
-1.77166 -3.92887 2.21340 62 51 31
-1.78738 -3.93458 2.23062 37 40 41
-1.79268 -3.92614 2.21128 52 38 43
-1.80836 -3.93185 2.22846 36 39 40
-1.82605 -3.90168 2.20377 48 38 39
-1.84161 -3.90734 2.22081 34 38 42
-1.85033 -3.89271 2.20012 42 39 36
-1.86582 -3.89835 2.21710 33 40 42
-1.86562 -3.89943 2.20037 37 46 46
-1.98157 -3.82552 2.17655 45 42 37
-1.96666 -3.81897 2.17631 44 42 46
-1.98176 -3.82447 2.19285 36 36 27
-1.99666 -3.83101 2.19310 35 37 29
-1.99647 -3.83206 2.17680 43 42 36
-2.11424 -3.81580 2.16474 29 29 36
-2.09973 -3.80831 2.18056 28 35 36
-2.09955 -3.80935 2.16449 33 37 40
-2.11443 -3.81476 2.18080 27 32 36
-2.12912 -3.82121 2.18105 24 27 32
-2.12893 -3.82225 2.16498 28 22 33
-2.14238 -3.83119 2.16583 38 27 35
-2.15464 -3.84256 2.16727 59 46 42
-2.16482 -3.85827 2.16975 87 77 54
-2.18488 -3.85386 2.16736 129 122 102
-2.19777 -3.86410 2.16852 150 138 111
-2.19714 -3.90270 2.17652 51 49 57
-2.22696 -3.91550 2.17696 48 53 29
-2.24200 -3.92097 2.19345 31 34 21
-2.24162 -3.92306 2.16097 68 74 73
-2.34643 -3.92565 2.17022 37 30 43
-2.33190 -3.91815 2.18607 36 36 43
-2.33171 -3.91919 2.16997 36 31 43
-2.35831 -3.93866 2.17202 68 60 46
-2.35968 -3.97634 2.17969 107 97 85
-2.37966 -3.97078 2.17707 142 135 125
-2.40195 -3.95947 2.17309 170 163 152
-2.41651 -3.96699 2.15720 184 174 160
-2.41999 -3.95801 2.17145 182 174 160
-2.43452 -3.96551 2.15560 186 175 157
-2.54435 -4.03771 2.17869 171 156 122
-2.55625 -4.05197 2.18075 100 83 48
-2.57394 -4.05070 2.17918 33 27 26
-2.78651 -3.96778 2.14635 53 66 90
-2.77208 -3.96253 2.13054 45 55 69
-2.80548 -3.95921 2.14318 50 67 94
-2.81949 -3.96644 2.12789 41 59 73
-2.82021 -3.96374 2.14303 48 69 93
-2.83013 -3.98369 2.14641 52 72 96
-2.84054 -4.00242 2.14950 59 76 95
-2.83703 -4.06754 2.16319 69 91 111
-2.84845 -4.08417 2.16577 87 104 131
-2.86195 -4.09404 2.16681 123 137 169
-2.88017 -4.08772 2.16416 166 183 205
-2.89936 -4.07770 2.16067 197 215 235
-2.91354 -4.08496 2.16112 214 236 250
-2.93014 -4.08352 2.15960 224 247 253
-2.94474 -4.08883 2.17560 254 253 253
-2.94745 -4.07931 2.15745 233 251 254
-2.96201 -4.08460 2.17341 254 254 253
-2.96898 -4.05919 2.15171 241 252 254
-2.98344 -4.06446 2.16756 254 254 254
-2.99640 -4.01622 2.14082 248 254 254
-3.01069 -4.02142 2.15648 254 253 254
-3.02074 -3.98350 2.13227 252 253 254
-3.03490 -3.98865 2.14778 254 253 254
-3.03472 -3.98964 2.13250 254 253 254
-3.82637 -4.17972 2.11314 239 246 242
-3.81306 -4.17285 2.12766 254 254 254
-3.81289 -4.17380 2.11292 254 254 253
-3.84179 -4.15105 2.10609 210 190 200
-3.85499 -4.15786 2.09169 134 124 122
-3.86272 -4.28044 2.13123 133 119 121
-3.88982 -4.30164 2.13359 126 119 99
-3.90174 -4.35449 2.14361 93 86 62
-3.91549 -4.36159 2.12861 70 66 66
-3.91489 -4.38190 2.14829 70 62 63
-3.92871 -4.38903 2.13322 70 66 67
-4.20538 -4.90908 2.23553 44 51 64
-4.22061 -4.91534 2.23570 57 65 79
-4.23565 -4.92311 2.21929 67 77 93
-4.26477 -4.89486 2.22821 66 73 70
-4.27969 -4.90257 2.21193 97 99 86
-4.27936 -4.88879 2.22588 72 72 74
-4.29384 -4.88219 2.22344 87 92 97
-4.35674 -4.95736 2.23429 97 93 79
-4.37173 -4.96510 2.21794 103 96 85
-4.43685 -5.04955 2.24738 103 103 108
-4.45201 -5.05738 2.23084 109 102 89
-4.45178 -5.05046 2.24647 108 108 109
-4.56760 -5.03299 2.23430 106 119 130
-4.58292 -5.03857 2.25109 100 112 129
-4.58273 -5.03964 2.23455 107 119 126
0.68044 -3.96493 2.38116 174 152 142
0.69967 -3.95793 2.36009 175 153 147
0.68068 -3.96627 2.36040 176 153 143
0.66145 -3.97326 2.38148 138 138 146
0.64222 -3.98026 2.40255 125 133 155
0.64246 -3.98160 2.38179 123 134 158
0.64271 -3.98294 2.36103 127 131 152
1.43103 -4.91842 2.62890 129 150 167
1.40804 -4.92851 2.62928 131 148 160
1.40834 -4.93014 2.60413 134 149 170
0.28662 -4.19816 2.39992 143 144 166
0.30604 -4.19109 2.37864 144 155 169
0.28687 -4.19951 2.37896 140 148 174
0.26769 -4.20793 2.37927 135 150 172
0.29182 -4.23034 2.40683 140 151 154
0.27278 -4.24016 2.38606 137 150 170
0.32671 -4.29196 2.42185 137 150 164
0.30744 -4.30191 2.40082 136 153 172
0.33836 -4.35949 2.43639 143 150 161
0.32248 -4.37203 2.43778 96 112 106
0.33264 -4.41085 2.44639 43 47 65
0.30493 -4.41167 2.44455 75 73 89
0.25012 -4.38474 2.43512 143 139 156
0.23066 -4.39478 2.41389 170 158 155
0.21636 -4.37896 2.43150 174 162 158
0.19697 -4.38897 2.41034 186 172 166
0.18963 -4.38026 2.42982 192 179 157
0.17027 -4.39025 2.40870 195 176 167
0.13215 -4.37836 2.42527 197 174 153
0.13240 -4.37974 2.40392 197 180 162
0.11287 -4.38831 2.40425 197 178 168
0.10250 -4.37627 2.42270 191 167 158
0.08328 -4.38619 2.40172 217 215 215
-0.00947 -4.28667 2.39642 210 203 203
-0.03907 -4.28376 2.39369 217 217 224
-1.23102 -3.94419 2.23847 240 235 227
-1.21451 -3.93818 2.22037 247 244 236
-1.23081 -3.94534 2.22064 246 242 236
-1.25644 -3.93851 2.23548 239 233 222
-1.28511 -3.92804 2.23128 239 230 218
-1.30108 -3.93629 2.21385 243 237 233
-1.30984 -3.92293 2.22845 239 230 219
-1.32576 -3.93114 2.21108 243 237 234
-1.62235 -3.79051 2.17895 230 218 192
-1.60687 -3.78487 2.16198 238 232 226
-1.61415 -3.83407 2.18838 228 215 183
-1.62938 -3.84193 2.17176 233 229 220
-1.61103 -3.87018 2.19593 225 212 179
-1.61971 -3.88796 2.19891 226 213 172
-1.63389 -3.89707 2.19972 221 209 165
-1.64971 -3.90358 2.19990 216 201 153
-1.67185 -3.89974 2.19752 210 194 156
-1.68794 -3.90568 2.19756 206 186 156
-1.70510 -3.90985 2.19716 202 181 148
-1.72607 -3.90758 2.19518 193 171 123
-1.74265 -3.91259 2.19499 183 158 114
-1.75845 -3.91887 2.19512 169 147 111
-1.77150 -3.92989 2.19641 155 133 86
-1.78913 -3.93304 2.19577 138 114 84
-1.80452 -3.94004 2.19608 116 95 64
-1.85605 -3.88337 2.18085 85 67 50
-1.88282 -3.86959 2.17612 62 51 35
-1.89819 -3.87519 2.19297 35 47 49
-1.89799 -3.87626 2.17637 50 45 32
-1.94161 -3.83148 2.16413 52 44 40
-1.94180 -3.83042 2.18051 39 43 48
-1.96089 -3.83020 2.16247 55 45 48
-1.98137 -3.82657 2.16025 52 47 48
-1.99646 -3.83277 2.16042 48 50 51
-2.01137 -3.83931 2.16066 46 53 58
-2.05744 -3.82138 2.15369 40 47 61
-2.04266 -3.81489 2.15344 44 53 61
-2.05763 -3.82033 2.16986 43 41 46
-2.07242 -3.82682 2.17010 38 40 45
-2.07656 -3.81954 2.15193 36 37 53
-2.09482 -3.81920 2.15054 32 25 35
-2.11224 -3.82038 2.14952 33 20 23
-2.12684 -3.82705 2.14981 42 34 42
-2.14455 -3.82751 2.14862 64 63 80
-2.15493 -3.84264 2.15094 114 103 95
-2.16431 -3.85996 2.15377 154 148 108
-2.17865 -3.86729 2.15422 175 167 138
-2.19260 -3.87546 2.15486 169 153 127
-2.20240 -3.89235 2.15758 61 48 67
-2.21033 -3.91338 2.16127 47 36 40
-2.25251 -3.86163 2.14772 97 102 89
-2.33905 -3.90318 2.14987 39 34 29
-2.35163 -3.91436 2.15123 67 62 64
-2.35916 -3.93730 2.15534 115 101 80
-2.36972 -3.95351 2.15786 154 140 113
-2.39107 -3.94447 2.15448 172 161 142
-2.40560 -3.95197 2.13863 185 175 156
-2.40861 -3.94420 2.15315 180 170 157
-2.42311 -3.95168 2.13733 186 176 159
-2.55119 -4.02008 2.15821 173 159 131
-2.53627 -4.01465 2.14186 188 179 171
-2.55100 -4.02112 2.14210 188 174 152
-2.56573 -4.02759 2.14235 176 155 124
-2.55681 -4.05100 2.16407 120 98 68
-2.57398 -4.05113 2.16286 59 42 29
-2.59330 -4.04519 2.16025 42 27 31
-2.60839 -4.05071 2.16028 36 26 32
-2.62333 -4.05614 2.17665 37 36 34
-2.62314 -4.05718 2.16052 33 28 41
-2.73233 -3.98363 2.13770 36 46 49
-2.71797 -3.97733 2.13746 29 40 44
-2.74928 -3.98213 2.13616 41 52 57
-2.78951 -3.95893 2.12854 48 59 77
-2.80751 -3.95327 2.12609 44 59 78
-2.83710 -3.96167 2.12565 43 60 76
-2.85107 -3.96889 2.11041 46 61 76
-2.84998 -3.97205 2.12682 44 60 79
-2.86396 -3.97927 2.11156 50 65 77
-2.86243 -3.98395 2.12833 49 65 83
-2.87644 -3.99118 2.11305 49 67 81
-2.87136 -4.00779 2.13252 50 68 93
-2.88274 -4.02382 2.13495 52 79 121
-2.89840 -4.02535 2.13412 63 95 147
-2.92003 -4.00591 2.12861 72 99 159
-2.93645 -4.00423 2.12708 89 115 171
-2.96057 -3.97464 2.11933 112 134 191
-2.97593 -3.97595 2.11849 142 153 207
-2.99623 -3.95886 2.11355 171 178 220
-3.01456 -3.94846 2.11012 193 203 239
-3.03597 -3.92588 2.10398 207 217 250
-3.04781 -3.93939 2.10587 218 233 252
-3.06178 -3.94448 2.12118 254 254 253
-3.06861 -3.91799 2.10002 228 247 252
-3.08249 -3.92304 2.11523 254 254 252
-3.08298 -3.92135 2.09966 240 252 252
-3.09685 -3.92639 2.11486 254 254 252
-3.09719 -3.92528 2.09943 249 253 252
-3.11105 -3.93032 2.11462 254 254 254
-3.11062 -3.93233 2.09989 252 253 253
-3.12448 -3.93738 2.11508 254 254 254
-3.12430 -3.93834 2.10011 252 253 252
-3.82825 -4.14612 2.09124 196 166 199
-3.84145 -4.15293 2.07684 135 130 113
-3.88761 -4.35004 2.12829 86 75 67
-3.90136 -4.35714 2.11329 72 64 68
-3.90065 -4.37855 2.13313 72 60 58
-3.91447 -4.38569 2.11805 70 65 66
-4.18991 -4.90200 2.21832 32 44 47
-4.17487 -4.89423 2.23473 35 48 50
-4.17467 -4.89531 2.21807 31 45 35
-4.17448 -4.89638 2.20140 28 40 44
-4.20526 -4.91306 2.21945 41 51 68
-4.26370 -4.87322 2.20714 81 88 89
-4.46578 -5.04344 2.22701 111 104 93
-4.45029 -5.03780 2.21003 110 101 87
-4.46559 -5.04452 2.21028 109 102 90
-4.48089 -5.05123 2.21053 108 102 93
0.68952 -3.99811 2.36737 157 147 143
0.70886 -3.99107 2.34617 176 155 142
0.67067 -4.00784 2.34680 137 133 143
1.45301 -4.93952 2.60917 128 142 166
1.47639 -4.93102 2.58355 123 133 157
1.43022 -4.95128 2.58431 134 144 166
0.35583 -4.37800 2.41942 138 152 169
0.37591 -4.37070 2.39741 134 151 179
0.35608 -4.37940 2.39774 137 151 175
0.35969 -4.41040 2.42616 126 140 143
0.34920 -4.42867 2.42905 73 78 84
0.32388 -4.43201 2.42792 32 43 86
0.30390 -4.44075 2.42825 115 123 135
0.28421 -4.45091 2.40676 160 156 155
-0.03304 -4.29128 2.37455 223 224 236
-0.05567 -4.29575 2.37384 221 220 236
-0.08308 -4.29499 2.37175 220 218 230
-0.10229 -4.30198 2.39280 209 208 215
-0.10205 -4.30332 2.37206 212 211 224
-0.37302 -4.20365 2.33297 228 217 218
-0.35497 -4.19433 2.35266 236 230 223
-0.35473 -4.19562 2.33267 216 199 192
-0.35450 -4.19691 2.31268 196 184 174
-0.37278 -4.20494 2.31298 208 193 189
-0.39153 -4.21038 2.35327 249 247 244
-0.41028 -4.18984 2.32758 239 234 234
-0.42870 -4.19654 2.34777 250 247 246
-0.42847 -4.19782 2.32788 247 246 244
-1.26068 -3.93340 2.21614 246 241 235
-1.24425 -3.92742 2.19813 249 246 240
-1.26047 -3.93454 2.19840 249 247 241
-1.27670 -3.94166 2.19867 249 246 240
-1.28353 -3.93112 2.21407 244 239 234
-1.29951 -3.93937 2.19664 248 245 241
-1.62552 -3.78634 2.16095 237 231 224
-1.61006 -3.78072 2.14401 241 237 234
-1.62532 -3.78742 2.14426 239 235 232
-1.64059 -3.79412 2.14451 236 233 230
-1.62702 -3.81464 2.16649 235 230 222
-1.64217 -3.82247 2.14996 233 230 227
-1.62037 -3.88769 2.18152 234 229 214
-1.62017 -3.88879 2.16447 231 226 222
-1.62769 -3.90782 2.18501 232 228 210
-1.64313 -3.91579 2.16817 225 217 208
-1.63862 -3.92232 2.18713 227 220 198
-1.65409 -3.93030 2.17025 221 214 203
-1.66188 -3.91681 2.18438 221 212 194
-1.67730 -3.92477 2.16755 216 207 198
-1.68679 -3.90835 2.18092 215 205 191
-1.70215 -3.91627 2.16417 212 206 190
-1.70254 -3.91487 2.18111 212 201 179
-1.72006 -3.91841 2.18057 209 196 165
-1.73541 -3.92633 2.16383 205 190 176
-1.73735 -3.92230 2.18012 204 189 165
-1.75268 -3.93022 2.16339 203 188 172
-1.75551 -3.92464 2.17930 201 186 163
-1.77083 -3.93255 2.16259 202 189 173
-1.77330 -3.92755 2.17862 198 182 148
-1.79304 -3.92702 2.17711 192 172 138
-1.82596 -3.90332 2.17005 183 160 125
-1.84112 -3.91115 2.15351 200 181 157
-1.90334 -3.80075 2.14412 166 145 115
-1.91807 -3.80836 2.12804 195 176 147
-1.93966 -3.76926 2.13527 151 129 94
-1.95404 -3.77648 2.13569 134 114 75
-1.95428 -3.80928 2.14221 117 95 49
-1.95746 -3.83717 2.14754 93 73 36
-1.97732 -3.83474 2.14565 71 58 51
-1.99597 -3.83439 2.14425 61 46 61
-2.01551 -3.83225 2.14244 57 40 58
-2.03621 -3.82776 2.14008 52 35 52
-2.05395 -3.82872 2.13901 47 29 43
-2.07352 -3.82606 2.13709 45 29 37
-2.09240 -3.82457 2.13546 54 42 45
-2.11211 -3.82131 2.13341 81 69 60
-2.12556 -3.83024 2.13423 122 111 79
-2.14187 -3.83353 2.13373 151 144 125
-2.15638 -3.84102 2.11790 190 176 155
-2.15048 -3.85225 2.13685 176 162 139
-2.16505 -3.85977 2.12097 188 176 154
-2.16062 -3.86812 2.13930 185 172 143
-2.17521 -3.87566 2.12337 187 175 152
-2.17813 -3.86902 2.13824 185 173 147
-2.19195 -3.87745 2.13893 179 163 133
-2.23134 -3.90743 2.14212 90 100 121
-2.25266 -3.89991 2.13910 60 76 97
-2.26761 -3.90534 2.15549 47 40 42
-2.26123 -3.91985 2.14247 42 45 54
-2.27585 -3.92740 2.12652 40 34 39
-2.28008 -3.91748 2.14066 29 36 49
-2.29993 -3.91271 2.13830 33 25 38
-2.31684 -3.91428 2.13742 45 32 40
-2.32992 -3.92447 2.13852 88 74 74
-2.34417 -3.93201 2.13901 133 124 109
-2.36351 -3.92784 2.13681 164 153 125
-2.38711 -3.91350 2.13228 178 167 143
-2.40154 -3.92095 2.11653 188 178 157
-2.40153 -3.92040 2.13263 182 172 152
-2.41596 -3.92785 2.11689 189 177 157
-2.57281 -4.05482 2.14727 150 130 84
-2.55782 -4.04936 2.13084 194 175 155
-2.58743 -4.06236 2.13133 179 158 115
-2.60118 -4.02404 2.13912 128 102 54
-2.61566 -4.03151 2.12333 166 141 101
-2.59821 -4.07953 2.15040 96 69 45
-2.63348 -4.02859 2.13774 55 40 29
-2.64831 -4.03399 2.15399 28 34 42
-2.65330 -4.02027 2.13468 39 23 45
-2.66807 -4.02565 2.15087 26 37 40
-2.67652 -4.00180 2.12935 32 28 30
-2.69120 -4.00714 2.14544 23 40 48
-2.69102 -4.00817 2.12959 24 37 34
-2.72330 -3.96205 2.11811 27 38 27
-2.74058 -3.95946 2.11637 31 42 41
-2.75760 -3.95744 2.11476 37 46 52
-2.77465 -3.95511 2.11308 39 48 60
-2.79187 -3.95202 2.11124 40 50 67
-2.80862 -3.95019 2.10969 40 52 70
-2.82428 -3.95164 2.10887 39 56 70
-2.83934 -3.95487 2.10845 43 59 73
-2.89120 -3.99546 2.11286 46 68 90
-2.90854 -3.99081 2.11070 43 68 93
-2.92250 -3.99802 2.09547 54 69 78
-2.92814 -3.97797 2.10675 42 61 94
-2.94204 -3.98515 2.09159 52 68 82
-2.94480 -3.97501 2.10498 42 60 105
-2.96295 -3.96644 2.10198 45 64 122
-2.97868 -3.96627 2.10083 51 68 131
-2.98995 -3.98237 2.10324 60 79 141
-3.00801 -3.97334 2.10016 76 95 159
-3.02196 -3.97947 2.10039 83 101 163
-3.03782 -3.97825 2.09903 97 117 169
-3.06473 -3.93348 2.08819 127 146 193
-3.08794 -3.90189 2.08025 169 182 228
-3.09505 -3.93416 2.08618 200 212 250
-3.11070 -3.93224 2.08469 214 230 252
-3.12345 -3.94212 2.08575 222 243 250
-3.13733 -3.94717 2.10096 254 254 252
-3.13554 -3.95495 2.08745 232 250 250
-3.14944 -3.96000 2.10268 254 254 254
-3.14882 -3.96286 2.08809 238 250 249
-3.16273 -3.96792 2.10333 253 254 254
-3.16069 -3.97703 2.09007 241 247 242
-3.17463 -3.98210 2.10534 253 254 254
-3.17350 -3.98727 2.09120 248 250 246
-3.18745 -3.99235 2.10649 254 254 254
-3.18655 -3.99658 2.09213 253 254 254
-3.20051 -4.00166 2.10743 254 254 254
-3.20033 -4.00263 2.09236 254 254 254
-4.18991 -4.91177 2.20338 30 42 47
-4.17445 -4.90615 2.18643 26 33 44
-4.20527 -4.92195 2.20432 39 49 62
-4.26413 -4.89048 2.19387 99 105 88
-4.29170 -4.84462 2.18277 79 69 68
-4.30642 -4.85222 2.16671 71 70 58
-4.53718 -5.02441 2.20119 110 111 99
-4.54931 -4.99910 2.19529 118 116 120
0.72628 -4.03032 2.35507 169 150 137
0.74578 -4.02323 2.33371 178 156 142
0.38584 -4.43774 2.41123 145 154 168
0.40615 -4.43035 2.38898 140 153 170
0.38610 -4.43915 2.38931 147 156 165
0.36493 -4.44567 2.41134 94 101 112
0.34515 -4.45588 2.38975 78 66 65
0.33966 -4.44917 2.41027 40 54 63
0.31990 -4.45937 2.38870 48 38 81
0.33603 -4.47469 2.41501 88 93 94
-0.00792 -4.29048 2.35506 225 224 226
0.01113 -4.28212 2.35474 204 189 176
0.01137 -4.28346 2.33391 205 199 189
-0.02673 -4.30019 2.33454 218 201 231
-0.03425 -4.29106 2.35335 226 231 243
-0.05303 -4.30075 2.33287 212 196 204
-0.05750 -4.29486 2.35248 225 226 239
-0.07625 -4.30454 2.33202 206 182 179
-0.08385 -4.29524 2.35072 222 221 230
-0.10257 -4.30490 2.33030 200 175 173
-0.10773 -4.29820 2.34964 210 203 216
-0.12691 -4.30517 2.37067 204 206 219
-0.13578 -4.29651 2.34737 198 189 204
-0.15491 -4.30347 2.36834 205 202 209
-0.15467 -4.30480 2.34768 200 191 193
-0.24483 -4.26274 2.33318 181 154 156
-0.22643 -4.25324 2.35326 207 199 196
-0.22619 -4.25455 2.33287 202 182 180
-0.24507 -4.26142 2.35356 201 182 174
-0.26371 -4.26960 2.35387 207 187 181
-0.28367 -4.24814 2.32763 179 168 157
-1.62916 -3.90623 2.16726 229 222 215
-1.61333 -3.90047 2.14991 229 222 219
-1.64459 -3.91419 2.15043 221 211 198
-1.71986 -3.91951 2.16357 209 198 182
-1.70412 -3.91378 2.14631 211 202 195
-1.71966 -3.92061 2.14657 209 197 188
-1.73521 -3.92743 2.14683 207 190 179
-1.79277 -3.92824 2.16022 203 187 173
-1.77709 -3.92253 2.14304 203 188 178
-1.79257 -3.92933 2.14330 203 188 179
-1.80804 -3.93612 2.14355 203 188 175
-1.81238 -3.92780 2.15877 203 185 164
-1.82763 -3.93567 2.14214 203 187 172
-1.88366 -3.90341 2.14905 188 168 135
-1.86819 -3.89778 2.13209 201 188 167
-1.91435 -3.88221 2.14276 180 158 112
-1.91793 -3.91001 2.14796 168 147 96
-1.93776 -3.90827 2.14624 157 139 103
-1.96151 -3.89909 2.14280 148 129 103
-1.98386 -3.89226 2.13991 141 118 97
-2.00503 -3.88741 2.13749 136 112 91
-2.02365 -3.88721 2.13616 134 110 80
-2.05357 -3.86514 2.12976 142 123 81
-2.08480 -3.84001 2.12267 152 139 104
-2.09430 -3.85689 2.12531 166 154 132
-2.11820 -3.84547 2.12142 183 168 135
-2.13278 -3.85299 2.10551 195 179 158
-2.13461 -3.84869 2.12091 189 175 152
-2.14917 -3.85621 2.10502 192 179 155
-2.18744 -3.88745 2.12484 188 171 145
-2.17244 -3.88200 2.10840 189 179 157
-2.20040 -3.89782 2.12597 151 130 103
-2.21792 -3.89863 2.12491 79 62 29
-2.24573 -3.91547 2.12628 52 39 66
-2.26904 -3.90349 2.12231 44 22 39
-2.31568 -3.87836 2.11415 78 64 77
-2.31576 -3.91733 2.12178 122 114 94
-2.33272 -3.91872 2.12087 162 147 131
-2.35968 -3.89715 2.11478 180 167 144
-2.37410 -3.90459 2.09905 188 177 157
-2.37558 -3.90057 2.11434 185 172 149
-2.38998 -3.90800 2.09863 188 178 159
-2.39166 -3.90349 2.11380 186 176 154
-2.40605 -3.91092 2.09810 189 178 159
-2.48133 -3.89419 2.10575 192 179 160
-2.46709 -3.88684 2.12129 188 177 159
-2.46690 -3.88785 2.10551 188 177 160
-2.48151 -3.89317 2.12153 190 176 161
-2.49594 -3.89950 2.12177 190 177 165
-2.49945 -3.89133 2.10394 192 177 159
-2.51402 -3.89663 2.11991 189 178 168
-2.51384 -3.89765 2.10418 188 175 164
-2.63566 -3.88459 2.09316 188 170 138
-2.62129 -3.87936 2.07742 193 178 165
-2.63548 -3.88559 2.07765 191 176 162
-2.63381 -4.02817 2.12141 147 121 83
-2.68384 -3.93383 2.09946 123 94 84
-2.69816 -3.93996 2.09967 86 63 47
-2.70282 -3.97423 2.10606 48 37 29
-2.72525 -3.95677 2.10108 34 23 10
-2.74232 -3.95472 2.09949 33 26 24
-2.76031 -3.94969 2.09726 31 30 37
-2.77577 -3.95212 2.09666 31 37 48
-2.79167 -3.95308 2.09575 27 40 59
-2.80908 -3.94919 2.09378 29 42 58
-2.82305 -3.95639 2.07854 30 32 37
-2.82600 -3.94657 2.09209 29 47 53
-2.84105 -3.94978 2.09167 34 49 62
-2.85614 -3.95273 2.09120 39 50 69
-2.87201 -3.95305 2.09016 43 57 72
-2.88191 -3.97321 2.09343 46 62 77
-2.89400 -3.98632 2.09516 50 65 82
-2.90836 -3.99181 2.09523 53 66 80
-2.96402 -3.96295 2.08572 46 64 89
-2.98125 -3.95724 2.08340 42 61 91
-2.99726 -3.95569 2.08199 40 61 92
-3.01094 -3.96265 2.08240 42 59 94
-3.02468 -3.96974 2.06742 54 64 80
-3.02634 -3.96312 2.08142 42 55 92
-3.04005 -3.97020 2.06646 54 67 81
-3.04190 -3.96277 2.08028 46 58 98
-3.05747 -3.96221 2.07908 53 69 122
-3.07074 -3.97057 2.07980 65 82 152
-3.08451 -3.97701 2.08011 86 106 176
-3.09739 -3.98709 2.08119 96 125 179
-3.10977 -3.99940 2.08274 107 143 187
-3.12421 -4.00320 2.08248 144 166 203
-3.13862 -4.00702 2.08223 169 176 213
-3.15589 -3.99825 2.07931 184 184 223
-3.17200 -3.99416 2.07739 206 213 240
-3.18651 -3.99696 2.07693 223 235 253
-3.20182 -3.99594 2.07567 237 249 253
-3.21575 -4.00101 2.09094 254 254 254
-3.21576 -4.00112 2.07572 251 254 254
-3.22969 -4.00618 2.09098 254 254 254
-3.22951 -4.00715 2.07595 254 254 254
-3.79218 -4.06694 2.04860 254 254 253
-3.77918 -4.06023 2.06278 254 254 254
-3.77901 -4.06116 2.04838 254 254 254
-3.77884 -4.06209 2.03398 254 254 254
-3.80535 -4.07272 2.04882 236 243 228
-3.81835 -4.07943 2.03463 144 113 136
-4.18942 -4.90010 2.18421 28 32 51
-4.17400 -4.89450 2.16731 21 25 42
-4.23347 -4.86984 2.17522 83 94 88
-4.24820 -4.86671 2.17359 93 98 86
0.74795 -4.04979 2.33896 174 153 135
0.76753 -4.04267 2.31750 177 155 146
0.74820 -4.05115 2.31782 175 153 144
0.72862 -4.05827 2.33928 152 143 134
0.70904 -4.06540 2.36074 123 133 149
0.70929 -4.06676 2.33960 127 130 142
-0.13374 -4.29982 2.32721 199 177 165
-0.11459 -4.29285 2.30622 206 181 156
-0.13349 -4.30115 2.30653 203 178 149
-0.15240 -4.30945 2.30685 203 175 153
-0.19402 -4.29140 2.32149 200 171 163
-0.21257 -4.30097 2.30125 202 175 158
-0.23798 -4.27145 2.31467 185 162 151
-0.32096 -4.20712 2.29666 154 148 103
-0.34344 -4.21050 2.29578 159 151 121
-1.87667 -3.91666 2.13515 201 186 164
-1.86116 -3.91102 2.11814 202 190 174
-1.87648 -3.91774 2.11840 203 189 173
-1.89180 -3.92447 2.11865 203 188 175
-1.89462 -3.91863 2.13431 200 184 160
-1.90973 -3.92643 2.11783 201 186 173
-1.91450 -3.91700 2.13264 197 180 154
-1.92728 -3.92828 2.13395 195 178 150
-1.95171 -3.91800 2.13031 192 172 147
-1.97675 -3.90629 2.12636 191 170 142
-2.00001 -3.89760 2.12311 192 172 139
-2.02407 -3.88710 2.11945 191 172 135
-2.03890 -3.89476 2.10327 199 184 160
-2.05167 -3.86949 2.11419 192 175 136
-2.06641 -3.87710 2.09811 200 183 165
-2.07522 -3.85930 2.11063 194 178 148
-2.08989 -3.86688 2.09462 201 182 168
-2.09179 -3.86249 2.11012 196 180 160
-2.10645 -3.87006 2.09412 198 182 165
-2.11607 -3.85036 2.10614 196 180 158
-2.13066 -3.85789 2.09021 197 182 160
-2.18550 -3.89213 2.10946 191 177 155
-2.17049 -3.88667 2.09301 192 182 165
-2.18531 -3.89317 2.09325 193 179 168
-2.19605 -3.90758 2.11172 186 166 140
-2.21276 -3.91017 2.11108 158 133 95
-2.24194 -3.88607 2.10446 132 108 71
-2.25807 -3.88950 2.10403 127 92 83
-2.27260 -3.89700 2.08818 185 168 146
-2.27183 -3.89804 2.10474 129 107 87
-2.28636 -3.90554 2.08888 189 177 151
-2.28240 -3.91364 2.10702 143 132 98
-2.29548 -3.92381 2.10809 169 154 124
-2.31006 -3.93133 2.09218 195 177 155
-2.32441 -3.89855 2.10126 182 164 133
-2.33887 -3.90601 2.08549 191 178 161
-2.34324 -3.89551 2.09940 187 169 152
-2.35767 -3.90296 2.08366 191 180 166
-2.36200 -3.89244 2.09754 188 175 156
-2.37639 -3.89987 2.08184 192 179 162
-2.44546 -3.89900 2.09313 191 175 159
-2.43098 -3.89264 2.09289 190 174 158
-2.44565 -3.89797 2.10897 187 177 160
-2.46576 -3.89121 2.09026 196 187 179
-2.48830 -3.87758 2.08610 205 206 198
-2.50116 -3.88763 2.08716 203 203 183
-2.51570 -3.89352 2.08731 194 184 162
-2.53026 -3.89881 2.10326 187 177 169
-2.53069 -3.89825 2.08720 190 174 159
-2.54525 -3.90354 2.10315 189 178 168
-2.54506 -3.90455 2.08744 190 173 160
-2.66296 -3.85526 2.06995 189 177 158
-2.64873 -3.85008 2.05435 191 181 164
-2.66278 -3.85625 2.05458 192 182 170
-2.69054 -3.82379 2.06202 189 175 156
-2.70603 -3.82547 2.06129 191 173 145
-2.71262 -3.85240 2.06603 188 162 135
-2.72742 -3.85615 2.06574 172 146 109
-2.71810 -3.93015 2.08062 148 124 83
-2.73454 -3.92981 2.07943 124 94 49
-2.74679 -3.94182 2.08091 96 66 48
-2.75996 -3.95119 2.08182 57 46 31
-2.77771 -3.94661 2.07973 40 27 29
-2.79200 -3.95251 2.07990 33 21 39
-2.81001 -3.94669 2.07756 32 26 38
-2.84323 -3.94314 2.07462 31 36 54
-2.85910 -3.94347 2.07360 34 41 59
-2.87665 -3.93812 2.07138 35 44 55
-2.89048 -3.94526 2.05629 32 26 44
-2.88814 -3.95272 2.07341 35 47 63
-2.90201 -3.95988 2.05828 35 29 54
-2.90168 -3.96063 2.07401 40 49 70
-2.91629 -3.96487 2.07384 45 49 69
-2.93370 -3.95929 2.07158 47 52 67
-2.94888 -3.96126 2.07093 48 55 70
-2.96666 -3.95382 2.06829 48 56 71
-2.98196 -3.95498 2.06748 47 58 72
-2.99754 -3.95498 2.06642 49 60 75
-3.01109 -3.96241 2.06693 52 62 79
-3.05840 -3.95884 2.06303 48 65 90
-3.07499 -3.95393 2.06096 41 59 94
-3.09141 -3.94939 2.05897 39 55 96
-3.10743 -3.94612 2.05725 37 58 99
-3.12369 -3.94159 2.05528 41 64 111
-3.13836 -3.94346 2.05464 58 70 125
-3.15140 -3.95220 2.05544 69 75 141
-3.16611 -3.95372 2.05473 81 89 165
-3.17974 -3.95990 2.05500 96 118 183
-3.19218 -3.97144 2.05637 113 140 195
-3.21317 -3.94385 2.04964 159 187 226
-3.21601 -4.00011 2.06027 216 236 252
-3.22975 -4.00616 2.06050 246 250 254
-3.24367 -4.01123 2.07576 254 254 254
-3.24349 -4.01220 2.06073 253 254 254
-3.79274 -4.05737 2.03213 249 250 244
-4.18910 -4.89571 2.16652 25 31 50
-4.32010 -4.83904 2.14672 81 77 54
-4.30525 -4.83252 2.14647 76 71 48
-4.30506 -4.83357 2.13023 77 71 48
-4.32029 -4.83799 2.16296 79 77 62
-4.33514 -4.84451 2.16321 88 86 69
-4.33549 -4.85565 2.14887 90 85 64
-4.35056 -4.86113 2.16539 97 93 75
-4.35037 -4.86218 2.14912 98 95 73
-4.35018 -4.86323 2.13284 98 93 70
0.71674 -4.07429 2.32011 135 133 137
0.69713 -4.08142 2.34160 123 134 152
0.69738 -4.08278 2.32043 122 134 152
0.69763 -4.08415 2.29926 122 133 151
-0.29247 -4.24029 2.28448 197 174 134
-0.27374 -4.23348 2.26395 201 176 146
-0.29223 -4.24159 2.26426 205 177 149
-0.34849 -4.20579 2.27425 162 156 116
-0.37554 -4.20382 2.27208 158 166 88
-0.39358 -4.21313 2.25240 160 185 90
-1.92709 -3.92935 2.11723 199 184 170
-1.91160 -3.92372 2.10026 204 189 176
-1.92689 -3.93043 2.10051 202 189 179
-1.94218 -3.93714 2.10077 201 188 175
-1.95151 -3.91908 2.11367 198 182 168
-1.96654 -3.92683 2.09727 201 187 170
-1.97655 -3.90736 2.10979 200 183 165
-1.99151 -3.91508 2.09347 201 186 169
-1.99981 -3.89866 2.10660 201 185 162
-2.01471 -3.90635 2.09035 201 184 167
-2.02388 -3.88816 2.10302 200 184 159
-2.03871 -3.89582 2.08684 200 183 166
-2.19713 -3.90595 2.09488 197 177 157
-2.18210 -3.90048 2.07840 195 182 171
-2.19694 -3.90700 2.07865 197 181 163
-2.21179 -3.91352 2.07890 197 181 160
-2.21006 -3.91652 2.09602 194 173 145
-2.22322 -3.92668 2.09707 187 169 130
-2.23790 -3.93425 2.08105 195 181 163
-2.23669 -3.93623 2.09798 185 161 138
-2.25138 -3.94381 2.08195 194 181 166
-2.31717 -3.87628 2.08131 197 181 159
-2.30240 -3.87090 2.06511 193 180 168
-2.31698 -3.87731 2.06536 194 180 169
-2.33157 -3.88371 2.06560 194 178 162
-2.43320 -3.88791 2.07580 193 176 168
-2.41874 -3.88156 2.07556 189 175 161
-2.45625 -3.87356 2.07156 210 199 193
-2.47496 -3.86937 2.06953 227 226 222
-2.48912 -3.87669 2.05408 241 247 249
-2.49058 -3.87255 2.06909 228 235 234
-2.50609 -3.87593 2.06870 223 227 222
-2.52551 -3.86940 2.06618 216 215 204
-2.54077 -3.87318 2.06588 209 202 198
-2.55306 -3.88454 2.06721 202 190 187
-2.56753 -3.88981 2.08308 190 176 161
-2.56200 -3.90471 2.07043 193 180 164
-2.57652 -3.91000 2.08635 190 177 166
-2.57000 -3.92766 2.07423 189 178 154
-2.58459 -3.93296 2.09022 192 178 165
-2.58440 -3.93398 2.07447 191 177 160
-2.68088 -3.85114 2.05242 197 185 175
-2.68070 -3.85213 2.03709 199 188 177
-2.69471 -3.85828 2.03733 204 192 180
-2.69622 -3.85357 2.05186 203 190 172
-2.70902 -3.86311 2.05281 209 194 168
-2.71588 -3.88986 2.05741 212 198 163
-2.73382 -3.88480 2.05526 212 196 161
-2.74297 -3.90539 2.05855 207 187 134
-2.74657 -3.94295 2.06540 188 165 121
-2.75616 -3.96315 2.06858 162 143 94
-2.77311 -3.96116 2.06708 140 112 71
-2.77701 -3.99942 2.07405 118 81 45
-2.80422 -3.96529 2.06580 96 62 38
-2.82649 -3.94584 2.06064 61 46 27
-2.84508 -3.93761 2.05785 43 30 32
-2.86068 -3.93874 2.05703 39 27 34
-2.87884 -3.93125 2.05441 35 26 34
-2.92450 -3.93695 2.05246 34 33 56
-2.94239 -3.92929 2.04982 33 36 52
-2.95800 -3.92932 2.04879 36 38 54
-2.97170 -3.93638 2.03385 32 21 27
-2.97383 -3.92839 2.04757 37 40 51
-2.98750 -3.93545 2.03265 30 23 27
-2.98632 -3.93944 2.04883 36 42 51
-3.00001 -3.94650 2.03389 30 26 30
-3.00233 -3.93759 2.04741 37 44 56
-3.01440 -3.95032 2.04902 40 46 63
-3.02851 -3.95547 2.04905 43 50 68
-3.04318 -3.95841 2.04864 45 55 69
-3.05906 -3.95651 2.04722 47 55 75
-3.07460 -3.95575 2.04605 51 55 76
-3.09123 -3.95036 2.04392 52 58 74
-3.10726 -3.94709 2.04224 51 60 76
-3.12317 -3.94399 2.04060 49 59 80
-3.13812 -3.94469 2.03974 44 56 84
-3.15310 -3.94508 2.03882 37 52 88
-3.16705 -3.94981 2.03879 32 52 94
-3.18049 -3.95671 2.03920 30 55 100
-3.19421 -3.96245 2.03937 31 56 110
-3.20735 -3.97081 2.04008 55 84 145
-3.22006 -3.98124 2.04121 111 148 184
-3.23393 -3.98632 2.04125 216 228 228
-3.24478 -4.00605 2.04426 251 254 254
-3.25868 -4.01111 2.05949 254 254 254
-3.25850 -4.01208 2.04448 254 254 254
-3.25833 -4.01305 2.02948 254 254 254
