ply
format ascii 1.0
element face 0
property list uchar int vertex_indices
element vertex 1299
property float x
property float y
property float z
property uchar diffuse_red
property uchar diffuse_green
property uchar diffuse_blue
end_header
-5.59105 -8.19561 3.64784 170 182 194
-0.58966 -4.29305 1.88351 130 106 89
-0.57471 -4.28767 1.86061 175 152 131
-0.61094 -4.30138 1.86755 115 96 64
-0.60715 -4.30041 1.88716 113 95 65
-2.82164 -3.40903 1.61696 219 220 241
-2.80683 -3.40323 1.62807 222 219 235
-2.80903 -3.40426 1.61454 223 224 241
-2.81944 -3.40801 1.63048 223 221 240
-2.83645 -3.41483 1.60585 188 185 227
-2.82770 -3.42126 1.62211 209 209 235
-2.84255 -3.42707 1.61097 187 182 222
-2.83622 -3.43077 1.62626 195 196 230
-2.84656 -3.43824 1.62967 187 188 227
-2.86394 -3.45713 1.63794 187 186 230
-2.87569 -3.46307 1.64079 197 192 231
-2.88108 -3.47655 1.64641 211 210 236
-2.88489 -3.49204 1.65278 225 223 242
-2.88723 -3.50943 1.65985 236 234 245
-2.90232 -3.51534 1.64853 252 252 253
-2.89611 -3.51909 1.66408 242 243 247
-2.91122 -3.52501 1.65274 253 252 252
-2.90575 -3.52789 1.66799 248 246 248
-2.92088 -3.53381 1.65664 253 253 253
-2.91183 -3.54109 1.67354 249 248 249
-2.92700 -3.54704 1.66215 254 253 254
-3.39216 -3.64332 1.73357 254 251 247
-3.40124 -3.65375 1.73812 252 248 240
-3.40968 -3.66528 1.74308 243 235 226
-3.42017 -3.66906 1.75916 234 222 215
-3.42239 -3.67010 1.74552 237 225 219
-3.51535 -3.77737 1.79225 242 234 224
-3.52562 -3.78693 1.79649 238 226 221
-3.53689 -3.79480 1.80010 228 215 217
-3.54770 -3.80355 1.80404 222 212 221
-3.56184 -3.80641 1.80574 219 223 244
-3.58085 -3.80045 1.80411 211 231 246
-3.59733 -3.79891 1.80414 221 240 250
-3.60799 -3.80275 1.82047 253 254 254
-3.61069 -3.80299 1.80631 242 250 254
-3.62134 -3.80683 1.82263 254 254 254
-3.62338 -3.80828 1.80893 251 253 254
-3.63404 -3.81212 1.82526 254 254 254
-3.63630 -3.81317 1.81140 253 254 254
-3.69286 -3.85319 1.82971 250 253 254
-3.67762 -3.84722 1.84114 254 254 254
-3.67989 -3.84828 1.82722 254 254 254
-3.69059 -3.85213 1.84362 254 254 254
-3.70040 -3.86878 1.83626 242 246 252
-3.70935 -3.88175 1.84182 213 230 244
-3.71876 -3.89396 1.84710 174 168 219
-3.72657 -3.90953 1.85365 103 95 157
-3.72822 -3.93784 1.86508 78 65 112
-3.74265 -3.94030 1.86664 82 70 85
-3.75418 -3.94874 1.87049 71 72 79
-3.76481 -3.95912 1.87507 53 55 61
-3.78034 -3.96520 1.86342 35 35 38
-3.77602 -3.96838 1.87923 31 38 52
-3.79157 -3.97447 1.86757 31 38 28
-3.78646 -3.97937 1.88406 21 29 47
-3.80203 -3.98547 1.87237 33 35 23
-3.79612 -3.99213 1.88956 31 33 44
-3.81173 -3.99825 1.87785 36 38 38
-3.99675 -4.72981 2.19360 42 37 21
-4.01483 -4.73690 2.18004 18 15 16
-4.22058 -4.96915 2.29853 48 50 56
-4.20747 -4.96443 2.27844 43 40 49
-4.23925 -4.97646 2.28453 56 60 68
-4.83377 -6.01883 2.74412 72 84 100
-4.84946 -6.05223 2.75815 162 179 179
-4.87128 -6.06078 2.74178 201 210 216
-4.87400 -6.00110 2.73860 199 211 222
-4.89560 -6.00956 2.72239 198 202 209
-5.44400 -8.26681 3.67060 87 76 93
-5.41473 -8.25535 3.69255 65 66 80
-5.41908 -8.25738 3.66583 119 108 103
-5.42344 -8.25940 3.63910 176 172 163
-5.46893 -8.28387 3.67843 73 64 78
-5.49403 -8.31859 3.69337 46 45 76
-5.51775 -8.19215 3.64355 93 97 143
-5.54256 -8.21918 3.65538 160 176 200
-5.57151 -8.23052 3.63366 176 184 205
-0.59447 -4.29322 1.86363 138 121 95
-0.57952 -4.28784 1.84074 172 148 133
-0.59763 -4.29469 1.84420 159 135 114
-0.63330 -4.30483 1.86984 96 80 59
-0.63646 -4.30630 1.85042 109 88 74
-0.65140 -4.31168 1.87330 49 30 37
-2.17895 -3.34405 1.55080 209 205 206
-2.16577 -3.33906 1.54827 181 162 155
-2.16807 -3.34014 1.53414 162 151 140
-2.17665 -3.34298 1.56493 239 243 248
-2.18125 -3.34512 1.53666 180 160 153
-2.18982 -3.34797 1.56746 251 253 254
-2.25072 -3.31319 1.54146 249 251 254
-2.26144 -3.31705 1.55788 254 254 254
-2.26371 -3.31811 1.54394 252 254 254
-2.80644 -3.37304 1.58800 220 224 239
-2.79175 -3.36729 1.59902 223 222 238
-2.79393 -3.36831 1.58560 221 226 239
-2.80426 -3.37202 1.60142 224 223 237
-2.81677 -3.37676 1.60381 224 227 237
-2.81942 -3.37726 1.59020 214 215 238
-2.83411 -3.38301 1.57918 188 184 230
-2.82995 -3.38422 1.59341 201 201 236
-2.82576 -3.40789 1.60265 193 192 233
-2.84056 -3.41368 1.59155 206 201 232
-2.84877 -3.43927 1.61607 193 189 226
-2.83832 -3.43550 1.60005 218 215 235
-2.85558 -3.45088 1.62097 207 206 233
-2.86336 -3.46145 1.62549 221 220 240
-2.87153 -3.47162 1.62988 233 230 245
-2.88651 -3.47748 1.61864 252 251 252
-2.87839 -3.48342 1.63485 242 241 248
-2.89340 -3.48930 1.62359 253 252 252
-2.88645 -3.49389 1.63935 247 245 249
-2.90148 -3.49978 1.62807 253 253 253
-2.89216 -3.50725 1.64490 251 249 251
-2.90723 -3.51316 1.63359 254 254 254
-3.38490 -3.63460 1.71572 253 254 254
-3.37226 -3.62981 1.71329 254 254 254
-3.39453 -3.64410 1.71989 247 253 254
-3.40392 -3.65405 1.72423 242 249 249
-3.41264 -3.66515 1.72901 235 229 232
-3.42269 -3.67421 1.73302 232 220 226
-3.43319 -3.67800 1.74911 236 222 217
-3.43542 -3.67903 1.73546 233 223 225
-3.51040 -3.76366 1.77220 240 230 230
-3.49750 -3.75877 1.76972 239 225 224
-3.51956 -3.77503 1.77709 237 233 234
-3.52901 -3.78601 1.78185 230 231 232
-3.53876 -3.79655 1.78644 216 217 220
-3.54082 -3.82084 1.79619 194 185 202
-3.55594 -3.82208 1.79730 157 135 181
-3.57025 -3.82472 1.79894 117 97 165
-3.58201 -3.83196 1.80230 131 136 196
-3.59538 -3.83630 1.80457 179 203 241
-3.62108 -3.81778 1.79825 209 232 247
-3.63625 -3.81852 1.79917 233 247 253
-3.64692 -3.82236 1.81551 254 254 254
-3.64898 -3.82378 1.80178 247 252 254
-3.65966 -3.82762 1.81813 254 254 254
-3.66022 -3.83189 1.80547 250 253 254
-3.67090 -3.83574 1.82183 254 254 254
-3.67174 -3.83952 1.80898 249 253 254
-3.68361 -3.84652 1.81225 241 246 252
-3.69404 -3.85637 1.81659 209 228 244
-3.70026 -3.87457 1.82409 165 173 220
-3.71164 -3.88279 1.82782 100 96 168
-3.71674 -3.90363 1.83633 54 50 115
-3.72911 -3.91008 1.83940 52 44 75
-3.74451 -3.91611 1.82784 33 35 49
-3.73938 -3.92084 1.84409 50 43 64
-3.75481 -3.92688 1.83252 34 31 41
-3.75133 -3.92823 1.84753 31 33 49
-3.76677 -3.93428 1.83595 32 31 38
-3.76346 -3.93531 1.85084 24 28 43
-3.77890 -3.94136 1.83925 34 34 36
-3.77204 -3.94986 1.85698 33 30 37
-3.78753 -3.95593 1.84536 32 37 38
-3.98093 -4.73436 2.17764 59 47 36
-3.96281 -4.72726 2.19124 62 50 48
-3.96551 -4.72852 2.17468 63 50 45
-3.96820 -4.72977 2.15813 60 50 45
-3.99697 -4.73839 2.17990 41 32 21
-4.01509 -4.74549 2.16631 23 17 22
-4.22841 -4.95169 2.27423 49 52 58
-4.27439 -4.97541 2.28555 77 62 45
-4.25579 -4.96813 2.29951 63 65 71
-4.25855 -4.96942 2.28251 61 61 63
-4.27163 -4.97413 2.30254 70 69 71
-4.28747 -4.98012 2.30558 76 72 78
-4.29547 -4.96083 2.28061 89 70 65
-4.31399 -4.96808 2.26671 105 86 58
-4.31253 -4.96164 2.28163 93 86 70
-4.34489 -4.97007 2.28630 87 80 78
-4.35788 -4.97475 2.30621 63 67 78
-4.81698 -6.02694 2.72609 67 68 78
-4.79521 -6.01841 2.74243 74 78 76
-4.79844 -6.01992 2.72254 75 74 80
-4.80168 -6.02143 2.70266 70 70 82
-4.83560 -6.03317 2.72934 85 97 116
-4.85638 -6.01890 2.72451 174 198 201
-4.87806 -6.02740 2.70824 201 211 213
-5.44837 -8.31009 3.66029 142 139 148
-5.42770 -8.30264 3.62862 186 192 202
-5.47314 -8.24579 3.63572 136 126 127
-5.49789 -8.24677 3.63712 101 86 91
-5.52278 -8.26713 3.64624 135 144 176
-5.55194 -8.27854 3.62437 181 188 208
-5.54718 -8.24446 3.63822 173 185 210
-5.57621 -8.25583 3.61644 176 181 201
-0.60074 -4.31354 1.85177 120 96 69
-0.58575 -4.30814 1.82880 170 151 118
-0.62208 -4.32189 1.83576 113 96 76
-0.63781 -4.32669 1.85852 57 39 45
-0.65280 -4.33209 1.88148 30 25 39
-0.65191 -4.33687 1.86313 31 25 42
-0.66691 -4.34227 1.88611 30 22 26
-0.67009 -4.34375 1.86661 32 21 31
-0.67326 -4.34523 1.84711 34 21 26
-2.28835 -3.28243 1.51647 228 229 239
-2.30351 -3.28520 1.51820 244 247 251
-2.31410 -3.28902 1.53443 253 254 254
-2.31634 -3.29006 1.52066 249 251 253
-2.78870 -3.34064 1.56055 220 225 239
-2.77410 -3.33492 1.57151 220 217 233
-2.77627 -3.33593 1.55817 222 225 238
-2.78653 -3.33963 1.57389 221 220 234
-2.79895 -3.34433 1.57627 221 223 236
-2.79672 -3.35019 1.56466 214 218 237
-2.81134 -3.35591 1.55369 190 187 227
-2.80613 -3.35826 1.56824 203 207 232
-2.81496 -3.36702 1.57206 193 194 229
-2.82962 -3.37276 1.56107 196 195 231
-2.82265 -3.37711 1.57637 189 187 233
-2.82868 -3.40810 1.58884 192 187 229
-2.84347 -3.41389 1.57774 240 236 245
-2.85187 -3.43928 1.60212 230 228 240
-2.84142 -3.43551 1.58610 246 245 248
-2.86675 -3.44510 1.59095 251 249 250
-2.85890 -3.45063 1.60689 240 239 244
-2.87381 -3.45647 1.59570 252 251 252
-2.86729 -3.46048 1.61113 245 243 248
-2.88223 -3.46633 1.59992 253 252 252
-2.87365 -3.47279 1.61625 249 248 250
-2.88862 -3.47865 1.60502 254 253 253
-3.37222 -3.61015 1.69147 249 254 254
-3.35744 -3.60436 1.70256 254 254 254
-3.35964 -3.60538 1.68906 254 254 254
-3.37002 -3.60912 1.70497 254 254 254
-3.38061 -3.62137 1.69625 235 251 254
-3.38989 -3.63131 1.70056 223 227 251
-3.39563 -3.64687 1.70694 212 200 235
-3.40702 -3.65370 1.71012 206 195 209
-3.42191 -3.65953 1.69894 213 199 195
-3.41871 -3.66007 1.71312 205 191 199
-3.43361 -3.66590 1.70194 214 197 196
-3.42744 -3.67120 1.71788 211 196 201
-3.43627 -3.68228 1.72262 221 211 212
-3.44678 -3.68607 1.73872 235 225 218
-3.44639 -3.69135 1.72662 230 221 218
-3.45692 -3.69514 1.74275 236 224 212
-3.45914 -3.69618 1.72907 235 225 219
-3.49517 -3.74085 1.74820 234 227 223
-3.48007 -3.73494 1.75953 235 224 219
-3.48232 -3.73599 1.74574 238 228 222
-3.49292 -3.73981 1.76199 236 224 220
-3.50524 -3.75045 1.75242 225 223 224
-3.51281 -3.76445 1.75825 214 209 221
-3.51943 -3.78024 1.76476 196 184 208
-3.52692 -3.79467 1.77077 167 144 183
-3.54217 -3.80065 1.75933 122 106 104
-3.53721 -3.80435 1.77502 136 103 149
-3.55248 -3.81033 1.76356 126 111 92
-3.54676 -3.81540 1.77978 114 94 115
-3.56206 -3.82140 1.76830 122 104 86
-3.55768 -3.82411 1.78367 109 88 101
-3.56927 -3.83167 1.78714 101 81 91
-3.58071 -3.83955 1.79074 83 74 89
-3.59605 -3.84556 1.77922 101 87 80
-3.59321 -3.84553 1.79362 75 72 107
-3.60660 -3.84988 1.79590 107 110 167
-3.62074 -3.85281 1.79766 157 172 231
-3.65914 -3.83931 1.79395 203 229 244
-3.66669 -3.85461 1.80031 195 222 241
-3.68310 -3.85295 1.80035 162 169 220
-3.69138 -3.86705 1.80625 93 91 170
-3.70650 -3.86783 1.80720 26 33 111
-3.72177 -3.87381 1.79574 33 30 47
-3.71454 -3.88260 1.81337 14 23 77
-3.72986 -3.88860 1.80188 34 32 46
-3.72633 -3.89006 1.81680 22 25 61
-3.74165 -3.89606 1.80531 32 34 46
-3.98018 -4.74577 2.16495 59 45 41
-3.96741 -4.74117 2.14539 56 49 51
-3.99455 -4.75486 2.16914 42 30 22
-4.01273 -4.76198 2.15550 22 14 17
-4.21829 -4.93622 2.25010 43 34 60
-4.19975 -4.92896 2.26401 36 33 42
-4.20251 -4.93024 2.24708 31 30 42
-4.23667 -4.93256 2.24943 54 51 72
-4.25397 -4.93266 2.25021 64 60 77
-4.27012 -4.93700 2.25260 67 71 83
-4.28753 -4.93643 2.25311 89 96 71
-4.30407 -4.93906 2.25484 111 110 64
-4.32250 -4.94628 2.24102 94 80 68
-4.35176 -4.95433 2.26288 123 119 107
-4.37816 -4.98734 2.27701 97 84 75
-4.39117 -4.99202 2.29693 63 69 77
-4.38989 -5.01077 2.28674 76 62 73
-4.40294 -5.01547 2.30674 64 71 73
-4.40570 -5.01675 2.28977 67 64 77
-4.81726 -6.05496 2.71654 69 66 91
-4.80189 -6.04943 2.69299 65 70 79
-4.83636 -6.05757 2.71838 117 121 144
-4.85718 -6.04350 2.71371 187 207 218
-4.87896 -6.05203 2.69737 201 209 214
-5.47806 -8.38370 3.66271 194 193 189
-5.50216 -8.24154 3.60767 176 168 156
-5.53125 -8.25293 3.58585 185 195 213
-5.52785 -8.33765 3.64665 177 183 200
-5.55725 -8.34916 3.62459 180 188 207
-0.60114 -4.31724 1.83303 125 104 73
-0.60431 -4.31871 1.81353 139 120 102
-0.58822 -4.37086 1.85342 73 66 39
-0.61954 -4.36727 1.85338 38 26 38
-0.64104 -4.37569 1.83725 29 22 28
-0.65846 -4.46855 1.89466 48 30 41
-0.63663 -4.46000 1.91104 32 23 35
-0.63988 -4.46152 1.89110 23 22 42
-0.65522 -4.46704 1.91460 31 21 34
-0.67380 -4.47408 1.91816 33 23 28
-0.67705 -4.47559 1.89822 66 44 34
-2.27087 -3.28477 1.50233 178 156 156
-2.31390 -3.27886 1.50190 226 225 236
-2.32520 -3.28508 1.50482 244 246 250
-2.33577 -3.28889 1.52102 251 252 253
-2.33801 -3.28993 1.50727 249 249 250
-2.77778 -3.31954 1.53801 222 225 238
-2.76324 -3.31385 1.54892 224 220 233
-2.76540 -3.31486 1.53564 229 231 240
-2.77561 -3.31854 1.55129 222 219 233
-2.78572 -3.32903 1.54207 209 214 236
-2.80028 -3.33474 1.53114 186 184 220
-2.79360 -3.33866 1.54617 195 199 230
-2.80619 -3.34318 1.54848 189 190 228
-2.83760 -3.38256 1.56524 214 211 238
-2.85229 -3.38831 1.55423 250 249 251
-3.36274 -3.58130 1.66579 246 254 254
-3.34806 -3.57555 1.67681 254 254 254
-3.35024 -3.57657 1.66340 254 254 254
-3.36056 -3.58028 1.67920 254 254 254
-3.37112 -3.59229 1.67045 231 250 253
-3.37850 -3.60493 1.67571 209 209 244
-3.38846 -3.61369 1.67957 168 162 220
-3.39868 -3.62211 1.68331 152 155 211
-3.40488 -3.63689 1.68935 173 176 207
-3.41162 -3.65096 1.69514 202 195 197
-3.43974 -3.68130 1.70823 216 197 199
-3.44881 -3.69207 1.71283 225 207 211
-3.45795 -3.70284 1.71743 234 223 222
-3.46849 -3.70663 1.73358 236 225 220
-3.46897 -3.71058 1.72094 232 231 228
-3.47952 -3.71438 1.73710 238 226 221
-3.47900 -3.72000 1.72506 223 227 227
-3.48899 -3.72958 1.72924 210 209 219
-3.49323 -3.74898 1.73701 190 176 207
-3.50156 -3.76164 1.74231 160 131 175
-3.51672 -3.76758 1.73094 125 110 105
-3.51006 -3.77412 1.74756 131 103 135
-3.52525 -3.78008 1.73616 127 113 98
-3.51872 -3.78644 1.75275 115 100 115
-3.53395 -3.79241 1.74133 126 112 97
-3.52832 -3.79725 1.75740 117 101 110
-3.54358 -3.80323 1.74595 126 114 97
-3.57015 -3.83527 1.77408 116 97 82
-3.58181 -3.84277 1.77751 109 92 75
-3.61046 -3.84801 1.78081 86 79 100
-3.61994 -3.85965 1.78577 69 70 111
-3.63329 -3.86407 1.78808 64 71 126
-3.66383 -3.86554 1.78999 62 72 149
-3.67915 -3.87154 1.77849 28 28 57
-3.67993 -3.86455 1.79030 22 27 101
-3.69522 -3.87054 1.77883 33 34 42
-3.97891 -4.75871 2.15275 53 42 49
-3.96611 -4.75410 2.13314 57 49 39
-3.99385 -4.76628 2.15636 37 25 16
-4.01207 -4.77342 2.14269 18 14 19
-4.16396 -4.83273 2.18974 21 26 31
-4.14573 -4.82559 2.20341 25 28 40
-4.14844 -4.82685 2.18676 24 26 29
-4.16125 -4.83147 2.20639 31 29 41
-4.17677 -4.83734 2.20936 28 29 26
-4.17948 -4.83861 2.19271 22 21 15
-4.18384 -4.88380 2.21056 26 17 11
-4.18111 -4.88252 2.22736 22 29 25
-4.19677 -4.88845 2.23036 22 27 35
-4.19646 -4.90059 2.21767 32 16 25
-4.20965 -4.91561 2.22412 37 26 45
-4.23014 -4.90406 2.22050 60 49 75
-4.24821 -4.90104 2.22010 83 77 83
-4.26426 -4.90541 2.22251 101 97 90
-4.27770 -4.91973 2.22869 101 89 71
-4.29165 -4.93232 2.23422 93 85 78
-4.30881 -4.93242 2.23500 95 89 75
-4.34073 -4.94183 2.24007 97 83 69
-4.35912 -4.94903 2.22628 102 87 76
-4.35364 -4.95916 2.24741 104 91 87
-4.37198 -4.95396 2.24618 115 104 106
-4.40049 -4.97799 2.25681 123 115 97
-4.40770 -5.02142 2.27409 95 83 54
-4.42076 -5.02612 2.29410 65 68 79
-4.42119 -5.03791 2.28113 75 63 61
-4.43428 -5.04263 2.30118 67 72 79
-4.43705 -5.04392 2.28417 68 65 77
-4.81805 -6.07862 2.70511 71 77 103
-4.80262 -6.07306 2.68147 60 71 78
-4.83655 -6.08751 2.70939 149 162 171
-4.85852 -6.09612 2.69290 207 219 223
-4.85854 -6.06305 2.70078 200 215 222
-5.48251 -8.39549 3.63944 189 195 206
-5.46166 -8.38798 3.60749 191 196 211
-5.48693 -8.39755 3.61233 191 199 216
-5.51220 -8.40712 3.61717 187 198 213
-5.50751 -8.37097 3.63095 190 199 205
-5.53707 -8.38255 3.60877 181 190 210
-0.61915 -4.32828 1.81790 117 95 69
-0.60414 -4.32288 1.79491 160 139 111
-0.64048 -4.33262 1.82054 94 81 50
-0.59761 -4.38922 1.84053 39 28 32
-0.61923 -4.39769 1.82431 33 20 23
-0.64444 -4.46193 1.87079 20 20 44
-0.62261 -4.45338 1.88716 23 23 34
-0.62586 -4.45489 1.86723 23 22 33
-0.62911 -4.45640 1.84730 26 24 33
-0.64769 -4.46344 1.85086 29 25 34
-0.66117 -4.47052 1.87487 62 46 50
-0.67445 -4.48206 1.87993 95 78 63
-0.68981 -4.48759 1.90346 36 23 29
-0.69306 -4.48910 1.88350 40 30 41
-2.75532 -3.29323 1.51305 231 233 242
-2.74086 -3.28757 1.52391 231 229 239
-2.74301 -3.28857 1.51069 232 234 242
-2.75317 -3.29223 1.52627 232 231 240
-2.76549 -3.29690 1.52863 231 232 241
-2.76398 -3.30180 1.51676 223 223 242
-2.77847 -3.30748 1.50589 194 189 235
-2.77189 -3.31122 1.52076 210 210 241
-2.78117 -3.31922 1.52428 198 200 236
-2.78927 -3.32854 1.52825 190 190 226
-2.80881 -3.34369 1.53499 192 190 224
-2.81536 -3.35489 1.53962 208 205 234
-2.82149 -3.36663 1.54445 223 219 238
-2.84419 -3.37860 1.55010 244 242 247
-2.84637 -3.37962 1.53671 254 252 252
-2.85885 -3.38435 1.53910 253 252 252
-3.34235 -3.54608 1.63733 253 254 254
-3.32776 -3.54036 1.64827 254 254 254
-3.32993 -3.54138 1.63495 254 254 254
-3.34018 -3.54507 1.65065 254 254 254
-3.35259 -3.54977 1.65303 254 254 254
-3.35180 -3.55518 1.64128 242 253 254
-3.35852 -3.56845 1.64672 228 243 253
-3.36619 -3.58041 1.65170 198 198 241
-3.37375 -3.59265 1.65678 154 152 219
-3.38846 -3.59841 1.64574 150 129 162
-3.38165 -3.60448 1.66171 139 141 207
-3.39209 -3.61250 1.66529 144 140 189
-3.40099 -3.62297 1.66974 157 140 177
-3.41033 -3.63282 1.67398 185 165 161
-3.41599 -3.64858 1.68033 208 189 179
-3.43185 -3.67333 1.69063 223 215 208
-3.44081 -3.68420 1.69524 227 229 220
-3.44927 -3.69600 1.70019 225 228 218
-3.46014 -3.70395 1.70376 208 206 201
-3.47514 -3.70982 1.69250 118 103 114
-3.46718 -3.71828 1.70962 186 173 186
-3.47616 -3.72952 1.71438 153 134 152
-3.49124 -3.73543 1.70307 129 112 103
-3.49051 -3.73184 1.71592 124 106 129
-3.50558 -3.73775 1.70462 131 116 102
-3.49408 -3.75241 1.72405 116 98 126
-3.50922 -3.75834 1.71269 131 115 101
-3.50230 -3.76529 1.72940 119 102 118
-3.51747 -3.77123 1.71802 129 115 101
-3.56174 -3.82713 1.75602 117 103 87
-3.54869 -3.82219 1.75352 125 111 92
-3.57243 -3.83633 1.76006 108 98 85
-3.58410 -3.84383 1.76349 99 95 83
-3.59698 -3.84912 1.76612 87 89 75
-3.61091 -3.85246 1.76804 73 72 61
-3.61671 -3.87105 1.77550 56 55 50
-3.63212 -3.87708 1.76394 31 29 30
-3.62750 -3.88042 1.77961 32 29 49
-3.64293 -3.88647 1.76804 32 32 35
-3.64708 -3.87308 1.77765 15 17 55
-3.66246 -3.87910 1.76612 31 34 41
-3.66408 -3.87052 1.77742 14 20 59
-3.67942 -3.87652 1.76591 31 38 56
-3.98207 -4.75864 2.13561 58 41 40
-3.96928 -4.75403 2.11601 58 50 41
-3.99382 -4.77572 2.14276 36 23 21
-4.01208 -4.78287 2.12906 15 15 22
-4.13427 -4.76958 2.14669 17 22 22
-4.11624 -4.76252 2.16022 24 28 36
-4.12160 -4.76502 2.12728 19 20 18
-4.13159 -4.76833 2.16316 25 27 39
-4.14694 -4.77414 2.16610 30 26 28
-4.14962 -4.77539 2.14963 19 19 20
-4.15532 -4.81395 2.16482 16 16 13
-4.16711 -4.83250 2.17253 27 14 28
-4.17730 -4.85690 2.18244 31 14 34
-4.19237 -4.86463 2.18610 45 47 49
-4.21261 -4.85384 2.18284 84 79 61
-4.22612 -4.86705 2.18856 101 101 81
-4.23961 -4.88053 2.19439 109 106 83
-4.25414 -4.89037 2.19885 97 94 65
-4.26908 -4.89875 2.20276 85 78 78
-4.28659 -4.89733 2.20300 72 67 54
-4.30213 -4.90336 2.20603 72 64 56
-4.31659 -4.91370 2.21069 74 62 64
-4.33115 -4.92375 2.21523 84 70 67
-4.34948 -4.93093 2.20148 96 87 76
-4.34360 -4.94258 2.22308 96 85 70
-4.36199 -4.94978 2.20929 103 88 74
-4.37270 -4.96373 2.23258 105 87 86
-4.37544 -4.96501 2.21576 105 88 73
-4.39112 -4.97095 2.21876 107 88 78
-4.38662 -4.97722 2.23843 107 93 98
-4.41983 -4.98119 2.24146 130 114 94
-4.43825 -4.98841 2.22764 117 104 93
-4.43532 -4.98802 2.24480 117 100 85
-4.44852 -5.00533 2.25210 89 75 64
-4.46150 -5.01000 2.27198 67 69 76
-4.46140 -5.02459 2.26013 74 65 66
-4.47441 -5.02927 2.28007 65 71 78
-4.47717 -5.03056 2.26315 69 66 72
-4.47992 -5.03184 2.24623 84 73 69
-4.81850 -6.10569 2.69481 70 88 111
-4.84032 -6.08436 2.68753 171 193 191
-4.86227 -6.09296 2.67106 207 216 221
-0.60054 -4.34733 1.80413 120 95 55
-0.58546 -4.34190 1.78103 177 152 120
-0.62200 -4.35574 1.78803 120 94 58
-0.62198 -4.35168 1.80678 108 87 51
-0.64343 -4.36008 1.79070 104 70 60
-0.59068 -4.39899 1.82349 61 36 33
-0.66260 -4.47357 1.85543 36 31 43
-0.64725 -4.46804 1.83192 31 23 35
-0.66585 -4.47508 1.83548 29 20 39
-0.68134 -4.48048 1.85895 48 56 70
-0.70318 -4.48904 1.84257 22 20 26
-0.69814 -4.48906 1.86302 29 26 39
-0.71350 -4.49459 1.88654 25 21 34
-0.71674 -4.49610 1.86658 22 21 33
-0.71999 -4.49761 1.84663 23 19 34
-2.30634 -3.27540 1.47174 163 149 149
-2.32502 -3.27490 1.47242 181 158 160
-2.33047 -3.28643 1.47709 201 187 197
-2.35966 -3.27623 1.47453 231 228 236
-2.73511 -3.28253 1.49431 230 229 241
-2.72066 -3.27687 1.50516 234 233 241
-2.72281 -3.27787 1.49196 237 236 242
-2.73296 -3.28153 1.50752 233 233 242
-2.74617 -3.28850 1.49712 218 219 240
-2.76064 -3.29417 1.48627 196 194 233
-2.75725 -3.29447 1.49992 206 208 238
-2.76565 -3.30332 1.50370 200 197 236
-2.78333 -3.32023 1.51101 193 190 233
-2.79233 -3.32858 1.51463 203 201 231
-2.80248 -3.33571 1.51784 218 216 234
-2.81259 -3.34292 1.52107 231 228 239
-2.82716 -3.34863 1.51014 254 253 253
-2.82764 -3.36322 1.52955 249 247 251
-2.84226 -3.36894 1.51858 254 254 254
-2.84229 -3.36545 1.53109 253 251 252
-2.85690 -3.37118 1.52013 254 253 254
-3.32970 -3.52310 1.61413 249 254 254
-3.31519 -3.51741 1.62501 254 254 254
-3.31734 -3.51842 1.61176 254 254 254
-3.32754 -3.52209 1.62738 254 254 254
-3.33846 -3.53305 1.61835 235 252 254
-3.34635 -3.54437 1.62306 224 228 253
-3.34426 -3.57067 1.63305 187 185 238
-3.36022 -3.57018 1.63360 148 154 206
-3.36763 -3.58255 1.63869 139 145 199
-3.37609 -3.59344 1.64326 142 134 186
-3.38901 -3.62168 1.65469 158 134 151
-3.39902 -3.63049 1.65854 179 154 169
-3.41780 -3.65024 1.66699 220 221 188
-3.42765 -3.65951 1.67100 217 221 189
-3.43705 -3.66957 1.67529 204 200 195
-3.46015 -3.68290 1.68148 145 122 147
-3.47508 -3.68875 1.67028 129 111 103
-3.46957 -3.69313 1.68584 121 105 119
-3.48452 -3.69899 1.67462 131 112 98
-3.47651 -3.73375 1.70174 123 106 108
-3.47875 -3.73479 1.68796 130 113 94
-3.49160 -3.73966 1.69042 129 116 94
-3.54156 -3.81188 1.73473 118 110 102
-3.52854 -3.80695 1.73224 128 114 103
-3.55230 -3.82087 1.73868 104 101 92
-3.56238 -3.83114 1.74308 90 89 80
-3.57090 -3.84431 1.74853 76 77 69
-3.57668 -3.86266 1.75584 56 59 62
-3.59211 -3.86871 1.74426 22 27 33
-3.58910 -3.86895 1.75883 35 38 41
-3.60454 -3.87500 1.74725 28 32 29
-3.60298 -3.87256 1.76085 24 26 29
-3.61842 -3.87860 1.74928 31 33 33
-3.61475 -3.88010 1.76429 24 29 35
-3.63020 -3.88615 1.75271 31 31 29
-3.99927 -4.76881 2.12307 29 24 26
-4.01749 -4.77595 2.10940 16 16 20
-4.13723 -4.76992 2.12988 25 14 11
-4.15002 -4.78432 2.13600 31 25 18
-4.16026 -4.80761 2.14541 42 56 26
-4.18528 -4.83980 2.15892 98 99 89
-4.19854 -4.85368 2.16486 108 107 62
-4.21552 -4.85439 2.16591 98 92 65
-4.23081 -4.86114 2.16921 91 80 78
-4.24905 -4.86829 2.15553 77 62 47
-4.24705 -4.86437 2.17120 81 68 62
-4.26528 -4.87151 2.15753 75 63 46
-4.26219 -4.87168 2.17471 80 63 54
-4.27920 -4.87189 2.17557 78 60 50
-4.29742 -4.87902 2.16191 66 50 32
-4.29507 -4.87637 2.17803 71 57 30
-4.31327 -4.88350 2.16437 68 52 40
-4.31011 -4.88403 2.18166 69 52 43
-4.32320 -4.89952 2.18821 75 58 51
-4.33573 -4.91753 2.19570 86 76 61
-4.35403 -4.92470 2.18197 96 86 65
-4.42043 -4.99200 2.22819 113 96 92
-4.45555 -4.98691 2.22786 122 108 81
-4.47395 -4.99411 2.21407 118 100 96
-4.47216 -4.98841 2.22921 105 95 84
-4.49948 -5.01947 2.24239 73 64 76
-4.49673 -5.01819 2.25924 66 69 80
-4.51244 -5.02414 2.26225 65 70 87
-4.51519 -5.02542 2.24540 66 66 84
-4.80138 -6.11433 2.67645 60 73 85
-4.77927 -6.10567 2.69304 72 80 81
-4.78256 -6.10720 2.67284 69 78 82
-4.78584 -6.10874 2.65264 68 74 84
-4.81948 -6.12810 2.68257 97 112 129
-4.84303 -6.09113 2.66947 191 216 212
-0.57980 -4.36813 1.79073 136 114 75
-0.56464 -4.36268 1.76752 178 153 139
-0.58300 -4.36963 1.77103 152 134 105
-0.59826 -4.41904 1.81096 44 16 31
-0.61352 -4.42454 1.83435 30 24 37
-0.61675 -4.42604 1.81450 29 23 40
-0.61999 -4.42755 1.79466 33 23 36
-0.68220 -4.48403 1.83966 21 19 42
-0.66685 -4.47850 1.81614 30 21 35
-0.68545 -4.48554 1.81970 27 22 30
-0.70405 -4.49259 1.82327 24 21 31
-2.32743 -3.25940 1.45243 109 106 115
-2.31693 -3.25562 1.43634 16 14 39
-2.32965 -3.26044 1.43878 38 40 55
-2.32573 -3.27733 1.45916 162 150 151
-2.34381 -3.27732 1.46002 181 158 164
-2.39347 -3.26466 1.45757 231 229 234
-2.42424 -3.25259 1.45445 246 247 250
-2.43463 -3.25633 1.47036 246 246 248
-2.43683 -3.25736 1.45686 248 248 250
-2.67034 -3.26572 1.47116 237 237 245
-2.65585 -3.26005 1.48202 226 229 240
-2.65801 -3.26105 1.46880 226 227 242
-2.66818 -3.26472 1.48438 230 233 241
-2.68051 -3.26939 1.48675 240 240 246
-2.68482 -3.27140 1.46029 254 254 253
-2.72338 -3.28052 1.47931 234 233 243
-2.73668 -3.28414 1.48132 218 215 238
-2.74801 -3.28984 1.48402 203 199 234
-2.76795 -3.30417 1.49042 203 199 236
-2.77730 -3.31206 1.49386 217 211 239
-2.78989 -3.31647 1.49614 228 225 241
-2.80439 -3.32215 1.48526 253 253 253
-2.79938 -3.32426 1.49955 237 237 245
-2.81390 -3.32995 1.48866 254 254 254
-2.81000 -3.33085 1.50256 247 245 249
-2.82453 -3.33654 1.49166 254 254 254
-2.81646 -3.34205 1.50713 252 251 251
-2.83102 -3.34775 1.49620 254 254 254
-3.31967 -3.49675 1.58989 247 254 254
-3.30524 -3.49109 1.60071 254 254 254
-3.30738 -3.49209 1.58754 254 254 254
-3.31752 -3.49575 1.60307 254 254 254
-3.32672 -3.50897 1.59487 232 251 253
-3.32769 -3.53018 1.60298 212 215 247
-3.33701 -3.53937 1.60692 167 170 227
-3.35157 -3.54508 1.59600 153 140 173
-3.35044 -3.54254 1.60876 144 151 212
-3.35923 -3.55259 1.61300 143 148 206
-3.36475 -3.56765 1.61899 149 141 181
-3.37148 -3.58105 1.62440 157 136 157
-3.37882 -3.59363 1.62954 166 138 156
-3.38096 -3.61432 1.63751 188 168 165
-3.38691 -3.62937 1.64351 209 203 183
-3.39858 -3.63564 1.64645 217 213 192
-3.41371 -3.63649 1.64749 204 192 198
-3.42490 -3.64351 1.65069 174 147 169
-3.43973 -3.64932 1.63957 125 108 113
-3.42470 -3.66878 1.66029 140 115 135
-3.43963 -3.67463 1.64910 132 113 106
-3.43532 -3.67695 1.66390 123 104 121
-3.45026 -3.68280 1.65269 133 115 102
-3.44630 -3.68460 1.66733 122 105 117
-3.46125 -3.69045 1.65611 131 114 104
-3.45983 -3.68810 1.66931 126 108 109
-3.47477 -3.69396 1.65810 130 114 104
-3.51127 -3.78691 1.70932 124 116 102
-3.49830 -3.78200 1.70683 130 117 101
-3.52198 -3.79077 1.72572 130 114 100
-3.52226 -3.79530 1.71303 114 114 97
-3.52821 -3.81259 1.71989 98 100 87
-3.52205 -3.85158 1.73442 77 74 67
-3.54409 -3.84070 1.73133 48 48 47
-3.55949 -3.84673 1.71978 24 26 26
-3.54771 -3.86278 1.73990 31 31 42
-3.56318 -3.86884 1.72829 28 28 25
-3.56319 -3.86356 1.74093 22 23 39
-3.57865 -3.86962 1.72934 29 30 27
-3.57791 -3.86568 1.74243 20 24 44
-3.59335 -3.87173 1.73085 29 29 26
-3.99180 -4.74839 2.09770 53 41 31
-3.97904 -4.74380 2.07816 54 48 40
-4.00110 -4.77269 2.10739 29 19 25
-4.01934 -4.77984 2.09371 15 14 18
-4.09446 -4.75182 2.10389 22 17 26
-4.07643 -4.74476 2.11742 19 27 25
-4.07911 -4.74601 2.10095 17 22 29
-4.09178 -4.75057 2.12035 16 24 24
-4.10712 -4.75638 2.12329 17 23 28
-4.11178 -4.75122 2.10449 28 17 15
-4.12698 -4.75741 2.10757 33 20 33
-4.14498 -4.76446 2.09406 91 87 68
-4.14214 -4.76377 2.11071 74 60 80
-4.15289 -4.78494 2.11926 95 102 76
-4.16516 -4.80135 2.12609 108 106 56
-4.19051 -4.83225 2.13904 86 76 65
-4.20870 -4.83937 2.12540 76 60 46
-4.20445 -4.84361 2.14402 82 63 56
-4.22266 -4.85074 2.13036 76 60 44
-4.22036 -4.84801 2.14645 81 65 55
-4.23856 -4.85514 2.13280 74 59 43
-4.23622 -4.85256 2.14894 79 65 56
-4.25441 -4.85969 2.13529 72 57 43
-4.28356 -4.86687 2.15663 70 56 42
-4.30174 -4.87399 2.14299 61 48 36
-4.32840 -4.89085 2.16788 76 56 46
-4.31561 -4.88624 2.14828 70 53 42
-4.34167 -4.90575 2.17418 87 77 53
-4.35992 -4.91290 2.16049 97 86 55
-4.50117 -4.94482 2.19662 118 105 92
-4.51934 -4.95193 2.18299 118 107 93
-4.51233 -4.97159 2.20733 101 94 82
-4.52706 -4.98151 2.21180 81 75 74
-4.53989 -4.98613 2.23147 63 71 75
-4.54047 -4.99818 2.21878 71 67 71
-4.55334 -5.00282 2.23849 64 72 74
-4.55606 -5.00409 2.22177 64 69 76
-4.80291 -6.13152 2.66212 69 79 100
-4.78733 -6.12591 2.63824 65 70 87
-4.81954 -6.15929 2.67346 138 151 161
-4.84487 -6.10611 2.65446 200 222 224
-4.86358 -6.11361 2.65820 203 209 218
-4.87906 -6.11918 2.68190 195 206 211
-4.88233 -6.12071 2.66179 194 204 211
-4.88561 -6.12224 2.64167 195 202 210
-5.92148 -8.10577 3.46588 162 175 211
-5.94945 -8.11673 3.44489 147 157 185
-0.58683 -4.38839 1.77829 115 94 56
-0.57163 -4.38291 1.75500 168 145 113
-0.60525 -4.39536 1.78181 110 85 74
-0.59585 -4.42518 1.79259 53 28 46
-2.34327 -3.26444 1.44095 104 102 115
-2.33278 -3.26065 1.42487 16 14 33
-2.34549 -3.26547 1.42731 35 31 55
-2.36500 -3.26101 1.44073 162 145 153
-2.39990 -3.26178 1.44272 199 187 190
-2.43991 -3.24107 1.43688 228 227 232
-2.45374 -3.24459 1.43889 246 248 250
-2.46408 -3.24832 1.45472 249 248 249
-2.46626 -3.24934 1.44129 251 251 252
-2.62626 -3.24498 1.44748 241 243 248
-2.61180 -3.23931 1.45833 244 243 246
-2.61395 -3.24031 1.44512 244 245 248
-2.62411 -3.24397 1.46069 246 243 247
-2.63643 -3.24864 1.46305 247 245 247
-2.65977 -3.26245 1.45570 240 238 249
-2.67426 -3.26812 1.44483 251 252 254
-2.67038 -3.26888 1.45864 250 249 252
-2.68487 -3.27456 1.44776 254 254 254
-2.71071 -3.27946 1.46460 250 250 252
-2.70054 -3.27580 1.44901 254 254 254
-2.71286 -3.28046 1.45137 254 254 254
-2.72518 -3.28513 1.45374 254 254 253
-2.72349 -3.28365 1.46680 242 242 249
-2.73623 -3.28788 1.46901 231 230 244
-2.74943 -3.29161 1.47107 226 222 240
-2.75990 -3.29824 1.47408 229 224 241
-2.77148 -3.30370 1.47670 235 233 245
-2.78597 -3.30937 1.46583 254 254 254
-2.78128 -3.31109 1.47996 245 243 250
-2.79578 -3.31677 1.46909 254 254 254
-3.29923 -3.46369 1.56278 252 254 254
-3.28490 -3.45808 1.57354 254 254 254
-3.28703 -3.45907 1.56045 254 254 254
-3.29710 -3.46270 1.57587 254 254 254
-3.30930 -3.46732 1.57821 254 254 254
-3.30719 -3.47433 1.56718 240 253 254
-3.31685 -3.48263 1.57078 228 245 252
-3.31376 -3.50934 1.58069 203 198 240
-3.32314 -3.51829 1.58452 159 161 220
-3.33764 -3.52397 1.57364 150 139 176
-3.33347 -3.52591 1.58789 139 149 208
-3.34467 -3.53228 1.59084 146 142 192
-3.36075 -3.55457 1.60002 159 151 160
-3.36707 -3.56846 1.60556 179 168 174
-3.36761 -3.59124 1.61417 199 193 182
-3.37815 -3.62307 1.62667 195 183 183
-3.39664 -3.61873 1.62594 168 144 164
-3.41141 -3.62451 1.61485 129 114 112
-3.48994 -3.77413 1.68903 116 111 96
-3.47698 -3.76922 1.68655 123 116 99
-3.48768 -3.77307 1.70293 131 117 97
-3.50517 -3.78009 1.67761 34 27 52
-3.49619 -3.79057 1.69553 105 96 93
-3.46647 -3.86954 1.72382 86 73 84
-3.50635 -3.82813 1.71017 56 50 61
-3.52175 -3.83416 1.69862 27 24 36
-3.54129 -3.85088 1.72045 16 21 30
-3.55673 -3.85693 1.70887 28 31 25
-3.99964 -4.73437 2.07562 44 35 32
-3.98693 -4.72979 2.05615 56 45 39
-4.00615 -4.76693 2.08820 23 14 24
-4.03973 -4.77071 2.09127 26 15 32
-4.03703 -4.76945 2.10786 18 20 24
-4.05250 -4.77531 2.11082 18 23 22
-4.05520 -4.77655 2.09422 30 20 24
-4.07579 -4.76623 2.09134 31 18 40
-4.09782 -4.75089 2.08665 42 43 56
-4.11583 -4.75794 2.07313 84 73 55
-4.11544 -4.74930 2.08691 72 69 47
-4.13162 -4.75221 2.08880 95 83 76
-4.15634 -4.78364 2.10184 86 75 59
-4.17439 -4.79071 2.08830 79 59 44
-4.16764 -4.80336 2.10982 83 66 49
-4.18575 -4.81045 2.09623 78 58 31
-4.18146 -4.81473 2.11478 80 62 24
-4.19959 -4.82183 2.10118 76 56 35
-4.26950 -4.86710 2.13881 65 55 42
-4.28770 -4.87423 2.12516 58 42 24
-4.28487 -4.87346 2.14196 59 48 36
-4.30308 -4.88059 2.12830 65 48 33
-4.32946 -4.89872 2.15366 80 61 47
-4.31664 -4.89411 2.13403 72 56 38
-4.34312 -4.91217 2.15939 90 77 48
-4.36139 -4.91933 2.14569 97 87 65
-4.54356 -4.91431 2.17001 120 114 96
-4.56155 -4.92136 2.15651 126 113 97
-4.55681 -4.93058 2.17678 105 98 84
-4.56830 -4.95631 2.18704 84 77 65
-4.58103 -4.96090 2.20654 63 72 79
-4.58372 -4.96215 2.18999 71 70 67
-4.80471 -6.14643 2.64682 73 85 112
-4.82669 -6.12542 2.63999 163 185 184
-4.84882 -6.13409 2.62339 211 219 222
-4.84757 -6.11310 2.63637 208 223 228
-4.86643 -6.11928 2.63962 204 208 215
-4.88848 -6.12792 2.62308 195 198 215
-0.58106 -4.39719 1.76081 123 97 62
-0.56584 -4.39171 1.73748 172 146 123
-0.59951 -4.40418 1.76434 115 93 77
-0.64558 -4.38845 1.76079 72 59 63
-0.61231 -4.43808 1.77763 35 24 24
-0.62761 -4.44359 1.80107 23 23 39
-0.63085 -4.44510 1.78118 27 22 34
-0.63409 -4.44661 1.76129 27 19 28
-2.40287 -3.24567 1.42280 158 143 148
-2.42957 -3.25377 1.42717 199 188 194
-2.47163 -3.23088 1.42075 226 225 231
-2.49030 -3.22974 1.42126 246 247 250
-2.50056 -3.23343 1.43698 249 250 251
-2.50273 -3.23445 1.42364 251 251 252
-2.60497 -3.23548 1.42917 238 237 249
-2.59051 -3.22981 1.44002 246 245 247
-2.59481 -3.23182 1.41360 208 192 220
-2.60282 -3.23448 1.44237 245 244 247
-2.60712 -3.23648 1.41596 202 181 221
-2.62232 -3.23516 1.42992 231 226 249
-2.63248 -3.24193 1.43296 220 214 243
-2.65337 -3.25498 1.43888 218 212 235
-2.66082 -3.26458 1.44283 238 237 246
-2.73511 -3.29232 1.45692 253 253 252
-2.72493 -3.28865 1.44132 254 254 254
-2.73726 -3.29333 1.44368 254 254 254
-2.74960 -3.29800 1.44605 254 254 254
-2.74655 -3.29794 1.45959 252 250 251
-2.76104 -3.30362 1.44871 254 254 254
-2.75902 -3.30247 1.46191 253 251 252
-2.77352 -3.30815 1.45103 254 254 254
-2.77285 -3.30555 1.46375 254 253 253
-2.78734 -3.31122 1.45288 254 254 254
-3.28531 -3.44384 1.54111 244 254 254
-3.27103 -3.43825 1.55182 254 254 254
-3.27315 -3.43924 1.53878 254 254 254
-3.28318 -3.44285 1.55415 254 254 254
-3.29603 -3.45045 1.54412 230 250 254
-3.30871 -3.45432 1.54620 221 219 251
-3.30171 -3.48616 1.55772 185 178 234
-3.30818 -3.49910 1.56288 146 156 209
-3.31658 -3.50938 1.56713 139 147 201
-3.32653 -3.51750 1.57066 148 140 186
-3.34567 -3.53501 1.57816 167 152 174
-3.35462 -3.54477 1.58225 186 182 183
-3.36152 -3.55769 1.58741 194 191 168
-3.36888 -3.57002 1.59239 187 177 170
-3.37548 -3.58363 1.59779 165 136 139
-3.39015 -3.58937 1.58679 131 114 109
-3.38223 -3.59715 1.60318 139 121 131
-3.39694 -3.60291 1.59214 132 119 103
-3.38821 -3.61198 1.60901 125 113 123
-3.40297 -3.61776 1.59794 132 118 101
-3.39513 -3.62550 1.61441 125 109 117
-3.40993 -3.63130 1.60330 129 117 106
-3.46631 -3.71265 1.65050 124 118 102
-3.45352 -3.70781 1.64805 130 117 104
-3.47687 -3.71646 1.66667 132 114 101
-3.46910 -3.73418 1.65867 114 112 94
-3.47971 -3.73800 1.67493 129 116 99
-3.46664 -3.79163 1.67998 81 68 84
-3.49677 -3.76739 1.67245 58 47 64
-3.51196 -3.77334 1.66106 26 25 43
-3.51470 -3.79095 1.68214 20 17 50
-3.51696 -3.79201 1.66822 26 26 40
-3.52995 -3.79693 1.67070 25 28 38
-3.51952 -3.81014 1.68955 20 21 45
-3.53484 -3.81614 1.67806 26 29 38
-4.00542 -4.72642 2.05582 52 32 35
-4.01064 -4.76282 2.06966 38 17 26
-4.02842 -4.76166 2.07012 40 24 43
-4.04657 -4.76877 2.05651 95 83 52
-4.06045 -4.71631 2.05481 57 53 63
-4.07839 -4.72333 2.04136 85 73 64
-4.07759 -4.71622 2.05564 78 74 61
-4.09118 -4.72728 2.06045 87 76 68
-4.10598 -4.73454 2.06390 88 79 55
-4.12392 -4.74157 2.05045 79 66 47
-4.13391 -4.75472 2.07284 83 71 66
-4.15189 -4.76176 2.05935 76 64 47
-4.14663 -4.76913 2.07885 80 66 54
-4.16465 -4.77618 2.06534 73 61 40
-4.15895 -4.78512 2.08544 79 64 45
-4.17701 -4.79219 2.07189 75 58 41
-4.25705 -4.86120 2.11875 65 50 37
-4.24156 -4.85533 2.11579 71 54 31
-4.24427 -4.85659 2.09916 64 52 29
-4.27525 -4.86833 2.10510 55 41 28
-4.27235 -4.86782 2.12199 59 43 32
-4.29055 -4.87495 2.10834 58 45 23
-4.33029 -4.90750 2.13971 81 62 49
-4.31746 -4.90287 2.12004 73 56 38
-4.34385 -4.92152 2.14562 90 78 54
-4.36215 -4.92869 2.13189 97 86 68
-4.53347 -4.89727 2.14611 111 94 87
-4.52086 -4.89273 2.12679 109 90 79
-4.55063 -4.89367 2.14563 116 104 93
-4.58341 -4.89333 2.14715 123 108 96
-4.59145 -4.93685 2.16379 92 86 84
-4.60411 -4.94141 2.18318 67 73 73
-4.60678 -4.94266 2.16673 68 73 76
-4.78685 -6.16032 2.63006 65 70 94
-4.76454 -6.15158 2.64680 75 78 91
-4.76786 -6.15313 2.62642 75 79 92
-4.77117 -6.15467 2.60605 71 77 92
-4.80414 -6.18277 2.63931 77 96 129
-4.83099 -6.11764 2.61636 176 207 203
-4.85308 -6.12629 2.59979 210 218 222
-4.86987 -6.11926 2.61892 209 210 217
-4.89190 -6.12789 2.60239 194 194 214
-0.54048 -4.43436 1.75193 136 113 94
-0.52511 -4.42883 1.72840 170 149 125
-0.56190 -4.43911 1.75479 116 91 73
-0.58785 -4.44010 1.75650 94 74 67
-0.60797 -4.44586 1.75967 38 20 23
-0.62978 -4.45441 1.74330 29 17 24
-2.40687 -3.24503 1.40878 96 90 114
-2.39649 -3.24129 1.39287 17 20 33
-2.40907 -3.24605 1.39528 30 28 47
-2.46820 -3.23716 1.40904 195 184 187
-2.49973 -3.22389 1.40576 226 221 222
-2.51972 -3.22137 1.40586 244 244 247
-2.52993 -3.22505 1.42150 250 250 251
-2.53611 -3.22221 1.40702 244 242 252
-2.54630 -3.22588 1.42264 249 250 251
-2.55062 -3.22790 1.39614 194 179 208
-2.54821 -3.22713 1.40946 234 231 249
-2.56057 -3.23181 1.41183 225 220 236
-2.62670 -3.23395 1.41603 200 176 218
-2.61656 -3.23030 1.40051 190 152 182
-2.63410 -3.24346 1.41993 200 173 213
-2.66071 -3.25075 1.42400 209 187 211
-2.66434 -3.26420 1.42915 233 228 238
-2.67785 -3.26766 1.43113 249 250 253
-2.69018 -3.27233 1.43349 253 253 254
-3.28206 -3.40964 1.51479 233 251 254
-3.29078 -3.41879 1.51862 227 235 253
-3.28079 -3.45408 1.53115 197 191 241
-3.29058 -3.46207 1.53460 155 160 212
-3.29669 -3.47529 1.53981 142 149 206
-3.30406 -3.48685 1.54446 145 145 191
-3.31079 -3.49943 1.54945 146 143 167
-3.31916 -3.50976 1.55370 149 149 165
-3.32901 -3.51803 1.55727 170 162 172
-3.33905 -3.52606 1.56075 179 169 155
-3.34902 -3.53425 1.56429 175 160 157
-3.35659 -3.54607 1.56905 156 137 140
-3.37115 -3.55177 1.55813 133 112 110
-3.35777 -3.56755 1.57705 138 123 128
-3.37241 -3.57329 1.56607 133 112 106
-3.36635 -3.57814 1.58141 130 112 123
-3.38101 -3.58388 1.57041 129 116 105
-3.37438 -3.58963 1.58607 127 109 112
-3.38908 -3.59538 1.57504 131 120 107
-3.44306 -3.67831 1.62239 124 120 104
-3.43035 -3.67350 1.61995 131 117 104
-3.44084 -3.67728 1.63602 135 114 103
-3.45355 -3.68209 1.63845 134 115 102
-3.45436 -3.68542 1.62560 113 116 104
-3.46196 -3.69866 1.63088 100 99 97
-3.45524 -3.73574 1.64423 76 73 86
-3.46996 -3.73753 1.64566 49 47 60
-3.48508 -3.74345 1.63432 27 29 32
-3.48033 -3.74661 1.64955 28 27 47
-3.49546 -3.75254 1.63819 28 32 37
-3.48951 -3.75777 1.65414 19 21 50
-3.50467 -3.76371 1.64277 25 32 40
-3.49995 -3.76688 1.65805 21 22 49
-3.51513 -3.77282 1.64666 23 32 36
-3.98658 -4.63940 2.00560 59 49 36
-3.96883 -4.63245 2.01892 54 47 36
-3.97147 -4.63368 2.00271 56 46 35
-3.98394 -4.63817 2.02182 53 50 31
-3.99906 -4.64390 2.02471 53 49 35
-3.99634 -4.66073 2.01399 62 48 44
-4.01416 -4.66771 2.00062 85 89 66
-4.00883 -4.67439 2.01968 71 52 51
-4.02668 -4.68138 2.00629 90 85 53
-4.02662 -4.67241 2.01986 81 66 62
-4.03978 -4.68423 2.02491 88 80 76
-4.05450 -4.69141 2.02832 99 89 79
-4.10902 -4.73458 2.04709 80 66 51
-4.12696 -4.74161 2.03364 74 61 39
-4.34523 -4.92826 2.13086 91 81 56
-4.36356 -4.93543 2.11711 99 87 68
-4.53931 -4.88294 2.12413 110 88 73
-4.55347 -4.89401 2.12895 113 94 67
-4.57081 -4.88906 2.12802 119 107 84
-4.58750 -4.88715 2.12817 120 110 104
-4.59995 -4.90733 2.13628 93 89 96
-4.61783 -4.91434 2.12286 64 65 75
-4.61489 -4.91460 2.13973 66 72 83
-4.62747 -4.91913 2.15899 65 72 77
-4.63013 -4.92037 2.14265 63 72 81
-4.63279 -4.92161 2.12631 63 72 76
-4.78877 -6.17404 2.61412 68 72 101
-4.77307 -6.16839 2.59006 68 74 83
-4.80576 -6.19968 2.62447 100 112 143
-4.83283 -6.13263 2.60109 183 212 215
-4.85497 -6.14130 2.58448 211 219 227
-0.56067 -4.42206 1.72781 149 133 107
-0.54536 -4.41655 1.70435 171 147 127
-0.56301 -4.44238 1.73537 117 93 79
-0.58572 -4.44605 1.73791 107 88 75
-0.60756 -4.45460 1.72152 72 55 49
-0.61399 -4.44507 1.73905 49 30 36
-2.44033 -3.23346 1.39233 85 83 109
-2.43001 -3.22974 1.37652 18 18 21
-2.44251 -3.23447 1.37892 24 19 47
-2.46395 -3.22779 1.39151 152 138 152
-2.48737 -3.22220 1.39070 176 156 155
-2.49754 -3.22902 1.39374 200 181 175
-2.52211 -3.22216 1.39253 219 210 214
-2.54027 -3.22130 1.39317 211 199 219
-2.55477 -3.22698 1.38230 185 164 165
-2.56280 -3.23274 1.39855 191 165 189
-2.57299 -3.23641 1.41417 214 203 223
-2.62420 -3.23955 1.40430 197 166 181
-2.61405 -3.23589 1.38875 221 198 184
-2.63865 -3.24521 1.39346 220 194 182
-2.65339 -3.24426 1.40757 215 188 187
-2.66781 -3.24991 1.39675 217 198 189
-2.66240 -3.25221 1.41096 219 197 197
-2.67176 -3.25985 1.41425 226 214 221
-2.68438 -3.26419 1.41650 238 230 239
-2.69756 -3.26795 1.41858 248 243 248
-2.70771 -3.27161 1.43413 254 254 254
-2.71194 -3.27045 1.42026 252 251 253
-2.72209 -3.27411 1.43580 254 254 254
-2.72424 -3.27511 1.42261 254 254 254
-3.25129 -3.37189 1.48595 252 254 254
-3.23724 -3.36639 1.49649 254 254 254
-3.23933 -3.36736 1.48366 254 254 254
-3.24920 -3.37092 1.49878 254 254 254
-3.26117 -3.37545 1.50108 254 254 254
-3.26197 -3.37816 1.48881 240 252 254
-3.27097 -3.38672 1.49242 229 243 252
-3.27431 -3.40306 1.49857 208 207 240
-3.28151 -3.43553 1.51084 149 161 210
-3.28882 -3.44685 1.51537 144 150 201
-3.29202 -3.46403 1.52183 143 140 183
-3.29780 -3.47775 1.52715 145 139 175
-3.30600 -3.48814 1.53139 152 147 165
-3.31294 -3.50043 1.53626 161 150 150
-3.32087 -3.51142 1.54070 158 147 145
-3.32747 -3.52442 1.54581 150 133 146
-3.34199 -3.53010 1.53492 133 116 110
-3.33344 -3.53847 1.55127 138 120 126
-3.34800 -3.54418 1.54034 132 118 96
-3.34156 -3.54948 1.55573 130 119 121
-3.35615 -3.55520 1.54478 132 116 91
-3.35005 -3.56004 1.56004 131 114 111
-3.36467 -3.56576 1.54907 134 116 102
-3.41045 -3.63497 1.59066 133 119 100
-3.39784 -3.63019 1.58825 132 117 96
-3.42086 -3.63872 1.60661 130 118 110
-3.41885 -3.64641 1.59529 125 119 109
-3.42928 -3.65016 1.61127 132 115 113
-3.42791 -3.65690 1.59961 115 115 110
-3.43696 -3.66748 1.60397 104 94 98
-3.44194 -3.68477 1.61056 75 70 83
-3.44922 -3.69848 1.61596 44 46 61
-3.46422 -3.70436 1.60471 27 26 36
-3.45643 -3.71245 1.62146 23 26 42
-3.47147 -3.71834 1.61018 24 31 35
-3.47052 -3.71517 1.62320 13 20 32
-3.48555 -3.72106 1.61192 24 33 29
-3.47470 -3.73441 1.63046 20 25 32
-3.48980 -3.74032 1.61914 26 32 25
-3.95427 -4.59451 1.97065 56 43 39
-3.93664 -4.58760 1.98388 51 42 30
-3.93926 -4.58883 1.96778 53 41 28
-3.95165 -4.59329 1.98676 54 43 30
-3.96666 -4.59897 1.98963 55 44 34
-3.96801 -4.60376 1.97477 59 45 46
-3.98566 -4.61067 1.96153 81 75 56
-3.97999 -4.61814 1.98066 66 50 48
-3.99767 -4.62506 1.96740 86 74 61
-3.99178 -4.63324 1.98682 75 60 56
-4.00666 -4.63957 1.98992 79 74 65
-4.04361 -4.68190 2.00737 83 75 69
-4.05662 -4.69430 2.01260 81 68 70
-4.07448 -4.70130 1.99920 73 63 32
-4.06950 -4.70724 2.01802 77 59 48
-4.08739 -4.71425 2.00460 72 62 25
-4.08352 -4.71683 2.02227 76 65 45
-4.10142 -4.72384 2.00884 71 59 44
-4.09703 -4.72810 2.02711 76 63 47
-4.11496 -4.73512 2.01366 72 58 36
-4.51996 -4.75639 2.05986 105 89 69
-4.50253 -4.74956 2.07294 105 90 69
-4.50512 -4.75077 2.05702 102 88 65
-4.51737 -4.75518 2.07579 106 91 75
-4.53221 -4.76080 2.07863 108 91 79
-4.52989 -4.78538 2.07100 109 88 77
-4.53920 -4.81817 2.08349 113 97 88
-4.55091 -4.84012 2.09215 127 114 106
-4.57260 -4.81264 2.08324 140 132 118
-4.59181 -4.79658 2.07838 145 144 123
-4.59619 -4.85694 2.10070 128 119 112
-4.60901 -4.87459 2.10784 86 75 86
-4.62676 -4.88155 2.09452 61 65 75
-4.79042 -6.19033 2.59900 69 76 104
-4.77468 -6.18465 2.57488 67 72 78
-4.80808 -6.21041 2.60729 134 147 161
-4.83454 -6.14894 2.58619 197 218 225
-5.23258 -8.41167 3.43543 192 198 209
-5.25373 -8.41929 3.46782 190 193 200
-5.25820 -8.42137 3.44034 190 191 201
-5.46252 -8.24252 3.38570 189 197 214
-5.43338 -8.23110 3.40755 202 205 212
-5.43772 -8.23312 3.38095 205 209 218
-5.45818 -8.24050 3.41230 195 203 210
-5.48299 -8.24989 3.41706 189 197 208
-5.48732 -8.25191 3.39045 184 197 210
-5.50779 -8.25928 3.42181 183 190 205
-5.51212 -8.26130 3.39520 181 190 206
-5.51645 -8.26332 3.36859 173 184 207
-0.56038 -4.42646 1.70876 161 145 116
-0.54506 -4.42094 1.68529 171 145 128
-0.55778 -4.45085 1.71746 122 99 84
-0.57968 -4.45943 1.70103 117 87 74
-0.57880 -4.45595 1.72045 114 88 72
-0.61443 -4.47143 1.72800 35 15 40
-0.62981 -4.47697 1.75157 30 20 31
-0.63307 -4.47849 1.73157 28 19 34
-0.63632 -4.48001 1.71157 28 18 34
-2.46417 -3.23064 1.37870 85 78 110
-2.45389 -3.22693 1.36295 19 14 29
-2.46635 -3.23165 1.36533 26 20 49
-2.50014 -3.21324 1.37435 151 138 146
-2.51050 -3.21982 1.37730 180 159 158
-2.51333 -3.23359 1.38244 191 166 163
-2.54127 -3.22342 1.38027 189 161 168
-2.58116 -3.23467 1.38652 213 180 175
-2.59565 -3.24034 1.37565 221 200 185
-2.67263 -3.26215 1.40145 217 199 198
-2.66247 -3.25849 1.38588 219 196 185
-2.67478 -3.26315 1.38824 221 197 190
-2.68710 -3.26782 1.39059 222 197 195
-2.68763 -3.26406 1.40295 224 203 211
-2.70869 -3.25970 1.40252 232 218 225
-2.72627 -3.25883 1.40315 242 234 236
-2.74065 -3.26446 1.39237 234 222 224
-2.75230 -3.24909 1.40104 248 245 247
-2.76235 -3.25270 1.41643 254 254 254
-2.76447 -3.25370 1.40337 252 253 254
-2.76660 -3.25469 1.39031 242 237 241
-3.24213 -3.34707 1.46315 245 253 254
-3.22816 -3.34160 1.47364 254 254 254
-3.23024 -3.34257 1.46087 253 254 254
-3.24006 -3.34610 1.47591 254 254 254
-3.25044 -3.35635 1.46696 232 248 254
-3.25745 -3.36743 1.47136 223 226 252
-3.25785 -3.38750 1.47866 185 179 239
-3.25978 -3.40571 1.48536 155 162 219
-3.26471 -3.42003 1.49082 144 151 203
-3.27408 -3.42837 1.49435 143 146 198
-3.28174 -3.43913 1.49867 144 153 179
-3.28602 -3.45470 1.50455 142 144 152
-3.28924 -3.47193 1.51096 143 139 141
-3.29874 -3.48044 1.51457 144 136 131
-3.30574 -3.49257 1.51934 141 130 127
-3.32017 -3.49822 1.50852 136 119 100
-3.31169 -3.50632 1.52465 136 120 120
-3.32616 -3.51199 1.51379 134 117 94
-3.31841 -3.51910 1.52964 132 116 120
-3.33292 -3.52478 1.51876 133 117 107
-3.32613 -3.53052 1.53421 132 115 123
-3.34067 -3.53622 1.52330 134 119 102
-3.38808 -3.60130 1.56322 129 127 113
-3.37555 -3.59655 1.56082 134 122 104
-3.39842 -3.60502 1.57907 133 120 100
-3.39560 -3.61379 1.56816 124 126 101
-3.40413 -3.62484 1.57263 115 116 92
-3.41217 -3.63675 1.57738 102 94 94
-3.40852 -3.66730 1.58826 73 65 90
-3.42743 -3.68742 1.59658 24 21 54
-3.44241 -3.69329 1.58534 31 28 39
-3.43864 -3.69476 1.59984 17 19 51
-3.45364 -3.70063 1.58859 30 29 35
-3.45102 -3.70023 1.60250 23 22 42
-3.46602 -3.70610 1.59125 29 29 34
-3.92366 -4.50143 1.91857 51 41 27
-3.90634 -4.49465 1.93157 48 37 17
-3.90891 -4.49585 1.91574 47 36 14
-3.92108 -4.50023 1.93439 49 40 24
-3.93583 -4.50582 1.93722 51 41 34
-3.94148 -4.54449 1.93514 62 41 37
-3.95098 -4.56493 1.94307 64 45 44
-3.96850 -4.57179 1.92992 80 76 52
-3.96210 -4.58118 1.94956 70 56 60
-3.97967 -4.58806 1.93638 83 75 53
-3.97554 -4.59112 1.95390 78 67 64
-4.00917 -4.64117 1.97386 81 71 56
-4.02690 -4.64812 1.96056 74 63 29
-4.02128 -4.65571 1.97979 78 70 56
-4.03904 -4.66267 1.96646 73 62 45
-4.03448 -4.66721 1.98467 77 67 49
-4.05226 -4.67418 1.97133 72 61 47
-4.04787 -4.67826 1.98941 74 66 50
-4.06568 -4.68524 1.97605 69 60 42
-4.06022 -4.69263 1.99529 73 64 48
-4.07806 -4.69963 1.98190 68 60 35
-4.50375 -4.69714 2.02100 102 87 65
-4.48651 -4.69039 2.03394 104 90 62
-4.48908 -4.69158 2.01819 101 86 59
-4.50118 -4.69594 2.03675 103 89 66
-4.51573 -4.71507 2.02815 107 98 76
-4.52588 -4.74204 2.03848 120 111 105
-4.54164 -4.74300 2.03969 131 123 120
-4.55482 -4.75634 2.04524 140 140 125
-4.56777 -4.77109 2.05128 148 149 137
-4.58519 -4.77791 2.03821 159 166 163
-4.58164 -4.78153 2.05582 152 151 150
-4.59548 -4.79232 2.06048 154 153 150
-4.60326 -4.83497 2.07637 120 112 116
-4.62087 -4.84187 2.06316 63 56 73
-4.61537 -4.85598 2.08464 73 67 83
-4.63304 -4.86290 2.07138 60 62 77
-4.80931 -6.23129 2.59367 163 184 175
-4.83184 -6.24012 2.57676 207 213 224
-4.83639 -6.16418 2.57081 205 219 227
-4.85864 -6.17289 2.55412 200 206 214
-5.23755 -8.39493 3.40115 201 206 211
-5.21646 -8.38733 3.36884 210 207 214
-5.24201 -8.39701 3.37373 206 211 210
-5.26757 -8.40668 3.37863 199 202 208
-5.44204 -8.25871 3.36288 208 210 217
-5.41282 -8.24727 3.38480 205 206 219
-5.41717 -8.24929 3.35812 206 209 224
-5.42151 -8.25132 3.33143 208 214 224
-5.46693 -8.27344 3.36957 168 168 202
-5.49159 -8.24336 3.36001 165 180 205
-5.79067 -8.39906 3.43269 160 168 194
-5.76142 -8.38761 3.45463 167 176 203
-5.76577 -8.38963 3.42792 161 172 199
-5.77012 -8.39166 3.40120 157 167 194
-5.81993 -8.41052 3.41074 154 161 174
-0.55048 -4.43870 1.69196 171 144 121
-0.53512 -4.43317 1.66843 166 144 127
-0.55373 -4.44021 1.67200 167 143 129
-0.57235 -4.44726 1.67556 157 129 115
-0.58781 -4.43038 1.69106 136 115 92
