ply
format ascii 1.0
element face 0
property list uchar int vertex_indices
element vertex 1306
property float x
property float y
property float z
property uchar diffuse_red
property uchar diffuse_green
property uchar diffuse_blue
end_header
0.15502 -4.21187 2.45527 41 25 23
0.15390 -4.21522 2.43599 85 62 58
0.13638 -4.22350 2.43845 90 82 64
0.14420 -4.23267 2.46083 35 26 29
0.13293 -4.25285 2.46624 26 17 18
0.11486 -4.26030 2.46850 21 16 19
0.07703 -4.27189 2.47218 15 6 12
0.05668 -4.27480 2.47330 29 22 29
0.04004 -4.28494 2.47622 58 52 69
0.04516 -4.33846 2.48993 111 109 124
0.01693 -4.32577 2.48717 145 151 156
-0.00656 -4.32231 2.48671 153 154 143
-0.04273 -4.29261 2.47972 107 94 75
-0.06843 -4.28387 2.47794 64 32 30
-0.08707 -4.28954 2.47974 69 20 41
-0.11521 -4.27515 2.47655 98 52 84
-0.13142 -4.28003 2.49804 164 155 153
-0.13364 -4.28665 2.45992 88 22 51
-0.14710 -4.25230 2.47124 126 98 119
-0.16321 -4.25714 2.49259 174 164 154
-0.16431 -4.26043 2.47365 150 135 137
-1.02167 -3.95572 2.41084 170 159 149
-1.00759 -3.95148 2.39218 179 171 159
-1.03867 -3.95621 2.41128 161 140 128
-1.05797 -3.94862 2.40968 125 94 70
-1.06522 -3.98253 2.41855 60 30 18
-1.08071 -3.98813 2.42028 29 20 19
-1.09481 -3.99238 2.43896 17 20 29
-1.09577 -3.99525 2.42239 23 21 26
-1.82770 -3.97377 2.43030 19 24 27
-1.81376 -3.96718 2.42834 13 19 34
-1.84147 -3.98184 2.43263 25 36 43
1.09971 -3.38254 2.20531 135 114 98
1.11710 -3.37169 2.22100 126 108 94
1.11501 -3.37793 2.18503 169 152 118
1.09866 -3.38566 2.18732 184 170 127
1.08232 -3.39339 2.18961 188 175 140
1.06370 -3.36852 2.20246 156 132 111
1.04641 -3.37931 2.18686 179 170 137
1.02872 -3.35536 2.19981 177 157 124
1.00320 -3.35251 2.19960 187 178 138
0.99015 -3.36358 2.20268 186 170 130
0.97298 -3.37429 2.18719 155 143 137
0.96298 -3.38466 2.20858 158 146 137
0.94579 -3.39538 2.19307 155 141 143
0.94749 -3.39306 2.21103 154 140 135
0.93030 -3.40378 2.19551 157 142 135
0.13884 -4.26952 2.45010 58 42 26
0.12007 -4.27575 2.45207 39 25 6
0.10196 -4.28321 2.45432 47 27 11
0.08717 -4.29711 2.45816 63 45 40
0.09589 -4.35716 2.47325 91 85 79
0.06816 -4.34611 2.47100 125 121 121
0.02623 -4.30636 2.46173 160 164 175
0.00395 -4.30528 2.46190 173 182 198
-0.01475 -4.31695 2.44502 189 202 222
-0.01493 -4.31094 2.46372 181 186 195
-0.06124 -4.30441 2.46298 96 80 71
-0.09111 -4.28675 2.45909 59 20 26
-1.02406 -3.95381 2.39310 176 167 154
-1.01000 -3.94957 2.37446 184 174 163
-1.04487 -3.94134 2.39035 170 153 147
-1.06288 -3.93792 2.38984 157 135 114
-1.07496 -3.95486 2.39438 125 96 59
-1.08236 -3.98862 2.40312 69 40 26
-1.09875 -3.99092 2.40403 46 25 38
-1.11282 -3.99516 2.42268 20 20 29
-1.11515 -3.99305 2.40490 29 22 34
-1.12920 -3.99729 2.42353 20 21 26
-1.13016 -4.00015 2.40701 22 19 26
-1.78379 -3.98103 2.41523 15 17 28
-1.76888 -3.97173 2.42869 20 24 28
-1.76978 -3.97441 2.41327 14 18 28
-1.78289 -3.97836 2.43066 16 20 30
-1.79691 -3.98498 2.43262 12 19 31
-1.79781 -3.98766 2.41720 12 14 22
-1.81572 -3.96062 2.41068 15 19 34
-1.83042 -3.96010 2.41084 25 33 41
-1.84520 -3.96932 2.39751 40 39 61
-1.84402 -3.96934 2.41347 34 40 53
-1.85737 -3.98101 2.41670 31 42 61
-1.87039 -3.98493 2.43396 24 36 51
1.00531 -3.35911 2.18268 166 158 135
1.02040 -3.35456 2.16267 159 149 143
1.00427 -3.36219 2.16493 159 146 139
0.98815 -3.36982 2.16720 159 147 139
0.98881 -3.36631 2.18485 158 145 138
0.97165 -3.37702 2.16936 157 145 135
0.24119 -4.34079 2.44545 123 129 117
0.26036 -4.32883 2.46275 88 94 100
0.25920 -4.33227 2.44293 60 61 70
0.24003 -4.34423 2.42563 129 138 132
0.22317 -4.34931 2.44798 120 93 93
0.21231 -4.37123 2.45372 148 144 105
0.21115 -4.37468 2.43383 145 142 126
0.19308 -4.38323 2.43637 155 145 128
0.18278 -4.35811 2.45107 122 114 81
0.16365 -4.37005 2.43380 157 143 105
0.14886 -4.33620 2.44631 105 89 34
0.14291 -4.36761 2.45431 118 99 48
0.11427 -4.35534 2.45185 138 128 97
0.09525 -4.36721 2.43469 159 144 132
0.08685 -4.34509 2.44988 152 143 119
0.06252 -4.34060 2.44928 151 142 138
0.02170 -4.30294 2.44072 164 168 181
-0.00602 -4.29082 2.43828 178 193 215
-0.06027 -4.31208 2.44479 144 142 142
-0.09453 -4.28525 2.43880 78 63 64
-1.02654 -3.95161 2.37532 182 172 156
-1.01249 -3.94738 2.35670 189 182 171
-1.04729 -3.93922 2.37267 177 166 153
-1.06516 -3.93621 2.37230 172 158 141
-1.07989 -3.94390 2.37455 166 145 123
-1.08983 -3.96850 2.38093 149 122 96
-1.10456 -3.97640 2.38323 112 79 59
-1.11630 -3.99523 2.38821 62 39 20
-1.13041 -4.00568 2.39114 43 26 13
-1.14447 -4.00991 2.40978 22 19 24
-1.14613 -4.01014 2.39260 28 22 13
-1.16019 -4.01438 2.41123 20 19 23
-1.16115 -4.01724 2.39470 23 21 25
-1.16211 -4.02011 2.37818 45 26 44
-1.35391 -3.82995 2.35191 16 19 24
-1.33883 -3.82055 2.36551 14 15 19
-1.33974 -3.82325 2.34992 14 17 14
-1.35300 -3.82725 2.36750 14 17 20
-1.36717 -3.83395 2.36949 17 17 15
-1.37073 -3.82490 2.35101 21 22 16
-1.38395 -3.82888 2.36854 16 18 16
-1.38703 -3.82176 2.35057 20 20 14
-1.40022 -3.82573 2.36806 15 17 22
-1.40246 -3.82230 2.35104 20 18 25
-1.41564 -3.82627 2.36850 15 14 18
-1.41654 -3.82896 2.35302 20 17 21
-1.77037 -3.97945 2.39843 21 25 38
-1.75545 -3.97014 2.41190 13 20 23
-1.75635 -3.97282 2.39646 16 26 26
-1.75725 -3.97550 2.38103 21 28 41
-1.78530 -3.98876 2.38497 31 38 54
-1.78661 -3.96802 2.39592 23 30 47
-1.80147 -3.97729 2.38251 20 36 49
-1.80245 -3.95882 2.39395 18 27 39
-1.81850 -3.94691 2.39131 20 29 47
-1.83324 -3.95610 2.37801 32 49 75
-1.86001 -3.96705 2.39726 33 31 55
-1.87476 -3.97625 2.38396 12 14 26
0.14449 -4.37630 2.43579 165 152 113
0.16132 -4.37124 2.41348 153 138 117
0.14334 -4.37974 2.41600 164 153 138
0.12536 -4.38824 2.41853 166 157 141
0.11258 -4.35770 2.43193 164 151 123
0.09356 -4.36957 2.41477 165 150 137
0.05781 -4.33690 2.42807 154 139 138
0.05667 -4.34029 2.40855 162 145 135
0.03894 -4.34867 2.41104 164 149 142
0.02722 -4.31958 2.42450 162 157 157
-0.00591 -4.29664 2.41960 171 181 197
-0.02455 -4.30827 2.40277 171 181 200
-0.02518 -4.30137 2.42121 174 185 205
-0.04380 -4.31299 2.40440 170 178 200
-0.04635 -4.30209 2.42189 176 183 202
-0.06597 -4.30591 2.42329 175 172 185
-0.08903 -4.30243 2.42297 138 130 136
-0.12370 -4.27413 2.41678 88 76 69
-0.26105 -4.15666 2.39093 52 11 54
-0.26206 -4.19950 2.40155 56 29 71
-0.27783 -4.20425 2.42246 148 143 156
-0.27891 -4.20747 2.40391 79 75 104
-1.03008 -3.94584 2.35673 187 178 166
-1.01606 -3.94162 2.33815 192 187 181
-1.05074 -3.93361 2.35419 184 174 161
-1.06661 -3.94351 2.33987 185 180 163
-1.06734 -3.93486 2.35489 180 171 149
-1.08318 -3.94474 2.34059 184 175 158
-1.07966 -3.95088 2.35914 178 163 142
-1.09554 -3.96078 2.34481 183 169 149
-1.08979 -3.97488 2.36531 171 155 136
-1.10573 -3.98482 2.35092 180 163 133
-1.10613 -3.97708 2.36623 168 147 95
-1.12205 -3.98701 2.35187 177 158 127
-1.10682 -4.03612 2.38085 150 124 82
-1.13984 -3.97728 2.36707 117 92 45
-1.15571 -3.98718 2.35275 160 139 91
-1.14630 -4.01598 2.37679 64 49 23
-1.16229 -4.02595 2.36236 134 112 79
-1.35221 -3.84401 2.33907 35 34 66
-1.36877 -3.84029 2.33853 47 47 72
-1.38534 -3.83618 2.33790 45 50 60
-1.40262 -3.82843 2.33639 38 31 48
-1.41747 -3.83151 2.33750 32 22 42
-1.43064 -3.83548 2.35496 17 19 19
-1.43214 -3.83531 2.33878 24 20 28
-1.44530 -3.83927 2.35623 16 21 25
-1.44621 -3.84196 2.34075 19 22 30
-1.82139 -3.93222 2.37183 21 38 57
-1.80847 -3.92833 2.35471 22 29 41
-1.82227 -3.93486 2.35664 24 36 51
-1.84931 -3.94228 2.37497 30 33 63
-1.86398 -3.95144 2.36173 22 18 35
-1.86298 -3.94990 2.37717 20 17 34
1.08664 -3.15956 2.09495 130 104 76
1.10326 -3.14919 2.10995 121 106 94
1.08764 -3.15658 2.11214 123 105 93
1.08564 -3.16255 2.07775 170 149 116
1.07201 -3.16397 2.11433 121 103 94
1.07001 -3.16993 2.07995 179 168 130
1.24424 -5.60879 2.68816 119 138 159
1.26903 -5.59333 2.71053 113 131 152
1.26754 -5.59778 2.68489 117 135 158
1.24573 -5.60434 2.71380 115 133 154
1.22244 -5.61536 2.71707 116 134 154
1.21975 -5.61778 2.69096 121 140 161
1.19795 -5.62434 2.71986 118 136 156
1.19357 -5.62386 2.69310 123 142 164
1.17179 -5.63042 2.72197 120 139 159
1.17030 -5.63487 2.69636 126 145 168
1.16881 -5.63931 2.67076 133 151 177
0.27470 -4.37172 2.41077 32 38 62
0.29400 -4.35967 2.42819 32 27 36
0.29284 -4.36314 2.40822 31 23 29
0.25656 -4.38029 2.41331 125 139 132
0.25540 -4.38376 2.39335 121 133 130
-0.01752 -4.27880 2.39541 171 174 187
-0.00120 -4.27388 2.37378 169 150 133
-0.01864 -4.28213 2.37622 174 174 184
-0.07297 -4.29701 2.40124 170 174 200
-0.05667 -4.29210 2.37963 178 184 206
-0.08743 -4.31144 2.40512 170 171 186
-0.10310 -4.32344 2.40844 159 158 149
-0.12912 -4.31336 2.40663 123 127 105
-0.17887 -4.25164 2.39282 85 92 75
-0.21727 -4.21332 2.38444 69 66 69
-0.24436 -4.19899 2.38162 63 46 60
-0.26231 -4.21019 2.36542 129 114 82
-0.26617 -4.19597 2.38143 54 34 35
-0.28408 -4.20714 2.36527 108 99 85
-1.03027 -3.95129 2.34086 191 184 175
-1.01624 -3.94707 2.32227 195 188 183
-1.03123 -3.95415 2.32437 193 186 183
-1.04621 -3.96124 2.32647 191 186 181
-1.05250 -3.93372 2.33713 188 184 170
-1.06836 -3.94362 2.32283 189 185 178
-1.13113 -4.01584 2.35912 173 152 107
-1.11706 -4.01161 2.34046 183 170 156
-1.13210 -4.01872 2.34257 181 170 137
-1.14713 -4.02583 2.34468 176 162 141
-1.33740 -3.84654 2.32299 48 64 64
-1.32409 -3.84253 2.30534 53 38 49
-1.35467 -3.83996 2.32182 60 77 81
-1.37253 -3.83034 2.31992 72 95 99
-1.38776 -3.83201 2.32071 88 105 112
-1.40227 -3.83684 2.32225 73 77 81
-1.41635 -3.84365 2.32426 58 67 59
-1.43296 -3.83838 2.32339 33 37 44
-1.44625 -3.84880 2.32627 21 24 31
-1.45942 -3.85277 2.34373 17 23 32
-1.46033 -3.85546 2.32824 18 24 32
-1.46123 -3.85815 2.31275 23 28 31
-1.83868 -3.91799 2.35294 34 43 68
-1.82584 -3.91412 2.33591 24 32 44
-1.85228 -3.92566 2.35515 29 29 55
-1.86688 -3.93477 2.34197 26 23 40
1.29567 -5.60167 2.65833 120 138 162
1.32050 -5.58618 2.68074 112 133 154
1.31901 -5.59063 2.65506 118 136 159
1.29717 -5.59721 2.68401 114 134 156
1.27103 -5.61054 2.66112 122 141 166
1.24835 -5.62266 2.66464 124 144 168
1.22537 -5.63428 2.66804 127 147 168
1.20035 -5.64244 2.67067 130 148 172
1.17894 -5.76066 2.69965 149 173 192
1.20410 -5.74496 2.72236 130 150 172
1.20259 -5.74948 2.69633 139 160 184
1.18045 -5.75615 2.72568 134 158 177
1.15680 -5.76733 2.72900 140 164 177
1.15958 -5.77945 2.70468 154 178 191
1.13742 -5.78612 2.73406 119 132 136
1.13590 -5.79065 2.70800 132 146 146
0.31792 -4.37260 2.38900 71 71 61
0.30743 -4.39520 2.39471 32 19 22
0.28801 -4.40731 2.37719 24 35 61
0.28366 -4.39371 2.39499 28 35 62
0.26428 -4.40580 2.37750 114 130 129
-0.07781 -4.29260 2.38031 176 181 204
-0.06153 -4.28770 2.35874 184 189 212
-0.07892 -4.29592 2.36118 181 189 207
-0.09631 -4.30414 2.36362 179 186 203
-0.09157 -4.30843 2.38448 173 179 200
-0.11010 -4.31999 2.36776 175 180 199
-0.10723 -4.32038 2.38777 171 177 190
-0.12578 -4.33194 2.37104 169 174 194
-0.12737 -4.32282 2.38890 167 171 177
-0.14589 -4.33437 2.37218 165 170 188
-0.14751 -4.32512 2.38999 162 163 164
-0.16601 -4.33666 2.37329 166 170 184
-0.17318 -4.31524 2.38830 157 158 154
-1.29641 -3.89193 2.31648 44 20 48
-1.28107 -3.88236 2.33032 27 19 20
-1.28199 -3.88512 2.31446 57 44 30
-1.29549 -3.88918 2.33234 20 21 40
-1.34071 -3.83893 2.30492 63 67 73
-1.35670 -3.83776 2.30507 61 77 89
-1.37314 -3.83432 2.30468 65 95 105
-1.40314 -3.83972 2.30677 73 80 99
-1.41888 -3.83870 2.30695 78 82 77
-1.43312 -3.84462 2.30875 40 45 60
-1.44666 -3.85388 2.31134 24 28 40
-1.46165 -3.86323 2.29781 31 34 39
-1.84219 -3.89699 2.33223 24 30 52
-1.82942 -3.89315 2.31530 24 30 38
-1.84307 -3.89960 2.31721 22 25 42
-1.85671 -3.90605 2.31913 17 24 39
-1.85553 -3.90634 2.33483 20 23 46
-1.87006 -3.91540 2.32172 18 24 32
-1.89426 -3.94855 2.34601 25 25 46
-1.90887 -3.95766 2.33282 14 14 15
-1.90963 -3.93771 2.34381 16 14 24
-1.92243 -3.94157 2.36078 12 11 12
-1.92331 -3.94418 2.34573 9 10 14
-1.92418 -3.94679 2.33068 11 12 15
1.34392 -5.54031 2.61566 118 136 157
1.36862 -5.52490 2.63794 113 132 147
1.36713 -5.52934 2.61240 116 135 154
1.34541 -5.53588 2.64120 114 131 151
1.32220 -5.54685 2.64445 116 133 156
1.32929 -5.56524 2.62197 120 140 160
1.31637 -5.59321 2.62896 123 144 163
1.29650 -5.60996 2.63349 125 148 168
1.27698 -5.62741 2.63818 128 151 174
1.25702 -5.64421 2.64272 131 153 180
1.24207 -5.66961 2.64916 136 156 185
1.22598 -5.69329 2.65522 141 160 185
1.20698 -5.71219 2.66023 145 162 187
1.20720 -5.76466 2.67266 152 170 204
1.20839 -5.81954 2.68562 169 192 221
1.18558 -5.83269 2.68938 175 200 211
1.13753 -5.80079 2.68318 146 160 162
1.11231 -5.81652 2.66042 92 101 101
0.31317 -4.41123 2.37740 27 18 18
0.29370 -4.42338 2.35983 23 37 63
-0.04948 -4.26857 2.35387 183 187 208
-0.03214 -4.26037 2.35144 174 171 183
-0.03325 -4.26368 2.33235 171 167 166
-0.18488 -4.34160 2.37500 167 168 174
-0.22994 -4.28803 2.36358 147 144 141
-0.28218 -4.21705 2.34825 108 111 121
-0.29796 -4.22180 2.36916 119 130 139
-0.29904 -4.22502 2.35062 116 123 145
-1.30297 -3.87114 2.29520 136 114 78
-1.32669 -3.83807 2.28803 110 89 22
-1.33823 -3.85625 2.29267 83 64 29
-1.35229 -3.86378 2.29485 52 44 51
-1.38750 -3.84677 2.29182 69 58 80
-1.40405 -3.84236 2.29124 73 80 105
-1.41820 -3.84884 2.29317 81 92 103
-1.43372 -3.84873 2.29359 44 48 61
-1.44708 -3.85890 2.29637 30 33 43
-1.46208 -3.86825 2.28284 40 36 49
-1.89594 -3.94304 2.32899 16 21 22
-1.88311 -3.93917 2.31199 14 19 14
-1.89681 -3.94565 2.31391 13 19 11
-1.91052 -3.95213 2.31583 15 17 9
1.17846 -3.07966 2.01980 114 94 80
1.19495 -3.06938 2.03467 117 100 93
1.19395 -3.07234 2.01762 114 99 91
1.19296 -3.07530 2.00058 114 97 91
1.17946 -3.07671 2.03684 119 101 95
1.16397 -3.08403 2.03902 118 99 92
1.16163 -3.08565 2.02170 123 105 55
1.14714 -3.09002 2.04091 122 97 89
1.14614 -3.09297 2.02387 152 129 103
1.14284 -3.11255 2.02854 171 147 128
1.14383 -3.10958 2.04564 121 92 96
1.14184 -3.11551 2.01144 187 166 151
1.12829 -3.11693 2.04781 134 105 98
1.13260 -3.12526 2.03181 182 164 138
1.11804 -3.12965 2.05112 157 138 89
1.11604 -3.13559 2.01687 172 158 140
1.37008 -5.49295 2.57720 118 138 159
1.39465 -5.47762 2.59937 113 132 149
1.39317 -5.48203 2.57396 117 135 154
1.39169 -5.48644 2.54855 122 140 160
1.37156 -5.48854 2.60261 113 133 153
1.35467 -5.51617 2.58308 120 140 165
1.33856 -5.53847 2.58877 123 141 169
1.32534 -5.56568 2.59551 127 145 173
1.31394 -5.59613 2.60296 130 148 175
1.29817 -5.61967 2.60892 133 155 177
1.28176 -5.64235 2.61471 136 164 180
1.26778 -5.66933 2.62142 143 169 186
1.25999 -5.70707 2.63046 151 174 195
1.25213 -5.74517 2.63959 160 179 202
1.23569 -5.76888 2.64561 166 179 205
1.21043 -5.78464 2.62282 167 179 210
1.22071 -5.79537 2.65224 168 179 209
1.20564 -5.82195 2.65889 173 190 218
1.18348 -5.83623 2.66289 172 195 213
1.16395 -5.85527 2.66792 143 161 173
1.13852 -5.87114 2.64497 79 83 98
-0.05392 -4.26507 2.33329 183 191 206
-0.03771 -4.26019 2.31180 175 169 163
-0.06875 -4.27840 2.33685 181 192 212
-0.08339 -4.29222 2.34051 180 191 208
-0.09479 -4.31300 2.34570 180 190 201
-0.11049 -4.32486 2.34894 175 178 190
-0.12902 -4.33642 2.33221 163 150 147
-0.13010 -4.32839 2.35035 170 166 185
-0.14861 -4.33995 2.33364 163 149 143
-0.17519 -4.32231 2.35028 165 163 167
-0.17630 -4.32562 2.33122 162 151 136
-0.19362 -4.33381 2.33365 162 150 130
-0.24473 -4.26072 2.33799 152 138 120
-0.28683 -4.21223 2.32793 107 90 76
-0.30675 -4.21312 2.32874 95 88 77
-0.32248 -4.21785 2.34958 133 124 136
-0.32355 -4.22106 2.33109 133 130 122
-1.30545 -3.86731 2.27793 161 147 122
-1.29206 -3.86327 2.26017 182 174 151
-1.30637 -3.87004 2.26218 177 166 149
-1.32069 -3.87681 2.26419 171 158 137
-1.32061 -3.87050 2.27913 155 145 89
-1.33852 -3.86169 2.27761 149 136 86
-1.35812 -3.84492 2.27428 141 122 97
-1.39084 -3.83844 2.27375 99 80 46
-1.40279 -3.85506 2.27799 78 58 52
-1.42011 -3.84681 2.27658 59 36 67
-1.43447 -3.85214 2.27825 46 22 40
-1.44765 -3.86321 2.28123 43 30 35
-1.46265 -3.87257 2.26769 58 43 34
1.17558 -3.08076 2.00238 108 90 87
1.19007 -3.07639 1.98317 114 95 90
1.17184 -3.09975 2.00687 159 137 101
1.16251 -3.11330 2.01027 188 171 144
1.13168 -3.12832 2.01470 178 163 152
1.13069 -3.13129 1.99757 167 154 142
1.11512 -3.13865 1.99976 166 154 144
1.36544 -5.49233 2.55073 123 145 168
1.38703 -5.48582 2.52211 128 147 167
1.34089 -5.50764 2.52858 133 156 181
1.34878 -5.51352 2.55613 125 147 175
1.32418 -5.52886 2.53394 137 159 186
1.33395 -5.53785 2.56219 129 148 181
1.32129 -5.56594 2.56905 133 151 184
1.31486 -5.60455 2.57813 137 157 184
1.30002 -5.62970 2.58437 143 165 187
1.28925 -5.66186 2.59211 148 177 197
1.28564 -5.70646 2.60248 161 192 210
1.26052 -5.72214 2.57981 182 205 236
1.27184 -5.73431 2.60931 175 202 222
1.25429 -5.75599 2.61485 178 200 225
1.24059 -5.78453 2.62184 173 189 219
1.20472 -5.82759 2.63287 162 179 211
1.18556 -5.84719 2.63798 156 181 210
1.16014 -5.86305 2.61504 101 115 129
1.16763 -5.86917 2.64360 131 144 166
1.14217 -5.88506 2.62062 55 66 72
-0.05568 -4.26705 2.31395 177 174 184
-0.03947 -4.26217 2.29247 175 168 160
-0.07410 -4.27854 2.29732 166 155 147
-0.06893 -4.28365 2.31818 165 154 166
-0.08738 -4.29516 2.30153 166 155 146
-0.08186 -4.30107 2.32260 166 159 161
-0.10035 -4.31261 2.30591 170 159 150
-0.10038 -4.30688 2.32452 168 163 161
-0.11886 -4.31841 2.30784 172 161 150
-0.12001 -4.31029 2.32592 164 155 154
-0.13847 -4.32181 2.30926 170 157 144
-0.29733 -4.19414 2.30482 129 108 80
-0.28166 -4.18942 2.28404 164 149 128
-0.29841 -4.19734 2.28639 160 141 112
-0.31647 -4.19661 2.30599 98 83 54
-0.33225 -4.20671 2.30881 123 127 113
-0.34791 -4.21142 2.32957 139 128 126
-0.35377 -4.20346 2.30874 138 133 127
-0.36940 -4.20816 2.32946 130 114 118
-0.37047 -4.21135 2.31108 140 134 116
-0.37154 -4.21454 2.29271 135 122 103
-1.33625 -3.87816 2.26499 166 152 131
-1.32287 -3.87413 2.24725 188 179 161
-1.33717 -3.88089 2.24925 184 177 155
-1.35147 -3.88765 2.25126 178 170 150
-1.35227 -3.87736 2.26531 161 148 132
-1.36745 -3.88683 2.25161 174 163 141
-1.36852 -3.87526 2.26534 157 145 123
-1.38538 -3.87008 2.26468 154 135 96
-1.41982 -3.85510 2.26233 135 110 86
-1.43483 -3.86447 2.24878 154 137 102
-1.43488 -3.85720 2.26328 112 91 56
-1.44805 -3.86834 2.26626 79 67 25
1.17521 -3.08433 1.98546 106 91 92
1.18970 -3.07996 1.96625 112 95 82
1.16812 -3.10001 1.98925 144 128 112
1.16072 -3.11548 1.99300 172 163 146
1.14416 -3.12580 1.97806 168 153 136
1.14459 -3.12226 1.99507 171 155 146
1.12804 -3.13259 1.98013 166 152 137
1.31852 -5.56828 2.54305 143 163 191
1.34026 -5.56174 2.51423 154 176 204
1.31703 -5.57272 2.51749 167 192 218
1.31523 -5.61208 2.55307 147 173 194
1.30251 -5.64077 2.55999 163 192 209
1.27759 -5.65632 2.53750 181 206 236
1.28728 -5.66556 2.56611 177 205 227
1.27410 -5.69404 2.57300 182 207 234
1.24693 -5.75050 2.58668 177 204 237
1.23627 -5.78422 2.59467 170 198 232
1.22042 -5.80928 2.60087 156 181 210
1.20201 -5.83005 2.60618 136 157 190
1.17921 -5.84320 2.60992 120 133 175
-0.05153 -4.28115 2.29716 173 164 159
-0.03528 -4.27626 2.27563 175 168 163
-0.05264 -4.28446 2.27806 176 168 157
-0.31173 -4.21307 2.29039 136 117 85
-0.29603 -4.20834 2.26958 166 151 127
-0.31281 -4.21628 2.27193 168 151 122
-0.32958 -4.22421 2.27429 161 146 111
-0.33435 -4.20753 2.28989 111 92 75
-0.35876 -4.19751 2.28843 119 101 92
-1.38392 -3.88358 2.25142 169 154 132
-1.37059 -3.87956 2.23375 189 182 163
-1.38483 -3.88629 2.23575 189 179 165
-1.39907 -3.89303 2.23774 187 174 161
-1.41488 -3.88534 2.25284 161 146 122
-1.42999 -3.89477 2.23921 177 163 135
-1.44985 -3.86667 2.24978 145 129 83
-1.45075 -3.86936 2.23427 172 156 126
-1.46485 -3.87602 2.23625 166 147 123
1.17263 -3.08571 1.96813 104 93 89
1.18712 -3.08135 1.94892 108 88 78
1.15931 -3.09518 1.97070 120 109 99
1.15817 -3.11689 1.97558 163 155 134
1.14162 -3.12722 1.96065 168 152 130
1.31209 -5.61384 2.52683 174 197 220
1.33394 -5.60726 2.49787 178 207 239
1.31060 -5.61830 2.50114 176 201 228
1.29664 -5.63799 2.53275 179 202 224
1.27259 -5.69854 2.54709 177 206 238
1.25958 -5.72762 2.55403 171 203 233
1.24590 -5.75585 2.56080 157 190 218
1.22340 -5.76908 2.56453 131 154 191
1.20869 -5.79599 2.57104 104 116 158
1.19826 -5.83069 2.57914 83 100 136
1.17964 -5.85124 2.58437 87 104 137
1.16239 -5.87440 2.59013 102 115 117
1.13847 -5.88571 2.59349 63 70 70
-0.36546 -4.18754 2.26736 136 132 90
-0.34991 -4.18286 2.24675 164 153 131
-0.38314 -4.19857 2.25141 161 157 96
1.17112 -3.08815 1.95100 107 90 81
1.15776 -3.09758 1.95356 116 106 93
1.14129 -3.10786 1.93869 188 170 145
1.15605 -3.11873 1.95826 166 149 134
1.13951 -3.12905 1.94333 170 155 137
1.29326 -5.63932 2.50639 172 198 228
1.27958 -5.66666 2.51289 167 197 231
1.26535 -5.69333 2.51926 153 183 211
1.24874 -5.71621 2.52489 127 149 183
1.22951 -5.73478 2.52967 99 117 155
1.22004 -5.77042 2.53783 82 98 133
1.19485 -5.78613 2.51510 83 96 115
1.20766 -5.80138 2.54508 79 94 126
1.19767 -5.83689 2.55324 81 98 122
1.17920 -5.85773 2.55848 89 106 120
1.16138 -5.87991 2.56400 103 114 110
1.15838 -5.92913 2.57491 68 73 82
1.13586 -5.93591 2.60477 31 26 37
1.13432 -5.94051 2.57829 27 31 37
1.13277 -5.94510 2.55180 30 34 38
1.19551 -3.07102 1.92866 113 81 80
1.21195 -3.06076 1.94350 108 92 83
1.21096 -3.06371 1.92650 108 79 83
1.19650 -3.06807 1.94567 108 93 82
1.18342 -3.08164 1.93142 117 92 78
1.16659 -3.08760 1.93335 146 131 92
1.15015 -3.09786 1.91850 186 168 146
1.16357 -3.10733 1.93772 169 158 118
1.29019 -5.64116 2.48016 147 173 209
1.28320 -5.67973 2.48875 117 141 189
1.27362 -5.71438 2.49660 94 116 152
1.25387 -5.73205 2.50117 86 105 133
1.23849 -5.75735 2.50722 84 99 128
1.22376 -5.78404 2.51355 84 96 119
1.20019 -5.84860 2.52839 77 94 117
1.18043 -5.86721 2.53316 84 101 120
1.16208 -5.88849 2.53846 103 111 117
1.15740 -5.93475 2.54863 72 77 89
1.13179 -5.95073 2.52552 33 34 39
-0.02779 -4.30272 2.24135 170 165 164
-0.00924 -4.29115 2.25808 175 168 161
-0.01036 -4.29448 2.23890 171 168 163
-0.02667 -4.29939 2.26053 175 167 160
-0.04410 -4.30763 2.26297 176 167 156
-0.04476 -4.31190 2.24398 171 168 165
-0.06108 -4.31681 2.26560 177 166 157
-0.06219 -4.32014 2.24642 174 172 164
-0.58967 -4.17677 2.23557 120 152 68
-0.57239 -4.16599 2.25117 109 144 86
-0.57343 -4.16909 2.23330 129 166 72
-0.57447 -4.17219 2.21542 131 154 65
-0.60487 -4.18135 2.25573 127 144 121
-0.61721 -4.15440 2.23179 106 122 76
-0.63231 -4.15894 2.25181 150 157 150
-0.64315 -4.13564 2.22873 92 85 69
-0.65816 -4.14016 2.24863 168 165 162
-0.66231 -4.13475 2.22927 121 117 111
-0.67729 -4.13926 2.24913 179 167 158
-0.67832 -4.14232 2.23151 154 156 152
1.22132 -3.03325 1.90194 109 85 79
1.23767 -3.02305 1.91670 109 94 84
1.23668 -3.02599 1.89979 104 89 87
1.22230 -3.03032 1.91885 109 92 85
1.20694 -3.03758 1.92101 106 88 83
1.21338 -3.04771 1.90533 110 85 77
1.20317 -3.06004 1.90836 130 96 95
1.18700 -3.06660 1.91039 157 131 97
1.17059 -3.07683 1.89559 182 167 137
1.17407 -3.07634 1.91298 172 154 114
1.16731 -3.09225 1.91663 183 170 127
1.14637 -3.11693 1.92271 177 160 141
1.13086 -3.12427 1.92488 165 150 131
1.12987 -3.12723 1.90781 162 146 131
1.33142 -5.66660 2.45720 117 137 173
1.21590 -5.83025 2.49657 79 89 110
1.20302 -5.86088 2.50359 74 86 110
1.19196 -5.89509 2.51130 79 94 115
1.16510 -5.90126 2.51368 100 109 116
1.16039 -5.94757 2.52371 76 76 86
1.13475 -5.96357 2.50057 33 27 30
-0.01238 -4.29598 2.21937 163 154 151
0.00616 -4.28442 2.23610 173 167 166
0.00505 -4.28774 2.21693 174 166 161
0.00393 -4.29107 2.19775 177 165 160
-0.03023 -4.30333 2.22164 139 131 121
-0.04904 -4.30872 2.22353 131 129 134
-0.05954 -4.33132 2.22875 156 158 161
-0.07588 -4.33624 2.25042 176 172 160
-0.07700 -4.33957 2.23120 174 170 163
-0.60055 -4.15396 2.21258 129 147 64
-0.58543 -4.14941 2.19254 149 146 103
-0.60158 -4.15704 2.19481 155 145 104
-0.61997 -4.15287 2.21312 120 119 73
-0.63794 -4.15550 2.21440 112 99 70
-0.66136 -4.14318 2.21271 111 93 88
-0.68116 -4.14036 2.21290 114 101 110
-0.69613 -4.14487 2.23274 172 169 158
-0.69929 -4.14199 2.21397 134 129 136
-0.71424 -4.14649 2.23378 178 170 152
-0.71526 -4.14954 2.21621 159 159 153
-1.65958 -3.81817 2.18335 183 169 154
-1.64509 -3.80913 2.19642 159 142 97
-1.64596 -3.81173 2.18144 186 174 152
-1.67232 -3.82201 2.20024 142 122 94
-1.67320 -3.82461 2.18526 178 165 147
-1.67407 -3.82721 2.17027 189 181 167
1.24397 -2.95028 1.86610 102 89 84
1.26008 -2.94024 1.88063 105 90 87
1.25911 -2.94313 1.86397 104 89 85
1.25814 -2.94602 1.84731 100 83 67
1.24494 -2.94739 1.88276 105 91 87
1.22980 -2.95455 1.88488 103 91 88
1.23764 -2.96571 1.86958 99 87 80
1.22246 -2.97288 1.87171 103 77 70
1.23132 -3.00290 1.87762 109 80 79
1.23230 -2.99998 1.89444 106 90 89
1.22380 -3.01754 1.88099 113 90 89
1.20979 -3.02604 1.88335 141 120 99
1.19610 -3.03486 1.88576 162 143 108
1.17979 -3.04504 1.87104 178 171 149
1.18403 -3.04528 1.88844 174 161 129
1.17584 -3.05956 1.89176 183 171 123
1.16228 -3.09118 1.89893 174 158 143
1.16129 -3.09413 1.88193 164 146 143
1.14584 -3.10144 1.88410 160 146 142
1.15427 -3.10593 1.90235 167 149 150
1.13779 -3.11621 1.88748 161 148 133
1.36353 -5.57820 2.41053 146 160 203
1.38828 -5.56276 2.43286 175 204 239
1.38679 -5.56720 2.40727 163 192 218
1.36502 -5.57375 2.43613 173 206 237
1.34176 -5.58475 2.43939 163 194 221
1.34027 -5.58920 2.41379 111 103 154
1.21958 -5.84393 2.47204 74 84 101
1.20688 -5.87500 2.47906 68 81 99
1.18141 -5.89089 2.45608 63 75 82
1.19607 -5.90977 2.48678 72 88 101
1.17051 -5.92572 2.46371 81 90 92
1.17483 -5.92614 2.49108 92 104 106
1.14924 -5.94210 2.46800 78 79 80
1.16328 -5.96024 2.49869 79 78 82
1.13761 -5.97626 2.47552 33 22 21
0.29193 -4.54622 2.23916 126 138 144
0.31173 -4.53386 2.25703 27 38 59
0.31053 -4.53742 2.23656 24 35 62
0.30934 -4.54097 2.21608 25 36 60
0.27451 -4.55146 2.26225 167 159 160
0.27332 -4.55501 2.24177 168 164 154
-0.01526 -4.29573 2.19952 169 156 148
0.00103 -4.29083 2.17792 178 164 165
-0.03806 -4.29293 2.19988 94 73 94
-0.05549 -4.30102 2.20229 63 58 84
-0.06861 -4.31809 2.20640 120 129 135
-0.07984 -4.33930 2.21130 166 168 162
-0.09617 -4.34422 2.23295 177 167 159
-0.09728 -4.34755 2.21375 176 170 166
-0.46930 -4.15062 2.18799 159 165 109
-0.45194 -4.13978 2.20366 157 172 103
-0.45298 -4.14290 2.18570 163 159 124
-0.45403 -4.14602 2.16774 170 160 133
-0.46826 -4.14750 2.20595 150 176 88
-0.48458 -4.15522 2.20824 136 166 83
-0.48709 -4.15470 2.18958 139 147 92
-0.50236 -4.15929 2.20981 130 163 70
-0.50618 -4.15546 2.19053 130 140 75
-0.52142 -4.16005 2.21073 124 162 57
-0.52421 -4.15875 2.19196 118 139 59
-0.53943 -4.16334 2.21214 126 160 54
-0.54320 -4.15949 2.19290 125 141 70
-0.56393 -4.15557 2.19294 132 143 78
-0.63118 -4.12879 2.19013 151 137 105
-0.65101 -4.12612 2.19039 145 125 100
-0.66750 -4.13229 2.19237 133 111 90
-0.68272 -4.14195 2.19502 123 100 85
-0.69986 -4.14630 2.19663 113 96 90
-0.71824 -4.14706 2.19755 114 105 101
-0.73317 -4.15155 2.21735 173 170 156
-0.73419 -4.15460 2.19979 134 131 130
-0.73522 -4.15765 2.18224 86 75 84
1.24936 -2.95911 1.85038 102 80 68
1.23667 -2.96861 1.85288 103 80 74
1.23002 -2.98385 1.85630 124 88 88
1.20002 -2.97697 1.85618 151 126 99
1.18390 -2.98702 1.84163 188 175 151
1.19844 -2.99713 1.86039 170 151 118
1.19486 -3.01552 1.86433 183 167 133
1.18861 -3.03148 1.86788 187 171 146
1.17486 -3.06250 1.87485 170 160 140
1.17387 -3.06543 1.85793 162 150 145
1.15850 -3.07270 1.86008 163 149 141
1.16573 -3.07594 1.87800 167 151 140
1.14934 -3.08616 1.86322 164 147 143
1.22454 -5.85990 2.44785 67 80 89
1.19910 -5.87577 2.42490 47 56 58
1.21576 -5.89803 2.45607 61 75 83
1.19021 -5.91396 2.43302 45 44 57
0.28528 -4.53948 2.21681 119 130 132
0.30266 -4.53425 2.19377 26 38 64
0.27636 -4.56662 2.22277 164 164 150
0.25892 -4.57187 2.24590 163 155 143
0.25773 -4.57543 2.22539 162 155 140
-0.01749 -4.29679 2.17995 180 166 150
-0.00121 -4.29188 2.15836 174 164 161
-0.03777 -4.29911 2.18130 117 92 86
-0.05816 -4.30111 2.18259 72 61 55
-0.07136 -4.31799 2.18662 110 115 109
-0.08537 -4.33333 2.19038 154 153 152
-0.10871 -4.32895 2.19049 170 162 160
-0.12496 -4.33385 2.21203 177 168 161
-0.12608 -4.33717 2.19292 174 165 159
-0.49168 -4.14905 2.16998 171 160 125
-0.50900 -4.15985 2.15436 171 158 136
-0.51072 -4.14982 2.17096 167 158 117
-0.52801 -4.16061 2.15536 168 157 131
-0.52889 -4.15265 2.17233 162 156 108
-0.54616 -4.16343 2.15674 167 155 134
-0.54977 -4.14846 2.17236 162 156 116
-0.56699 -4.15921 2.15682 165 155 136
-0.57157 -4.14161 2.17189 162 153 122
-0.58874 -4.15232 2.15640 165 154 132
-0.59495 -4.13034 2.17058 165 153 127
-0.61205 -4.14100 2.15515 165 152 131
-0.61697 -4.12222 2.16986 163 148 124
-0.63401 -4.13285 2.15448 162 150 132
-0.63835 -4.11546 2.16939 159 144 121
-0.65776 -4.11369 2.16986 155 138 116
-0.67353 -4.12167 2.17218 151 131 110
-0.68868 -4.13136 2.17483 138 126 106
-0.70298 -4.14349 2.17794 118 112 94
-0.72209 -4.14212 2.17848 99 90 79
-0.73903 -4.15269 2.16319 71 70 58
1.24692 -2.93939 1.82919 107 85 80
1.26298 -2.92937 1.84368 101 87 75
1.26202 -2.93226 1.82707 103 79 75
1.26105 -2.93514 1.81046 144 118 93
1.24595 -2.94228 1.81257 160 137 122
1.20400 -2.98458 1.84024 187 171 131
1.18471 -3.03156 1.85060 170 154 154
1.16844 -3.04171 1.83592 165 151 146
1.17657 -3.04577 1.85383 166 153 149
1.16027 -3.05594 1.83913 166 152 142
1.23958 -5.89364 2.42671 56 72 69
1.21402 -5.90958 2.40365 27 31 40
0.27412 -4.52420 2.19302 109 116 131
0.29144 -4.51899 2.17007 25 38 57
0.27294 -4.52774 2.17266 88 90 97
0.28637 -4.59151 2.20608 161 162 154
0.26645 -4.60394 2.18810 164 155 146
0.25975 -4.58518 2.20598 165 156 147
0.24229 -4.59043 2.22914 157 154 138
0.24109 -4.59400 2.20860 158 149 133
0.23990 -4.59756 2.18807 156 148 137
-0.01906 -4.29919 2.16063 176 167 158
-0.00278 -4.29429 2.13905 173 165 155
-0.02017 -4.30252 2.14149 175 166 152
-0.03531 -4.30977 2.16350 153 137 126
-0.05929 -4.30438 2.16348 86 69 48
-0.07868 -4.30835 2.16515 72 75 52
-0.09616 -4.31625 2.16753 112 123 106
-0.11221 -4.32718 2.17045 150 154 142
-0.13577 -4.32202 2.17046 167 161 152
-0.15196 -4.32690 2.19193 176 167 162
-0.16274 -4.30920 2.16908 174 163 154
-0.17886 -4.31406 2.19044 178 167 164
-0.17996 -4.31735 2.17149 177 166 157
-0.48560 -4.16979 2.15532 174 161 137
-0.47031 -4.16519 2.13505 173 163 150
-0.48665 -4.17291 2.13734 176 163 141
-0.50299 -4.18064 2.13963 173 160 146
-0.65939 -4.11508 2.15202 159 146 124
-0.67597 -4.12081 2.15392 149 136 111
-0.68957 -4.13476 2.15735 130 115 88
-0.70528 -4.14295 2.15971 107 95 81
-0.72225 -4.15353 2.14440 61 57 40
-0.72507 -4.13959 2.15991 87 83 73
-0.74200 -4.15015 2.14464 35 31 27
1.23075 -2.94932 1.81468 179 160 142
1.24488 -2.94506 1.79595 193 162 126
1.21341 -2.95434 1.81648 190 174 157
1.20413 -2.96697 1.81942 184 173 151
1.20238 -2.98685 1.82345 176 159 143
1.18624 -2.99692 1.80888 166 146 138
1.18952 -2.99625 1.82591 171 153 150
1.17337 -3.00632 1.81134 166 147 142
1.18058 -3.00944 1.82895 165 148 147
1.16440 -3.01954 1.81435 165 149 142
0.29428 -4.61248 2.18851 153 161 153
0.31186 -4.60718 2.16521 73 70 73
0.27430 -4.62494 2.17048 164 156 146
-0.03904 -4.30773 2.14340 174 163 148
-0.02277 -4.30283 2.12183 175 166 152
-0.04015 -4.31105 2.12426 176 169 156
-0.05740 -4.31391 2.14548 144 129 97
-0.08135 -4.30839 2.14549 87 67 38
-0.10916 -4.29444 2.14400 65 54 46
-0.12615 -4.30315 2.14652 86 90 101
-0.14121 -4.31601 2.14977 120 126 141
-0.17024 -4.29859 2.14766 145 149 153
-0.61982 -4.12621 2.13423 165 155 129
-0.60381 -4.11864 2.13198 166 154 135
-0.64045 -4.12140 2.13423 156 145 113
-0.65978 -4.11983 2.13481 140 124 107
-0.67387 -4.13239 2.13796 114 104 79
-0.68973 -4.14020 2.14024 93 90 66
-0.70974 -4.13636 2.14041 82 78 59
1.22979 -2.95220 1.79806 183 162 145
1.24391 -2.94794 1.77933 198 175 152
1.21849 -2.96292 1.80070 178 160 151
1.20483 -2.97144 1.80302 166 148 139
1.18875 -2.98148 1.78850 161 143 122
1.19264 -2.98138 1.80554 164 146 141
1.14839 -3.28114 1.86619 160 151 141
1.16539 -3.27054 1.88153 168 152 141
1.16436 -3.27359 1.86395 166 152 143
1.14942 -3.27809 1.88377 165 152 141
1.13344 -3.28564 1.88601 163 152 145
1.13300 -3.28931 1.86852 158 147 142
1.11805 -3.29381 1.88835 163 151 148
1.11702 -3.29686 1.87077 161 150 144
1.35729 -5.74460 2.33717 77 89 100
1.38252 -5.72886 2.35993 85 91 103
1.38100 -5.73339 2.33384 79 86 103
1.33012 -5.75000 2.33952 72 86 95
1.30742 -5.81450 2.35320 56 72 80
1.28204 -5.83033 2.33030 28 32 45
-0.05672 -4.32097 2.12699 175 161 141
-0.04044 -4.31607 2.10542 174 169 157
-0.08285 -4.31089 2.12628 153 133 100
-0.10333 -4.31240 2.12756 105 92 64
-0.13951 -4.28028 2.12302 65 53 57
-0.16835 -4.26319 2.12107 55 42 64
-0.19366 -4.25329 2.12035 70 56 74
-0.22516 -4.27487 2.12607 90 85 105
-0.23779 -4.29273 2.13016 107 109 137
-0.26384 -4.28042 2.12901 158 160 172
-0.27973 -4.28520 2.15007 181 174 164
-0.28081 -4.28844 2.13139 179 176 168
-0.59873 -4.13773 2.11720 159 149 137
-0.58163 -4.12707 2.13263 166 153 137
-0.58266 -4.13013 2.11495 168 157 141
-0.62185 -4.12660 2.11614 142 129 114
-0.63772 -4.13452 2.11845 116 109 87
-0.65681 -4.13368 2.11920 96 93 79
-0.67461 -4.13623 2.12055 82 81 53
-0.69004 -4.14522 2.12304 63 59 37
-0.70474 -4.15628 2.12591 40 34 28
-0.72173 -4.16688 2.11057 13 12 16
-0.72169 -4.16105 2.12765 24 19 19
-0.73765 -4.16860 2.12989 15 12 14
-0.73867 -4.17164 2.11233 12 12 16
1.93252 -3.44135 1.83984 137 111 87
1.95121 -3.42968 1.85671 93 73 68
1.95009 -3.43304 1.83737 111 79 79
1.91608 -3.44630 1.86163 100 80 64
1.91383 -3.45301 1.82297 193 174 137
1.92228 -3.45627 1.84321 153 137 102
1.90581 -3.46123 1.86504 128 99 80
1.90469 -3.46459 1.84568 177 157 127
1.90356 -3.46795 1.82631 184 166 147
1.21000 -2.93744 1.77900 208 193 176
1.18908 -2.93897 1.78033 206 195 172
1.21287 -2.98288 1.78757 171 151 126
1.17779 -2.99262 1.79118 164 146 135
1.16265 -2.99978 1.79331 164 147 138
1.16049 -3.27365 1.84594 164 155 144
1.17747 -3.26306 1.86127 166 153 141
1.17645 -3.26611 1.84370 164 151 140
1.17543 -3.26916 1.82614 163 150 135
1.14416 -3.28080 1.84812 137 130 137
1.12428 -3.28419 1.84976 123 117 128
1.11816 -3.30222 1.85352 149 142 146
1.10320 -3.30672 1.87335 161 150 141
1.10217 -3.30978 1.85576 159 150 140
1.37501 -5.73052 2.30655 72 80 95
1.40020 -5.71480 2.32929 82 83 104
1.39869 -5.71933 2.30323 77 78 98
1.39717 -5.72385 2.27717 67 77 81
1.33035 -5.75747 2.31393 58 70 78
1.30513 -5.77320 2.29118 29 29 42
-0.05758 -4.32481 2.10794 178 168 154
-0.04130 -4.31991 2.08636 172 166 158
-0.05870 -4.32813 2.08880 175 167 160
-0.07609 -4.33635 2.09124 176 168 160
-0.07761 -4.32752 2.10945 176 164 141
-0.09813 -4.32907 2.11077 163 147 119
-0.16201 -4.28248 2.10500 103 85 52
-0.19247 -4.26150 2.10249 82 63 32
-0.21364 -4.26038 2.10332 74 53 54
-0.23534 -4.25793 2.10393 64 51 75
-0.24829 -4.27489 2.10782 81 77 101
-0.25885 -4.29744 2.11267 135 134 148
-0.27942 -4.29737 2.11368 175 175 171
-0.29532 -4.30216 2.13476 181 175 166
-0.29641 -4.30541 2.11606 184 176 170
-0.29750 -4.30866 2.09736 182 173 168
-0.51256 -4.16807 2.10043 171 158 136
-0.49525 -4.15727 2.11606 174 157 136
-0.49733 -4.16349 2.08025 182 174 160
-0.51152 -4.16497 2.11834 172 159 145
-0.52779 -4.17266 2.12062 176 163 141
-0.52883 -4.17577 2.10272 174 159 138
-0.57873 -4.14609 2.09950 164 149 136
-0.56159 -4.13539 2.11497 173 159 148
-0.56262 -4.13847 2.09724 176 159 146
-0.60301 -4.13224 2.09804 125 115 112
-0.61927 -4.13924 2.10019 103 96 96
-0.63664 -4.14323 2.10182 89 81 74
-0.65562 -4.14277 2.10267 64 60 50
-0.66923 -4.15685 2.10605 40 37 28
-0.68627 -4.16748 2.09067 14 12 10
-0.68538 -4.16405 2.10823 26 21 18
-0.70242 -4.17467 2.09285 14 12 11
-0.70570 -4.15951 2.10837 17 13 15
-0.72270 -4.17011 2.09303 15 13 14
1.94875 -3.41233 1.81352 137 111 94
1.96736 -3.40071 1.83032 88 64 69
1.96624 -3.40406 1.81106 116 78 77
1.94987 -3.40899 1.83277 88 66 70
1.93013 -3.42394 1.79672 194 173 145
1.93735 -3.42604 1.81668 165 143 118
1.91871 -3.43767 1.79986 190 169 159
1.92774 -3.44142 1.82007 186 165 127
1.90906 -3.45307 1.80322 207 186 165
1.21202 -2.90105 1.75493 213 205 198
1.22788 -2.89116 1.76924 192 171 140
1.22693 -2.89400 1.75284 211 188 171
1.21298 -2.89820 1.77133 183 165 147
1.21139 -2.92140 1.75879 233 229 220
1.19547 -2.93133 1.74443 254 254 254
1.18998 -2.92243 1.76008 250 248 237
1.17119 -2.92584 1.76169 246 245 221
1.14319 -2.92046 1.76211 207 197 157
1.19017 -2.98665 1.77217 168 147 105
1.16994 -2.98889 1.77363 157 139 123
1.14763 -2.98906 1.77480 158 145 136
1.13352 -2.99331 1.79351 164 148 138
1.13256 -2.99619 1.77692 161 148 136
1.15588 -3.27294 1.82786 162 152 141
1.17081 -3.26845 1.80807 163 148 129
1.13883 -3.27930 1.82993 106 103 129
1.12234 -3.28626 1.83208 67 71 102
1.11025 -3.29790 1.83489 113 113 126
1.10181 -3.31354 1.83827 149 140 137
1.08684 -3.31804 1.85811 162 148 136
1.08582 -3.32110 1.84051 162 147 129
1.37294 -5.73414 2.28035 58 69 73
1.39510 -5.72747 2.25097 50 56 59
1.37142 -5.73866 2.25429 38 44 51
1.34775 -5.74986 2.25761 29 31 44
1.34578 -5.73953 2.28275 48 57 68
1.32061 -5.75523 2.26004 20 22 33
-0.09786 -4.33530 2.09216 178 166 152
-0.08162 -4.33040 2.07062 173 167 160
-0.09897 -4.33861 2.07305 174 168 158
-0.11930 -4.33477 2.09316 174 159 137
-0.14537 -4.32409 2.09248 162 146 106
-0.18377 -4.28610 2.08729 146 127 82
-0.21166 -4.27039 2.08576 130 111 84
-0.24812 -4.28093 2.08961 117 106 104
-0.25997 -4.30061 2.09392 145 141 138
-0.27809 -4.31191 2.07758 179 172 167
-0.27005 -4.32459 2.09896 175 174 169
-0.28822 -4.33593 2.08255 180 171 163
-0.51409 -4.16995 2.08232 178 170 148
-0.51513 -4.17306 2.06442 181 173 161
-0.54086 -4.15092 2.08011 177 163 142
-0.55850 -4.15481 2.08174 178 157 136
-0.57995 -4.14866 2.08168 150 136 133
-0.59650 -4.15514 2.08375 104 93 85
-0.61754 -4.14962 2.08379 74 66 64
-0.63506 -4.15330 2.08538 49 38 47
-0.65213 -4.16395 2.06997 16 12 22
-0.64854 -4.16785 2.08881 30 21 29
-0.66563 -4.17852 2.07338 15 14 14
-0.66680 -4.16942 2.09004 19 14 15
-0.68387 -4.18007 2.07463 13 16 8
1.94515 -3.41347 1.79399 193 168 126
1.96151 -3.40854 1.77230 201 177 139
1.94403 -3.41681 1.77475 205 173 153
1.92655 -3.42508 1.77720 209 184 179
1.24802 -2.89635 1.73518 224 209 217
1.26295 -2.88929 1.73309 208 192 186
1.24898 -2.89350 1.75162 193 163 157
1.23525 -2.90540 1.73753 248 240 235
1.21935 -2.91532 1.72319 254 254 254
1.21978 -2.91198 1.73957 254 253 243
1.20389 -2.92189 1.72522 254 254 254
1.20062 -2.91510 1.74115 254 254 250
1.18475 -2.92500 1.72683 254 254 254
1.16064 -2.91962 1.74410 254 254 248
1.15969 -2.92246 1.72773 254 254 254
1.14260 -2.92364 1.74580 244 244 214
1.11927 -2.92256 1.74683 207 193 145
1.15966 -2.98280 1.75584 155 136 111
1.13897 -2.98447 1.75724 144 132 122
1.12549 -2.99311 1.75955 151 140 132
1.11141 -2.99735 1.77822 162 149 138
1.10886 -2.99867 1.76146 156 147 140
1.09479 -3.00291 1.78012 164 149 138
1.09382 -3.00578 1.76357 160 149 141
1.15008 -3.27097 1.80963 160 146 138
1.16498 -3.26648 1.78988 160 146 129
1.14906 -3.27401 1.79211 159 145 135
1.13255 -3.27679 1.81164 126 117 119
1.12359 -3.29171 1.81487 64 68 72
1.10721 -3.29879 1.81705 72 74 81
1.09759 -3.31315 1.82021 122 117 119
1.08915 -3.32888 1.82356 152 140 125
1.07417 -3.33340 1.84343 162 148 131
1.07314 -3.33645 1.82581 158 147 131
1.07212 -3.33951 1.80819 149 139 133
-0.11985 -4.33929 2.07428 176 168 154
-0.10363 -4.33440 2.05278 175 167 156
-0.12096 -4.34260 2.05521 177 167 159
-0.13829 -4.35079 2.05764 178 167 162
-0.13958 -4.34230 2.07588 177 166 147
-0.15800 -4.35379 2.05925 178 168 164
-0.16344 -4.33617 2.07601 175 161 139
-0.18672 -4.33106 2.07629 170 158 133
-0.21376 -4.31730 2.07517 166 155 133
-0.23126 -4.32457 2.07744 166 156 139
-0.24948 -4.33595 2.06100 182 172 164
-0.54030 -4.15808 2.06298 182 172 155
-0.54134 -4.16117 2.04517 184 174 163
-0.55724 -4.16380 2.06493 183 169 138
-0.57778 -4.16008 2.06533 141 122 115
-0.59717 -4.15916 2.06618 98 78 64
-0.61360 -4.16591 2.06830 49 36 39
-0.63059 -4.17114 2.07016 22 15 29
-0.64772 -4.18183 2.05471 15 14 19
-1.17310 -3.51281 1.97708 102 108 128
-1.18756 -3.51524 1.97829 145 149 157
-1.20003 -3.51899 1.99482 180 166 150
-1.20089 -3.52154 1.98016 170 169 160
1.25911 -2.86895 1.71261 241 236 229
1.27396 -2.86192 1.71052 213 205 206
1.24330 -2.87881 1.69834 254 254 254
1.24705 -2.87853 1.71500 253 251 239
1.23123 -2.88840 1.70072 254 254 254
1.23251 -2.88586 1.71712 254 254 249
1.21669 -2.89573 1.70284 254 254 254
1.21776 -2.89300 1.71922 254 254 254
1.20194 -2.90287 1.70494 254 254 254
1.14068 -2.92556 1.72933 254 254 247
1.11856 -2.92562 1.73054 244 242 214
1.09884 -2.92790 1.73203 192 180 153
1.12982 -2.97939 1.73969 136 119 121
1.11770 -2.98930 1.74215 134 121 127
1.10557 -2.99925 1.74461 145 137 135
1.08958 -3.00923 1.73018 140 134 125
1.09713 -3.01288 1.74755 152 145 133
1.08303 -3.01713 1.76623 164 149 138
1.08207 -3.02000 1.74966 158 146 136
1.13036 -3.27859 1.79396 156 142 115
1.14525 -3.27411 1.77423 158 145 133
1.12485 -3.29719 1.79764 103 96 67
1.11286 -3.30899 1.80043 45 47 43
1.08381 -3.30243 1.80083 101 102 99
1.09066 -3.33470 1.80631 136 126 128
1.07362 -3.34533 1.79093 144 129 132
-0.18862 -4.33258 2.05707 178 168 161
-0.17252 -4.32773 2.03573 178 169 167
-0.18972 -4.33587 2.03814 177 169 169
-0.20693 -4.34400 2.04055 177 169 168
-0.21406 -4.32235 2.05660 178 169 158
-0.23230 -4.33372 2.04014 179 169 167
-0.50497 -4.15585 2.04222 149 118 111
-0.52241 -4.16042 2.04400 174 166 167
-0.55664 -4.17109 2.04780 187 177 147
-0.57344 -4.17718 2.04982 132 111 101
-0.59199 -4.17860 2.05109 95 76 63
-0.61024 -4.18068 2.05246 42 28 30
-0.62664 -4.18766 2.05462 17 13 22
-0.64381 -4.19838 2.03912 16 15 15
-1.20962 -3.44477 1.95153 59 72 103
1.28796 -2.83758 1.68849 229 214 213
1.30276 -2.83058 1.68642 215 196 178
1.27222 -2.84740 1.67429 254 254 254
1.27455 -2.84581 1.69071 249 243 237
1.25880 -2.85564 1.67650 254 254 254
1.25616 -2.84958 1.69241 254 253 245
1.24043 -2.85940 1.67822 254 254 254
1.24394 -2.85890 1.69476 254 254 253
1.22819 -2.86872 1.68055 254 254 254
1.15606 -2.92276 1.71106 252 254 254
1.17092 -2.91573 1.70897 254 254 254
1.13707 -2.92586 1.71267 247 253 253
1.11949 -2.93025 1.71444 244 245 242
1.10118 -2.93391 1.71612 224 217 198
1.12098 -2.97459 1.72225 136 124 135
1.10872 -2.98432 1.72467 116 104 115
1.09586 -2.99350 1.72703 130 121 125
1.10826 -3.04998 1.73639 148 139 131
1.09405 -3.05426 1.75523 163 149 138
1.11299 -3.07717 1.74097 154 144 129
1.09870 -3.08147 1.75991 163 152 142
1.13378 -3.28633 1.77705 160 147 122
1.14869 -3.28184 1.75728 159 147 139
1.13276 -3.28938 1.75952 161 146 131
1.11918 -3.29528 1.77946 138 123 92
1.11547 -3.31594 1.78335 44 33 45
1.09221 -3.31565 1.78460 95 93 93
1.09432 -3.34285 1.78932 132 125 130
1.07725 -3.35350 1.77392 148 131 128
-0.49081 -4.19692 2.03028 136 78 59
-0.52322 -4.16412 2.02625 168 157 162
-0.54047 -4.17488 2.01069 181 175 177
-0.54113 -4.16745 2.02785 181 174 170
-0.55732 -4.17511 2.03012 187 178 155
-0.57447 -4.18028 2.03201 127 108 100
-0.58998 -4.18973 2.03456 98 80 68
-0.60647 -4.19660 2.03671 46 33 28
-0.62275 -4.20402 2.03894 20 16 14
-0.63998 -4.21477 2.02339 17 16 17
1.31410 -2.80429 1.66434 215 205 212
1.32977 -2.79452 1.67848 198 177 155
1.32882 -2.79733 1.66228 209 183 182
1.31504 -2.80148 1.68055 199 178 161
1.30031 -2.80844 1.68261 213 194 167
1.29027 -2.80325 1.66553 244 239 234
1.27464 -2.81300 1.65143 254 254 254
1.28734 -2.82060 1.66873 253 252 238
1.27165 -2.83038 1.65458 254 254 254
1.27775 -2.83216 1.67130 254 254 249
1.26205 -2.84196 1.65713 254 254 254
1.17262 -2.90010 1.68924 250 254 254
1.18744 -2.89310 1.68716 254 254 254
1.17357 -2.89727 1.70554 254 254 254
1.16220 -2.91125 1.69178 246 251 252
1.14633 -2.91728 1.69375 238 237 243
1.11705 -2.91049 1.69425 218 224 231
1.10669 -2.92170 1.69681 207 211 222
1.09243 -2.92920 1.69894 200 194 195
1.11543 -2.97298 1.70526 146 144 139
1.10351 -2.98302 1.70770 112 101 96
1.08759 -2.99296 1.69333 116 108 101
1.09108 -2.99260 1.71009 119 111 111
1.09699 -3.02041 1.71461 129 119 117
1.10774 -3.05334 1.71974 138 130 123
1.11481 -3.08290 1.72449 145 136 121
1.12912 -3.12008 1.73016 151 139 126
1.14282 -3.15704 1.73583 155 142 130
1.12827 -3.16142 1.75511 163 148 134
1.14577 -3.18336 1.74025 157 145 136
1.13114 -3.18776 1.75964 167 148 138
1.16060 -3.22221 1.74618 158 143 141
1.14585 -3.22665 1.76574 162 146 132
1.16164 -3.24713 1.75047 156 143 131
1.14681 -3.25159 1.77013 157 145 132
1.14579 -3.25462 1.75269 156 142 134
1.12172 -3.30212 1.76238 158 142 114
1.13665 -3.29763 1.74259 159 147 136
1.10393 -3.33248 1.76871 78 68 77
1.09813 -3.35119 1.77231 135 135 129
1.08104 -3.36185 1.75688 156 143 129
-0.50704 -4.16205 2.00652 152 114 95
-0.52348 -4.16916 2.00871 172 162 166
-0.54074 -4.17993 1.99313 183 175 175
-0.55780 -4.17964 2.01252 187 178 161
-0.57228 -4.19182 2.01548 128 108 103
-0.59008 -4.19530 2.01712 103 84 66
-0.60227 -4.21368 2.02103 48 40 25
-0.61893 -4.22025 2.02314 21 19 13
-0.63620 -4.23103 2.00754 16 16 19
1.49868 -2.67445 1.61442 65 51 53
1.51420 -2.66476 1.62843 68 54 56
1.51327 -2.66755 1.61237 65 53 51
1.49961 -2.67166 1.63048 69 54 56
1.49774 -2.67724 1.59836 58 41 45
1.48502 -2.67856 1.63252 63 55 54
1.47368 -2.67300 1.61565 58 47 51
1.45913 -2.67988 1.61770 54 41 46
1.27477 -2.73457 1.63799 231 220 224
1.29015 -2.72497 1.65187 197 180 146
1.28923 -2.72773 1.63597 210 200 187
1.27570 -2.73181 1.65390 207 175 154
1.25939 -2.74416 1.62411 254 254 254
1.31231 -2.78660 1.64468 250 247 237
1.29670 -2.79633 1.63060 254 254 254
1.30704 -2.80175 1.64758 254 254 247
1.29139 -2.81151 1.63347 254 254 254
1.28302 -2.80051 1.64879 254 254 254
1.26742 -2.81024 1.63471 254 254 254
1.17974 -2.86896 1.66664 248 253 254
1.19541 -2.85919 1.68078 254 254 254
1.19446 -2.86200 1.66457 252 254 254
1.18068 -2.86615 1.68284 254 254 254
1.16787 -2.87858 1.66899 245 246 251
1.14234 -2.89623 1.67353 213 224 231
1.12664 -2.90602 1.65936 182 190 203
1.12898 -2.90452 1.67574 204 204 219
1.11327 -2.91432 1.66157 186 191 203
1.12250 -2.91942 1.67867 189 189 203
1.10676 -2.92924 1.66447 186 193 209
1.10367 -2.92252 1.68032 180 185 203
1.09215 -2.93267 1.68274 183 189 196
1.10147 -2.96316 1.68741 167 167 158
1.10272 -2.98604 1.69125 120 106 98
1.09405 -3.02133 1.69781 121 110 112
1.09309 -3.02420 1.68124 118 109 111
1.07803 -3.03132 1.68335 122 110 111
1.09884 -3.04830 1.70214 128 119 116
1.14241 -3.13750 1.71483 140 130 120
1.15077 -3.16914 1.71975 144 134 121
1.15730 -3.19922 1.72452 139 126 128
1.17213 -3.23818 1.73031 119 105 126
1.16470 -3.25439 1.73352 138 129 132
1.15998 -3.27356 1.73708 151 138 138
1.14406 -3.28109 1.73932 157 147 143
1.12661 -3.31149 1.74556 161 149 126
1.14157 -3.30699 1.72573 156 149 136
1.11661 -3.32548 1.74855 114 100 79
1.10618 -3.33909 1.75149 50 42 49
1.09983 -3.35723 1.75498 130 138 128
0.34454 -4.75648 2.03934 98 100 107
0.36498 -4.74372 2.05779 21 30 55
0.36375 -4.74739 2.03665 24 31 59
0.34577 -4.75281 2.06049 106 119 118
0.32656 -4.76189 2.06318 161 160 148
0.33510 -4.78456 2.04471 161 160 148
0.31705 -4.78999 2.06864 162 151 138
0.31581 -4.79368 2.04742 163 152 139
0.31458 -4.79736 2.02619 162 153 141
-0.52629 -4.16779 1.99020 179 171 171
-0.54353 -4.17854 1.97464 181 173 169
-0.55846 -4.18372 1.99483 188 179 162
-0.57482 -4.19099 1.99705 134 113 106
-0.58955 -4.20255 1.99990 105 86 65
-0.60016 -4.22522 2.00441 48 43 25
-0.61704 -4.23127 2.00645 19 21 14
-0.63435 -4.24207 1.99083 14 16 15
1.51082 -2.66914 1.59621 58 46 49
1.52634 -2.65945 1.61021 66 53 53
1.52447 -2.66503 1.57811 50 41 48
1.47275 -2.67578 1.59964 57 38 43
1.46642 -2.68930 1.60230 75 50 49
1.45277 -2.69341 1.62039 53 39 47
1.44156 -2.68784 1.60357 94 72 69
1.42794 -2.69194 1.62161 67 48 46
1.40606 -2.67757 1.60400 125 113 102
1.39253 -2.68164 1.62195 93 62 60
1.39702 -2.68887 1.60645 176 151 125
1.38254 -2.69571 1.60848 201 181 146
1.38990 -2.77855 1.62193 220 210 212
1.40559 -2.76876 1.63609 203 182 148
1.40464 -2.77158 1.61987 212 191 183
1.39084 -2.77573 1.63816 207 186 148
1.37610 -2.78270 1.64022 214 198 159
1.33231 -2.74891 1.62047 247 241 231
1.31680 -2.75858 1.60648 254 254 254
1.33320 -2.76909 1.62380 254 252 240
1.31763 -2.77880 1.60975 254 254 254
1.31724 -2.77486 1.62574 254 254 252
1.30167 -2.78457 1.61170 254 254 254
1.18325 -2.81476 1.64060 250 254 254
1.19874 -2.80510 1.65458 254 254 254
1.19781 -2.80788 1.63856 254 254 254
1.18418 -2.81198 1.65662 254 254 254
