ply
format ascii 1.0
element face 0
property list uchar int vertex_indices
element vertex 1306
property float x
property float y
property float z
property uchar diffuse_red
property uchar diffuse_green
property uchar diffuse_blue
end_header
-3.01464 -3.12535 1.23619 243 224 214
-3.01302 -3.12545 1.22538 244 228 212
-3.03402 -3.12872 1.22268 215 202 196
-3.03862 -3.15065 1.22748 173 151 150
-3.04782 -3.15154 1.21497 142 123 107
-3.04705 -3.15982 1.22840 147 121 118
-3.05628 -3.16072 1.21585 146 126 108
-3.09007 -3.20598 1.23291 139 126 102
-3.07905 -3.20518 1.23456 141 124 99
-3.09757 -3.22012 1.23524 119 106 86
-3.09982 -3.25479 1.24368 78 69 62
-3.10932 -3.25572 1.23074 46 41 54
-3.11067 -3.25696 1.24241 52 42 55
-3.12018 -3.25789 1.22947 47 44 49
-3.42757 -4.11221 1.40656 31 27 19
-3.41119 -4.11131 1.39437 22 21 9
-3.44162 -4.11480 1.40486 55 47 24
-3.45503 -4.12333 1.40477 74 62 31
-3.46714 -4.12451 1.38830 73 63 48
-3.59234 -4.01748 1.35482 65 53 42
-3.57641 -4.01660 1.34296 67 54 26
-3.59025 -4.01761 1.34089 64 54 24
-3.60409 -4.01863 1.33883 68 55 33
-3.62114 -4.00353 1.34643 73 63 52
-3.63566 -3.99340 1.34142 82 70 64
-3.65000 -3.98498 1.33687 94 82 72
-3.66395 -3.98187 1.33374 104 90 61
-3.67801 -3.97628 1.32996 107 89 57
-3.69201 -3.97084 1.32623 114 97 64
-3.70771 -3.97171 1.33791 129 105 71
-3.70596 -3.96540 1.32250 122 102 71
-3.72164 -3.96627 1.33417 129 106 79
-3.71958 -3.96640 1.32047 126 107 74
-3.71753 -3.96653 1.30677 125 107 67
-3.78864 -3.93517 1.30093 116 98 66
-3.77718 -3.93406 1.31652 131 112 82
-3.77515 -3.93419 1.30295 133 112 79
-3.77311 -3.93432 1.28938 127 109 78
-3.81562 -3.93666 1.29678 95 85 78
-3.82906 -3.94073 1.29556 125 117 91
-3.84052 -3.94185 1.27997 136 126 98
-4.06536 -4.43081 1.38044 131 128 92
-4.05244 -4.42955 1.39802 141 132 103
-4.05014 -4.42970 1.38271 138 132 101
-4.06766 -4.43067 1.39575 139 133 107
-4.08288 -4.43178 1.39347 134 128 107
-4.70233 -6.23020 1.73080 153 143 130
-4.72698 -6.25353 1.73259 161 161 155
-4.76269 -6.35300 1.75188 185 193 192
-2.52865 -3.26128 1.32948 94 81 100
-2.51557 -3.26056 1.31974 77 64 74
-2.52694 -3.26139 1.31805 80 65 81
-2.53831 -3.26222 1.31635 83 71 87
-2.54348 -3.25434 1.32526 105 90 107
-2.55311 -3.25528 1.31216 87 75 89
-2.55373 -3.25765 1.32437 113 101 117
-2.57104 -3.24484 1.31826 122 112 128
-2.58555 -3.23827 1.31418 141 123 133
-2.59912 -3.23375 1.31078 157 135 134
-2.61189 -3.23099 1.30794 169 148 136
-2.62609 -3.22479 1.30401 180 157 143
-2.64228 -3.21369 1.29852 188 167 147
-2.65513 -3.21440 1.30808 210 178 145
-2.65529 -3.21007 1.29543 196 171 148
-2.66812 -3.21078 1.30498 212 178 144
-2.66940 -3.20365 1.29146 202 175 146
-2.68220 -3.20436 1.30099 212 178 148
-2.68259 -3.19938 1.28817 206 177 149
-2.69537 -3.20008 1.29769 212 177 153
-2.69370 -3.20019 1.28652 209 178 153
-2.79662 -3.16877 1.26140 218 181 156
-2.78400 -3.16807 1.25201 214 180 150
-2.79497 -3.16888 1.25037 215 180 153
-2.80593 -3.16968 1.24873 215 180 148
-2.81033 -3.16211 1.25743 219 184 155
-2.81961 -3.16301 1.24480 215 180 148
-2.82066 -3.16456 1.25631 221 187 162
-2.83303 -3.16140 1.25345 222 190 171
-2.86055 -3.14689 1.24520 225 200 185
-2.86978 -3.14779 1.23265 219 189 172
-2.87534 -3.13644 1.24011 229 205 190
-2.88453 -3.13734 1.22760 221 194 172
-2.90546 -3.11315 1.22922 237 213 192
-2.90708 -3.11305 1.24002 242 217 198
-2.91781 -3.11384 1.23841 240 217 203
-3.00496 -3.11069 1.21193 243 229 213
-2.99588 -3.10981 1.22428 242 222 206
-2.99427 -3.10991 1.21352 244 225 212
-3.00658 -3.11059 1.22268 242 223 207
-3.01373 -3.11784 1.21225 230 221 204
-3.01988 -3.13392 1.21524 196 181 177
-3.02649 -3.14883 1.21787 161 139 145
-3.03568 -3.14973 1.20536 142 124 110
-3.03549 -3.15591 1.21813 144 120 117
-3.04470 -3.15681 1.20560 144 127 110
-3.07925 -3.19842 1.22144 134 123 103
-3.06826 -3.19762 1.22308 140 127 103
-3.08637 -3.21365 1.22406 104 100 85
-3.08809 -3.24970 1.23280 63 62 51
-3.09758 -3.25063 1.21988 47 41 53
-3.09802 -3.25530 1.23253 47 39 55
-3.10753 -3.25623 1.21960 48 45 51
-3.42430 -4.12181 1.39480 28 27 17
-3.40788 -4.12090 1.38259 29 22 16
-3.43804 -4.12744 1.39391 52 46 26
-3.45092 -4.14104 1.39516 68 62 39
-3.46309 -4.14223 1.37861 78 58 43
-3.63325 -3.99856 1.32891 77 58 52
-3.64494 -3.99970 1.31302 87 65 48
-3.64741 -3.99333 1.32523 84 64 59
-3.65907 -3.99447 1.30936 87 66 45
-3.66144 -3.98941 1.32190 84 68 56
-3.67309 -3.99055 1.30605 82 63 36
-3.67547 -3.98483 1.31840 83 65 51
-3.68964 -3.97679 1.31401 96 79 62
-3.70354 -3.97315 1.31077 115 97 64
-3.71512 -3.97429 1.29500 123 104 65
-3.78638 -3.94367 1.28950 122 98 66
-3.77082 -3.94281 1.27792 129 104 84
-3.79972 -3.95216 1.28939 83 60 42
-3.81339 -3.94692 1.28578 93 82 58
-3.82682 -3.95375 1.28524 124 117 88
-3.83832 -3.95487 1.26960 136 127 98
-4.04701 -4.40818 1.36212 126 123 96
-4.03415 -4.40693 1.37961 142 131 101
-4.03187 -4.40708 1.36438 137 131 101
-4.05986 -4.40944 1.34463 115 101 91
-4.06300 -4.42940 1.36475 115 108 89
-4.07592 -4.43066 1.34718 123 116 90
-4.07883 -4.44403 1.36576 117 105 93
-4.09179 -4.44529 1.34813 134 123 95
-4.67428 -6.20466 1.70679 150 136 129
-4.65601 -6.20288 1.73164 159 142 118
-4.65277 -6.20309 1.71000 155 143 122
-4.69663 -6.21241 1.70498 143 133 134
-4.72339 -6.25147 1.71027 159 160 162
-4.76063 -6.36205 1.73172 188 196 195
-4.77937 -6.36387 1.70623 204 212 212
-4.78402 -6.37269 1.73046 203 209 207
-4.80611 -6.37431 1.72716 203 208 209
-4.80278 -6.37453 1.70494 203 210 209
-2.57537 -3.25793 1.30909 99 83 102
-2.58500 -3.25887 1.29598 85 71 75
-2.58744 -3.25708 1.30686 111 95 111
-2.59707 -3.25802 1.29376 90 76 79
-2.61418 -3.24911 1.30041 130 116 127
-2.65171 -3.21475 1.28566 161 139 146
-2.66719 -3.20507 1.28068 173 151 147
-2.68217 -3.19642 1.27604 182 162 147
-2.69434 -3.19454 1.27354 193 168 151
-2.70710 -3.19524 1.28303 211 178 154
-2.70685 -3.19179 1.27077 200 172 151
-2.71958 -3.19250 1.28025 211 180 151
-2.83183 -3.16024 1.24207 215 180 152
-2.81927 -3.15955 1.23272 214 181 150
-2.83019 -3.16035 1.23109 213 180 151
-2.84111 -3.16115 1.22945 213 180 152
-2.85938 -3.14567 1.23387 216 185 166
-2.86860 -3.14657 1.22132 214 180 153
-2.91603 -3.10972 1.21552 229 207 187
-2.92762 -3.10789 1.21313 234 210 196
-2.93994 -3.10858 1.22230 240 220 206
-2.93990 -3.10389 1.21008 236 212 198
-2.95220 -3.10457 1.21924 241 221 208
-2.95096 -3.10354 1.20815 238 215 203
-2.96326 -3.10422 1.21730 243 222 205
-2.96183 -3.10374 1.20638 242 220 205
-2.97412 -3.10442 1.21553 243 224 205
-2.97251 -3.10452 1.20478 243 223 205
-2.99405 -3.10553 1.20143 241 228 216
-2.98498 -3.10464 1.21376 244 225 209
-2.98337 -3.10475 1.20302 245 225 210
-3.00373 -3.10956 1.20080 219 207 202
-3.01214 -3.11787 1.20144 183 162 158
-3.02124 -3.11876 1.18906 142 120 99
-3.01732 -3.13715 1.20533 152 130 121
-3.02648 -3.13804 1.19287 145 124 102
-3.02463 -3.14969 1.20720 140 119 109
-3.03383 -3.15058 1.19469 145 127 108
-3.05951 -3.18299 1.20957 144 128 108
-3.04857 -3.18218 1.21121 148 127 108
-3.06116 -3.18288 1.22058 144 127 108
-3.06809 -3.19235 1.21045 128 116 103
-3.06929 -3.22897 1.21928 95 80 81
-3.07872 -3.22989 1.20645 46 38 43
-3.07592 -3.24641 1.22247 62 51 51
-3.08541 -3.24733 1.20957 49 43 42
-3.08585 -3.25192 1.22217 47 40 38
-3.09534 -3.25284 1.20924 48 47 49
-3.42115 -4.13035 1.38270 35 26 21
-3.40469 -4.12944 1.37045 26 25 27
-3.43479 -4.13699 1.38205 56 44 27
-3.44695 -4.13817 1.36551 72 61 33
-3.44801 -4.14788 1.38252 74 58 35
-3.46020 -4.14907 1.36595 76 59 38
-3.55931 -4.02929 1.33465 79 65 37
-3.54542 -4.02827 1.33672 77 63 39
-3.54332 -4.02841 1.32275 81 66 46
-3.56141 -4.02916 1.34862 64 53 27
-3.55721 -4.02943 1.32068 85 74 45
-3.57372 -4.02401 1.33093 82 65 38
-3.58807 -4.01886 1.32726 83 64 39
-3.60257 -4.01120 1.32295 83 60 38
-3.61681 -4.00623 1.31934 79 59 39
-3.63106 -4.00046 1.31553 81 58 49
-3.68714 -3.98534 1.30241 86 71 56
-3.70104 -3.98211 1.29929 114 95 59
-3.71266 -3.98325 1.28349 125 105 68
-3.78420 -3.94879 1.27716 124 95 71
-3.76862 -3.94793 1.26556 132 104 79
-3.79764 -3.95402 1.27619 83 56 40
-3.81122 -3.95361 1.27382 90 79 48
-3.82469 -3.95938 1.27299 123 116 85
-4.01299 -4.35929 1.34010 136 131 104
-4.00028 -4.35805 1.35740 139 131 103
-3.99802 -4.35819 1.34234 139 132 98
-4.01525 -4.35914 1.35516 140 132 102
-4.02857 -4.37790 1.34209 127 124 108
-4.04134 -4.37915 1.32472 111 91 92
-4.04431 -4.39764 1.34432 116 103 96
-4.05714 -4.39889 1.32688 123 115 91
-4.64364 -6.15736 1.67801 141 134 105
-4.62551 -6.15559 1.70267 154 141 114
-4.62229 -6.15579 1.68120 151 141 107
-4.66734 -6.17676 1.67883 125 118 111
-4.69165 -6.19977 1.68044 125 122 126
-4.72483 -6.28565 1.69607 156 163 169
-4.75871 -6.37217 1.71173 190 201 203
-2.63299 -3.22806 1.28048 101 90 105
-2.62007 -3.22734 1.27087 84 73 77
-2.63129 -3.22816 1.26919 84 74 84
-2.64251 -3.22899 1.26752 86 75 85
-2.65351 -3.23436 1.27858 125 108 118
-2.66895 -3.22486 1.27369 137 123 121
-2.69357 -3.19241 1.26170 153 134 134
-2.70220 -3.19934 1.26194 167 145 139
-2.71928 -3.18504 1.25561 179 155 146
-2.73040 -3.18564 1.25390 189 166 152
-2.74311 -3.18635 1.26336 210 181 154
-2.73977 -3.18656 1.24115 155 142 143
-2.74302 -3.18237 1.25100 194 173 156
-2.75571 -3.18307 1.26044 211 180 153
-2.75610 -3.17782 1.24771 201 176 159
-2.76877 -3.17852 1.25713 212 180 149
-2.76711 -3.17863 1.24606 206 178 156
-2.89871 -3.12365 1.21072 216 184 160
-2.88631 -3.12296 1.20150 213 179 142
-2.89708 -3.12375 1.19989 215 177 149
-2.90785 -3.12454 1.19828 214 178 153
-2.91212 -3.11663 1.20678 218 188 169
-2.92497 -3.11108 1.20328 221 193 173
-2.93665 -3.10895 1.20081 223 197 176
-2.96009 -3.10424 1.19575 231 208 197
-2.97064 -3.10543 1.19428 234 213 200
-2.98218 -3.10351 1.19188 233 214 207
-2.99118 -3.10967 1.19188 209 193 195
-3.00061 -3.11455 1.19148 170 147 156
-3.00971 -3.11544 1.17911 140 121 107
-3.00617 -3.13230 1.19487 145 118 115
-3.01532 -3.13319 1.18242 144 126 107
-3.04868 -3.17609 1.19840 142 127 111
-3.03776 -3.17529 1.20003 145 127 112
-3.05690 -3.18649 1.19955 121 109 100
-3.05741 -3.22499 1.20882 85 72 80
-3.06683 -3.22591 1.19600 44 41 48
-3.06488 -3.23905 1.21098 51 43 53
-3.07435 -3.23997 1.19811 49 44 51
-3.41784 -4.14010 1.37084 35 31 30
-3.40135 -4.13918 1.35857 29 27 20
-3.43131 -4.14855 1.37064 56 48 31
-3.57091 -4.03276 1.31920 89 80 48
-3.55492 -4.03188 1.30729 84 71 38
-3.56881 -4.03289 1.30522 89 76 53
-3.58271 -4.03391 1.30314 96 80 60
-3.58522 -4.02864 1.31581 94 80 51
-3.59945 -4.02495 1.31253 98 83 44
-3.61372 -4.02032 1.30902 103 83 49
-3.62805 -4.01418 1.30514 101 79 57
-3.64237 -4.00744 1.30111 101 82 54
-3.65668 -3.99984 1.29687 98 72 54
-3.67095 -3.99186 1.29255 89 67 55
-3.68479 -3.99066 1.28994 93 74 63
-3.69846 -3.99270 1.28816 117 97 61
-3.71010 -3.99383 1.27231 128 108 71
-3.78201 -3.95433 1.26488 123 97 66
-3.76640 -3.95347 1.25327 132 108 80
-3.79540 -3.96204 1.26451 80 56 31
-3.80910 -3.95730 1.26107 87 77 41
-3.82253 -3.96605 1.26095 121 115 86
-3.83407 -3.96718 1.24526 137 127 102
-3.83612 -3.96705 1.25892 137 127 102
-3.85176 -3.96791 1.27056 138 127 96
-3.84971 -3.96804 1.25689 139 129 103
-3.84766 -3.96817 1.24323 138 128 98
-4.01053 -4.35279 1.32347 121 118 81
-4.02608 -4.37158 1.32543 107 100 83
-4.03883 -4.37283 1.30809 122 117 92
-4.61163 -6.09590 1.64638 139 134 105
-4.59368 -6.09415 1.67079 154 141 112
-4.59049 -6.09436 1.64953 154 139 110
-4.58731 -6.09456 1.62828 148 135 106
-4.63877 -6.14464 1.65368 120 115 100
-4.66343 -6.17181 1.65615 107 99 101
-4.68680 -6.18808 1.65620 119 118 122
-4.72722 -6.32689 1.68316 154 160 166
-4.75705 -6.38414 1.69208 185 192 200
-4.78001 -6.39141 1.69001 196 204 209
-4.80217 -6.39303 1.68670 197 204 207
-2.65668 -3.22265 1.26364 93 78 83
-2.64380 -3.22194 1.25405 73 63 70
-2.65499 -3.22276 1.25238 79 69 68
-2.66618 -3.22358 1.25071 84 75 70
-2.66971 -3.21896 1.26058 101 86 88
-2.67920 -3.21989 1.24767 89 77 75
-2.68895 -3.22839 1.25963 120 103 114
-2.70496 -3.21708 1.25425 132 113 122
-2.71444 -3.21800 1.24136 105 91 95
-2.76629 -3.17652 1.23433 178 161 155
-2.77895 -3.17722 1.24374 211 181 154
-2.77563 -3.17743 1.22162 142 134 136
-2.77941 -3.17170 1.23098 190 171 155
-2.79204 -3.17240 1.24039 214 182 156
-2.79392 -3.16304 1.22649 198 175 157
-2.80651 -3.16374 1.23586 214 182 153
-2.80818 -3.15485 1.22216 204 178 155
-2.81877 -3.15650 1.22078 208 181 154
-2.82968 -3.15730 1.21915 212 182 157
-2.93285 -3.11565 1.19199 214 183 154
-2.94197 -3.11654 1.17959 213 178 152
-2.94399 -3.11521 1.19002 215 185 163
-2.95310 -3.11609 1.17763 213 180 156
-2.95608 -3.11177 1.18718 217 189 174
-2.96684 -3.11241 1.18554 219 194 176
-2.97642 -3.11674 1.18498 208 183 171
-2.98811 -3.11444 1.18248 172 144 145
-2.99720 -3.11533 1.17011 144 122 102
-2.99393 -3.13109 1.18549 143 116 115
-3.00308 -3.13198 1.17305 143 126 106
-3.03818 -3.16824 1.18699 137 125 105
-3.02729 -3.16744 1.18862 145 128 103
-3.04653 -3.17796 1.18792 108 104 91
-3.04599 -3.21947 1.19794 65 65 60
-3.05540 -3.22039 1.18514 45 43 51
-3.05489 -3.22815 1.19853 48 41 56
-3.06432 -3.22907 1.18570 48 45 54
-3.41436 -4.15113 1.35925 41 30 27
-3.39783 -4.15021 1.34694 26 26 28
-3.42825 -4.15637 1.35819 58 47 36
-3.44150 -4.16740 1.35862 72 62 44
-3.45593 -4.16845 1.35646 77 61 50
-3.45375 -4.16859 1.34196 77 63 48
-3.59582 -4.04532 1.30368 103 88 59
-3.61016 -4.04074 1.30020 111 91 61
-3.62198 -4.04190 1.28412 118 99 67
-3.62461 -4.03403 1.29618 118 95 63
-3.63641 -4.03518 1.28014 122 103 65
-3.63909 -4.02601 1.29185 122 97 59
-3.65085 -4.02716 1.27584 124 103 71
-3.65342 -4.01933 1.28786 118 95 61
-3.66516 -4.02048 1.27189 125 104 75
-3.66782 -4.01031 1.28330 116 93 64
-3.67953 -4.01145 1.26737 126 105 63
-3.68197 -4.00472 1.27960 116 93 63
-3.69366 -4.00586 1.26370 130 110 66
-3.69574 -4.00561 1.27752 123 104 66
-3.70743 -4.00675 1.26162 131 109 74
-3.77972 -3.96292 1.25330 125 100 73
-3.76408 -3.96206 1.24167 135 111 83
-3.79319 -3.96866 1.25243 78 54 42
-3.80689 -3.96506 1.24928 84 73 49
-3.82029 -3.97703 1.24991 121 114 89
-3.83186 -3.97816 1.23417 138 128 100
-3.99238 -4.31550 1.30213 121 111 88
-3.97533 -4.31456 1.28944 123 119 87
-3.99015 -4.31564 1.28723 117 105 86
-4.00496 -4.31673 1.28502 119 103 83
-4.60870 -6.09821 1.62558 127 123 96
-4.58437 -6.09686 1.60747 138 126 99
-4.62665 -6.09996 1.60116 106 100 84
-4.63666 -6.15348 1.63413 112 107 85
-4.65721 -6.14907 1.62965 104 98 93
-4.68423 -6.19321 1.63570 119 119 127
-4.72555 -6.33904 1.66367 154 158 168
-4.75429 -6.38852 1.67071 181 187 193
-4.77825 -6.40256 1.67007 190 196 201
-4.80119 -6.40917 1.66782 191 197 203
-4.82676 -6.41058 1.68685 196 202 206
-4.82341 -6.41079 1.66451 192 199 204
-2.70399 -3.21539 1.24249 100 83 86
-2.69115 -3.21468 1.23293 79 68 66
-2.70231 -3.21550 1.23127 87 75 72
-2.71346 -3.21632 1.22960 89 78 77
-2.79817 -3.14734 1.21079 158 144 146
-2.78565 -3.14665 1.20147 105 98 100
-2.79653 -3.14745 1.19984 115 105 114
-2.80625 -3.15571 1.21141 173 153 146
-2.81850 -3.15285 1.20870 185 165 149
-2.84380 -3.14464 1.20255 198 173 157
-2.85630 -3.14533 1.21185 213 180 153
-2.85660 -3.13997 1.19932 204 178 155
-2.86907 -3.14066 1.20860 213 180 147
-2.86744 -3.14076 1.19770 207 182 151
-2.96393 -3.11655 1.17594 213 181 153
-2.95159 -3.11587 1.16675 214 180 154
-2.96231 -3.11665 1.16515 213 181 150
-2.97444 -3.11801 1.17453 197 164 136
-2.98344 -3.12433 1.17452 164 134 111
-3.01846 -3.15428 1.17573 142 128 107
-3.00761 -3.15348 1.17735 143 126 108
-3.02010 -3.15417 1.18664 146 126 104
-3.02684 -3.16349 1.17651 132 121 99
-3.03310 -3.18021 1.17940 102 93 79
-3.03629 -3.20812 1.18544 61 60 51
-3.04566 -3.20904 1.17268 45 44 44
-3.04493 -3.21742 1.18618 42 42 39
-3.05433 -3.21833 1.17340 48 48 51
-3.41075 -4.16319 1.34784 37 29 30
-3.39416 -4.16227 1.33550 27 22 20
-3.42472 -4.16803 1.34666 54 47 32
-3.43808 -4.17849 1.34690 70 62 38
-3.45036 -4.17969 1.33019 75 62 45
-3.57884 -4.05616 1.29466 98 79 66
-3.56275 -4.05527 1.28269 92 82 62
-3.59296 -4.05543 1.29214 104 85 67
-3.60731 -4.05116 1.28874 111 92 67
-3.77707 -3.98394 1.24465 125 98 71
-3.76134 -3.98307 1.23295 131 108 78
-3.79089 -3.97855 1.24108 78 45 32
-3.80445 -3.98353 1.24000 84 68 41
-3.81797 -3.99182 1.23969 121 115 84
-3.82959 -3.99295 1.22389 139 129 99
-4.60494 -6.09382 1.60333 116 110 92
-4.58063 -6.09247 1.58524 125 111 94
-4.62288 -6.09557 1.57893 109 99 87
-4.65252 -6.13793 1.60579 105 98 90
-4.68349 -6.21211 1.61809 121 121 124
-4.72331 -6.34710 1.64323 156 160 166
-4.74845 -6.37098 1.64466 175 181 183
-4.76721 -6.37281 1.61914 176 180 180
-4.77181 -6.38136 1.64321 178 184 186
-4.79059 -6.38319 1.61766 177 183 186
-4.79871 -6.41532 1.64673 178 187 191
-4.81760 -6.41717 1.62104 178 186 191
-4.82210 -6.42450 1.64499 183 193 197
-4.84772 -6.42592 1.66407 194 200 206
-4.84501 -6.43032 1.64254 192 199 202
-4.87066 -6.43174 1.66163 197 203 208
-4.86833 -6.43848 1.64058 196 204 205
-4.89400 -6.43990 1.65969 203 208 208
-4.89173 -6.44685 1.63866 197 205 206
-4.91743 -6.44827 1.65778 205 209 209
-4.91510 -6.45478 1.63663 196 202 204
-4.94082 -6.45620 1.65578 203 206 207
-4.93745 -6.45642 1.63329 197 202 203
-2.79427 -3.18372 1.20862 127 114 120
-2.78159 -3.18302 1.19919 94 86 78
-2.79261 -3.18383 1.19754 88 81 79
-2.81060 -3.17002 1.20273 131 117 127
-2.82432 -3.16322 1.19888 132 118 134
-2.83677 -3.15977 1.19601 144 131 140
-2.85497 -3.14005 1.18841 158 149 144
-2.86710 -3.13717 1.18573 172 162 153
-2.87956 -3.13786 1.19500 210 181 150
-2.88014 -3.13158 1.18227 188 171 161
-2.89257 -3.13227 1.19152 214 181 151
-2.89340 -3.12523 1.17859 200 177 159
-2.90670 -3.11859 1.17484 207 180 153
-2.91744 -3.11937 1.17324 209 180 154
-2.97221 -3.12002 1.16428 201 170 133
-2.95986 -3.11934 1.15509 212 185 152
-2.98067 -3.12807 1.16474 170 142 108
-2.98836 -3.13880 1.16595 147 125 97
-2.99916 -3.13959 1.16433 143 126 99
-3.00719 -3.14956 1.16531 140 126 103
-3.01909 -3.18435 1.17139 88 82 77
-3.02839 -3.18526 1.15873 40 43 50
-3.03433 -3.20926 1.17462 43 41 42
-3.04370 -3.21017 1.16187 44 50 50
-3.40757 -4.17166 1.33544 34 29 25
-3.39094 -4.17074 1.32307 29 20 13
-3.42142 -4.17773 1.33455 50 46 30
-3.43574 -4.18006 1.33271 67 59 35
-3.44802 -4.18126 1.31599 73 61 47
-3.57464 -4.08216 1.28694 107 94 70
-3.58912 -4.07791 1.28355 110 94 74
-3.60393 -4.06866 1.27894 114 97 75
-3.61920 -4.05185 1.27251 121 101 78
-3.63315 -4.05287 1.27043 126 101 73
-3.64791 -4.04088 1.26520 127 103 73
-3.66182 -4.04190 1.26312 129 105 82
-3.77496 -3.98566 1.23128 125 95 69
-3.75923 -3.98479 1.21958 131 107 75
-3.78858 -3.98870 1.22973 77 45 45
-3.80226 -3.98930 1.22759 84 73 58
-3.81554 -4.01182 1.23060 123 118 90
-3.82722 -4.01296 1.21471 140 131 105
-4.65018 -6.14485 1.58581 107 100 91
-4.62567 -6.14350 1.56757 109 102 78
-4.68270 -6.23082 1.60031 124 123 124
-4.72020 -6.34887 1.62141 156 161 162
-4.74558 -6.37447 1.62312 174 180 177
-4.76435 -6.37630 1.59759 177 182 184
-4.84153 -6.42975 1.61997 180 189 194
-4.81589 -6.42834 1.60089 179 183 187
-4.83817 -6.42997 1.59756 177 180 185
-4.86045 -6.43160 1.59424 175 178 184
-4.86484 -6.43788 1.61798 184 192 195
-4.88377 -6.43973 1.59222 172 178 187
-4.88786 -6.44396 1.61556 184 189 194
-4.90681 -6.44581 1.58978 177 183 192
-4.91098 -6.45049 1.61323 183 187 196
-4.93396 -6.45590 1.61066 188 193 200
-4.95968 -6.45732 1.62980 197 203 206
-4.95631 -6.45754 1.60732 195 198 203
-4.95293 -6.45775 1.58484 195 200 203
-2.82902 -3.14585 1.18285 51 40 80
-2.84007 -3.14613 1.18108 57 55 83
-2.84962 -3.15062 1.18051 72 77 95
-2.86207 -3.14693 1.17761 93 93 115
-2.88996 -3.13060 1.16926 148 135 144
-2.90510 -3.11862 1.16401 164 150 147
-2.91800 -3.11301 1.16059 179 163 153
-2.93034 -3.11369 1.16978 211 180 155
-2.92930 -3.11205 1.15850 193 172 152
-2.94163 -3.11273 1.16768 213 180 153
-2.94984 -3.11637 1.15607 208 183 155
-2.96939 -3.12391 1.15455 204 179 139
-2.97820 -3.13088 1.15467 176 153 115
-2.98546 -3.14302 1.15623 151 129 96
-2.99502 -3.14790 1.15576 139 124 92
-3.00383 -3.15538 1.15600 115 108 81
-3.00605 -3.18509 1.16240 74 72 63
-3.01536 -3.18600 1.14974 43 44 49
-3.01438 -3.19483 1.16324 46 47 54
-3.02372 -3.19574 1.15054 45 47 45
-3.40401 -4.18304 1.32370 35 27 21
-3.38734 -4.18212 1.31130 22 20 17
-3.41752 -4.19236 1.32358 51 44 29
-3.43104 -4.20218 1.32358 66 58 37
-3.44339 -4.20338 1.30677 72 60 45
-3.53786 -4.15356 1.29477 80 70 50
-3.52568 -4.15237 1.31134 81 70 43
-3.52351 -4.15251 1.29691 79 63 38
-3.52135 -4.15265 1.28249 80 61 50
-3.54002 -4.15342 1.30920 82 72 49
-3.55653 -4.10375 1.28032 95 96 89
-3.57075 -4.10396 1.27801 116 117 100
-3.58277 -4.10513 1.26166 114 112 111
-3.58540 -4.09861 1.27436 117 108 97
-3.59740 -4.09978 1.25804 118 119 112
-3.59987 -4.09508 1.27115 119 116 98
-3.61548 -4.07480 1.26394 124 116 94
-3.63014 -4.06649 1.25961 131 110 95
-3.64456 -4.06096 1.25596 138 119 97
-3.65901 -4.05408 1.25200 138 115 93
-3.67506 -4.05497 1.26395 129 107 73
-3.67295 -4.05510 1.24991 135 109 79
-3.77253 -3.99804 1.22039 126 95 70
-3.78627 -3.99791 1.21807 81 47 50
-3.80008 -3.99475 1.21506 88 78 61
-3.81327 -4.02224 1.21914 124 121 93
-3.82498 -4.02339 1.20321 143 134 120
-3.89629 -4.12805 1.22946 128 122 97
-3.88427 -4.12687 1.24581 141 130 100
-3.88214 -4.12701 1.23158 132 126 95
-3.89843 -4.12791 1.24370 140 129 98
-3.91258 -4.12895 1.24159 142 128 102
-3.91045 -4.12908 1.22735 134 126 98
-4.64964 -6.16584 1.56868 111 105 90
-4.68510 -6.27378 1.58738 133 135 132
-4.71868 -6.36233 1.60199 159 167 169
-4.74205 -6.37327 1.60060 172 179 181
-4.76081 -6.37511 1.57507 177 182 187
-4.92833 -6.44268 1.58549 186 192 198
-4.90266 -6.44126 1.56639 183 188 190
-4.92496 -6.44289 1.56306 186 190 193
-2.83183 -3.13371 1.16844 12 6 27
-2.81938 -3.13303 1.15917 15 7 21
-2.83020 -3.13382 1.15755 14 7 14
-2.84102 -3.13461 1.15594 13 7 13
-2.83831 -3.14656 1.17024 8 9 28
-2.84754 -3.14746 1.15769 10 8 17
-2.85176 -3.14010 1.16657 10 16 37
-2.86307 -3.13956 1.16457 24 25 55
-2.88680 -3.13514 1.15965 59 57 84
-2.89904 -3.13175 1.15686 80 80 102
-2.91091 -3.12935 1.15436 104 98 113
-2.92428 -3.12236 1.15057 130 121 126
-2.93646 -3.11883 1.14776 152 144 140
-2.94781 -3.11774 1.14564 169 158 149
-2.95773 -3.12102 1.14473 186 170 150
-2.96714 -3.12600 1.14429 192 174 139
-2.97690 -3.12997 1.14356 175 158 118
-2.98206 -3.14882 1.14693 144 127 94
-2.98851 -3.16392 1.14924 106 98 77
-2.99405 -3.18239 1.15246 70 68 57
-3.00335 -3.18330 1.13981 49 45 53
-3.00281 -3.19053 1.15284 49 46 49
-3.01213 -3.19144 1.14015 48 47 50
-3.40077 -4.19185 1.31125 31 26 22
-3.38406 -4.19093 1.29882 26 20 26
-3.41378 -4.20557 1.31217 47 41 27
-3.42743 -4.21454 1.31192 63 55 35
-3.43982 -4.21575 1.29506 75 59 43
-3.53320 -4.18161 1.28701 86 69 61
-3.51657 -4.18069 1.27464 78 59 53
-3.55265 -4.12423 1.27093 97 97 91
-3.56736 -4.11939 1.26741 109 107 109
-3.57943 -4.12057 1.25099 109 110 114
-3.61191 -4.09550 1.25467 125 124 113
-3.59567 -4.09460 1.24259 116 112 119
-3.60978 -4.09563 1.24048 125 120 119
-3.62628 -4.09260 1.25164 135 128 118
-3.63825 -4.09377 1.23536 149 153 138
-3.63967 -4.10481 1.25216 156 145 126
-3.65556 -4.07654 1.24319 149 131 104
-3.67064 -4.05888 1.23674 139 113 80
-3.68671 -4.05977 1.24869 134 109 76
-3.68461 -4.05991 1.23465 140 114 81
-3.68250 -4.06004 1.22061 145 119 79
-3.75587 -4.02276 1.21452 133 106 79
-3.74414 -4.02162 1.23047 135 106 77
-3.74206 -4.02175 1.21658 136 105 84
-3.73997 -4.02188 1.20269 144 118 88
-3.77013 -4.00887 1.20904 129 98 64
-3.78420 -3.99818 1.20432 87 53 34
-3.79792 -3.99873 1.20217 91 78 55
-3.81099 -4.03249 1.20756 128 123 100
-3.82273 -4.03363 1.19159 144 130 116
-3.88004 -4.10048 1.21136 101 95 75
-3.86810 -4.09931 1.22759 140 131 93
-3.86598 -4.09945 1.21345 129 122 87
-3.89415 -4.12397 1.21428 93 86 83
-3.90845 -4.15396 1.21863 114 110 98
-3.92485 -4.15486 1.23083 133 123 95
-3.92270 -4.15500 1.21650 122 114 93
-3.92055 -4.15514 1.20218 124 115 79
-4.62268 -6.14551 1.54652 117 100 85
-4.60460 -6.14375 1.57112 111 100 86
-4.60138 -6.14395 1.54970 110 97 85
-4.59817 -6.14416 1.52827 110 101 85
-4.64960 -6.19081 1.55221 125 113 103
-4.68382 -6.28916 1.56857 136 139 136
-4.71337 -6.34790 1.57684 154 162 165
-4.73752 -6.36491 1.57665 169 174 181
-2.87519 -3.13209 1.14973 7 7 21
-2.88436 -3.13298 1.13725 11 8 10
-2.88881 -3.12471 1.14585 9 10 24
-2.89795 -3.12560 1.13341 10 7 13
-2.90278 -3.11613 1.14165 17 18 39
-2.91435 -3.11445 1.13937 32 28 51
-2.92216 -3.12395 1.14017 45 42 69
-2.93388 -3.12183 1.13776 64 64 90
-2.94533 -3.12046 1.13556 88 87 106
-2.95328 -3.12993 1.13633 111 108 117
-2.96117 -3.13976 1.13720 134 129 119
-2.97077 -3.14437 1.13662 134 123 107
-2.97475 -3.16718 1.14099 102 89 82
-2.98401 -3.16808 1.12839 50 46 49
-2.98172 -3.18080 1.14284 64 60 56
-2.99101 -3.18170 1.13019 51 47 51
-2.99107 -3.18686 1.14262 49 45 49
-3.00039 -3.18777 1.12995 51 49 53
-3.39653 -4.20863 1.30065 32 28 25
-3.37975 -4.20771 1.28817 24 22 12
-3.41062 -4.21375 1.29945 47 41 27
-3.42384 -4.22671 1.30012 66 55 34
-3.43627 -4.22792 1.28321 68 54 45
-3.46393 -4.26639 1.30223 73 58 44
-3.45139 -4.26517 1.31929 76 62 47
-3.44916 -4.26531 1.30443 73 57 43
-3.46616 -4.26625 1.31709 78 63 49
-3.48093 -4.26733 1.31488 78 63 54
-3.47899 -4.26463 1.29935 74 60 49
-3.49598 -4.26557 1.31199 78 61 55
-3.49375 -4.26571 1.29714 76 60 53
-3.52926 -4.20125 1.27707 85 65 59
-3.54887 -4.14334 1.26107 96 90 78
-3.56366 -4.13837 1.25752 103 107 111
-3.57579 -4.13956 1.24103 109 107 110
-3.62381 -4.09786 1.23865 136 130 125
-3.65305 -4.08316 1.23057 145 128 98
-3.66801 -4.06837 1.22484 139 114 81
-3.75326 -4.03786 1.20401 141 117 83
-3.73731 -4.03698 1.19214 148 123 91
-3.75117 -4.03799 1.19007 150 124 94
-3.76748 -4.02755 1.19939 133 105 60
-3.78213 -3.99825 1.19051 96 59 39
-3.79543 -4.01656 1.19234 99 81 78
-3.80881 -4.03705 1.19464 131 124 110
-3.82057 -4.03819 1.17865 139 126 102
-3.86392 -4.08857 1.19688 103 96 83
-3.85202 -4.08741 1.21307 139 129 97
-3.84990 -4.08755 1.19897 135 124 100
-3.84779 -4.08768 1.18487 116 106 93
-3.87793 -4.09632 1.19627 66 55 53
-3.89198 -4.10226 1.19525 76 63 64
-3.90627 -4.14737 1.20283 111 105 89
-3.91834 -4.14855 1.18640 126 121 79
-4.62272 -6.17186 1.53032 119 113 94
-4.59810 -6.17050 1.51199 112 108 91
-4.65296 -6.24269 1.54092 127 123 114
-4.68195 -6.30019 1.54879 136 139 135
-4.70814 -6.33399 1.55190 153 157 158
-4.73448 -6.36721 1.55486 168 172 176
-4.75802 -6.37916 1.55360 176 183 181
-4.78347 -6.38057 1.57254 184 187 192
-4.78014 -6.38078 1.55030 181 188 186
-2.91366 -3.11180 1.12783 7 6 15
-2.90133 -3.11112 1.11865 10 9 8
-2.91204 -3.11190 1.11705 11 9 8
-2.92276 -3.11269 1.11545 10 8 11
-2.92399 -3.11373 1.12654 7 7 21
-2.93310 -3.11461 1.11415 8 7 16
-2.93434 -3.11565 1.12525 11 11 32
-2.94344 -3.11654 1.11286 6 7 19
-2.94275 -3.12351 1.12556 19 21 46
-2.95188 -3.12440 1.11314 5 7 18
-2.94674 -3.14525 1.12961 34 36 60
-2.95593 -3.14615 1.11710 12 10 25
-2.95595 -3.15112 1.12936 49 50 68
-2.96146 -3.16885 1.13229 61 54 73
-2.97051 -3.17561 1.13226 58 47 61
-3.39318 -4.21807 1.28819 31 25 17
-3.37636 -4.21714 1.27568 23 24 10
-3.39097 -4.21821 1.27349 30 27 16
-3.40706 -4.22518 1.28744 47 39 26
-3.42021 -4.23906 1.28827 64 54 39
-3.43268 -4.24027 1.27131 61 54 30
-3.46155 -4.26801 1.28771 60 46 32
-3.44455 -4.26706 1.27506 54 46 20
-3.45932 -4.26815 1.27285 56 43 21
-3.47410 -4.26923 1.27065 62 48 28
-3.47673 -4.26510 1.28458 65 51 37
-3.48927 -4.26632 1.26752 59 50 24
-3.49427 -4.23782 1.27577 66 57 41
-3.50972 -4.23049 1.27163 69 57 47
-3.54534 -4.15923 1.25032 94 91 77
-3.56004 -4.15623 1.24724 102 106 103
-3.59003 -4.14114 1.23902 117 113 117
-3.60215 -4.14232 1.22253 129 126 126
-3.62052 -4.11503 1.22833 135 128 124
-3.63487 -4.11332 1.22559 145 143 134
-3.65028 -4.09397 1.21886 139 120 89
-3.66225 -4.09514 1.20258 128 103 73
-3.66515 -4.08150 1.21370 134 104 69
-3.67708 -4.08266 1.19748 132 109 79
-3.76496 -4.04139 1.18853 141 118 70
-3.74899 -4.04051 1.17665 143 121 92
-3.76286 -4.04153 1.17458 144 121 84
-3.77907 -4.03391 1.18458 130 103 67
-3.79082 -4.03505 1.16859 128 109 72
-3.79294 -4.03360 1.18222 126 109 84
-3.80661 -4.04266 1.18193 131 123 98
-3.81838 -4.04381 1.16591 141 125 91
-3.86179 -4.09165 1.18342 92 74 86
-3.87581 -4.09458 1.18174 89 71 70
-3.88987 -4.11861 1.18462 101 92 70
-3.90413 -4.14812 1.18866 115 110 80
-3.91620 -4.14930 1.17223 131 126 96
-4.62653 -6.22900 1.51996 121 119 104
-4.60167 -6.22763 1.50146 119 118 98
-4.65348 -6.27262 1.52496 128 126 123
-4.68031 -6.31307 1.52928 137 139 138
-4.70486 -6.33447 1.52986 149 154 153
-4.73019 -6.36047 1.53131 161 170 168
-4.75327 -6.36934 1.52942 168 179 175
-4.77631 -6.37758 1.52740 173 181 182
-4.80174 -6.37899 1.54633 183 188 189
-4.79881 -6.38193 1.52462 178 184 188
-4.82426 -6.38334 1.54356 186 190 191
-4.82092 -6.38355 1.52132 186 192 193
-2.95951 -3.16991 1.12157 29 24 40
-2.94695 -3.16922 1.11222 16 11 16
-2.95786 -3.17002 1.11059 33 25 35
-2.96811 -3.17814 1.12190 49 42 50
-2.97707 -3.18537 1.12196 57 52 54
-2.98803 -3.18617 1.12032 57 53 57
-2.98638 -3.18628 1.10929 62 58 59
-3.40396 -4.23274 1.27444 45 40 23
-3.38709 -4.23180 1.26188 31 22 19
-3.41771 -4.24164 1.27407 60 53 30
-3.43018 -4.24286 1.25710 71 57 24
-3.50725 -4.23342 1.25756 56 47 35
-3.49040 -4.23249 1.24502 65 48 31
-3.50504 -4.23356 1.24284 59 45 37
-3.52338 -4.21805 1.25163 71 59 56
-3.54211 -4.17152 1.23864 90 92 73
-3.55682 -4.16891 1.23566 102 104 107
-3.57180 -4.16261 1.23185 111 110 110
-3.58710 -4.15133 1.22692 121 122 116
-3.59926 -4.15252 1.21038 126 125 129
-3.63215 -4.12232 1.21332 146 140 122
-3.61581 -4.12142 1.20116 135 130 132
-3.64767 -4.10202 1.20644 131 117 78
-3.65966 -4.10319 1.19013 126 102 54
-3.77677 -4.04130 1.17224 133 114 80
-3.76081 -4.04042 1.16036 139 118 93
-3.77468 -4.04144 1.15829 137 116 87
-3.78855 -4.04245 1.15622 135 114 78
-3.84587 -4.06855 1.16664 105 93 87
-3.83403 -4.06740 1.18275 136 126 99
-3.83193 -4.06753 1.16872 128 118 89
-3.84377 -4.06869 1.15261 102 96 90
-3.85772 -4.06971 1.15053 103 98 92
-3.85972 -4.08446 1.16774 95 85 85
-3.87161 -4.08562 1.15157 104 99 85
-3.87368 -4.09869 1.16847 97 95 79
-3.88561 -4.09985 1.15224 104 94 74
-3.88774 -4.11571 1.16977 101 97 78
-3.89972 -4.11688 1.15347 117 104 84
-3.90197 -4.14648 1.17397 115 110 87
-3.91404 -4.14766 1.15755 131 117 96
-4.62607 -6.25191 1.50260 126 127 115
-4.62279 -6.25212 1.48080 129 128 123
-4.64448 -6.25371 1.47756 132 131 132
-4.65173 -6.28490 1.50539 131 132 130
-4.67711 -6.31406 1.50741 138 139 141
-4.70119 -6.33197 1.50725 147 150 153
-4.72459 -6.34414 1.50599 155 162 164
-4.74802 -6.35592 1.50463 161 170 173
-4.77087 -6.36329 1.50243 166 174 179
-4.78960 -6.36511 1.47696 171 173 179
-4.79368 -6.37003 1.50010 172 179 186
-4.81621 -6.37471 1.49738 181 186 191
-4.84162 -6.37612 1.51629 191 196 196
-4.83829 -6.37633 1.49409 186 192 193
-5.68392 -6.38672 1.35686 207 213 213
-5.66203 -6.38512 1.36013 210 216 216
-5.68722 -6.38651 1.37888 214 219 221
-5.68062 -6.38694 1.33485 201 204 203
-5.70581 -6.38833 1.35360 200 204 204
-5.70251 -6.38854 1.33158 195 200 200
-2.96438 -3.18488 1.11262 53 48 49
-2.97235 -3.19539 1.11351 62 59 57
-2.98169 -3.19631 1.10080 65 62 63
-3.40031 -4.24473 1.26241 45 35 21
-3.38339 -4.24380 1.24981 32 20 17
-3.41441 -4.25104 1.26141 63 52 23
-3.42691 -4.25226 1.24440 68 55 34
-3.52086 -4.22165 1.23774 64 51 55
-3.53754 -4.19893 1.23025 85 79 73
-3.55368 -4.18061 1.22376 96 96 99
-3.56894 -4.17142 1.21933 105 104 109
-3.58454 -4.15673 1.21369 116 119 117
-3.62971 -4.12712 1.20006 144 137 115
-3.64520 -4.10754 1.19342 131 116 55
-3.65721 -4.10871 1.17708 121 102 69
-4.67318 -6.30940 1.48448 137 139 140
-4.64800 -6.30801 1.46574 132 131 134
-4.66988 -6.30961 1.46247 137 139 141
-4.69752 -6.32950 1.48467 144 147 151
-4.72019 -6.33645 1.48239 152 156 161
-4.74288 -6.34319 1.48007 158 163 167
-4.76552 -6.34938 1.47763 164 169 172
-4.78419 -6.35120 1.45222 173 177 175
-4.81091 -6.36189 1.47278 177 178 186
-4.80759 -6.36210 1.45062 178 180 181
-4.82962 -6.36372 1.44733 180 183 185
-2.95149 -3.18502 1.10344 30 23 35
-2.94052 -3.18422 1.10508 15 10 15
-2.93887 -3.18433 1.09405 13 10 17
-2.95810 -3.19975 1.10538 53 49 51
-2.96617 -3.21013 1.10618 65 63 61
-2.97556 -3.21104 1.09341 64 65 69
-3.39635 -4.25925 1.25086 43 33 24
-3.37936 -4.25831 1.23822 31 19 18
-3.41072 -4.26362 1.24939 59 50 29
-3.42326 -4.26485 1.23233 68 55 41
-3.50224 -4.23992 1.22949 67 51 44
-3.48758 -4.23884 1.23168 64 53 41
-3.48536 -4.23899 1.21693 64 55 37
-3.50002 -4.24006 1.21474 69 56 45
-3.51885 -4.21973 1.22261 74 57 58
-3.53555 -4.19688 1.21518 83 81 74
-3.55118 -4.18460 1.21009 89 91 92
-3.56598 -4.18130 1.20698 95 95 105
-3.58186 -4.16361 1.20074 104 107 120
-3.59735 -4.14926 1.19525 114 119 134
-3.61219 -4.14276 1.19147 126 129 136
-3.62670 -4.14017 1.18856 142 139 124
-3.64231 -4.11983 1.18182 126 114 63
-3.67125 -4.11170 1.17539 123 106 77
-3.68753 -4.11260 1.18751 132 108 82
-3.68539 -4.11274 1.17328 129 108 82
-3.82782 -4.06121 1.13930 112 103 83
-3.81600 -4.06005 1.15538 139 125 87
-3.81389 -4.06019 1.14137 134 124 89
-3.84174 -4.06223 1.13722 97 92 83
-3.83964 -4.06236 1.12321 97 86 73
-4.69250 -6.31683 1.46024 143 146 150
-4.66730 -6.31543 1.44148 136 139 142
-4.68919 -6.31704 1.43821 141 144 149
-4.71412 -6.31640 1.45659 149 152 157
-4.73623 -6.31963 1.45362 156 159 160
-4.75817 -6.32155 1.45041 164 168 167
-4.77677 -6.32336 1.42512 173 178 175
-1.39061 -5.75709 1.86654 41 35 39
-1.40822 -5.75881 1.84258 45 38 43
-2.94202 -3.20975 1.09865 26 19 34
-2.92929 -3.20904 1.08918 13 9 17
-2.95362 -3.20884 1.09657 48 44 53
-2.96203 -3.21821 1.09707 61 62 67
-2.97144 -3.21913 1.08427 65 66 67
-3.39228 -4.27449 1.23936 40 30 23
-3.37523 -4.27355 1.22667 27 20 16
-3.40684 -4.27772 1.23762 57 47 29
-3.41942 -4.27895 1.22050 70 53 34
-3.51650 -4.22155 1.20831 73 66 60
-3.49971 -4.22062 1.19581 67 54 43
-3.53268 -4.20476 1.20227 78 80 72
-3.54824 -4.19358 1.19746 81 82 84
-3.56359 -4.18400 1.19301 82 83 95
-3.57860 -4.17770 1.18928 83 85 106
-3.59420 -4.16281 1.18372 91 101 117
-3.60999 -4.14350 1.17724 111 118 130
-3.62460 -4.13960 1.17406 124 124 120
-3.63933 -4.13317 1.17034 111 99 73
-3.65142 -4.13435 1.15390 97 82 35
-3.65394 -4.12793 1.16689 107 90 78
-3.66843 -4.12403 1.16373 109 95 79
-3.68296 -4.11869 1.16027 120 98 79
-3.69926 -4.11959 1.17241 132 109 87
-3.69739 -4.11425 1.15701 125 102 80
-3.71368 -4.11515 1.16913 133 111 79
-3.71194 -4.10639 1.15303 127 109 77
-3.72819 -4.10729 1.16513 134 114 77
-3.72606 -4.10742 1.15093 130 114 78
-3.81164 -4.06820 1.12898 133 121 90
-3.79979 -4.06704 1.14510 132 120 84
-3.79769 -4.06718 1.13106 134 121 91
-3.79558 -4.06731 1.11703 131 117 84
-3.82554 -4.07294 1.12766 110 93 77
-3.83739 -4.07410 1.11152 98 92 73
-4.70640 -6.28412 1.42875 145 147 155
-4.68135 -6.28273 1.41010 143 145 145
-4.70312 -6.28433 1.40685 145 145 150
-4.72805 -6.28483 1.42534 152 155 159
-4.74939 -6.28338 1.42155 163 167 166
-2.93424 -3.22909 1.09233 24 14 31
-2.92142 -3.22838 1.08280 15 8 13
-2.94612 -3.22752 1.09007 43 38 47
-2.95572 -3.23324 1.08963 59 61 62
-2.96518 -3.23416 1.07676 67 65 64
-3.38811 -4.29033 1.22788 38 31 25
-3.37100 -4.28939 1.21514 23 21 19
-3.40298 -4.29142 1.22566 59 46 30
-3.41561 -4.29266 1.20848 64 52 27
-3.51414 -4.22333 1.19398 69 56 54
-3.49735 -4.22240 1.18148 63 53 42
-3.51194 -4.22347 1.17930 67 52 45
-3.52654 -4.22454 1.17712 69 54 46
-3.53009 -4.20926 1.18859 72 58 62
-3.54553 -4.19982 1.18419 75 64 69
-3.56103 -4.18881 1.17948 77 71 78
-3.57599 -4.18343 1.17596 79 69 89
-3.59160 -4.16866 1.17048 86 82 99
-3.60693 -4.15639 1.16555 104 105 113
-3.62208 -4.14523 1.16086 116 112 102
-3.63644 -4.14506 1.15847 96 85 50
-3.64856 -4.14624 1.14198 104 90 46
-3.66566 -4.13528 1.15175 96 84 58
-3.66351 -4.13542 1.13744 109 90 54
-3.67775 -4.13646 1.13531 108 88 57
-3.68054 -4.12418 1.14712 104 89 63
-3.69258 -4.12536 1.13073 108 88 60
-3.69503 -4.11902 1.14373 111 90 70
-3.70706 -4.12020 1.12736 106 88 61
-3.70954 -4.11246 1.14005 115 96 78
-3.72380 -4.11068 1.13737 122 104 76
-3.74006 -4.11158 1.14947 133 117 79
-3.73800 -4.10971 1.13485 130 108 79
-3.75426 -4.11061 1.14694 136 117 83
-3.75213 -4.11074 1.13274 136 114 82
-3.74999 -4.11088 1.11853 135 116 79
-3.82323 -4.08531 1.11606 111 97 76
-4.72097 -6.25765 1.39865 150 152 158
-4.69603 -6.25627 1.38009 143 145 146
-4.74144 -6.25077 1.39394 162 165 168
-4.76420 -6.26006 1.39205 174 174 177
-4.78914 -6.26144 1.41061 177 182 182
-4.78260 -6.26185 1.36702 184 187 188
-5.80303 -6.33231 1.23619 195 197 198
-5.78464 -6.33052 1.26121 190 190 199
-5.77811 -6.33094 1.21764 210 213 211
-5.80630 -6.33211 1.25797 190 191 197
-5.79976 -6.33252 1.21441 208 212 212
-5.82142 -6.33411 1.21118 205 213 210
-2.92987 -3.23764 1.08321 23 11 26
-2.91702 -3.23693 1.07365 15 9 12
-2.93930 -3.24396 1.08289 40 36 40
-2.95053 -3.24462 1.08119 60 60 55
-2.96003 -3.24555 1.06827 64 64 67
-3.38400 -4.30561 1.21616 33 30 27
-3.36682 -4.30466 1.20337 26 22 19
-3.39893 -4.30670 1.21393 53 45 29
-3.41161 -4.30794 1.19669 63 53 30
-3.54360 -4.19704 1.16900 70 58 49
-3.52692 -4.19612 1.15659 65 56 38
-3.54141 -4.19718 1.15442 69 56 39
-3.55904 -4.18658 1.16444 73 60 61
-3.57408 -4.18011 1.16073 77 63 71
-3.58925 -4.17125 1.15653 82 71 86
-3.60452 -4.15998 1.15185 100 94 92
-3.61919 -4.15610 1.14870 107 108 85
-3.63135 -4.15729 1.13215 100 83 68
-3.63397 -4.15011 1.14512 103 89 64
-3.64610 -4.15129 1.12860 103 88 65
-3.72149 -4.11491 1.12398 115 96 68
-3.73569 -4.11452 1.12158 126 105 76
-3.74770 -4.11569 1.10525 138 116 91
-3.80712 -4.08397 1.10397 131 113 79
-3.79099 -4.08307 1.09197 134 119 82
-3.82102 -4.09101 1.10306 109 98 77
-3.83511 -4.08757 1.10009 87 84 73
-3.84915 -4.08646 1.09758 81 78 75
-3.86527 -4.08735 1.10958 94 79 81
-3.86315 -4.08748 1.09549 102 91 84
-4.71072 -6.20738 1.36820 148 150 155
-4.68599 -6.20602 1.34980 143 144 145
-4.73381 -6.22023 1.36692 162 162 168
-4.75687 -6.23230 1.36549 178 177 181
-4.77518 -6.23409 1.34058 188 190 184
-1.39379 -5.68337 1.78777 61 51 47
-1.37024 -5.68207 1.77023 77 61 56
-1.41117 -5.68507 1.76412 64 51 47
-2.92469 -3.24868 1.07463 21 11 26
-2.91180 -3.24797 1.06503 13 9 11
-2.93357 -3.25689 1.07474 35 31 43
-2.94500 -3.25707 1.07291 56 57 57
-2.95454 -3.25800 1.05994 62 63 67
-3.38038 -4.31685 1.20348 36 29 23
-3.36315 -4.31590 1.19066 26 20 17
-3.39522 -4.31902 1.20147 53 44 24
-3.40793 -4.32026 1.18418 64 54 24
-3.55714 -4.18340 1.14924 74 61 47
-3.54052 -4.18249 1.13687 70 57 37
-3.55496 -4.18354 1.13472 73 58 41
-3.57221 -4.17640 1.14544 78 62 60
-3.58740 -4.16722 1.14122 82 70 73
-3.60213 -4.16317 1.13804 91 81 76
-3.61707 -4.15563 1.13417 97 85 76
-3.62923 -4.15682 1.11763 96 79 58
-3.70502 -4.11811 1.11267 115 94 61
-3.69087 -4.11707 1.11479 109 92 58
-3.71927 -4.11703 1.11014 122 97 75
-3.73129 -4.11821 1.09379 133 111 82
-3.73349 -4.11650 1.10772 129 108 87
-3.74550 -4.11767 1.09138 138 115 85
-3.80477 -4.09520 1.09203 134 120 83
-3.78860 -4.09431 1.08000 134 119 83
-3.80265 -4.09534 1.07790 136 121 86
-3.81891 -4.09092 1.08891 110 90 69
-3.83280 -4.10202 1.08875 83 59 51
-3.84702 -4.08834 1.08383 91 76 69
-3.86091 -4.10839 1.08538 122 114 91
-3.87711 -4.10929 1.09744 131 119 89
-3.87286 -4.10956 1.06911 141 130 98
-4.70057 -6.15739 1.33816 150 152 154
-4.72496 -6.18074 1.33863 164 167 169
-4.74783 -6.19259 1.33715 181 181 180
-4.76602 -6.19437 1.31240 184 185 182
-2.91945 -3.25990 1.06601 17 10 26
-2.90651 -3.25918 1.05638 13 11 11
-2.91776 -3.26000 1.05470 15 10 24
-2.92820 -3.26864 1.06621 32 27 45
-2.94010 -3.26747 1.06406 50 52 57
-3.37727 -4.32381 1.18983 36 29 16
-3.36002 -4.32285 1.17699 27 19 20
-3.39202 -4.32691 1.18801 52 45 18
-3.40476 -4.32815 1.17068 65 54 27
-3.57042 -4.17183 1.13001 75 56 53
-3.55386 -4.17091 1.11769 76 56 30
-3.56825 -4.17197 1.11554 72 52 32
-3.58553 -4.16340 1.12598 78 65 61
-3.60006 -4.16202 1.12335 85 74 63
-3.61485 -4.15676 1.11996 91 78 61
-3.68793 -4.13296 1.10361 109 91 58
-3.67586 -4.13178 1.12004 104 91 58
-3.67371 -4.13192 1.10574 100 87 42
-3.67157 -4.13206 1.09144 103 88 51
-3.70000 -4.13414 1.08719 117 100 70
-3.70278 -4.12065 1.09890 117 99 68
-3.71481 -4.12182 1.08253 127 108 72
-3.71700 -4.12043 1.09654 127 105 73
-3.72902 -4.12161 1.08018 134 111 78
-3.81659 -4.10271 1.07701 121 104 79
-3.80039 -4.10182 1.06495 133 123 93
-3.83055 -4.11117 1.07631 115 97 71
-3.84479 -4.09935 1.07178 127 116 82
-3.85672 -4.10052 1.05555 140 130 101
-3.85876 -4.11130 1.07173 138 130 95
-3.87073 -4.11247 1.05545 142 129 107
-4.67188 -6.12484 1.31477 142 142 144
-4.65388 -6.12308 1.33926 139 142 141
-4.65068 -6.12328 1.31794 135 139 138
-4.64749 -6.12349 1.29662 134 137 136
-4.69472 -6.13840 1.31358 154 154 154
-4.71803 -6.15466 1.31281 168 170 169
-4.73611 -6.15643 1.28822 177 179 180
-4.74078 -6.16630 1.31128 179 180 178
-4.75889 -6.16807 1.28664 180 182 183
-2.92320 -3.27917 1.05731 29 20 40
-2.91018 -3.27845 1.04762 17 11 24
-2.93543 -3.27708 1.05494 48 45 51
-2.94585 -3.28077 1.05392 63 61 62
-2.95887 -3.28149 1.06361 66 64 63
-2.95716 -3.28160 1.05223 69 64 64
-2.95545 -3.28171 1.04085 67 64 65
-3.37406 -4.33152 1.17629 36 27 19
-3.35678 -4.33056 1.16342 27 18 18
-3.38878 -4.33513 1.17455 51 43 21
-3.40154 -4.33637 1.15719 64 51 29
-3.58235 -4.17671 1.11411 77 57 47
-3.56578 -4.17580 1.10177 80 64 29
-3.58018 -4.17685 1.09962 82 66 30
-3.59458 -4.17791 1.09747 85 71 26
-3.59713 -4.17263 1.11096 83 68 49
-3.60935 -4.17382 1.09434 88 72 47
-3.61143 -4.17496 1.10906 88 74 54
-3.62364 -4.17616 1.09244 93 76 44
-3.68511 -4.14628 1.09183 108 91 65
-3.66869 -4.14537 1.07961 105 87 62
-3.68296 -4.14641 1.07748 107 94 70
-3.81440 -4.10617 1.06347 136 126 89
-3.79819 -4.10527 1.05140 134 124 99
-3.81228 -4.10630 1.04930 138 128 99
-3.82636 -4.10733 1.04720 140 130 95
-3.82846 -4.10879 1.06166 140 130 88
-3.84043 -4.10996 1.04538 141 130 97
-3.84263 -4.10301 1.05830 140 132 92
-3.85457 -4.10418 1.04205 143 130 100
-4.66451 -6.09363 1.28839 145 147 147
-4.69073 -6.13282 1.29129 160 161 160
-4.71298 -6.14172 1.28929 170 173 170
-4.73102 -6.14348 1.26475 177 177 181
-2.91787 -3.29070 1.04857 25 14 35
-2.90480 -3.28998 1.03884 17 10 22
-2.93027 -3.28822 1.04611 42 38 45
-2.94249 -3.28620 1.04376 60 59 59
-2.95212 -3.28714 1.03067 65 62 62
-3.37075 -4.34000 1.16284 35 24 23
-3.35343 -4.33905 1.14995 25 20 18
-3.38536 -4.34475 1.16132 51 39 23
-3.69799 -4.13156 1.07238 113 101 72
-3.68164 -4.13065 1.06021 103 87 63
-3.71219 -4.13260 1.07026 126 109 74
-4.63645 -6.06287 1.26568 139 136 137
-4.61864 -6.06113 1.28991 135 134 133
-4.61547 -6.06133 1.26881 136 132 137
-4.65865 -6.07364 1.26400 152 150 149
-4.68231 -6.09467 1.26393 163 164 167
-4.70531 -6.10998 1.26293 171 172 175
-4.72325 -6.11173 1.23852 180 180 183
-6.35540 -6.04281 0.98291 189 188 198
-6.33804 -6.04111 1.00653 187 188 196
-6.33495 -6.04131 0.98596 187 188 192
-6.35849 -6.04261 1.00348 186 186 199
-6.35232 -6.04300 0.96235 199 202 209
-6.37893 -6.04411 1.00043 188 190 199
-2.91158 -3.30524 1.04041 21 11 29
-2.89844 -3.30452 1.03064 15 9 16
-2.90985 -3.30535 1.02894 15 8 20
-2.92127 -3.30619 1.02723 31 25 37
-2.92154 -3.31070 1.03975 37 32 39
-2.93624 -3.30098 1.03567 56 55 56
-2.94591 -3.30192 1.02251 67 63 64
-3.36707 -4.35135 1.14990 34 23 19
-3.34970 -4.35039 1.13697 27 20 13
-3.36479 -4.35149 1.13471 33 24 15
-3.38187 -4.35481 1.14810 50 37 21
-3.39652 -4.35975 1.14659 63 51 30
-3.41391 -4.36071 1.15954 73 54 36
-3.41163 -4.36086 1.14434 70 55 41
-3.40935 -4.36100 1.12913 69 56 39
-3.63391 -4.20812 1.08153 101 79 49
-3.61941 -4.20706 1.08369 98 81 48
-3.61722 -4.20720 1.06911 101 86 55
-3.63610 -4.20798 1.09612 93 75 36
-3.64622 -4.20932 1.06478 110 94 63
-3.64966 -4.18825 1.07549 104 85 67
-3.66409 -4.18931 1.07334 107 90 65
-3.66191 -4.18945 1.05883 115 95 61
-3.69562 -4.13638 1.05895 104 87 60
-3.67925 -4.13548 1.04677 112 91 62
-3.70983 -4.13760 1.05686 121 104 71
-3.72620 -4.13850 1.06904 134 111 79
-3.72406 -4.13864 1.05474 133 110 77
-3.72191 -4.13878 1.04043 133 111 80
-4.60895 -6.03459 1.24354 140 137 140
-4.59122 -6.03286 1.26766 135 133 135
-4.58807 -6.03306 1.24665 139 138 138
-4.58492 -6.03326 1.22565 144 142 142
-4.63109 -6.04595 1.24194 146 142 145
-4.65246 -6.05098 1.23935 160 157 158
-4.67024 -6.05272 1.21518 174 178 171
-4.67520 -6.06587 1.23828 169 170 171
-4.69301 -6.06761 1.21405 177 181 183
-4.69847 -6.08388 1.23766 175 177 182
-4.71633 -6.08562 1.21336 181 182 183
-6.33657 -6.05266 0.96659 194 199 206
-6.31918 -6.05097 0.99026 190 190 190
-6.31609 -6.05116 0.96965 189 195 202
-6.31300 -6.05136 0.94904 187 193 203
-6.35017 -5.99174 0.95371 200 200 207
-6.34711 -5.99194 0.93333 201 206 216
-6.37348 -5.99303 0.97107 192 198 203
-6.37043 -5.99323 0.95069 196 195 203
-6.36737 -5.99342 0.93031 199 206 212
-2.52681 -3.89464 1.19200 21 15 25
-2.51522 -3.89351 1.20778 30 22 39
-2.51316 -3.89364 1.19404 25 18 37
-2.51110 -3.89377 1.18031 22 13 22
-2.52475 -3.89478 1.17827 19 12 17
-2.54047 -3.89564 1.18996 18 12 14
-3.37808 -4.36731 1.13528 48 36 23
-3.36064 -4.36634 1.12230 30 23 18
-3.39284 -4.37166 1.13363 62 51 31
-3.40571 -4.37292 1.11612 68 54 33
-3.69320 -4.14204 1.04564 115 93 62
-3.67681 -4.14114 1.03344 122 98 74
-3.69105 -4.14218 1.03131 124 101 66
-3.70529 -4.14322 1.02918 128 104 73
-3.70746 -4.14264 1.04343 123 104 73
-3.71956 -4.14383 1.02698 136 108 78
-4.60003 -5.98835 1.21550 147 146 148
-4.62231 -6.00213 1.21426 155 156 155
-4.63993 -6.00385 1.19028 168 168 167
-4.64366 -6.00821 1.21185 169 170 164
-4.66130 -6.00993 1.18785 172 174 166
-6.32536 -6.03356 0.94399 192 198 208
-6.30186 -6.03226 0.92650 187 191 193
-6.32228 -6.03376 0.92345 184 189 195
-6.33380 -6.00682 0.93804 199 203 214
-6.35105 -6.00851 0.91457 191 199 206
-2.53879 -3.89473 1.17599 23 17 16
-2.55450 -3.89559 1.18768 21 15 15
-2.55226 -3.89622 1.17406 26 17 17
-2.56797 -3.89709 1.18576 26 20 21
-2.56591 -3.89722 1.17203 24 19 20
-3.37430 -4.37955 1.12231 45 36 22
-3.35681 -4.37858 1.10930 30 21 25
-3.38913 -4.38369 1.12061 60 49 28
-3.40203 -4.38495 1.10305 69 53 35
-4.57029 -5.93796 1.19048 146 147 145
-4.55286 -5.93626 1.21421 143 140 134
-4.54976 -5.93646 1.19355 140 141 137
-4.56720 -5.93816 1.16983 147 149 145
-4.58773 -5.93967 1.16676 154 152 149
-4.59181 -5.94736 1.18858 151 152 152
-4.61416 -5.96293 1.18758 158 159 161
-4.63167 -5.96464 1.16377 167 165 170
-5.00006 -6.06767 1.14280 195 199 204
-5.01838 -6.05598 1.13788 206 214 217
-5.04237 -6.05731 1.15573 204 204 208
-5.03922 -6.05751 1.13476 212 214 216
-5.03608 -6.05771 1.11380 208 215 221
-6.31898 -5.97929 0.91485 184 192 201
-6.29571 -5.97800 0.89753 180 184 195
-1.17122 -5.53813 1.65203 94 83 68
-1.14822 -5.53685 1.63491 94 80 73
-1.18819 -5.53978 1.62895 99 87 82
-2.48715 -3.91456 1.17349 28 20 27
-2.47548 -3.91342 1.18935 22 16 19
-2.47341 -3.91355 1.17554 24 19 25
-2.48922 -3.91442 1.18730 27 17 22
-2.50672 -3.90006 1.16795 35 23 23
-2.52382 -3.89188 1.16385 44 32 22
-2.53473 -3.90028 1.16347 51 47 23
-2.54798 -3.90244 1.16169 39 37 20
-2.56157 -3.90369 1.15970 25 21 21
-2.57731 -3.90456 1.17142 21 18 20
-2.57524 -3.90469 1.15766 17 15 18
-2.57318 -3.90483 1.14390 20 14 14
-3.37050 -4.39187 1.10927 43 35 24
-3.35296 -4.39090 1.09622 28 21 18
-3.38544 -4.39538 1.10744 59 49 29
-3.39839 -4.39664 1.08983 71 54 36
-4.54219 -5.89809 1.16729 141 144 139
-4.52487 -5.89640 1.19085 133 135 133
-4.52179 -5.89660 1.17033 134 137 134
-4.51871 -5.89679 1.14982 138 141 135
-4.60769 -5.93660 1.16304 161 158 160
-4.62511 -5.93830 1.13933 171 172 174
-5.01013 -6.02989 1.11342 205 215 220
-6.30923 -5.96367 0.89300 185 191 198
-6.28603 -5.96238 0.87572 175 179 191
-6.32779 -5.96136 0.88963 194 203 209
-6.35098 -5.96265 0.90689 198 204 208
-6.34794 -5.96284 0.88662 199 206 216
-6.34490 -5.96303 0.86635 206 214 218
-2.45763 -3.98674 1.17564 69 60 41
-2.49254 -3.93233 1.16130 99 97 74
-2.51348 -3.91419 1.15502 114 114 88
-2.52872 -3.91110 1.15207 122 120 90
-2.52877 -3.94948 1.15821 67 78 62
-2.55219 -3.92406 1.15036 30 24 20
-2.56386 -3.92520 1.13448 19 14 11
-3.36680 -4.40328 1.09598 41 35 22
-3.34921 -4.40231 1.08289 28 20 16
-3.38154 -4.40882 1.09449 59 49 31
-3.39452 -4.41009 1.07683 70 54 34
-4.53687 -5.87887 1.14402 145 148 141
-4.51347 -5.87757 1.12661 141 141 136
-4.55900 -5.89552 1.14313 153 151 150
-4.58054 -5.90643 1.14141 160 155 158
