ply
format ascii 1.0
element face 0
property list uchar int vertex_indices
element vertex 1326
property float x
property float y
property float z
property uchar diffuse_red
property uchar diffuse_green
property uchar diffuse_blue
end_header
-3.39436 -4.40799 1.06925 72 61 31
-3.46827 -4.41750 1.05875 71 62 38
-3.46047 -4.41789 1.07758 77 63 43
-3.45514 -4.41956 1.06426 75 65 38
-3.44982 -4.42124 1.05095 77 65 30
-3.47360 -4.41583 1.07207 77 63 44
-3.48092 -4.41240 1.05273 56 50 33
-3.49310 -4.40460 1.04625 40 35 28
-3.50447 -4.39210 1.03901 35 32 20
-3.51774 -4.39128 1.03374 36 33 15
-3.53036 -4.38663 1.02782 43 39 23
-3.59199 -4.35721 0.99740 77 67 47
-3.58427 -4.35759 1.01603 85 75 50
-3.57900 -4.35925 1.00285 75 66 52
-3.57373 -4.36090 0.98968 67 60 57
-3.60428 -4.35153 0.99138 70 62 47
-3.61586 -4.34245 0.98484 77 73 46
-3.62818 -4.33723 0.97892 88 83 56
-3.64637 -4.33354 0.98661 109 97 57
-3.64093 -4.33423 0.97334 96 92 63
-3.65912 -4.33055 0.98103 115 101 60
-3.65387 -4.33220 0.96791 112 101 68
-4.45777 -5.76036 0.98883 159 163 157
-4.43963 -5.76321 0.99644 153 153 146
-4.46855 -5.75982 0.96282 171 177 168
-4.48075 -5.77314 0.98296 171 175 170
-4.49157 -5.77260 0.95687 176 179 173
-1.48623 -5.62293 2.07748 82 73 68
-1.50889 -5.61835 2.08706 94 77 76
-1.50240 -5.62020 2.07065 84 74 75
-1.52505 -5.61562 2.08023 94 77 70
-1.51852 -5.61767 2.06389 85 75 72
-1.54117 -5.61308 2.07347 95 77 65
-1.53464 -5.61513 2.05712 86 75 70
-1.55729 -5.61055 2.06670 96 77 67
-1.55070 -5.61279 2.05042 84 75 70
-1.57336 -5.60820 2.06000 95 77 76
-1.56682 -5.61025 2.04365 85 75 75
-1.58947 -5.60567 2.05323 95 77 78
-1.58284 -5.60812 2.03702 87 76 78
-1.60549 -5.60353 2.04660 94 78 73
-1.60174 -5.59461 2.02670 86 78 78
-1.62434 -5.59004 2.03626 95 79 75
-1.62344 -5.56963 2.01270 88 77 81
-1.64594 -5.56508 2.02222 98 78 75
-1.64466 -5.54603 1.99920 91 78 79
-1.66707 -5.54150 2.00868 99 78 75
-1.66061 -5.54352 1.99251 91 80 77
-1.68302 -5.53899 2.00198 98 79 74
-1.67391 -5.55197 1.98931 92 82 76
-1.69637 -5.54743 1.99881 96 80 72
-1.68550 -5.56792 1.98847 91 83 76
-1.70804 -5.56336 1.99801 96 81 76
-1.69104 -5.61006 1.99589 92 83 81
-1.71379 -5.60545 2.00550 98 81 75
-1.69591 -5.65633 2.00450 96 83 76
-1.71888 -5.65168 2.01421 98 80 75
-1.70963 -5.66522 2.00124 99 83 76
-1.73265 -5.66056 2.01097 99 81 75
-1.72610 -5.66224 1.99424 98 83 82
-1.74911 -5.65759 2.00398 100 82 75
-1.74247 -5.65967 1.98737 99 85 78
-1.78644 -5.60265 1.95756 99 85 80
-1.77680 -5.60312 1.98080 100 83 78
-1.77023 -5.60519 1.96437 102 84 78
-1.79301 -5.60058 1.97400 100 82 82
-1.80922 -5.59804 1.96720 104 81 81
-3.36856 -4.41453 1.08064 39 26 20
-3.35020 -4.41824 1.07288 35 28 14
-3.38240 -4.41830 1.07618 56 48 23
-3.39018 -4.41791 1.05742 71 60 32
-3.46260 -4.41690 1.04506 68 57 27
-3.44415 -4.42063 1.03726 79 63 28
-3.47483 -4.40922 1.03862 40 31 25
-3.48680 -4.40014 1.03196 12 7 20
-3.49458 -4.39975 1.01321 9 3 9
-3.49881 -4.39157 1.02541 4 5 8
-3.51157 -4.38776 1.01964 6 6 9
-3.52420 -4.38328 1.01378 19 18 20
-3.53195 -4.38289 0.99508 62 57 45
-3.53800 -4.38554 1.00899 52 47 37
-3.58646 -4.35745 0.98401 64 53 49
-3.59746 -4.34513 0.97699 38 26 40
-3.60516 -4.34475 0.95842 13 9 6
-3.61020 -4.34201 0.97139 33 33 21
-3.62286 -4.33854 0.96574 45 48 45
-3.63569 -4.33593 0.96022 53 62 61
-3.64852 -4.33336 0.95471 93 90 71
-3.66671 -4.32968 0.96240 121 104 65
-3.66146 -4.33133 0.94928 119 103 69
-4.42109 -5.72841 0.97394 155 160 143
-4.41039 -5.72894 0.99975 145 148 137
-4.40308 -5.73123 0.98149 141 147 132
-4.39578 -5.73353 0.96323 139 146 133
-4.43180 -5.72787 0.94812 162 167 154
-4.61747 -5.69228 0.89031 195 199 197
-4.60678 -5.69281 0.91611 186 192 186
-4.59948 -5.69510 0.89786 186 191 186
-4.64276 -5.68716 0.90100 205 210 204
-4.63546 -5.68945 0.88276 206 210 211
-4.62816 -5.69175 0.86452 202 203 208
-4.81115 -5.60092 0.79522 218 223 225
-4.79336 -5.60372 0.80268 214 219 220
-4.78614 -5.60598 0.78465 205 207 211
-4.81836 -5.59866 0.81325 225 231 226
-4.82893 -5.59813 0.78775 218 224 225
-4.86551 -5.59507 0.77300 225 232 229
-4.85493 -5.59559 0.79852 214 214 214
-4.84772 -5.59786 0.78047 219 225 226
-4.89053 -5.59001 0.78358 221 225 221
-4.88331 -5.59228 0.76554 230 236 233
-4.87609 -5.59454 0.74749 222 227 227
-1.47950 -5.62568 2.06137 39 33 43
-1.49289 -5.63314 2.05788 40 36 44
-1.51483 -5.60918 2.04411 40 40 43
-1.52171 -5.64113 2.04857 40 39 42
-1.53848 -5.63640 2.04106 39 37 40
-1.55642 -5.62714 2.03210 39 34 39
-1.57990 -5.59620 2.01618 41 34 42
-1.59806 -5.58550 2.00681 42 36 45
-1.62198 -5.55164 1.99007 45 35 48
-1.64644 -5.51488 1.97248 47 37 51
-1.65643 -5.53622 1.97339 50 44 56
-1.66967 -5.54475 1.97019 55 49 58
-1.67895 -5.57014 1.97227 57 52 55
-1.69088 -5.58500 1.97098 60 55 52
-1.69337 -5.64088 1.98246 67 57 53
-1.70483 -5.65930 1.98215 73 62 61
-1.71921 -5.66541 1.97798 71 63 61
-1.73590 -5.66146 1.97068 72 65 61
-1.75819 -5.63206 1.95556 77 69 62
-1.77986 -5.60471 1.94113 78 71 54
-1.92883 -5.40524 1.83943 86 80 66
-1.95078 -5.40080 1.84871 104 87 74
-1.95280 -5.35933 1.81998 87 80 70
-1.97456 -5.35493 1.82918 103 85 74
-1.96734 -5.36188 1.81496 86 80 71
-1.98911 -5.35747 1.82417 106 85 76
-1.98276 -5.35982 1.80857 89 80 73
-2.00454 -5.35541 1.81778 104 84 80
-1.99023 -5.40128 1.81492 89 80 76
-2.01221 -5.39683 1.82421 104 84 75
-2.01457 -5.43558 1.81318 94 81 76
-2.03673 -5.43110 1.82255 101 86 77
-2.02394 -5.43511 1.79058 45 38 43
-3.36429 -4.42419 1.06878 37 21 16
-3.34589 -4.42791 1.06100 38 30 13
-3.35898 -4.42586 1.05551 31 21 13
-3.37809 -4.42755 1.06422 55 46 22
-3.45735 -4.41905 1.03183 71 57 23
-3.43890 -4.42279 1.02403 80 63 37
-3.46938 -4.41003 1.02519 45 31 19
-3.48150 -4.40180 1.01870 18 7 17
-3.50627 -4.38942 1.00641 7 4 9
-3.51904 -4.38572 1.00067 23 19 21
-3.56850 -4.36280 0.97654 72 64 56
-3.56078 -4.36318 0.99517 62 58 55
-3.55551 -4.36484 0.98200 73 66 57
-3.55024 -4.36649 0.96882 82 72 55
-3.58060 -4.35595 0.97037 61 50 47
-3.59195 -4.34546 0.96366 31 11 32
-3.61759 -4.34006 0.95260 13 12 20
-3.63017 -4.33625 0.94691 15 21 37
-3.64255 -4.33153 0.94109 55 54 49
-3.65610 -4.33245 0.93608 106 95 68
-3.67429 -4.32877 0.94377 125 105 64
-3.66904 -4.33042 0.93065 123 104 60
-3.66379 -4.33207 0.91753 120 104 57
-4.40665 -5.70687 0.95312 159 163 142
-4.38145 -5.71197 0.94247 141 144 133
-4.81700 -5.58825 0.76883 209 215 222
-4.79206 -5.59330 0.75828 199 206 208
-4.80980 -5.59051 0.75084 200 204 208
-4.82755 -5.58773 0.74339 210 212 214
-4.83548 -5.58735 0.76152 216 217 226
-4.84603 -5.58682 0.73607 212 210 218
-5.45120 -5.23619 0.44646 197 197 199
-5.43430 -5.23885 0.45355 192 194 194
-5.45805 -5.23404 0.46360 212 218 217
-5.46810 -5.23354 0.43937 202 206 205
-1.58770 -5.60256 1.99530 14 10 20
-1.59727 -5.60208 1.97223 16 9 10
-1.61549 -5.55378 1.97394 18 9 19
-1.62497 -5.55331 1.95108 15 8 10
-1.63818 -5.52425 1.95874 17 9 20
-1.64761 -5.52378 1.93600 14 7 15
-1.65433 -5.52058 1.95171 18 12 28
-1.66376 -5.52011 1.92898 17 7 15
-1.66425 -5.54249 1.95268 23 14 31
-1.67372 -5.54202 1.92983 19 6 14
-1.67866 -5.54631 1.94796 24 16 28
-1.68815 -5.54584 1.92508 14 7 19
-1.68584 -5.58080 1.95273 22 18 29
-1.69539 -5.58032 1.92968 11 7 20
-1.69678 -5.60018 1.95274 23 20 33
-1.70638 -5.59970 1.92960 8 8 20
-1.70987 -5.61086 1.95003 25 23 39
-1.71949 -5.61038 1.92683 8 9 17
-1.73048 -5.58892 1.93729 24 23 34
-1.74850 -5.57797 1.92796 21 23 37
-1.75807 -5.57750 1.90488 10 13 24
-1.76964 -5.55270 1.91429 24 26 41
-1.77916 -5.55223 1.89132 13 11 24
-1.78791 -5.53989 1.90445 26 26 34
-1.79742 -5.53941 1.88152 12 10 21
-1.80934 -5.51216 1.89013 27 24 32
-1.82914 -5.49137 1.87796 32 26 42
-1.89682 -5.38472 1.82857 28 27 39
-1.90605 -5.38426 1.80630 13 10 20
-1.91845 -5.35177 1.81303 27 26 36
-1.93864 -5.32516 1.79943 33 31 33
-1.95425 -5.32141 1.79260 34 31 35
-1.96561 -5.33992 1.79226 36 30 38
-1.97307 -5.37996 1.79814 38 30 40
-1.98049 -5.42169 1.80440 34 30 42
-1.98989 -5.45403 1.80784 38 34 40
-1.99929 -5.45356 1.78518 26 20 23
-2.44606 -4.11405 1.33922 34 19 17
-2.43918 -4.11439 1.35581 19 16 13
-2.42980 -4.11734 1.33234 33 33 36
-2.45076 -4.11258 1.35095 21 14 14
-2.44137 -4.11553 1.32749 45 32 31
-2.46233 -4.11076 1.34610 19 14 13
-2.45825 -4.10696 1.33297 23 14 17
-2.47449 -4.10367 1.33984 22 12 9
-2.46981 -4.10515 1.32812 21 13 8
-2.78342 -3.99258 1.18266 29 29 13
-2.79533 -3.96527 1.17210 81 76 41
-2.87421 -4.04744 1.15965 115 98 57
-2.89048 -4.04415 1.16653 40 35 10
-2.88578 -4.04562 1.15479 114 101 56
-2.88109 -4.04710 1.14306 131 118 76
-3.37361 -4.43562 1.05200 51 44 22
-3.35515 -4.43935 1.04419 22 25 17
-3.38718 -4.43684 1.04704 72 59 31
-3.40566 -4.43310 1.05485 77 62 37
-3.40033 -4.43478 1.04152 77 63 35
-3.39500 -4.43645 1.02819 75 64 27
-3.45248 -4.42373 1.01900 75 62 30
-3.43402 -4.42746 1.01120 80 63 41
-3.44715 -4.42540 1.00569 78 63 36
-3.46432 -4.41329 1.01216 62 47 21
-3.47648 -4.40528 1.00572 46 26 19
-3.48836 -4.39576 0.99907 34 17 15
-3.50087 -4.39041 0.99307 25 17 15
-3.51203 -4.37720 0.98588 39 33 30
-3.52561 -4.37847 0.98093 71 69 54
-3.53863 -4.37643 0.97546 81 77 61
-3.53335 -4.37808 0.96226 86 76 52
-3.56285 -4.36233 0.96305 82 68 55
-3.54459 -4.36603 0.95533 86 72 51
-3.55758 -4.36399 0.94988 89 73 61
-3.57505 -4.35612 0.95699 67 52 46
-3.58695 -4.34843 0.95072 51 26 37
-3.59969 -4.34531 0.94513 45 35 18
-3.61223 -4.34116 0.93939 45 34 27
-3.62491 -4.33785 0.93378 45 33 30
-3.63752 -4.33421 0.92813 45 33 37
-3.65077 -4.33369 0.92291 97 87 63
-3.65846 -4.33330 0.90436 118 101 60
-5.44458 -5.23877 0.42932 205 206 200
-5.42082 -5.24358 0.41928 207 216 208
-5.43772 -5.24093 0.41219 217 224 215
-5.45463 -5.23827 0.40509 220 224 219
-1.73759 -5.59940 1.91749 9 11 22
-1.71488 -5.60400 1.90788 14 11 15
-1.73104 -5.60146 1.90110 12 13 14
-1.74719 -5.59893 1.89432 12 12 14
-1.82271 -5.49339 1.86189 13 13 27
-1.80043 -5.49789 1.85247 12 10 14
-1.81628 -5.49541 1.84581 10 11 16
-1.83213 -5.49292 1.83916 14 11 21
-1.84656 -5.45288 1.84399 17 14 33
-1.85591 -5.45242 1.82144 17 13 24
-1.86655 -5.42986 1.83133 19 14 30
-1.87586 -5.42940 1.80888 16 13 20
-1.89052 -5.38670 1.81282 18 13 22
-1.89975 -5.38624 1.79056 11 11 21
-1.93241 -5.32712 1.78387 16 14 23
-1.92618 -5.32907 1.76830 13 14 22
-1.94154 -5.32666 1.76186 15 16 14
-1.94802 -5.32337 1.77704 18 15 16
-1.95715 -5.32292 1.75503 14 14 13
-1.95936 -5.34188 1.77663 18 13 20
-1.96852 -5.34143 1.75453 19 13 15
-1.96677 -5.38195 1.78237 20 13 21
-1.97601 -5.38148 1.76007 17 13 15
-1.97413 -5.42369 1.78848 15 13 23
-1.98346 -5.42322 1.76598 25 16 17
-1.98348 -5.45605 1.79181 22 17 23
-1.99287 -5.45558 1.76915 23 19 17
-2.45286 -4.11436 1.32280 38 30 43
-2.44817 -4.11584 1.31106 30 29 41
-2.46579 -4.10082 1.31491 31 15 15
-2.48200 -4.09754 1.32176 21 13 5
-2.47733 -4.09901 1.31006 24 13 8
-2.76784 -3.98370 1.17318 16 11 11
-2.76112 -3.98403 1.18938 20 12 11
-2.75654 -3.98547 1.17792 19 13 12
-2.75196 -3.98691 1.16646 19 10 12
-2.78022 -3.94217 1.15949 66 57 20
-2.79009 -3.99512 1.16704 116 102 66
-3.36916 -4.44410 1.03980 44 43 26
-3.35067 -4.44784 1.03199 24 30 15
-3.38271 -4.44501 1.03477 69 60 28
-3.39054 -4.44462 1.01589 72 64 25
-3.45944 -4.41783 0.99932 78 61 27
-3.44101 -4.42156 0.99152 80 65 41
-3.47159 -4.40962 0.99287 77 55 20
-3.48273 -4.39536 0.98551 70 49 18
-3.49497 -4.38834 0.97928 60 49 23
-3.50777 -4.38489 0.97360 65 57 36
-3.52071 -4.38232 0.96805 78 74 49
-3.52845 -4.38193 0.94937 89 74 51
-3.56916 -4.35434 0.94334 80 63 54
-3.55094 -4.35803 0.93564 88 76 59
-3.58116 -4.34724 0.93719 76 62 56
-3.59284 -4.33859 0.93083 86 78 53
-3.60052 -4.33821 0.91230 108 97 52
-3.60551 -4.33531 0.92523 95 88 60
-3.61319 -4.33493 0.90671 115 101 62
-3.61891 -4.33572 0.92014 99 88 59
-3.62659 -4.33533 0.90161 117 102 70
-3.63254 -4.33717 0.91519 91 73 60
-3.64023 -4.33678 0.89664 117 98 63
-3.64541 -4.33482 0.90972 109 92 61
-3.65310 -4.33444 0.89117 119 99 63
-4.72138 -5.52635 0.74995 220 227 221
-4.71099 -5.52686 0.77501 213 217 213
-4.70390 -5.52909 0.75729 221 226 221
-4.72847 -5.52412 0.76767 212 217 212
-4.71429 -5.52857 0.73222 224 233 232
-4.74595 -5.52138 0.76034 207 211 208
-4.74186 -5.53153 0.74316 217 218 212
-4.76198 -5.53564 0.73627 215 219 215
-4.77952 -5.53289 0.72891 210 214 214
-4.77241 -5.53512 0.71113 213 214 213
-5.06069 -5.36713 0.58481 206 209 211
-5.07782 -5.36444 0.57762 205 212 213
-5.07087 -5.36663 0.56025 206 208 207
-2.46119 -4.10163 1.30304 37 26 25
-2.44498 -4.10491 1.29619 22 24 36
-2.45651 -4.10310 1.29135 36 29 39
-2.50080 -4.04932 1.27671 22 16 15
-2.50542 -4.04787 1.28825 16 13 12
-2.51680 -4.04608 1.28347 17 15 13
-2.51443 -4.02587 1.26651 24 17 16
-2.53032 -4.02266 1.27323 12 18 11
-2.76448 -3.94684 1.15318 31 20 10
-2.77501 -3.96750 1.15346 97 91 33
-2.78538 -4.00081 1.15646 135 127 74
-2.81894 -4.03058 1.14975 144 133 74
-2.85335 -4.03336 1.13703 142 131 79
-2.86019 -4.03302 1.12053 157 139 89
-3.36463 -4.45206 1.02748 40 43 23
-3.34611 -4.45581 1.01965 27 29 17
-3.37838 -4.45438 1.02265 64 59 23
-3.38622 -4.45399 1.00374 73 63 29
-3.45521 -4.42670 0.98711 83 69 37
-3.46667 -4.41380 0.97997 84 69 39
-3.47864 -4.40459 0.97340 84 67 43
-3.49001 -4.39204 0.96636 83 67 42
-3.50244 -4.38631 0.96035 81 69 45
-3.51541 -4.38393 0.95483 85 73 50
-3.56330 -4.35272 0.92975 87 76 57
-3.57529 -4.34558 0.92360 91 80 58
-3.58729 -4.33866 0.91751 98 85 53
-4.69583 -5.52866 0.73938 221 225 225
-4.68545 -5.52918 0.76443 217 220 215
-4.67836 -5.53141 0.74671 211 215 214
-4.68875 -5.53089 0.72167 220 222 220
-4.72407 -5.50537 0.72356 228 234 232
-2.47123 -4.07349 1.27953 43 33 34
-2.45515 -4.07674 1.27273 40 33 46
-2.46659 -4.07494 1.26793 48 40 50
-2.47803 -4.07315 1.26312 38 37 31
-2.48545 -4.04681 1.26851 33 30 18
-2.49220 -4.04647 1.25223 34 37 33
-2.49847 -4.02972 1.25994 39 36 17
-2.50519 -4.02938 1.24373 32 38 38
-2.51234 -4.00351 1.24916 37 37 30
-2.51902 -4.00318 1.23306 31 36 40
-2.52537 -3.98405 1.24009 33 33 39
-2.53201 -3.98372 1.22407 49 40 29
-2.53770 -3.97054 1.23253 36 25 17
-2.55335 -3.96738 1.23914 22 14 9
-2.55032 -3.95321 1.22406 27 15 16
-2.56590 -3.95006 1.23064 20 14 5
-2.56140 -3.95147 1.21941 18 14 11
-2.74888 -3.94688 1.14585 18 8 6
-2.74225 -3.94721 1.16186 16 11 14
-2.73772 -3.94863 1.15054 22 14 13
-2.73319 -3.95006 1.13922 22 10 16
-2.76044 -3.93340 1.13859 73 54 17
-2.77011 -3.98020 1.14451 133 121 65
-2.78102 -3.99292 1.14291 151 135 81
-2.80297 -4.02510 1.14105 154 140 81
-2.80978 -4.02476 1.12463 159 152 92
-2.81434 -4.02895 1.13745 152 144 81
-2.82116 -4.02861 1.12100 159 151 92
-3.36008 -4.46009 1.01512 40 41 25
-3.34153 -4.46384 1.00727 25 31 15
-3.37376 -4.46171 1.01016 63 56 25
-3.38161 -4.46132 0.99121 70 63 24
-3.43926 -4.44754 0.98186 84 70 50
-3.43141 -4.44793 1.00079 78 63 42
-3.42606 -4.44961 0.98740 77 61 42
-3.45125 -4.43747 0.97514 96 89 69
-3.46375 -4.43099 0.96896 97 88 79
-3.47297 -4.40394 0.95980 95 81 75
-3.48555 -4.39884 0.95388 96 87 73
-3.49750 -4.39006 0.94744 96 86 71
-3.50996 -4.38456 0.94148 97 87 69
-3.52323 -4.38397 0.93621 99 88 64
-3.54155 -4.38027 0.94396 88 73 52
-3.53463 -4.37262 0.92945 100 87 65
-3.54617 -4.36242 0.92288 102 87 70
-3.55760 -4.35193 0.91628 105 86 66
-3.56972 -4.34544 0.91025 110 94 58
-3.58175 -4.33869 0.90420 113 96 51
-3.59502 -4.33856 0.89903 115 95 50
-3.60794 -4.33653 0.89361 113 93 55
-4.69013 -5.48480 0.71161 221 221 224
-4.66579 -5.48972 0.70132 217 222 220
-4.68311 -5.48700 0.69405 215 218 219
-4.70042 -5.48428 0.68678 220 220 221
-4.70969 -5.48806 0.70471 231 235 233
-4.72000 -5.48755 0.67985 217 218 214
-1.57277 -5.94833 1.99405 63 59 58
-1.62910 -5.85019 1.95233 41 41 32
-1.64455 -5.85386 1.94708 27 21 22
-1.66838 -5.84904 1.95715 15 14 13
-1.66150 -5.85120 1.93996 16 12 14
-2.54728 -3.93954 1.20920 39 28 38
-2.53178 -3.94267 1.20265 34 23 19
-2.54281 -3.94094 1.19802 33 29 33
-2.55384 -3.93921 1.19339 21 18 22
-2.74474 -3.93815 1.13232 32 21 13
-2.75590 -3.93544 1.12744 107 100 48
-2.76564 -3.97819 1.13232 153 145 82
-2.77235 -3.97786 1.11616 168 158 92
-2.77665 -3.98592 1.12962 160 148 86
-2.78337 -3.98559 1.11341 168 158 95
-2.78756 -4.00026 1.12829 161 152 89
-2.79432 -3.99992 1.11200 169 159 93
-3.35572 -4.46968 1.00295 35 39 18
-3.33713 -4.47344 0.99509 30 29 15
-3.36924 -4.46996 0.99776 57 55 19
-3.37711 -4.46957 0.97879 72 62 26
-3.42173 -4.45848 0.97508 75 58 36
-3.41387 -4.45887 0.99404 77 63 36
-3.40851 -4.46055 0.98063 77 63 32
-3.40314 -4.46223 0.96722 76 63 34
-3.41636 -4.46016 0.96167 79 58 38
-3.43416 -4.45095 0.96873 86 74 60
-3.45001 -4.46664 0.96576 109 109 102
-3.46345 -4.46574 0.96036 117 112 111
-3.47134 -4.46535 0.94134 120 117 129
-3.47303 -4.43996 0.95143 115 105 107
-3.48086 -4.43957 0.93252 120 121 133
-3.48470 -4.42843 0.94456 120 121 121
-3.49252 -4.42804 0.92570 114 116 128
-3.49569 -4.41304 0.93719 119 120 118
-3.50348 -4.41265 0.91839 107 111 125
-3.50693 -4.39974 0.93013 117 119 115
-3.51470 -4.39936 0.91139 107 111 122
-3.51840 -4.38832 0.92337 119 122 113
-3.53216 -4.39039 0.91845 123 125 118
-3.54508 -4.38759 0.91287 126 126 124
-3.55719 -4.38036 0.90671 131 126 126
-3.56909 -4.37213 0.90043 142 141 120
-3.58154 -4.36713 0.89458 146 147 116
-3.59287 -4.35631 0.88800 145 138 95
-3.60280 -4.33866 0.88057 119 100 49
-3.62095 -4.33499 0.88825 113 96 63
-3.61571 -4.33663 0.87515 112 95 53
-1.59561 -5.89534 1.95404 54 46 43
-1.61640 -5.87694 1.94231 50 53 37
-1.63733 -5.85752 1.93032 33 21 28
-1.65167 -5.86617 1.92647 17 9 21
-1.67555 -5.86134 1.93656 13 10 10
-1.66352 -5.88607 1.92581 14 9 15
-1.68751 -5.88122 1.93595 10 10 11
-1.68124 -5.88049 1.91782 14 10 11
-1.70521 -5.87564 1.92796 10 9 13
-1.69829 -5.87782 1.91066 10 8 9
-2.72947 -3.93243 1.12380 13 8 22
-2.72287 -3.93276 1.13972 19 13 19
-2.71837 -3.93417 1.12846 19 15 22
-2.71387 -3.93559 1.11720 21 12 20
-2.74029 -3.93789 1.12068 68 51 21
-2.75074 -3.95486 1.11999 146 141 72
-2.75739 -3.95453 1.10395 177 164 100
-2.76157 -3.96437 1.11767 168 162 88
-2.76824 -3.96404 1.10158 174 162 100
-3.35114 -4.47777 0.99051 35 34 10
-3.33252 -4.48153 0.98264 29 26 14
-3.36469 -4.47803 0.98530 58 53 16
-3.37257 -4.47764 0.96629 75 61 34
-3.43057 -4.46488 0.95709 85 72 65
-3.41195 -4.46865 0.94922 76 60 40
-3.44460 -4.46816 0.95229 105 108 112
-3.45869 -4.47151 0.94748 121 122 132
-3.46658 -4.47112 0.92843 118 119 129
-3.52743 -4.39536 0.90565 113 117 127
-3.52213 -4.39702 0.89240 106 102 120
-3.54041 -4.39281 0.90010 118 124 134
-3.55268 -4.38633 0.89405 123 129 144
-3.56508 -4.38072 0.88812 150 155 152
-3.57860 -4.38128 0.88298 163 170 169
-3.59164 -4.37923 0.87750 172 174 150
-3.59795 -4.34235 0.86773 123 114 68
-3.61154 -4.34369 0.86271 110 95 37
-3.62972 -4.34001 0.87040 115 97 56
-3.62448 -4.34166 0.85728 114 98 53
-3.61923 -4.34330 0.84417 112 97 55
-6.14014 -4.98704 0.00794 198 204 194
-6.12373 -4.98962 0.01483 199 205 197
-6.14680 -4.98495 0.02458 186 188 183
-6.13349 -4.98913 -0.00870 202 206 211
-6.16321 -4.98237 0.01769 192 197 198
-6.15655 -4.98446 0.00105 193 194 194
-1.61483 -5.85675 1.91864 59 62 51
-1.63100 -5.85735 1.91246 47 36 42
-1.64137 -5.88304 1.91343 34 27 26
-1.65504 -5.89505 1.91044 32 32 25
-1.67198 -5.89300 1.90345 31 29 21
-1.68853 -5.89277 1.89697 23 10 15
-1.71255 -5.88791 1.90712 9 8 8
-1.70325 -5.90090 1.89282 18 6 8
-1.72732 -5.89603 1.90300 9 9 11
-1.80544 -5.88766 1.85047 12 9 15
-1.79526 -5.88816 1.87504 14 14 19
-1.78831 -5.89035 1.85766 13 9 20
-1.81820 -5.90712 1.84929 26 19 28
-2.72536 -3.92493 1.11066 21 13 16
-2.73595 -3.93499 1.10849 111 106 38
-2.74646 -3.94942 1.10721 170 165 94
-2.75310 -3.94909 1.09120 181 169 102
-2.88864 -3.43488 0.95178 181 165 94
-2.88298 -3.43516 0.96543 170 158 84
-2.87912 -3.43637 0.95578 176 163 95
-2.87526 -3.43758 0.94612 180 171 108
-2.89250 -3.43366 0.96144 164 153 83
-2.90203 -3.43217 0.95744 108 100 59
-2.89803 -3.41895 0.94503 125 109 75
-2.91135 -3.41625 0.95066 71 72 55
-2.90763 -3.42760 0.94298 78 68 61
-2.92100 -3.42490 0.94863 70 73 59
-2.91714 -3.42611 0.93898 71 68 63
-2.91328 -3.42732 0.92934 73 64 61
-3.34677 -4.48767 0.97828 26 27 13
-3.32811 -4.49144 0.97039 35 29 12
-3.34138 -4.48936 0.96482 28 24 12
-3.36037 -4.48819 0.97309 56 51 18
-3.44015 -4.47616 0.93971 100 104 104
-3.45367 -4.47570 0.93435 120 126 136
-3.46157 -4.47530 0.91529 113 113 123
-3.51059 -4.40819 0.89907 104 101 119
-3.49218 -4.41191 0.89128 120 124 133
-3.53607 -4.39998 0.88755 104 107 122
-3.53076 -4.40165 0.87429 103 98 113
-3.54812 -4.39212 0.88134 109 115 130
-3.55975 -4.38217 0.87487 135 142 156
-3.57374 -4.38527 0.87003 153 165 174
-3.58684 -4.38347 0.86459 170 174 163
-3.59297 -4.34535 0.85478 123 117 87
-3.60729 -4.35042 0.85020 107 93 42
-3.61499 -4.35004 0.83163 112 93 61
-4.38870 -5.58388 0.78603 163 169 159
-4.37831 -5.58440 0.81109 158 162 148
-4.36413 -5.58885 0.77564 146 144 135
-4.39579 -5.58166 0.80375 170 173 171
-4.41327 -5.57891 0.79642 176 184 178
-4.40618 -5.58114 0.77869 169 178 170
-1.57407 -5.86430 1.91570 75 68 74
-1.59460 -5.84682 1.90437 62 48 54
-1.61634 -5.82391 1.89153 86 82 74
-1.63329 -5.82076 1.88433 88 77 75
-1.64110 -5.85672 1.88813 81 75 62
-1.64426 -5.91395 1.89780 80 80 63
-1.65328 -5.94701 1.90059 76 71 60
-1.67697 -5.91558 1.88537 68 48 54
-1.69323 -5.91696 1.87929 63 42 43
-1.79376 -5.91325 1.83940 33 26 19
-1.81339 -5.89844 1.82892 43 35 34
-1.84920 -5.88545 1.81249 72 72 78
-1.85940 -5.88494 1.78790 92 83 88
-2.51495 -3.91771 1.17805 26 15 14
-2.50845 -3.91803 1.19373 25 21 18
-2.50402 -3.91942 1.18264 27 17 17
-2.51939 -3.91631 1.18914 20 20 20
-2.53032 -3.91460 1.18455 28 22 15
-2.52642 -3.91083 1.17227 34 18 14
-2.54177 -3.90772 1.17876 30 27 20
-2.53734 -3.90911 1.16769 30 21 18
-2.71025 -3.91861 1.10209 12 10 23
-2.70369 -3.91893 1.11792 19 18 20
-2.69921 -3.92034 1.10673 21 17 19
-2.69473 -3.92175 1.09553 24 12 17
-2.72057 -3.93295 1.10081 61 49 24
-2.73143 -3.93687 1.09732 152 146 77
-2.73803 -3.93654 1.08139 187 177 100
-2.74213 -3.94561 1.09481 182 172 95
-2.74876 -3.94528 1.07883 184 175 109
-2.89425 -3.42840 0.93697 149 127 60
-2.90385 -3.43538 0.93456 95 74 49
-2.90952 -3.43510 0.92089 72 65 58
-3.35592 -4.49743 0.96070 53 46 15
-3.33721 -4.50121 0.95279 25 22 7
-3.36999 -4.50132 0.95595 73 58 29
-3.38872 -4.49753 0.96387 75 61 38
-3.38332 -4.49922 0.95036 76 57 36
-3.37791 -4.50092 0.93684 75 55 28
-3.42423 -4.49947 0.93446 76 66 48
-3.40546 -4.50327 0.92652 72 57 34
-3.43807 -4.50075 0.92931 95 98 92
-3.45039 -4.49164 0.92276 116 121 129
-3.45832 -4.49124 0.90364 111 110 119
-3.50810 -4.42690 0.88793 125 127 134
-3.50277 -4.42858 0.87460 125 126 131
-3.51883 -4.41049 0.88063 114 112 120
-3.54434 -4.40241 0.86914 110 107 118
-3.55687 -4.39721 0.86327 119 117 132
-3.56928 -4.39151 0.85734 145 144 154
-3.58189 -4.38701 0.85157 170 172 158
-3.58997 -4.35876 0.84304 126 118 87
-3.60292 -4.35665 0.83759 105 90 46
-4.37350 -5.55924 0.76635 151 150 148
-4.34906 -5.56418 0.75602 154 148 145
-4.36645 -5.56145 0.74872 152 151 148
-6.09490 -4.94798 -0.02113 196 201 210
-6.07865 -4.95053 -0.01431 186 188 200
-6.07206 -4.95260 -0.03078 194 196 201
-6.08831 -4.95005 -0.03760 197 203 204
-6.11114 -4.94543 -0.02794 206 210 214
-1.35679 -5.86694 1.98077 36 30 32
-1.36680 -5.86644 1.95664 36 29 29
-1.37220 -5.86931 1.97520 46 43 35
-1.38685 -5.87447 1.97044 54 52 40
-1.39598 -5.89973 1.97159 66 59 54
-1.40756 -5.91664 1.97022 78 76 65
-1.41954 -5.93254 1.96851 91 91 79
-1.42977 -5.95539 1.96878 98 96 93
-1.59800 -5.80696 1.87541 68 57 62
-1.60974 -5.82515 1.87422 102 95 93
-1.61974 -5.82466 1.85010 114 109 112
-1.62417 -5.83258 1.86997 112 102 102
-1.63418 -5.83208 1.84581 110 109 108
-1.63968 -5.83566 1.86449 109 105 100
-1.64971 -5.83516 1.84030 109 107 112
-1.65056 -5.85891 1.86458 106 104 98
-1.66492 -5.86759 1.86059 103 97 95
-1.67502 -5.86709 1.83623 107 100 106
-1.68003 -5.87326 1.85575 100 86 92
-1.69599 -5.87535 1.84990 101 91 89
-1.70612 -5.87485 1.82548 111 108 111
-1.77996 -5.86781 1.81572 82 75 61
-1.79646 -5.86785 1.80928 85 77 60
-1.82578 -5.88687 1.80138 79 72 73
-1.83597 -5.88636 1.77681 105 97 99
-2.47580 -3.94046 1.18450 28 13 12
-2.46927 -3.94078 1.20025 30 22 36
-2.46481 -3.94218 1.18911 33 15 29
-2.48026 -3.93906 1.19564 24 19 22
-2.49125 -3.93733 1.19103 23 19 13
-2.48830 -3.92559 1.17685 28 9 10
-2.49886 -3.92732 1.17305 41 32 22
-2.51733 -3.95668 1.17131 82 62 28
-2.53177 -3.92174 1.15916 40 21 10
-2.54717 -3.91862 1.16567 23 17 16
-2.54273 -3.92002 1.15456 20 13 13
-2.70620 -3.91138 1.08912 20 11 20
-2.69072 -3.91451 1.08258 15 11 22
-2.70174 -3.91278 1.07795 59 39 22
-2.71584 -3.93938 1.09058 104 101 41
-2.72701 -3.93605 1.08560 174 170 95
-2.73362 -3.93572 1.06967 188 179 111
-2.88097 -3.45211 0.93521 187 175 108
-2.86751 -3.45483 0.92952 185 176 111
-2.89053 -3.44883 0.93087 160 146 84
-2.90008 -3.44554 0.92653 101 82 54
-2.90576 -3.44525 0.91282 70 66 47
-3.35162 -4.50811 0.94845 49 42 11
-3.33287 -4.51190 0.94052 27 23 12
-3.36577 -4.51249 0.94374 70 55 21
-3.37372 -4.51209 0.92458 74 54 23
-3.42042 -4.51264 0.92243 73 60 40
-3.40159 -4.51645 0.91447 74 55 24
-3.43226 -4.49976 0.91540 90 90 81
-3.44562 -4.49768 0.90980 112 116 121
-3.45356 -4.49728 0.89065 114 117 123
-3.51468 -4.41908 0.86817 123 122 125
-3.50935 -4.42075 0.85486 123 126 131
-3.52882 -4.42293 0.86337 120 114 123
-3.54052 -4.41256 0.85687 124 121 123
-3.54831 -4.41217 0.83806 139 142 139
-3.55294 -4.40662 0.85091 132 131 131
-3.56537 -4.40082 0.84498 146 148 153
-3.57777 -4.39500 0.83905 163 166 149
-3.58766 -4.37608 0.83166 129 116 82
-3.59943 -4.36751 0.82546 109 83 41
-3.61158 -4.36110 0.81953 114 90 59
-3.62983 -4.35741 0.82724 114 99 66
-3.62456 -4.35906 0.81408 112 96 59
-3.68930 -4.34797 0.78673 130 110 73
-3.68158 -4.34836 0.80535 127 107 72
-3.67632 -4.35001 0.79218 126 103 71
-3.69456 -4.34632 0.79990 133 112 79
-3.70755 -4.34428 0.79445 138 123 77
-3.70228 -4.34594 0.78128 136 122 74
-3.71607 -4.34748 0.77619 139 126 79
-3.72134 -4.34582 0.78937 140 126 77
-3.73433 -4.34378 0.78391 146 134 91
-3.72865 -4.34364 0.77056 144 135 101
-3.74691 -4.33995 0.77828 152 144 108
-3.74164 -4.34160 0.76511 152 145 118
-5.86599 -5.04695 0.06728 197 198 204
-5.84286 -5.05163 0.05750 196 196 195
-5.87266 -5.04486 0.08396 209 213 215
-5.85931 -5.04905 0.05059 194 192 198
-5.88911 -5.04227 0.07706 212 214 216
-6.09104 -4.90501 -0.04707 198 197 207
-6.11367 -4.90043 -0.03750 200 201 205
-6.10714 -4.90248 -0.05383 199 207 208
-1.40049 -5.80394 1.93206 38 29 31
-1.37711 -5.80867 1.92217 37 31 26
-1.39375 -5.80606 1.91519 40 34 23
-1.41038 -5.80344 1.90820 41 35 27
-1.41328 -5.81512 1.92910 47 37 40
-1.42507 -5.83025 1.92725 58 55 51
-1.42556 -5.88724 1.93746 71 69 72
-1.43694 -5.90515 1.93628 82 76 87
-1.44878 -5.92182 1.93469 88 82 95
-1.45893 -5.94534 1.93502 92 88 100
-1.45873 -6.00926 1.94676 95 93 103
-1.48969 -5.95366 1.92451 100 95 104
-1.51198 -5.93087 1.91163 103 100 108
-1.60229 -5.82988 1.85788 103 101 107
-1.66604 -5.83483 1.83385 110 104 112
-1.64232 -5.83963 1.82382 108 106 117
-1.65920 -5.83698 1.81673 113 106 117
-1.67608 -5.83433 1.80965 108 102 109
-1.69820 -5.83670 1.82162 107 106 105
-1.69135 -5.83886 1.80448 104 104 107
-1.70825 -5.83620 1.79738 108 109 111
-2.44888 -3.94921 1.18349 39 28 18
-2.44234 -3.94954 1.19926 26 19 18
-2.43788 -3.95094 1.18810 33 19 12
-2.45334 -3.94781 1.19464 35 22 23
-2.45995 -3.94692 1.17874 44 30 23
-2.47112 -3.94374 1.17379 62 50 20
-2.48119 -3.95000 1.17100 70 49 23
-2.49217 -3.94858 1.16644 105 97 69
-2.50518 -3.92875 1.15773 143 142 126
-2.51597 -3.92860 1.15349 137 126 93
-2.52310 -3.96418 1.15720 70 63 48
-2.53691 -3.93514 1.14649 21 11 9
-2.55237 -3.93201 1.15303 27 16 27
-2.54791 -3.93341 1.14187 22 15 24
-2.54345 -3.93481 1.13072 19 14 24
-2.71407 -3.88335 1.06776 145 143 70
-2.72056 -3.88303 1.05210 192 185 108
-2.72302 -3.92599 1.07204 185 180 105
-2.72960 -3.92566 1.05617 191 183 112
-2.87710 -3.46177 0.92704 188 177 114
-2.86361 -3.46450 0.92134 184 175 110
-2.87321 -3.46299 0.91731 187 177 115
-2.88670 -3.45916 0.92281 174 160 98
-2.89623 -3.45020 0.91745 109 94 53
-3.34731 -4.51896 0.93616 44 40 13
-3.32852 -4.52276 0.92821 18 23 7
-3.35526 -4.51856 0.91699 60 48 16
-3.36166 -4.52472 0.93160 64 54 17
-3.36963 -4.52432 0.91239 71 51 22
-3.41769 -4.53395 0.91137 69 58 29
-3.39878 -4.53778 0.90337 72 55 27
-3.43037 -4.52628 0.90502 85 86 72
-3.44180 -4.51034 0.89764 111 117 116
-3.49951 -4.44304 0.86278 118 119 127
-3.48632 -4.44511 0.86832 111 115 124
-3.52518 -4.43460 0.85120 126 129 133
-3.51983 -4.43628 0.83783 129 130 132
-3.53302 -4.43421 0.83230 132 136 132
-3.53670 -4.42293 0.84457 131 136 135
-3.56092 -4.40726 0.83223 148 151 146
-3.57345 -4.40206 0.82638 163 162 144
-3.58444 -4.38875 0.81965 136 121 87
-3.59608 -4.37922 0.81337 106 80 25
-3.60775 -4.37014 0.80715 105 88 49
-3.61917 -4.36006 0.80084 107 95 50
-3.63742 -4.35637 0.80856 115 100 59
-3.63056 -4.35012 0.79457 108 96 48
-3.64877 -4.34644 0.80227 119 102 63
-3.64296 -4.34540 0.78886 111 99 54
-3.66116 -4.34172 0.79655 123 102 68
-3.65579 -4.34279 0.78336 116 100 60
-3.66953 -4.34450 0.77830 118 103 61
-3.68312 -4.34540 0.77315 123 110 65
-3.69724 -4.34859 0.76822 129 118 73
-3.71060 -4.34826 0.76293 134 122 79
-3.72314 -4.34422 0.75729 141 132 102
-3.73495 -4.33705 0.75136 150 142 119
-3.75317 -4.33336 0.75907 155 147 118
-3.74791 -4.33501 0.74592 154 145 116
-6.06438 -4.90413 -0.05606 195 193 198
-6.04178 -4.90870 -0.06561 203 207 203
-6.07383 -4.84495 -0.07055 184 189 195
-1.42416 -5.81116 1.90418 45 40 37
-1.40073 -5.81590 1.89428 47 40 29
-1.43407 -5.81067 1.88028 58 50 48
-1.43363 -5.83485 1.90471 53 46 53
-1.44359 -5.83436 1.88069 62 52 52
-1.44315 -5.85894 1.90528 61 51 64
-1.45316 -5.85844 1.88114 63 53 54
-1.45458 -5.87648 1.90393 67 57 70
-1.46463 -5.87598 1.87970 65 53 58
-1.46481 -5.89905 1.90395 71 62 75
-1.47491 -5.89854 1.87960 61 51 55
-1.47735 -5.91339 1.90161 70 65 75
-1.48748 -5.91289 1.87718 61 49 54
-1.49761 -5.89824 1.89096 73 65 77
-1.50772 -5.89773 1.86659 65 50 59
-2.44383 -3.95524 1.17339 44 35 24
-2.42834 -3.95837 1.16684 34 33 37
-2.43936 -3.95664 1.16222 38 35 31
-2.45426 -3.95821 1.16983 49 47 23
-2.46551 -3.95469 1.16480 91 96 51
-2.47666 -3.95190 1.15993 103 107 85
-2.48977 -3.93187 1.15122 128 133 115
-2.50120 -3.92594 1.14568 152 165 163
-2.51176 -3.92777 1.14187 143 146 133
-2.51925 -3.95933 1.14458 75 76 66
-2.53116 -3.94932 1.13813 22 11 9
-2.53772 -3.94899 1.12229 22 17 18
-2.69795 -3.90114 1.06419 99 86 33
-2.68698 -3.90287 1.06880 11 11 18
-2.68253 -3.90426 1.05767 38 33 10
-2.70892 -3.89946 1.05960 177 173 100
-2.71544 -3.89914 1.04387 196 188 112
-2.88282 -3.46417 0.91375 180 173 105
-2.86931 -3.46690 0.90804 186 178 110
-2.89241 -3.45993 0.90924 114 105 67
-2.90194 -3.45225 0.90413 70 66 59
-2.91541 -3.44952 0.90983 69 71 63
-2.91152 -3.45074 0.90011 69 70 68
-2.90764 -3.45196 0.89040 72 66 67
-3.34305 -4.53035 0.92388 36 37 13
-3.32421 -4.53416 0.91591 25 23 11
-3.35102 -4.52996 0.90466 60 45 32
-3.41343 -4.54437 0.89881 66 49 28
-3.39447 -4.54821 0.89080 68 51 19
-3.42616 -4.53684 0.89248 81 72 69
-3.43823 -4.52499 0.88564 108 108 106
-3.44621 -4.52459 0.86637 111 106 101
-3.45024 -4.51320 0.87883 110 106 104
-3.46908 -4.50939 0.88679 108 113 123
-3.45820 -4.51281 0.85961 99 96 92
-3.47321 -4.48413 0.86464 99 101 109
-3.47861 -4.48243 0.87815 106 113 117
-3.46780 -4.48582 0.85114 92 94 92
-3.48363 -4.46368 0.85691 104 108 115
-3.49475 -4.44835 0.84981 111 112 119
-3.50655 -4.43776 0.84330 123 124 126
-3.54390 -4.41904 0.82533 132 136 133
-3.55593 -4.41074 0.81914 136 144 140
-3.56863 -4.40642 0.81339 145 156 141
-3.58049 -4.39766 0.80718 126 122 84
-3.59096 -4.38175 0.80024 94 80 23
-3.60274 -4.37318 0.79409 86 81 44
-3.61408 -4.36262 0.78777 83 76 46
-3.62431 -4.34682 0.78094 71 58 55
-3.63698 -4.34347 0.77538 69 69 60
-3.64925 -4.33821 0.76963 75 79 64
-3.66157 -4.33333 0.76393 83 77 65
-3.67588 -4.33781 0.75913 88 78 74
-3.69064 -4.34413 0.75448 95 88 76
-3.70471 -4.34711 0.74950 107 103 78
-3.71860 -4.34907 0.74441 115 114 88
-3.73096 -4.34429 0.73871 118 121 100
-3.74316 -4.33882 0.73296 123 130 109
-3.76139 -4.33513 0.74067 154 147 114
-3.75162 -4.31763 0.72586 131 138 116
-3.76976 -4.31396 0.73353 154 146 114
-3.76425 -4.31448 0.72035 139 143 117
-3.78239 -4.31081 0.72802 155 144 114
-3.77716 -4.31245 0.71493 148 149 117
-3.77193 -4.31409 0.70185 97 107 118
-6.04413 -4.88755 -0.07031 198 197 198
-6.02163 -4.89211 -0.07982 201 202 201
-6.03763 -4.88959 -0.08654 203 202 200
-6.05377 -4.87645 -0.07607 194 191 190
-6.08506 -4.84686 -0.09361 186 190 189
-6.07862 -4.84888 -0.10972 185 186 173
-6.10282 -4.84682 -0.10057 196 195 198
-6.11873 -4.84433 -0.10725 206 210 208
-6.11228 -4.84635 -0.12337 205 212 210
-1.42290 -5.79352 1.88167 51 45 42
-1.39955 -5.79824 1.87180 49 39 33
-1.43277 -5.79303 1.85786 61 54 52
-1.68157 -5.78259 1.77829 107 101 110
-1.69827 -5.77997 1.77127 101 99 102
-2.29449 -4.05358 1.23597 42 35 39
-2.28323 -4.05535 1.24070 46 42 48
-2.29906 -4.05215 1.24739 48 37 37
-2.31033 -4.05038 1.24267 44 33 36
-2.30576 -4.05181 1.23125 38 30 41
-2.30119 -4.05325 1.21982 26 23 34
-2.44947 -3.96218 1.15922 37 31 26
-2.46021 -3.96287 1.15512 46 47 36
-2.47227 -3.95260 1.14860 42 53 60
-2.48184 -3.96343 1.14674 45 54 70
-2.49561 -3.93753 1.13681 88 88 105
-2.50638 -3.93781 1.13264 90 84 105
-2.51375 -3.97035 1.13543 44 43 46
-2.52035 -3.97002 1.11951 21 18 13
-2.52561 -3.96119 1.12918 21 13 8
-2.53219 -3.96086 1.11330 24 20 17
-2.69525 -3.87005 1.04671 142 140 39
-2.70568 -3.87682 1.04380 190 186 112
-2.71215 -3.87650 1.02819 198 188 109
-2.87894 -3.47078 0.90494 189 181 109
-2.86540 -3.47352 0.89922 189 181 113
-2.87503 -3.47201 0.89518 195 184 112
-2.88856 -3.46817 0.90071 130 122 74
-2.89807 -3.45523 0.89472 79 71 59
-2.90377 -3.45495 0.88098 70 65 53
-3.40897 -4.55360 0.88605 64 49 24
-3.38998 -4.55744 0.87802 68 50 24
-3.42219 -4.54933 0.88012 79 70 61
-3.43465 -4.53985 0.87358 107 104 101
-3.44266 -4.53945 0.85425 116 112 107
-3.47907 -4.47063 0.84406 94 98 98
-3.49091 -4.45955 0.83748 98 106 103
-3.50169 -4.44242 0.83026 115 123 116
-3.51556 -4.44437 0.82517 122 126 130
-3.52782 -4.43674 0.81902 118 130 129
-3.54047 -4.43162 0.81316 98 109 117
-3.55092 -4.41419 0.80602 82 85 103
-3.56453 -4.41481 0.80079 77 79 105
-3.57426 -4.39432 0.79340 65 64 82
-3.58441 -4.37675 0.78635 52 51 46
-3.59314 -4.35228 0.77865 38 48 41
-3.59971 -4.31764 0.77002 30 33 44
-3.61080 -4.30685 0.76379 22 28 43
-3.62277 -4.30076 0.75803 22 29 43
-3.63037 -4.30038 0.73971 22 24 27
-3.63531 -4.29757 0.75256 24 29 34
-3.64290 -4.29719 0.73424 20 22 27
-3.64738 -4.29217 0.74688 21 26 33
-3.65497 -4.29179 0.72857 19 19 27
-3.66042 -4.29144 0.74164 26 35 43
-3.67677 -4.30600 0.73776 39 53 50
-3.69194 -4.31462 0.73332 51 61 57
-3.70924 -4.33243 0.72964 52 56 62
-3.71755 -4.31007 0.72247 44 45 58
-3.74157 -4.29875 0.71107 57 69 78
-6.06692 -4.85699 -0.10372 189 189 181
-6.07638 -4.85652 -0.12654 188 186 181
-6.10307 -4.85770 -0.11778 194 197 192
-6.11254 -4.85723 -0.14063 203 210 208
-1.66978 -5.73719 1.75521 123 118 119
-1.68451 -5.74246 1.75032 121 116 115
-1.69752 -5.75558 1.74745 117 110 109
-1.72088 -5.75085 1.75732 105 102 107
-1.71285 -5.75873 1.74196 119 109 117
-1.73624 -5.75400 1.75185 110 102 105
-1.72771 -5.76418 1.73705 123 111 116
-1.75113 -5.75944 1.74695 111 99 105
-2.45523 -3.96835 1.14481 20 17 19
-2.46181 -3.96802 1.12895 24 22 19
-2.46624 -3.96703 1.14026 19 23 23
-2.47282 -3.96670 1.12440 28 20 23
-2.47645 -3.97264 1.13721 18 19 28
-2.48702 -3.97546 1.13354 32 29 51
-2.49831 -3.97201 1.12851 34 31 63
-2.50490 -3.97169 1.11260 31 20 33
-2.50929 -3.97134 1.12408 29 22 35
-2.51589 -3.97101 1.10817 25 21 21
-2.68033 -3.86709 1.03909 87 76 28
-2.67389 -3.86741 1.05463 12 15 5
-2.66949 -3.86879 1.04364 12 9 5
-2.66509 -3.87018 1.03265 22 23 18
-2.69112 -3.86629 1.03471 174 173 85
-2.69757 -3.86597 1.01916 200 191 122
-2.70223 -3.85948 1.02918 198 190 115
-2.70867 -3.85916 1.01366 198 188 120
-2.88479 -3.49917 0.89598 155 140 80
-2.87112 -3.50194 0.89021 199 184 118
-2.88085 -3.50041 0.88612 173 155 88
-2.89420 -3.45832 0.88532 94 76 44
-2.89990 -3.45804 0.87157 70 64 52
-3.40454 -4.56317 0.87327 65 48 24
-3.38551 -4.56702 0.86522 65 50 26
-3.39905 -4.56489 0.85954 63 48 28
-3.41759 -4.55741 0.86716 78 70 57
-3.42948 -4.54371 0.86015 105 102 100
-3.45226 -4.51107 0.84564 105 105 97
-3.46286 -4.49054 0.83797 92 96 94
-3.47337 -4.47027 0.83038 85 91 88
-3.48365 -4.44928 0.82276 77 82 79
-3.49620 -4.44321 0.81679 74 82 80
-3.50828 -4.43441 0.81055 76 85 87
-3.51634 -4.40213 0.80187 66 66 69
-3.52410 -4.40174 0.78314 26 26 43
-3.52448 -4.37152 0.79345 40 40 61
-3.53218 -4.37113 0.77486 31 33 35
-3.53607 -4.36171 0.78722 36 40 52
-3.54716 -4.34938 0.78076 27 29 47
-3.55483 -4.34900 0.76226 23 18 24
-3.55819 -4.33713 0.77433 19 24 29
-3.56584 -4.33675 0.75589 23 23 31
-3.56904 -4.32428 0.76788 25 22 19
-3.57667 -4.32390 0.74949 25 17 26
-3.58031 -4.31404 0.76171 23 17 25
-3.58792 -4.31366 0.74335 17 12 23
-3.59244 -4.30854 0.75600 18 14 27
-3.60004 -4.30817 0.73767 15 14 16
-3.60487 -4.30474 0.75047 16 15 19
-3.61247 -4.30436 0.73214 15 19 23
-3.61807 -4.30479 0.74529 19 21 27
-3.62567 -4.30441 0.72695 18 22 23
-3.66814 -4.29169 0.72338 15 18 28
-3.66296 -4.29332 0.71043 21 16 15
-3.67574 -4.29132 0.70507 16 13 14
-3.68026 -4.28669 0.71777 11 15 26
-3.68785 -4.28631 0.69947 17 17 21
-3.69269 -4.28320 0.71228 16 17 33
-3.70729 -4.28935 0.70760 26 26 38
-3.71489 -4.28897 0.68927 23 25 28
-3.71891 -4.28224 0.70182 24 29 33
-3.72650 -4.28186 0.68351 22 22 23
-3.72826 -4.26557 0.69530 17 23 32
-3.73582 -4.26519 0.67707 23 21 23
-3.73860 -4.25349 0.68918 19 25 40
-3.74775 -4.23678 0.68273 24 30 58
-3.76551 -4.23319 0.69024 115 125 123
-3.75721 -4.22176 0.67645 37 42 71
-3.77490 -4.21818 0.68393 130 137 117
-3.76567 -4.20311 0.66994 64 65 82
-3.78329 -4.19955 0.67739 133 138 119
-3.77613 -4.19285 0.66409 81 94 98
-3.79370 -4.18929 0.67152 134 142 128
-3.78863 -4.19089 0.65884 95 120 117
-3.80248 -4.19419 0.65396 125 144 139
-3.80756 -4.19260 0.66665 139 144 132
-3.82008 -4.19063 0.66140 139 143 133
-3.81500 -4.19223 0.64871 139 152 140
-1.48916 -5.85806 1.82666 74 60 67
-1.47915 -5.85856 1.85082 68 58 59
-1.47231 -5.86070 1.83373 70 60 63
-1.49600 -5.85591 1.84375 69 58 59
-1.51285 -5.85327 1.83667 72 59 59
-1.50671 -5.85270 1.81886 81 68 71
-1.59959 -5.80389 1.77417 110 99 112
-1.62043 -5.78418 1.76269 119 109 115
-1.68954 -5.69379 1.72043 143 138 134
-2.48247 -3.97729 1.12237 26 20 29
-2.46686 -3.98044 1.11577 29 19 24
-2.47797 -3.97870 1.11111 28 20 18
-2.48907 -3.97696 1.10645 29 21 26
-2.49353 -3.97596 1.11779 24 21 37
-2.50013 -3.97563 1.10187 30 21 27
-2.67682 -3.85362 1.02527 129 130 79
-2.68781 -3.84833 1.02006 190 190 123
-2.69422 -3.84801 1.00461 202 192 119
-2.89039 -3.47224 0.87767 105 87 42
-2.87685 -3.47498 0.87195 171 157 87
-2.89612 -3.47196 0.86386 70 65 53
-3.33115 -4.57375 0.88774 32 29 28
-3.32310 -4.57415 0.90715 27 24 16
-3.31761 -4.57587 0.89342 21 24 17
-3.31212 -4.57760 0.87970 25 22 14
-3.35017 -4.56990 0.89578 54 45 31
-3.34468 -4.57162 0.88206 52 42 33
-3.41265 -4.56321 0.85391 72 66 48
-3.39362 -4.56706 0.84586 61 48 22
-3.42551 -4.55618 0.84768 93 96 91
-3.43710 -4.54049 0.84050 106 113 114
-3.44901 -4.52772 0.83368 99 105 101
-3.45812 -4.49667 0.82493 71 76 79
-3.46605 -4.49627 0.80580 32 35 32
-3.46873 -4.47675 0.81743 53 48 54
-3.47677 -4.44129 0.80836 49 45 58
-3.48460 -4.44090 0.78948 49 51 47
-3.48858 -4.43070 0.80195 42 41 49
-3.49639 -4.43031 0.78311 46 43 44
-3.49605 -4.39405 0.79290 38 33 43
-3.50379 -4.39367 0.77423 41 37 50
-3.50526 -4.36929 0.78515 32 28 49
-3.51296 -4.36891 0.76659 38 37 41
-3.53858 -4.33223 0.76586 29 23 27
-3.52054 -4.33588 0.75823 34 37 31
-3.53338 -4.33386 0.75284 28 30 25
-3.54621 -4.33185 0.74746 23 25 25
-3.65207 -4.30430 0.71654 25 20 18
-3.63927 -4.30631 0.72192 21 21 21
-3.64688 -4.30593 0.70356 41 43 36
-3.70049 -4.28378 0.69407 21 24 28
-3.68256 -4.28741 0.68649 15 15 17
-3.69532 -4.28541 0.68113 17 18 17
-3.70808 -4.28340 0.67577 19 20 18
-3.74164 -4.23426 0.66962 26 20 32
-3.72391 -4.23785 0.66212 20 17 20
-3.73653 -4.23587 0.65683 24 19 23
-3.74914 -4.23389 0.65153 31 27 24
-3.75133 -4.22017 0.66346 28 22 41
-3.75881 -4.21980 0.64543 40 38 37
-3.75997 -4.20218 0.65706 33 29 52
-3.76917 -4.18686 0.65089 34 34 54
-3.77838 -4.17201 0.64479 32 36 55
-3.79288 -4.17814 0.64011 61 74 91
-3.80841 -4.18800 0.63564 103 123 138
-3.82598 -4.18445 0.64306 142 146 135
-3.81728 -4.17228 0.62953 122 144 152
-3.83479 -4.16874 0.63693 144 143 143
-3.82974 -4.17033 0.62430 140 146 147
-1.46190 -5.87629 1.82024 70 60 61
-1.45186 -5.87679 1.84446 67 59 60
-1.44501 -5.87894 1.82733 67 58 58
-1.43815 -5.88109 1.81020 64 54 52
-1.48208 -5.86114 1.80982 79 69 73
-1.50058 -5.85219 1.80108 94 88 90
-1.50876 -5.88318 1.80289 94 93 90
-1.51883 -5.88268 1.77861 67 65 65
-1.61176 -5.79421 1.74782 115 107 112
-2.65183 -3.84391 1.02065 17 9 10
-2.64544 -3.84423 1.03606 23 16 23
-2.64109 -3.84560 1.02516 28 16 15
-2.63673 -3.84697 1.01427 34 23 13
-2.65619 -3.84255 1.03155 26 14 15
-2.66281 -3.83859 1.01546 66 55 29
-2.67302 -3.84554 1.01256 166 167 112
-2.68380 -3.84337 1.00796 199 194 124
-2.88653 -3.48200 0.86928 104 90 44
-2.89227 -3.48171 0.85542 66 64 55
-3.32732 -4.59007 0.87574 31 27 20
-3.30823 -4.59394 0.86767 23 19 13
-3.34166 -4.59443 0.87079 54 41 21
-3.36079 -4.59056 0.87888 62 49 21
-3.35527 -4.59229 0.86508 64 47 16
-3.34975 -4.59402 0.85128 56 46 16
-3.40620 -4.55777 0.83939 62 51 35
-3.38720 -4.56161 0.83136 54 42 17
-3.42040 -4.56059 0.83425 68 65 57
-3.42994 -4.53029 0.82556 73 78 65
-3.44137 -4.51430 0.81846 68 72 56
-3.44933 -4.51390 0.79926 40 39 34
-3.45190 -4.49292 0.81083 48 54 39
-3.46892 -4.42683 0.79337 44 41 52
-3.46360 -4.42850 0.78007 57 66 56
-3.63342 -4.30472 0.70867 26 35 24
-3.62062 -4.30673 0.71404 16 23 18
-3.61543 -4.30836 0.70107 15 22 16
-3.66076 -4.30900 0.69859 35 32 29
-3.67358 -4.30698 0.69321 21 18 19
-3.66838 -4.30862 0.68021 16 19 12
-3.76344 -4.18577 0.63807 34 36 36
-3.77085 -4.18540 0.62020 20 26 12
-3.77245 -4.17006 0.63196 23 24 20
-3.77983 -4.16969 0.61416 14 20 21
-3.78077 -4.15202 0.62575 15 20 40
-3.78877 -4.13321 0.61954 21 33 60
-3.80550 -4.14817 0.61538 55 75 94
-3.82248 -4.16360 0.61119 118 141 144
-3.83994 -4.16006 0.61858 143 145 141
-3.83220 -4.15163 0.60541 140 156 148
-3.84961 -4.14811 0.61278 149 149 141
-3.84459 -4.14968 0.60022 144 145 138
-4.54666 -5.22429 0.49824 203 206 210
-4.53695 -5.22478 0.52166 207 212 214
-4.55329 -5.22221 0.51480 205 209 212
-4.54004 -5.22637 0.48168 192 191 192
-4.56962 -5.21965 0.50795 202 210 210
-4.56300 -5.22173 0.49138 208 215 212
-5.23645 -5.02398 0.19376 218 224 220
-5.22693 -5.02445 0.21674 214 218 215
-5.22043 -5.02649 0.20048 217 221 219
-5.24295 -5.02193 0.21001 220 225 220
-5.25898 -5.01942 0.20328 220 220 214
-5.24948 -5.01586 0.18730 215 218 214
-5.27198 -5.01131 0.19682 208 210 206
-5.25899 -5.01539 0.16435 203 208 200
-5.26280 -5.00838 0.18084 207 211 202
-5.28527 -5.00384 0.19034 199 203 203
-5.27879 -5.00587 0.17412 192 199 185
-1.45052 -5.89537 1.80759 63 56 51
-1.42670 -5.90019 1.79752 60 49 48
-1.44365 -5.89752 1.79040 62 54 45
-1.46886 -5.88743 1.79909 70 67 64
-1.49175 -5.86198 1.78601 88 83 91
-1.50177 -5.86148 1.76184 86 83 88
-1.50431 -5.87595 1.78327 89 85 91
-1.58243 -5.82276 1.74399 100 93 108
-1.63260 -5.74822 1.71236 159 153 160
-1.64244 -5.74773 1.68862 168 161 169
-2.64764 -3.84285 1.00930 14 23 21
-2.63255 -3.84591 1.00292 30 23 16
-2.65801 -3.84673 1.00582 106 111 82
-2.66872 -3.84576 1.00144 186 194 134
-2.67948 -3.84413 0.99694 198 203 126
-2.69025 -3.84219 0.99238 196 202 127
-2.70537 -3.83913 0.99877 202 189 114
-2.70106 -3.83947 0.98768 197 198 120
-2.71617 -3.83641 0.99407 203 188 114
-2.71181 -3.83790 0.98318 197 199 122
-2.72692 -3.83484 0.98958 198 186 114
-2.72262 -3.83494 0.97845 193 197 125
-2.73773 -3.83189 0.98484 199 185 117
-2.73374 -3.82459 0.97241 194 194 124
-2.74881 -3.82154 0.97879 198 186 121
-2.74469 -3.81693 0.96687 192 191 129
-2.75973 -3.81389 0.97323 194 183 116
-2.75546 -3.81341 0.96206 187 188 124
-2.77049 -3.81037 0.96842 194 181 116
-2.76620 -3.81021 0.95732 184 186 121
-2.78123 -3.80717 0.96367 193 180 111
-2.77695 -3.80661 0.95250 181 183 115
-2.79197 -3.80358 0.95885 191 180 108
-2.78734 -3.81621 0.94992 179 181 115
-2.80241 -3.81316 0.95629 189 178 103
-2.79822 -3.80764 0.94427 176 178 117
-2.81326 -3.80459 0.95062 189 178 102
-2.80892 -3.80596 0.93978 174 176 117
-3.32270 -4.59968 0.86286 29 24 9
-3.30356 -4.60355 0.85478 22 18 12
-3.31718 -4.60142 0.84906 27 22 7
-3.33672 -4.60109 0.85755 45 39 11
-3.34481 -4.60069 0.83802 46 41 25
-3.40043 -4.55738 0.82546 53 44 23
-3.38144 -4.56122 0.81743 44 36 18
-3.39495 -4.55910 0.81176 41 34 21
-3.40846 -4.55698 0.80609 37 33 28
-3.41344 -4.55160 0.81941 51 48 33
-3.42147 -4.55120 0.80006 33 32 37
-3.42402 -4.52865 0.81159 45 45 39
-3.43200 -4.52826 0.79234 34 39 44
-3.43429 -4.50454 0.80371 40 39 36
-3.44223 -4.50415 0.78457 40 50 44
-3.47649 -4.42500 0.77443 51 56 39
-3.45806 -4.42873 0.76664 41 51 42
-3.47117 -4.42667 0.76114 34 36 26
-3.49082 -4.34862 0.75665 38 39 36
-3.50273 -4.34091 0.75073 41 40 30
-3.51338 -4.32614 0.74418 29 34 25
-3.52618 -4.32413 0.73881 22 31 29
-3.74754 -4.19598 0.63108 43 38 29
-3.72999 -4.19953 0.62366 28 22 19
-3.75814 -4.18635 0.62537 31 36 25
-3.76555 -4.18598 0.60750 16 21 9
-3.78180 -4.12707 0.60662 14 17 26
-3.76455 -4.13056 0.59933 14 21 14
-3.77682 -4.12863 0.59417 15 17 14
-3.79079 -4.11251 0.60076 14 22 43
-3.80856 -4.13157 0.59677 53 71 78
-3.82381 -4.14063 0.59219 98 122 149
-3.83397 -4.13065 0.58659 130 140 151
-3.85128 -4.12715 0.59391 146 152 140
-3.84629 -4.12872 0.58142 141 153 138
-4.52221 -5.22474 0.48846 201 201 192
-4.51251 -5.22522 0.51185 198 200 198
-4.50589 -5.22730 0.49531 208 210 194
-4.49927 -5.22938 0.47876 212 216 205
-4.53191 -5.22426 0.46506 192 197 194
-5.20943 -5.02001 0.18465 212 214 210
-5.19343 -5.02252 0.19137 217 223 211
-5.18695 -5.02456 0.17515 209 214 208
-5.20294 -5.02204 0.16843 208 212 207
-5.22623 -5.01901 0.17786 204 201 201
-5.23574 -5.01854 0.15492 201 198 195
-5.23704 -5.00679 0.17166 198 198 199
-5.24653 -5.00632 0.14876 206 206 200
-5.73780 -4.88484 -0.04540 195 199 197
-5.72840 -4.88530 -0.02271 204 204 204
-5.72198 -4.88732 -0.03876 199 200 200
-5.74422 -4.88282 -0.02935 202 204 204
-5.73138 -4.88685 -0.06144 188 184 194
-5.74984 -4.87671 -0.05144 198 200 208
-5.77205 -4.87222 -0.04205 215 217 222
-5.76565 -4.87423 -0.05807 209 212 217
-5.75924 -4.87625 -0.07410 203 205 214
-1.45759 -5.90617 1.78623 63 55 53
-1.47792 -5.89077 1.77581 76 67 78
-1.48799 -5.89027 1.75152 93 92 90
-1.55166 -5.85626 1.74131 119 111 111
-1.57545 -5.82560 1.72716 134 122 129
-2.64342 -3.84225 0.99806 13 23 25
-2.62834 -3.84530 0.99168 22 18 16
-2.65389 -3.84448 0.99426 83 92 70
-2.66465 -3.84261 0.98972 124 126 113
-2.67508 -3.84607 0.98613 129 123 110
-2.68582 -3.84471 0.98167 128 122 107
-2.69663 -3.84216 0.97700 128 119 102
-2.70743 -3.83966 0.97235 126 117 102
-2.71875 -3.82592 0.96575 123 116 100
-2.72972 -3.81843 0.96025 122 113 95
-2.74053 -3.81398 0.95529 113 105 97
-2.75129 -3.81040 0.95048 107 102 92
-2.76203 -3.80682 0.94568 103 100 82
-2.77234 -3.81697 0.94317 100 97 82
-2.78306 -3.81517 0.93865 98 95 81
-2.79400 -3.80394 0.93259 96 92 77
-2.80483 -3.79517 0.92695 94 91 76
-2.81981 -3.79214 0.93328 172 175 120
-2.81549 -3.79349 0.92248 91 88 76
-2.85923 -3.52140 0.86309 77 80 68
-2.85342 -3.52168 0.87711 168 172 115
-2.84945 -3.52293 0.86719 79 83 73
-2.84549 -3.52417 0.85728 17 19 33
-2.86901 -3.50814 0.85717 60 55 44
-2.87874 -3.50436 0.85274 53 51 46
-2.88843 -3.49575 0.84758 61 65 58
-2.90207 -3.49299 0.85334 71 69 66
-2.89813 -3.49423 0.84350 69 72 66
-2.89420 -3.49546 0.83366 67 72 64
-3.33195 -4.60943 0.84446 39 35 11
-3.31277 -4.61331 0.83635 22 20 4
-3.47881 -4.30859 0.73985 23 20 19
-3.48637 -4.30821 0.72162 18 15 14
-3.50231 -4.29318 0.72818 13 13 13
-3.54225 -4.29772 0.71309 35 25 36
-3.54741 -4.29610 0.72598 25 25 24
-3.56012 -4.29411 0.72064 27 20 14
-3.55414 -4.29124 0.70738 37 28 29
-3.57199 -4.28763 0.71493 23 20 17
-3.56737 -4.29208 0.70228 29 28 20
