ply
format ascii 1.0
element face 0
property list uchar int vertex_indices
element vertex 1291
property float x
property float y
property float z
property uchar diffuse_red
property uchar diffuse_green
property uchar diffuse_blue
end_header
-2.26832 -4.01128 0.85089 52 30 49
-2.83451 -3.68427 0.65608 34 28 43
-2.81949 -3.68701 0.64883 23 23 23
-2.84472 -3.69120 0.65263 48 49 52
-2.85574 -3.69147 0.64874 60 66 62
-2.87080 -3.68873 0.65602 68 69 70
-2.86694 -3.69017 0.64474 67 68 71
-2.86308 -3.69161 0.63346 69 68 73
-3.24916 -3.93265 0.51525 30 35 44
-3.25715 -3.93280 0.49864 42 45 56
-3.28553 -3.91648 0.50198 42 43 47
-3.26921 -3.91946 0.49409 48 51 57
-3.28135 -3.91805 0.48976 46 48 52
-3.29760 -3.91152 0.49758 36 33 35
-3.30555 -3.91167 0.48105 44 49 41
-3.54647 -3.81804 0.40718 14 11 8
-3.53866 -3.81789 0.42341 11 11 17
-3.53456 -3.81943 0.41143 14 8 16
-3.55057 -3.81651 0.41916 12 10 10
-3.56248 -3.81513 0.41491 14 12 9
-3.55832 -3.81602 0.40293 17 11 12
-3.57023 -3.81466 0.39868 22 14 22
-3.58209 -3.81283 0.39444 32 22 38
-3.59491 -3.82027 0.39007 47 48 56
-3.60274 -3.82042 0.37380 65 73 80
-3.63068 -3.81580 0.37730 66 75 84
-3.61875 -3.81718 0.38156 69 76 82
-3.64261 -3.81441 0.37304 59 60 73
-4.03672 -4.86101 0.25883 141 147 154
-4.05777 -4.85717 0.26901 147 154 159
-4.05237 -4.85919 0.25325 143 150 154
-4.16927 -4.73082 0.20873 163 168 173
-4.16401 -4.73278 0.19337 167 166 169
-4.18286 -4.72135 0.20369 173 178 180
-4.19810 -4.71958 0.19825 183 186 187
-4.19285 -4.72155 0.18291 178 183 187
-4.30059 -4.82059 0.16440 201 207 206
-4.29035 -4.82040 0.18570 188 189 196
-4.28497 -4.82241 0.16998 191 194 198
-4.32160 -4.81676 0.17455 202 208 204
-4.31622 -4.81878 0.15882 202 208 204
-4.31084 -4.82079 0.14310 210 214 208
-4.42364 -4.68207 0.11746 201 203 201
-4.41368 -4.68188 0.13819 202 205 204
-4.40321 -4.68579 0.10759 211 212 216
-4.42888 -4.68011 0.13277 201 202 207
-4.41841 -4.68403 0.10216 214 216 215
-4.43884 -4.68030 0.11204 200 206 206
-4.45299 -4.67483 0.10689 210 211 214
-4.45822 -4.67287 0.12218 215 219 219
-4.44776 -4.67678 0.09161 201 200 204
-4.66757 -4.65602 0.03044 209 214 199
-4.67754 -4.65621 0.00971 198 203 207
-5.56138 -4.54563 -0.28878 210 218 223
-5.55142 -4.54543 -0.26808 212 214 218
-5.54620 -4.54739 -0.28336 208 204 213
-5.54097 -4.54935 -0.29865 212 217 219
-5.77447 -4.57564 -0.36353 194 195 205
-5.75381 -4.57941 -0.37351 200 210 221
-5.76918 -4.57762 -0.37900 202 207 213
-5.78455 -4.57584 -0.38449 207 206 211
-2.12063 -3.96256 0.90227 81 76 67
-2.10472 -3.96546 0.89458 96 88 81
-2.12838 -3.96271 0.88613 61 55 57
-2.24182 -4.02289 0.86052 17 18 31
-2.22558 -4.02585 0.85267 17 18 16
-2.23766 -4.02444 0.84835 17 19 17
-2.27154 -4.04375 0.85041 41 21 34
-2.26735 -4.04532 0.83816 41 42 45
-2.83000 -3.69118 0.64518 28 24 36
-2.81496 -3.69392 0.63792 21 23 24
-2.82615 -3.69262 0.63392 27 23 34
-2.84029 -3.69751 0.64166 42 43 51
-2.85138 -3.69732 0.63773 58 63 63
-2.85873 -3.69746 0.62243 69 68 69
-3.23279 -3.95291 0.50769 19 25 34
-3.22477 -3.95276 0.52438 20 23 30
-3.22055 -3.95433 0.51206 17 22 29
-3.21634 -3.95591 0.49974 28 22 25
-3.22858 -3.95449 0.49537 16 19 25
-3.24500 -3.94244 0.50315 30 34 47
-3.52947 -3.80938 0.39956 28 23 33
-3.52169 -3.80923 0.41574 11 10 17
-3.51760 -3.81076 0.40379 21 12 25
-3.54255 -3.82161 0.39517 28 32 34
-3.55528 -3.82895 0.39080 31 34 35
-3.56785 -3.83407 0.38645 37 36 44
-3.57570 -3.83422 0.37013 52 62 63
-3.57986 -3.83311 0.38217 48 51 59
-3.59167 -3.83020 0.37792 59 71 69
-3.61430 -3.81571 0.36960 60 66 74
-3.62645 -3.81631 0.36531 45 51 63
-3.63427 -3.81646 0.34904 39 43 46
-3.63876 -3.81809 0.36098 43 44 54
-3.65481 -3.81516 0.36874 52 52 62
-3.65070 -3.81670 0.35672 43 44 46
-3.64658 -3.81824 0.34470 41 44 44
-4.17178 -4.69641 0.18987 168 170 173
-4.15142 -4.70012 0.18003 170 169 169
-4.26213 -4.81825 0.16032 182 183 188
-4.25190 -4.81806 0.18158 188 192 194
-4.24653 -4.82007 0.16589 183 187 186
-4.26750 -4.81625 0.17602 187 191 193
-4.25675 -4.82026 0.14462 180 178 181
-4.27713 -4.81392 0.15491 187 192 198
-4.29043 -4.80254 0.14996 204 213 212
-4.36879 -4.73413 0.12078 202 207 211
-4.35344 -4.73591 0.12626 210 215 213
-4.37408 -4.73215 0.13623 207 210 206
-4.38943 -4.73036 0.13075 206 211 205
-4.38414 -4.73234 0.11530 199 205 207
-4.42520 -4.65202 0.09910 210 212 210
-4.43510 -4.65221 0.07852 202 205 204
-4.52138 -4.71320 0.06624 211 211 213
-4.50076 -4.71696 0.05628 214 216 219
-4.53144 -4.71340 0.04533 221 232 226
-4.53047 -4.69057 0.06256 216 221 216
-2.11990 -4.02832 0.89023 37 20 39
-2.10370 -4.03128 0.88240 88 77 63
-2.11575 -4.02988 0.87810 47 34 42
-2.13610 -4.02537 0.89806 16 9 12
-2.27507 -4.06110 0.83568 34 20 31
-2.29150 -4.05810 0.84362 23 22 30
-2.28729 -4.05967 0.83131 26 20 31
-2.83562 -3.70579 0.63078 41 33 48
-2.82051 -3.70855 0.62348 25 22 33
-2.84565 -3.71491 0.62737 57 59 58
-3.24083 -3.95843 0.49108 27 29 44
-3.22435 -3.96143 0.48312 41 37 30
-3.23661 -3.96001 0.47874 26 19 27
-3.25310 -3.95960 0.48674 38 45 53
-3.26537 -3.95817 0.48237 47 54 56
-3.39585 -3.84769 0.43421 9 6 4
-3.38802 -3.84754 0.45049 8 8 7
-3.38391 -3.84908 0.43847 9 6 6
-3.39996 -3.84615 0.44623 7 8 6
-3.41190 -3.84476 0.44197 5 9 7
-3.40762 -3.84283 0.42995 7 6 4
-3.42365 -3.83991 0.43770 6 8 12
-3.41955 -3.84145 0.42569 6 5 7
-3.44269 -3.82689 0.41723 9 6 8
-3.43490 -3.82674 0.43345 8 8 11
-3.43080 -3.82827 0.42148 9 5 10
-3.44678 -3.82535 0.42920 7 8 5
-3.45867 -3.82397 0.42496 6 9 5
-3.45453 -3.82479 0.41299 10 7 5
-3.47051 -3.82187 0.42072 7 10 8
-3.46640 -3.82315 0.40875 12 10 9
-3.48238 -3.82024 0.41648 7 11 15
-3.47829 -3.82177 0.40451 14 15 18
-3.51553 -3.83703 0.39154 43 42 43
-3.50357 -3.83842 0.39581 31 32 41
-3.52336 -3.83718 0.37524 61 71 69
-3.52772 -3.83854 0.38724 48 56 61
-3.53557 -3.83869 0.37092 68 77 73
-3.54042 -3.84543 0.38284 56 66 71
-3.55239 -3.84383 0.37856 53 62 62
-3.56401 -3.83855 0.37435 50 59 59
-3.58761 -3.83227 0.36587 53 64 58
-3.58349 -3.83382 0.35382 46 49 49
-3.59545 -3.83242 0.34955 47 47 56
-3.59870 -3.82268 0.36177 52 57 65
-3.60653 -3.82283 0.34549 46 47 55
-3.61037 -3.81880 0.35757 48 51 60
-3.61819 -3.81895 0.34130 40 44 51
-3.62253 -3.81952 0.35326 38 42 52
-3.63036 -3.81967 0.33698 40 44 47
-4.15894 -4.66296 0.17675 169 169 173
-4.13875 -4.66664 0.16699 175 177 171
-4.16879 -4.66315 0.15627 185 188 189
-4.18218 -4.69876 0.16909 182 185 189
-4.20255 -4.69505 0.17893 181 188 189
-4.19733 -4.69700 0.16368 187 190 190
-4.19212 -4.69895 0.14843 189 192 192
-4.26502 -4.78701 0.14114 180 181 189
-4.27517 -4.78721 0.12002 191 189 192
-4.27949 -4.78094 0.13590 193 198 200
-4.29565 -4.78202 0.13018 205 210 207
-4.31646 -4.77823 0.14024 206 205 203
-4.30947 -4.77341 0.12513 211 216 214
-4.32492 -4.77161 0.11961 214 218 218
-4.31960 -4.77360 0.10405 215 220 221
-4.34441 -4.72319 0.11189 211 212 213
-4.33438 -4.72300 0.13276 212 216 215
-4.32911 -4.72497 0.11735 217 220 219
-4.35444 -4.72338 0.09103 186 184 194
-4.35724 -4.71186 0.10715 193 193 202
-4.36943 -4.69838 0.10260 192 193 201
-4.38990 -4.69465 0.11249 203 208 210
-4.38466 -4.69661 0.09716 201 205 209
-4.37941 -4.69857 0.08184 202 209 207
-4.40389 -4.65199 0.08960 207 214 215
-4.38362 -4.65569 0.07980 198 201 205
-4.41938 -4.65172 0.08409 211 216 212
-4.42927 -4.65191 0.06352 195 198 202
-4.45176 -4.65597 0.07267 197 202 206
-4.46687 -4.65422 0.06727 211 216 219
-2.12787 -4.02823 0.87377 25 14 28
-2.12372 -4.02978 0.86163 38 21 24
-2.14407 -4.02527 0.88160 13 7 12
-2.13992 -4.02682 0.86946 14 9 14
-2.26518 -4.08454 0.82567 37 35 31
-2.83051 -3.71759 0.62004 38 26 42
-2.81536 -3.72035 0.61271 25 23 25
-2.84012 -3.73050 0.61678 55 55 51
-2.85136 -3.72995 0.61278 68 67 63
-2.86658 -3.72717 0.62014 76 68 71
-2.86268 -3.72863 0.60874 75 67 71
-2.85878 -3.73009 0.59734 74 68 67
-3.21146 -4.07401 0.48913 81 81 68
-3.24892 -3.97207 0.47452 31 37 44
-3.26119 -3.96532 0.47007 48 51 52
-3.27770 -3.96231 0.47805 48 51 58
-3.27347 -3.96389 0.46569 51 53 59
-3.36780 -3.85053 0.43072 31 32 34
-3.35997 -3.85038 0.44699 16 9 20
-3.35586 -3.85191 0.43498 35 37 43
-3.37191 -3.84899 0.44273 12 7 11
-3.37976 -3.84982 0.42645 24 27 24
-3.39164 -3.84717 0.42220 22 30 20
-3.40349 -3.84392 0.41794 23 32 21
-3.41528 -3.83996 0.41370 20 23 17
-3.42705 -3.83599 0.40947 19 18 18
-3.43863 -3.82896 0.40526 24 23 28
-3.45052 -3.82765 0.40102 32 30 25
-3.46256 -3.82843 0.39675 37 38 33
-3.47471 -3.83066 0.39246 42 47 47
-3.49072 -3.82774 0.40019 18 22 31
-3.48252 -3.83081 0.37621 65 74 83
-3.48693 -3.83347 0.38815 43 55 60
-3.49475 -3.83362 0.37189 67 72 75
-3.49920 -3.83658 0.38382 53 65 65
-3.51144 -3.83894 0.37950 65 71 61
-3.54832 -3.84605 0.36648 61 66 62
-3.55618 -3.84620 0.35013 41 47 57
-3.56019 -3.84335 0.36223 51 55 63
-3.56805 -3.84350 0.34588 44 50 53
-3.57200 -3.84006 0.35799 48 53 57
-3.57985 -3.84021 0.34165 47 49 52
-4.23885 -4.76738 0.13268 190 189 185
-4.22345 -4.76917 0.13818 192 194 190
-4.21814 -4.77116 0.12267 188 189 188
-4.24895 -4.76758 0.11168 198 200 196
-4.25525 -4.76992 0.12688 191 190 189
-4.26536 -4.77011 0.10586 194 193 194
-4.28395 -4.75739 0.11652 194 197 204
-4.27865 -4.75937 0.10103 193 194 201
-4.32251 -4.72161 0.10236 217 219 219
-4.31725 -4.72358 0.08698 213 214 215
-4.33379 -4.70405 0.09813 203 203 207
-4.39899 -4.65500 0.07433 194 196 202
-4.40888 -4.65519 0.05376 188 190 190
-4.41441 -4.65446 0.06884 194 198 200
-4.46967 -4.68414 0.04957 213 217 218
-4.47964 -4.68433 0.02883 226 231 228
-4.54530 -4.72626 0.02321 200 202 204
-4.55539 -4.72646 0.00224 205 210 211
-4.68939 -4.63287 -0.02919 196 201 207
-2.82508 -3.73187 0.60936 35 26 36
-2.80987 -3.73464 0.60200 28 27 23
-2.83473 -3.74465 0.60603 52 52 45
-2.84419 -3.76000 0.60280 67 66 59
-2.85168 -3.76014 0.58723 71 67 63
-3.19448 -4.07711 0.48092 67 71 73
-3.20693 -4.10189 0.47670 132 146 136
-3.21967 -4.09859 0.47214 116 110 90
-3.23238 -3.98816 0.46664 56 41 32
-3.24476 -3.99415 0.46229 29 25 27
-3.25710 -3.98787 0.45784 39 35 37
-3.26926 -3.96735 0.45333 44 45 52
-3.28578 -3.96434 0.46131 50 56 62
-3.35126 -3.83914 0.42301 53 63 66
-3.34347 -3.83899 0.43922 38 37 49
-3.33528 -3.84205 0.41528 56 55 59
-3.34717 -3.84067 0.41104 59 58 62
-3.35905 -3.83929 0.40680 57 58 65
-3.38671 -3.83023 0.41031 66 82 64
-3.39449 -3.83038 0.39412 102 111 104
-3.39910 -3.83966 0.40598 77 96 74
-3.41105 -3.83918 0.40172 67 75 54
-3.42318 -3.84162 0.39743 52 56 38
-3.43099 -3.84177 0.38117 66 65 64
-3.43484 -3.83571 0.39323 54 60 54
-3.44675 -3.83436 0.38898 61 67 55
-3.45871 -3.83382 0.38471 62 72 60
-3.47079 -3.83483 0.38042 68 76 76
-3.50699 -3.83629 0.36755 68 66 65
-3.51949 -3.84170 0.36315 56 55 59
-3.52733 -3.84185 0.34683 43 37 38
-3.53205 -3.84722 0.35873 54 58 50
-3.53991 -3.84737 0.34238 43 39 49
-3.54454 -3.85148 0.35432 50 52 53
-3.55241 -3.85163 0.33795 40 45 51
-4.28852 -4.73473 0.09730 197 199 207
-4.26794 -4.73848 0.08736 195 195 198
-4.28325 -4.73670 0.08189 195 194 199
-4.30189 -4.72506 0.09245 205 205 209
-4.32577 -4.69501 0.08369 207 209 212
-4.32054 -4.69697 0.06840 214 218 217
-4.33572 -4.69520 0.06298 212 216 214
-4.34164 -4.69594 0.07805 199 200 204
-4.35161 -4.69613 0.05733 208 214 213
-4.37829 -4.65710 0.06466 205 209 205
-4.35801 -4.66079 0.05487 209 212 212
-4.37309 -4.65904 0.04948 212 217 213
-4.43829 -4.64901 0.04323 211 217 219
-4.44817 -4.64920 0.02268 217 220 221
-4.69418 -4.61813 -0.04812 219 220 221
-4.71444 -4.61444 -0.03833 219 216 219
-4.70925 -4.61638 -0.05350 227 223 225
-4.70406 -4.61832 -0.06867 220 225 224
-5.45072 -4.47674 -0.31866 208 210 216
-5.44096 -4.47656 -0.29836 197 199 208
-5.43583 -4.47848 -0.31335 201 204 207
-5.43070 -4.48039 -0.32834 203 196 201
-5.47073 -4.47310 -0.30899 217 217 224
-5.46561 -4.47501 -0.32398 219 219 223
-2.81939 -3.74804 0.59868 32 30 34
-2.80411 -3.75083 0.59130 28 27 19
-2.82907 -3.76089 0.59529 46 48 46
-2.83824 -3.77903 0.59212 64 64 57
-2.84576 -3.77918 0.57646 68 66 67
-3.17699 -4.11412 0.47306 7 13 35
-3.16863 -4.11396 0.49044 12 11 17
-3.16424 -4.11560 0.47761 12 12 23
-3.15985 -4.11725 0.46477 12 15 22
-3.20251 -4.10827 0.46393 138 155 160
-3.21525 -4.10778 0.45939 173 175 160
-3.22801 -4.09268 0.45476 135 122 100
-3.24050 -3.99548 0.44983 80 70 50
-3.25290 -3.99922 0.44543 48 33 20
-3.27720 -3.95780 0.43656 39 39 39
-3.28897 -3.92599 0.43221 49 49 50
-3.30531 -3.92301 0.44010 55 54 57
-3.30113 -3.92458 0.42787 49 54 56
-3.29694 -3.92615 0.41563 48 42 49
-3.37072 -3.83226 0.40261 63 64 71
-3.35476 -3.83517 0.39489 60 57 62
-3.38310 -3.84269 0.39825 87 93 92
-3.40695 -3.84069 0.38973 90 95 83
-3.41887 -3.83942 0.38548 72 74 60
-3.44276 -3.83778 0.37696 63 63 61
-3.45471 -3.83698 0.37269 58 62 58
-3.46667 -3.83612 0.36843 61 65 72
-3.47850 -3.83351 0.36420 63 65 79
-3.48631 -3.83366 0.34795 60 55 63
-3.49063 -3.83507 0.35988 67 65 72
-3.50321 -3.84203 0.35543 58 54 60
-3.51104 -3.84218 0.33913 39 40 43
-3.51565 -3.84670 0.35102 45 40 49
-3.52350 -3.84685 0.33469 42 40 44
-3.64159 -3.88609 0.30634 45 37 43
-3.62943 -3.88751 0.31068 35 34 28
-3.64577 -3.88453 0.31858 41 37 44
-3.63740 -3.88766 0.29410 88 88 92
-3.65374 -3.88468 0.30200 75 76 94
-3.64956 -3.88625 0.28976 149 156 157
-4.38594 -4.64898 0.04486 213 220 210
-4.36571 -4.65267 0.03508 216 220 218
-4.38075 -4.65092 0.02971 217 221 218
-4.39580 -4.64917 0.02434 220 224 217
-4.40293 -4.65437 0.03883 206 209 204
-4.41281 -4.65456 0.01827 220 223 214
-4.46273 -4.64564 0.01747 218 223 226
-4.50368 -4.67886 0.00304 214 218 222
-4.49844 -4.68082 -0.01226 226 234 228
-5.45797 -4.47230 -0.33809 211 209 212
-5.43798 -4.47594 -0.34776 202 203 208
-5.45285 -4.47421 -0.35307 210 211 212
-5.47796 -4.46865 -0.32843 214 215 214
-5.47284 -4.47057 -0.34340 211 209 209
-2.81365 -3.76432 0.58791 26 25 28
-2.79831 -3.76711 0.58049 27 24 19
-2.80972 -3.76579 0.57642 26 22 25
-2.82348 -3.77621 0.58441 40 42 48
-2.83274 -3.79380 0.58113 58 61 59
-2.84029 -3.79394 0.56542 67 67 67
-3.17261 -4.11504 0.46021 8 17 33
-3.15547 -4.11816 0.45193 13 15 18
-3.19807 -4.11621 0.45113 123 143 155
-3.22361 -4.10760 0.44201 193 189 177
-3.24888 -4.05684 0.43293 125 106 78
-3.28497 -3.93969 0.41992 48 40 39
-3.31965 -3.85928 0.40745 49 47 57
-3.31183 -3.85913 0.42373 49 52 61
-3.30772 -3.86066 0.41171 47 41 49
-3.32377 -3.85774 0.41947 55 54 68
-3.33138 -3.85040 0.40326 52 51 56
-3.34329 -3.84902 0.39900 59 57 58
-3.36682 -3.83869 0.39060 64 65 76
-3.37887 -3.84137 0.38630 76 82 91
-3.39098 -3.84455 0.38198 77 83 91
-3.40286 -3.84248 0.37774 68 73 81
-3.41067 -3.84263 0.36149 58 56 63
-3.41446 -3.83507 0.37359 59 60 68
-3.42225 -3.83522 0.35738 47 41 53
-3.42638 -3.83422 0.36934 50 43 60
-3.43829 -3.83319 0.36508 44 40 52
-3.44609 -3.83334 0.34886 37 36 36
-3.45022 -3.83224 0.36083 42 43 47
-3.46270 -3.83973 0.35638 47 49 54
-3.47452 -3.83683 0.35216 54 54 66
-4.12549 -4.60998 0.12075 189 194 187
-4.13520 -4.61017 0.10056 188 193 184
-4.23493 -4.68856 0.08179 208 210 206
-4.22502 -4.68837 0.10240 199 203 199
-4.21982 -4.69032 0.08718 203 209 203
-4.22973 -4.69051 0.06656 213 218 214
-4.24485 -4.68875 0.06117 211 212 206
-4.43933 -4.63820 0.00879 207 212 211
-4.41913 -4.64189 -0.00098 211 213 212
-4.43416 -4.64014 -0.00634 204 208 209
-4.44919 -4.63839 -0.01171 205 214 214
-4.44973 -4.62025 0.00506 206 209 213
-4.45955 -4.62044 -0.01536 218 226 226
-4.62770 -4.59424 -0.05848 204 205 207
-4.61790 -4.59405 -0.03809 204 209 210
-4.61275 -4.59598 -0.05314 210 215 213
-5.32949 -4.44876 -0.30907 193 195 201
-5.33915 -4.44895 -0.32917 208 214 214
-5.46614 -4.46957 -0.35781 212 208 211
-5.46102 -4.47149 -0.37277 226 226 222
-5.48611 -4.46593 -0.34816 210 204 206
-5.48100 -4.46785 -0.36312 208 197 205
-2.81872 -3.78441 0.57315 37 35 46
-2.80329 -3.78722 0.56569 28 24 28
-2.82795 -3.80224 0.56980 54 57 57
-3.18077 -4.12947 0.44286 23 34 43
-3.19364 -4.12116 0.43829 110 130 146
-3.20637 -4.12590 0.43373 170 179 186
-3.21925 -4.09936 0.42919 194 196 198
-3.24462 -4.08191 0.42018 205 200 184
-3.29177 -3.86970 0.40390 90 72 52
-3.31556 -3.86136 0.39543 45 40 37
-3.32738 -3.85583 0.39122 42 43 43
-3.33927 -3.85335 0.38698 53 55 56
-3.35111 -3.84960 0.38276 63 65 70
-3.36292 -3.84529 0.37855 76 82 82
-3.37492 -3.84630 0.37426 87 98 92
-3.38688 -3.84612 0.36999 83 91 87
-3.39469 -3.84627 0.35374 58 62 64
-3.39892 -3.84729 0.36568 70 72 74
-3.40673 -3.84744 0.34942 53 50 56
-3.45847 -3.83933 0.34443 41 40 35
-3.45436 -3.84086 0.33243 38 31 29
-3.47023 -3.83564 0.34023 46 46 52
-3.48292 -3.84511 0.33567 48 46 50
-3.49075 -3.84526 0.31938 41 38 31
-3.60493 -3.85489 0.29205 81 78 72
-3.59704 -3.85474 0.30846 46 41 43
-3.59290 -3.85629 0.29635 61 50 58
-3.60908 -3.85334 0.30416 39 38 38
-3.61696 -3.85349 0.28776 124 120 127
-3.61282 -3.85504 0.27565 203 208 202
-4.07188 -4.75414 0.12279 159 163 164
-4.05661 -4.75592 0.12824 154 154 155
-4.07714 -4.75218 0.13817 159 167 165
-4.09242 -4.75040 0.13271 167 173 177
-4.08716 -4.75237 0.11734 164 173 174
-4.08190 -4.75434 0.10196 164 171 173
-4.10832 -4.62693 0.11012 176 180 174
-4.10320 -4.62884 0.09516 178 181 175
-4.11806 -4.62712 0.08986 179 180 181
-4.11963 -4.60823 0.10613 186 192 188
-4.12933 -4.60841 0.08595 186 189 185
-4.18638 -4.63526 0.08220 191 192 189
-4.17660 -4.63507 0.10254 186 190 193
-4.17146 -4.63699 0.08753 188 188 185
-4.20324 -4.64211 0.07616 203 207 204
-4.21303 -4.64230 0.05578 217 220 216
-4.62566 -4.60565 -0.07467 191 191 198
-4.65735 -4.60728 -0.08600 210 215 215
-4.67753 -4.60360 -0.07625 202 207 208
-4.67236 -4.60553 -0.09135 212 214 210
-4.66719 -4.60747 -0.10646 221 225 218
-5.30618 -4.44548 -0.31738 187 194 192
-5.29146 -4.44719 -0.31213 192 197 192
-5.32059 -4.44319 -0.32252 196 204 203
-5.33023 -4.44337 -0.34258 213 211 211
-5.41404 -4.44265 -0.35591 193 202 212
-5.45896 -4.41022 -0.37187 207 204 204
-5.43926 -4.41381 -0.38139 218 215 215
-5.46400 -4.40833 -0.35712 202 198 207
-5.45391 -4.41211 -0.38662 213 211 211
-5.47361 -4.40852 -0.37710 203 199 202
-2.53139 -4.09939 0.66092 16 15 24
-2.52324 -4.09923 0.67787 11 8 16
-2.51896 -4.10083 0.66536 11 7 11
-2.51468 -4.10244 0.65284 12 7 7
-2.54811 -4.09634 0.66900 26 26 28
-2.54383 -4.09794 0.65648 25 27 26
-2.81346 -3.79662 0.56199 36 30 41
-2.79798 -3.79944 0.55451 26 24 29
-2.82290 -3.81283 0.55851 50 52 49
-2.83417 -3.81411 0.55447 64 67 61
-2.84974 -3.81127 0.56199 72 68 68
-2.84575 -3.81276 0.55033 71 69 67
-2.84176 -3.81425 0.53867 70 70 66
-3.17634 -4.13311 0.42998 13 25 37
-3.15912 -4.13625 0.42166 14 12 19
-3.18900 -4.14354 0.42538 100 118 136
-3.20188 -4.13820 0.42081 163 175 181
-3.21029 -4.13836 0.40331 187 191 202
-3.21489 -4.09786 0.41641 192 195 199
-3.24024 -4.07257 0.40751 214 215 221
-3.24852 -4.07273 0.39030 222 224 229
-3.25272 -4.04572 0.40322 226 226 219
-3.26094 -4.04588 0.38613 232 233 237
-3.26494 -4.00855 0.39909 228 228 213
-3.28795 -3.88979 0.39164 191 185 146
-3.29989 -3.88437 0.38740 151 150 96
-3.31075 -3.83214 0.38386 99 93 57
-3.33520 -3.85611 0.37495 49 44 42
-3.34302 -3.85626 0.35869 52 38 39
-3.34709 -3.85359 0.37072 58 60 63
-3.35914 -3.85574 0.36639 66 71 69
-3.37100 -3.85264 0.36217 66 75 71
-3.38300 -3.85283 0.35788 62 72 70
-3.39082 -3.85298 0.34161 46 54 59
-3.41814 -3.83638 0.34541 47 40 46
-3.40215 -3.83929 0.33769 48 47 49
-3.46608 -3.83648 0.32826 40 37 43
-3.47887 -3.84761 0.32361 43 45 47
-3.51789 -3.88242 0.30943 38 39 40
-3.50580 -3.88383 0.31374 37 36 32
-3.50164 -3.88539 0.30158 90 70 58
-3.52205 -3.88087 0.32160 40 46 45
-3.53414 -3.87946 0.31728 45 51 46
-3.53121 -3.89562 0.30458 42 47 36
-3.54752 -3.89264 0.31246 48 49 44
-3.54334 -3.89420 0.30025 48 46 34
-3.60262 -3.87380 0.27917 173 176 170
-3.61054 -3.87395 0.26269 219 222 222
-4.03491 -4.75328 0.11878 146 154 153
-4.02491 -4.75309 0.13957 145 147 147
-4.01966 -4.75506 0.12422 146 145 149
-4.04016 -4.75132 0.13413 149 151 150
-4.02966 -4.75525 0.10342 156 161 155
-4.04964 -4.74871 0.11354 154 158 153
-4.05963 -4.74891 0.09275 168 174 167
-4.06109 -4.72698 0.10958 162 167 164
-4.07104 -4.72717 0.08889 169 168 172
-4.15935 -4.60695 0.07522 196 197 189
-4.14964 -4.60677 0.09540 184 183 178
-4.13945 -4.61058 0.06560 199 200 198
-4.15425 -4.60886 0.06032 201 203 198
-4.17760 -4.62077 0.06860 201 202 196
-4.19321 -4.62241 0.06300 212 214 212
-4.31827 -4.57287 0.01859 212 219 222
-4.33810 -4.56925 0.02817 216 218 219
-4.33302 -4.57115 0.01332 212 216 221
-5.28791 -4.45209 -0.32750 200 207 207
-5.27826 -4.45191 -0.30742 196 193 196
-5.26812 -4.45570 -0.33706 199 204 212
-5.28284 -4.45399 -0.34232 201 205 215
-5.29756 -4.45228 -0.34757 212 221 223
-5.30045 -4.44607 -0.33195 206 215 211
-5.31009 -4.44626 -0.35200 217 220 219
-5.30873 -4.43176 -0.33481 212 216 212
-5.40100 -4.42961 -0.36781 183 186 204
-5.42213 -4.43990 -0.37543 199 210 220
-5.43179 -4.44009 -0.39553 214 215 221
-2.52711 -4.10099 0.64840 15 12 13
-2.51040 -4.10404 0.64032 16 10 5
-2.52283 -4.10259 0.63588 14 10 5
-2.80861 -3.80531 0.55064 32 26 37
-2.79309 -3.80814 0.54314 26 26 26
-2.81861 -3.81679 0.54694 46 47 46
-2.82931 -3.82307 0.54304 61 66 63
-2.83692 -3.82322 0.52721 70 71 65
-3.18432 -4.16529 0.41233 90 103 124
-3.22322 -4.09659 0.39911 200 203 207
-3.23590 -4.07899 0.39475 210 213 221
-3.27301 -4.00225 0.38226 238 238 237
-3.25635 -4.00529 0.37420 230 231 235
-3.26874 -4.00385 0.36978 237 237 240
-3.28113 -4.00241 0.36536 241 242 244
-3.28492 -3.96747 0.37835 244 243 228
-3.29633 -3.91797 0.37478 243 241 210
-3.30808 -3.89931 0.37076 198 193 158
-3.31897 -3.85105 0.36736 125 107 75
-3.33125 -3.86320 0.36284 70 51 35
-3.35521 -3.86226 0.35427 49 41 45
-3.36716 -3.86089 0.35000 44 48 56
-3.37499 -3.86104 0.33371 44 41 51
-3.37914 -3.86045 0.34571 42 54 65
-3.38698 -3.86060 0.32941 44 42 48
-3.41412 -3.83945 0.33340 48 40 38
-3.39813 -3.84237 0.32567 46 44 47
-3.42593 -3.83640 0.32920 55 39 35
-3.43778 -3.83439 0.32498 59 43 32
-3.45023 -3.84198 0.32044 54 40 33
-3.46238 -3.84411 0.31607 64 52 60
-3.47751 -3.88878 0.31018 88 93 97
-3.48886 -3.87721 0.30624 96 83 67
-3.51630 -3.91619 0.29601 88 72 69
-3.55929 -3.84867 0.28131 169 166 157
-3.57360 -3.87127 0.27595 197 204 186
-3.58151 -3.87142 0.25949 228 228 230
-3.58603 -3.87342 0.27147 216 224 216
-3.59395 -3.87357 0.25500 222 223 227
-3.59868 -3.87748 0.26690 222 225 222
-3.60661 -3.87764 0.25040 218 219 223
-4.03592 -4.70488 0.10170 159 168 161
-4.01565 -4.70857 0.09190 157 157 153
-4.03073 -4.70682 0.08652 162 166 157
-4.16773 -4.60114 0.05557 211 215 208
-4.18104 -4.59287 0.05089 226 229 222
-4.19598 -4.59191 0.04555 225 225 217
-4.21582 -4.58830 0.05514 211 211 205
-4.20565 -4.59210 0.02542 207 208 205
-4.73256 -4.46015 -0.14528 209 212 212
-4.71803 -4.46184 -0.14009 212 217 222
-4.73756 -4.45828 -0.13066 215 219 217
-4.72755 -4.46202 -0.15990 203 201 202
-4.75208 -4.45659 -0.13584 214 213 214
-4.74708 -4.45846 -0.15047 208 208 210
-5.40285 -4.41525 -0.38490 212 215 223
-5.41244 -4.41544 -0.40486 219 223 221
-2.80369 -3.81444 0.53925 31 27 29
-2.78814 -3.81728 0.53174 28 25 22
-2.81433 -3.82073 0.53535 45 43 44
-2.82458 -3.83079 0.53153 60 63 64
-2.83220 -3.83093 0.51567 69 71 67
-3.16744 -4.14063 0.40416 4 8 30
-3.15021 -4.14377 0.39584 17 16 14
-3.17976 -4.17557 0.39925 76 85 109
-3.19266 -4.17763 0.39459 147 165 175
-3.20577 -4.15459 0.39022 181 185 200
-3.21878 -4.11656 0.38610 199 200 208
-3.23154 -4.09443 0.38183 209 211 220
-3.29216 -3.91958 0.36258 244 245 246
-3.27587 -3.92254 0.35471 242 242 245
-3.28799 -3.92114 0.35038 245 246 248
-3.30010 -3.91973 0.34606 249 249 249
-3.30414 -3.91131 0.35840 242 241 230
-3.31643 -3.91842 0.35389 215 208 171
-3.32831 -3.90792 0.34978 153 133 89
-3.33936 -3.87249 0.34632 99 70 44
-3.35122 -3.86775 0.34213 68 47 35
-3.36311 -3.86438 0.33792 51 42 43
-3.41000 -3.84046 0.32144 62 57 60
-3.42446 -3.88623 0.31560 103 97 89
-3.43689 -3.89125 0.31108 126 124 105
-3.44799 -3.87387 0.30734 130 125 108
-3.46078 -3.88443 0.30260 157 151 138
-3.47086 -3.85395 0.29942 202 206 189
-3.48493 -3.88192 0.29398 220 222 195
-3.49730 -3.88465 0.28950 213 209 190
-3.51000 -3.89110 0.28486 211 212 196
-3.52268 -3.89671 0.28023 220 224 204
-3.53553 -3.90365 0.27553 230 232 210
-3.54792 -3.90493 0.27106 234 236 226
-3.55590 -3.90508 0.25447 234 233 237
-3.55851 -3.88641 0.26753 236 237 227
-3.56645 -3.88656 0.25102 230 232 234
-3.57016 -3.88024 0.26344 233 233 230
-3.57809 -3.88039 0.24695 226 228 230
-4.14197 -4.57747 0.04846 200 198 196
-4.12729 -4.57918 0.05371 195 191 193
-4.15160 -4.57766 0.02843 209 212 208
-4.15953 -4.58887 0.04200 213 214 208
-4.17417 -4.58671 0.03679 224 224 219
-4.18626 -4.57335 0.03264 219 217 210
-4.19589 -4.57353 0.01261 205 206 203
-4.72178 -4.48798 -0.15820 208 210 203
-4.70717 -4.48967 -0.15299 210 218 213
-4.71675 -4.48986 -0.17291 210 210 200
-4.73136 -4.48816 -0.17813 212 210 202
-2.79910 -3.82077 0.52774 32 28 20
-2.78353 -3.82360 0.52022 29 22 24
-2.79511 -3.82226 0.51608 31 24 19
-2.80967 -3.82770 0.52382 43 36 39
-2.81946 -3.84172 0.52005 58 58 58
-3.16274 -4.15812 0.39108 7 9 28
-3.14544 -4.16127 0.38272 16 18 14
-3.17511 -4.19021 0.38606 68 76 100
-3.18806 -4.19175 0.38138 141 158 171
-3.20103 -4.19358 0.37669 180 183 196
-3.20955 -4.19374 0.35895 194 195 204
-3.21422 -4.15396 0.37267 196 198 206
-3.23988 -4.10481 0.36434 221 218 228
-3.24822 -4.10497 0.34700 226 226 232
-3.32381 -3.89672 0.33796 241 235 205
-3.33665 -3.92214 0.33289 205 192 150
-3.34946 -3.94148 0.32794 149 134 100
-3.36013 -3.89739 0.32491 107 88 69
-3.37137 -3.87522 0.32127 89 65 54
-3.38341 -3.87484 0.31695 85 63 56
-3.39628 -3.89235 0.31201 88 79 82
-3.40771 -3.87828 0.30816 111 118 134
-3.42983 -3.84172 0.30088 206 210 192
-3.44193 -3.84357 0.29650 228 230 207
-3.45355 -3.83758 0.29244 245 246 230
-3.46135 -3.83773 0.27622 254 254 254
-3.46735 -3.86454 0.28700 253 251 244
-3.47521 -3.86469 0.27064 254 254 254
-3.48011 -3.87406 0.28224 254 254 249
-3.48800 -3.87421 0.26584 254 254 253
-3.49362 -3.89265 0.27706 252 252 248
-3.50156 -3.89281 0.26056 249 249 249
-3.50644 -3.90056 0.27231 251 250 247
-3.51440 -3.90072 0.25577 246 245 246
-3.53148 -3.90689 0.26321 245 246 246
-3.53945 -3.90704 0.24662 238 238 240
-3.54373 -3.90649 0.25881 239 238 240
-3.55171 -3.90665 0.24222 234 232 237
-3.87574 -4.63127 0.12652 135 138 148
-3.86099 -4.63298 0.13179 131 132 136
-3.87066 -4.63317 0.11166 137 136 143
-3.89559 -4.62765 0.13611 148 156 149
-3.89050 -4.62955 0.12125 143 150 150
-3.88542 -4.63145 0.10639 143 147 149
-4.02236 -4.52929 0.07572 174 167 161
-4.00788 -4.53097 0.08088 165 163 151
-4.02734 -4.52742 0.09028 173 174 167
-4.04181 -4.52574 0.08512 177 176 174
-4.03634 -4.52507 0.07077 180 178 176
-4.05578 -4.52153 0.08017 177 179 179
-4.05080 -4.52339 0.06561 179 180 178
-4.04582 -4.52526 0.05105 187 186 183
-4.08818 -4.56151 0.05150 188 187 180
-4.07357 -4.56321 0.05672 179 176 176
-4.09321 -4.55963 0.06621 185 192 187
-4.10781 -4.55793 0.06099 193 195 192
-4.10288 -4.56031 0.04624 192 191 181
-4.11246 -4.56049 0.02632 206 208 200
-4.11906 -4.56605 0.04033 198 197 192
-4.12866 -4.56623 0.02037 204 206 201
-4.13524 -4.57154 0.03442 204 207 205
-4.16664 -4.57753 0.02304 210 211 209
-4.18112 -4.57490 0.01788 204 204 204
-2.06507 -4.24290 0.76935 36 35 25
-2.05673 -4.24274 0.78669 67 59 53
-2.05235 -4.24438 0.77389 83 80 57
-2.08217 -4.23978 0.77761 15 12 17
-2.80439 -3.83965 0.51237 38 28 35
-2.78873 -3.84250 0.50480 27 23 22
-2.81449 -3.85115 0.50848 53 52 51
-2.82567 -3.85420 0.50440 67 68 68
-2.84140 -3.85133 0.51200 73 72 65
-2.83737 -3.85284 0.50022 74 70 72
-2.83334 -3.85435 0.48844 72 69 70
-3.15750 -4.20103 0.37751 9 14 31
-3.14001 -4.20422 0.36906 16 18 22
-3.16603 -4.20119 0.35977 56 59 67
-3.17057 -4.19576 0.37292 61 70 85
-3.19645 -4.20533 0.36341 178 181 190
-3.20500 -4.20550 0.34563 195 196 204
-3.32014 -3.91739 0.32524 254 254 250
-3.30385 -3.92036 0.31737 253 253 253
-3.31597 -3.91895 0.31305 254 254 254
-3.32808 -3.91755 0.30873 254 254 254
-3.33242 -3.92224 0.32072 254 252 236
-3.34038 -3.92240 0.30417 254 254 253
-3.34453 -3.91998 0.31642 248 246 218
-3.35605 -3.90111 0.31269 231 227 196
-3.36824 -3.90263 0.30827 211 206 181
-3.37881 -3.86525 0.30529 201 196 172
-3.39004 -3.84764 0.30164 199 198 171
-3.40356 -3.87952 0.29608 205 209 197
-3.41358 -3.83975 0.29335 221 221 221
-3.42538 -3.83678 0.28917 230 231 234
-3.43316 -3.83693 0.27297 254 254 252
-3.43717 -3.83386 0.28500 241 243 245
-3.44495 -3.83401 0.26880 254 254 253
-3.44978 -3.84438 0.28023 251 251 251
-3.45759 -3.84453 0.26398 254 254 254
-3.76224 -4.48872 0.15380 164 165 161
-3.78137 -4.48524 0.16304 141 140 134
-3.77647 -4.48707 0.14872 147 149 143
-3.77157 -4.48890 0.13440 144 148 133
-3.85320 -4.61636 0.11831 134 137 138
-3.84357 -4.61617 0.13835 135 137 135
-3.83850 -4.61807 0.12355 140 143 140
-3.83344 -4.61996 0.10876 149 160 151
-3.98747 -4.52925 0.07194 168 174 163
-3.97800 -4.52906 0.09165 160 164 155
-3.97302 -4.53093 0.07710 163 159 160
-3.99245 -4.52738 0.08649 165 170 154
-4.00056 -4.52017 0.06743 176 179 168
-4.01521 -4.51964 0.06218 181 175 171
-4.03087 -4.52437 0.05645 183 182 178
-4.04034 -4.52455 0.03674 186 187 184
-4.06296 -4.53706 0.04463 190 187 188
-4.05797 -4.53893 0.03002 188 188 189
-4.08019 -4.54881 0.03818 201 204 193
-4.08974 -4.54899 0.01833 205 208 202
-4.09444 -4.54564 0.03312 206 208 198
-4.10398 -4.54582 0.01328 203 209 205
-2.06519 -4.22962 0.75530 56 54 38
-2.04815 -4.23272 0.74707 113 94 77
-2.06082 -4.23125 0.74254 86 67 59
-2.07350 -4.22977 0.73802 42 21 39
-2.19069 -4.17447 0.71154 29 21 31
-2.18247 -4.17431 0.72864 24 17 25
-2.17815 -4.17592 0.71602 23 20 21
-2.19501 -4.17285 0.72416 27 19 25
-2.19891 -4.17462 0.69445 41 34 43
-2.20862 -4.15302 0.70564 38 30 40
-2.22538 -4.14996 0.71374 46 35 33
-2.22109 -4.15157 0.70119 41 33 37
-2.79974 -3.84629 0.50074 32 26 34
-2.78406 -3.84915 0.49316 25 22 20
-2.80963 -3.85956 0.49684 46 46 46
-2.82033 -3.86683 0.49280 63 64 62
-2.82802 -3.86698 0.47679 71 70 68
-3.15232 -4.23653 0.36379 13 18 42
-3.13468 -4.23975 0.35527 18 20 31
-3.14780 -4.23822 0.35058 23 27 45
-3.19170 -4.23155 0.34975 173 178 188
-3.23110 -4.16029 0.33740 215 218 225
-3.24400 -4.15879 0.33279 227 228 234
-3.35224 -3.91291 0.30015 254 254 249
-3.33597 -3.91588 0.29228 254 254 254
-3.34807 -3.91447 0.28796 254 254 254
-3.36018 -3.91306 0.28364 254 254 254
-3.36400 -3.90211 0.29619 254 254 246
-3.37191 -3.90226 0.27973 254 254 254
-3.37590 -3.89648 0.29205 254 253 243
-3.38381 -3.89663 0.27561 253 252 252
-3.39796 -3.85023 0.28530 246 247 242
-3.40577 -3.85038 0.26906 254 253 254
-3.42110 -3.83486 0.27737 252 251 251
-3.42888 -3.83501 0.26118 254 253 254
-3.71435 -4.37277 0.15798 223 227 233
-3.70529 -4.37259 0.17681 223 229 234
-3.70054 -4.37437 0.16291 224 230 236
-3.69578 -4.37615 0.14901 224 229 236
-3.75801 -4.49581 0.13910 166 166 156
-3.76735 -4.49599 0.11968 144 149 143
-3.86398 -4.62428 0.09766 148 150 144
-3.84419 -4.62788 0.08809 155 155 144
-3.85891 -4.62617 0.08284 153 158 143
-3.87870 -4.62257 0.09240 146 154 149
-3.97842 -4.50845 0.05944 173 172 169
-3.98785 -4.50863 0.03984 182 183 177
-3.99212 -4.50307 0.05465 179 179 175
-4.00859 -4.51269 0.04847 186 186 177
-4.01803 -4.51287 0.02883 197 196 194
-4.02072 -4.49908 0.04445 188 186 181
-4.03013 -4.49926 0.02487 188 190 186
-4.07038 -4.52681 0.02587 198 201 194
-4.07987 -4.52699 0.00613 204 204 200
-5.39716 -4.36326 -0.44753 212 218 215
-5.38272 -4.36494 -0.44237 220 227 222
-5.40213 -4.36140 -0.43299 203 207 214
-5.41657 -4.35972 -0.43814 206 212 212
-5.41160 -4.36158 -0.45268 205 211 213
-5.40663 -4.36344 -0.46722 201 199 210
-2.18723 -4.17295 0.69871 38 28 38
-2.21881 -4.14567 0.68813 36 25 39
-2.23125 -4.14422 0.68369 28 17 27
-2.22696 -4.14583 0.67116 27 18 21
-2.81550 -3.87495 0.48107 61 61 56
-3.16055 -4.25742 0.34542 48 52 54
-3.14281 -4.26065 0.33685 36 32 42
-3.18684 -4.26244 0.33579 167 173 185
-3.20027 -4.23660 0.33172 192 191 203
-3.21360 -4.19537 0.32813 203 205 216
-3.22663 -4.17760 0.32396 214 216 222
-3.23954 -4.15202 0.32006 227 226 232
-3.25684 -4.14886 0.32842 235 234 239
-3.25241 -4.15052 0.31547 233 232 238
-3.24798 -4.15218 0.30251 233 233 238
-3.71223 -4.39671 0.14248 223 228 233
-3.69356 -4.40011 0.13345 227 230 234
-3.92783 -4.50034 0.06171 157 156 149
-3.91844 -4.50016 0.08124 151 158 154
-3.91351 -4.50201 0.06682 154 157 148
-3.90858 -4.50385 0.05240 156 154 154
-3.93277 -4.49850 0.07613 157 162 153
-3.94294 -4.50324 0.05618 164 170 164
-3.99641 -4.47566 0.03772 195 193 186
-3.97723 -4.47915 0.02845 179 179 181
-3.99150 -4.47750 0.02336 189 189 188
-4.00576 -4.47584 0.01827 196 195 188
-4.04159 -4.48282 0.02123 189 190 189
-4.02235 -4.48632 0.01193 190 189 183
-4.05097 -4.48300 0.00172 207 207 205
-4.05715 -4.48740 0.01549 199 202 198
-4.06654 -4.48758 -0.00405 203 203 198
-4.66777 -4.44240 -0.20326 216 219 215
-4.67723 -4.44258 -0.22292 218 223 216
-5.38919 -4.35957 -0.46082 211 203 207
-5.39865 -4.35975 -0.48049 207 202 210
-2.16238 -4.20479 0.69250 36 29 32
-2.15804 -4.20641 0.67979 46 44 40
-2.17066 -4.20495 0.67529 44 37 41
-2.19677 -4.16824 0.68131 41 33 46
-2.21095 -4.16055 0.67645 33 21 32
-2.21914 -4.16071 0.65942 26 20 16
-2.78952 -3.86655 0.47747 23 20 22
-2.77377 -3.86943 0.46986 23 23 16
-2.78549 -3.86807 0.46567 22 20 19
-2.80005 -3.87488 0.47340 36 31 40
-2.81075 -3.88229 0.46929 59 56 53
-2.82266 -3.87988 0.46507 71 69 66
-2.83849 -3.87699 0.47272 72 72 71
-2.83443 -3.87851 0.46087 74 72 70
-2.83038 -3.88003 0.44901 74 71 67
-3.15585 -4.26666 0.33194 39 46 53
-3.13808 -4.26990 0.32335 40 35 44
-3.16978 -4.22181 0.32841 110 126 139
-3.18221 -4.26987 0.32232 161 168 182
-3.19551 -4.26291 0.31775 187 188 196
-3.20418 -4.26308 0.29972 198 198 209
-3.22217 -4.18120 0.31086 212 214 223
-3.23512 -4.16448 0.30674 224 224 229
-3.70909 -4.41246 0.12744 225 229 230
-3.69035 -4.41587 0.11839 226 232 235
-3.70429 -4.41425 0.11341 225 230 231
-3.74179 -4.44805 0.11445 166 170 164
-3.75791 -4.46243 0.10815 146 153 143
-3.77690 -4.45896 0.11733 140 143 143
-3.77203 -4.46078 0.10311 143 150 141
-3.76717 -4.46260 0.08890 140 142 142
-3.92379 -4.50752 0.04679 159 155 155
-3.94709 -4.47323 0.03953 175 173 155
-3.96133 -4.47158 0.03445 180 176 165
-3.95643 -4.47341 0.02012 184 183 170
-4.03206 -4.46105 0.00927 199 198 197
-4.02716 -4.46288 -0.00505 201 204 201
-4.04138 -4.46123 -0.01013 203 206 202
-4.20778 -4.40137 -0.05215 204 205 199
-4.22673 -4.39791 -0.04299 203 202 206
-4.22187 -4.39973 -0.05718 203 205 204
-4.42826 -4.45786 -0.13359 214 216 208
-4.40894 -4.46138 -0.14293 211 211 208
-4.42331 -4.45971 -0.14806 226 228 219
-4.76059 -4.34576 -0.24977 203 204 207
-4.75133 -4.34558 -0.23052 204 207 206
-4.74646 -4.34740 -0.24473 202 204 203
-4.74160 -4.34922 -0.25895 210 208 208
-4.77957 -4.34230 -0.24060 210 218 218
-4.76984 -4.34594 -0.26903 218 226 225
-2.06040 -4.24753 0.71354 83 69 57
-2.05206 -4.24737 0.73089 106 85 69
-2.04330 -4.25065 0.70528 116 104 98
-2.06478 -4.24589 0.72635 60 42 46
-2.05602 -4.24917 0.70074 97 87 68
-2.18657 -4.19141 0.67004 37 27 40
-2.16966 -4.19450 0.66187 36 26 30
-2.19482 -4.19157 0.65289 24 20 20
-2.80448 -3.90211 0.45754 56 49 51
-2.81629 -3.90105 0.45332 70 66 62
-2.82405 -3.90120 0.43717 71 70 68
-3.16518 -4.22865 0.31509 100 111 131
-3.17757 -4.27793 0.30878 154 167 177
-3.19093 -4.26723 0.30435 182 184 191
-3.21767 -4.19241 0.29747 210 212 222
-3.23066 -4.18769 0.29295 221 219 228
-3.23917 -4.18785 0.27525 229 229 234
-3.24355 -4.15462 0.28953 230 229 237
-3.26085 -4.15146 0.29789 239 239 242
-3.25642 -4.15312 0.28493 236 235 241
-3.25199 -4.15478 0.27197 235 235 239
-3.73763 -4.45537 0.09984 163 165 163
-3.75260 -4.46072 0.09423 143 147 145
-3.76185 -4.46090 0.07499 135 138 130
-3.88951 -4.50853 0.04299 149 149 147
-3.88012 -4.50835 0.06252 141 143 145
-3.87518 -4.51020 0.04810 141 143 141
-3.87025 -4.51204 0.03368 143 142 138
-3.89444 -4.50669 0.05741 149 150 149
-3.90495 -4.51378 0.03721 161 163 159
-3.91802 -4.50433 0.03284 159 158 162
-3.92741 -4.50451 0.01331 165 173 175
-3.95923 -4.40811 0.02153 180 180 185
-3.97503 -4.41625 0.01552 189 190 187
-3.99030 -4.42113 0.00982 200 200 187
-4.66052 -4.45380 -0.23354 208 217 217
-4.67120 -4.44143 -0.23694 213 224 215
-4.69057 -4.43790 -0.22758 218 218 208
-4.68561 -4.43976 -0.24209 210 210 204
-4.68065 -4.44162 -0.25659 204 206 204
-2.07448 -4.22853 0.69491 48 35 30
-2.05746 -4.23163 0.68668 104 93 77
-2.08277 -4.22869 0.67764 48 37 37
-2.79021 -3.89188 0.44979 35 26 38
-2.77435 -3.89477 0.44213 30 22 29
-2.80022 -3.90517 0.44563 51 46 50
-3.14596 -4.30574 0.30414 38 43 60
-3.12803 -4.30901 0.29547 51 53 51
-3.16078 -4.22495 0.30209 92 106 124
-3.17289 -4.28660 0.29518 148 163 173
-3.18633 -4.27194 0.29092 182 185 191
-3.19988 -4.23372 0.28759 197 197 207
-3.21313 -4.20726 0.28388 210 210 218
-3.22617 -4.20290 0.27934 220 220 227
-3.23471 -4.20306 0.26158 229 230 232
-3.73304 -4.45934 0.08547 161 161 164
-3.74833 -4.46720 0.07962 139 139 140
-3.75759 -4.46738 0.06036 140 139 136
-3.88646 -4.52240 0.02739 144 145 142
-3.86715 -4.52593 0.01805 143 154 157
-3.88152 -4.52426 0.01292 144 146 153
-3.90030 -4.51740 0.02259 163 170 164
-3.91141 -4.49597 0.01945 165 167 162
-3.95396 -4.40743 0.00768 194 195 187
-3.97007 -4.41734 0.00145 192 194 195
-3.98427 -4.41657 -0.00365 209 212 202
-3.99348 -4.41674 -0.02281 208 212 205
-4.00017 -4.42476 -0.00974 213 210 197
-4.00941 -4.42494 -0.02895 212 217 210
-4.09650 -4.40279 -0.04369 187 186 184
-4.08729 -4.40261 -0.02453 197 202 199
-4.08245 -4.40442 -0.03867 188 184 186
-4.09166 -4.40459 -0.05783 194 194 187
-4.11538 -4.39934 -0.03456 200 204 202
-4.11039 -4.40043 -0.04861 200 205 201
-4.12927 -4.39699 -0.03949 202 204 198
-4.12443 -4.39880 -0.05363 214 220 212
-4.20620 -4.43903 -0.08486 216 218 211
-4.18709 -4.44251 -0.09409 213 217 217
-4.20130 -4.44086 -0.09916 210 214 218
-4.21552 -4.43921 -0.10424 214 216 216
-4.65752 -4.41847 -0.24728 206 211 205
-5.36177 -4.31345 -0.49773 208 209 215
-5.38092 -4.30996 -0.48847 207 211 214
-5.37601 -4.31179 -0.50281 203 207 210
-2.05065 -4.29496 0.68631 68 62 53
-2.03335 -4.29811 0.67795 109 98 82
-2.78571 -3.89681 0.43792 35 23 37
-2.76984 -3.89970 0.43025 27 21 28
-2.80677 -3.91550 0.42946 63 62 61
-3.14121 -4.31422 0.29046 40 49 62
-3.12325 -4.31750 0.28178 54 52 48
-3.15604 -4.23861 0.28848 85 99 114
-3.16822 -4.29414 0.28158 145 156 166
-3.18179 -4.27236 0.27764 179 183 193
-3.19542 -4.22954 0.27462 195 195 210
-3.20858 -4.21813 0.27037 207 207 218
-3.22168 -4.20483 0.26622 220 221 225
-3.72723 -4.45324 0.07199 160 156 164
-3.74220 -4.45892 0.06631 140 135 140
-3.75144 -4.45909 0.04709 127 131 137
-3.89227 -4.49989 0.01012 166 162 163
-3.90163 -4.50007 -0.00936 177 175 164
-3.90444 -4.48525 0.00637 173 174 164
-3.91378 -4.48543 -0.01306 174 167 161
-3.91763 -4.47724 0.00195 174 176 171
-3.92658 -4.44456 0.00017 184 188 176
-3.95218 -4.42642 -0.00829 194 199 190
-3.96140 -4.42660 -0.02747 212 212 199
-3.96728 -4.43051 -0.01394 197 199 196
-3.98225 -4.43369 -0.01950 206 210 203
-4.10683 -4.40814 -0.06348 200 201 199
-4.10198 -4.40995 -0.07764 199 193 190
-4.12191 -4.41117 -0.06908 201 203 208
-4.14084 -4.40772 -0.05993 220 221 211
-4.13689 -4.41356 -0.07461 203 203 211
-5.35044 -4.30332 -0.50920 224 227 219
-5.33135 -4.30680 -0.51843 224 227 224
-5.34555 -4.30515 -0.52349 225 228 223
-5.36643 -4.30498 -0.51507 216 221 212
-5.38064 -4.30333 -0.52014 203 206 205
-5.37575 -4.30516 -0.53444 206 208 207
-2.05602 -4.30542 0.66937 62 54 41
-2.06892 -4.30392 0.66477 44 39 36
-2.09704 -4.29292 0.65510 28 24 16
-2.07973 -4.29608 0.64674 22 14 15
-2.09260 -4.29458 0.64214 17 13 8
-2.10548 -4.29309 0.63754 21 17 15
-2.79312 -3.89970 0.42180 41 28 45
-2.80296 -3.91464 0.41751 59 54 57
-2.81442 -3.91678 0.41325 71 68 65
-2.83040 -3.91387 0.42097 76 71 73
-2.82631 -3.91540 0.40900 76 68 67
-2.82222 -3.91693 0.39704 75 69 65
-3.13644 -4.32300 0.27673 42 46 58
-3.11844 -4.32629 0.26803 56 52 48
-3.15163 -4.23491 0.27550 78 90 105
-3.16367 -4.29376 0.26827 139 150 163
-3.17715 -4.27954 0.26407 175 178 193
-3.19074 -4.24725 0.26072 193 196 208
-3.20400 -4.23175 0.25666 207 208 218
-3.21710 -4.23051 0.25197 218 219 223
-3.23021 -4.22331 0.24757 227 227 230
-3.24781 -4.22010 0.25607 234 233 239
-3.24330 -4.22179 0.24290 234 234 239
-3.23879 -4.22348 0.22972 233 234 236
-3.72332 -4.46286 0.05711 161 160 158
-3.73713 -4.45895 0.05229 132 134 136
-3.74637 -4.45913 0.03308 131 133 133
-3.81132 -4.47753 0.02448 145 143 140
-3.80203 -4.47735 0.04381 141 140 145
-3.79715 -4.47918 0.02954 146 147 152
-3.81621 -4.47571 0.03875 137 136 140
-3.82550 -4.47588 0.01942 143 145 137
-3.87097 -4.48990 0.00225 148 148 143
-3.85672 -4.49155 0.00733 141 137 139
-3.88567 -4.49115 -0.00314 169 164 167
-3.92409 -4.46047 -0.01558 175 165 159
-3.93338 -4.46065 -0.03490 204 210 196
-3.93505 -4.44021 -0.01857 194 191 189
-3.94946 -4.44033 -0.02380 211 210 204
-3.97766 -4.43696 -0.03386 202 196 199
-3.97280 -4.43877 -0.04807 193 196 192
-3.98691 -4.43713 -0.05310 201 201 196
-4.08526 -4.39899 -0.07104 203 197 192
-4.07124 -4.40062 -0.06603 200 201 196
-4.11794 -4.41700 -0.08376 190 190 188
-4.63935 -4.39831 -0.27193 211 214 211
-4.62021 -4.40180 -0.28118 223 223 218
-4.63445 -4.40014 -0.28627 220 223 218
-4.64868 -4.39849 -0.29135 216 218 218
-4.64839 -4.38191 -0.27442 208 212 211
-4.65769 -4.38209 -0.29376 209 207 208
-2.04945 -4.31418 0.65678 71 63 46
-2.06463 -4.30507 0.65175 35 27 24
-2.78858 -3.90496 0.40988 35 23 37
-2.77267 -3.90786 0.40219 26 21 23
-2.79878 -3.91692 0.40555 53 50 48
-3.14580 -4.29688 0.25964 73 72 84
-3.15912 -4.29383 0.25496 132 144 155
-3.17270 -4.27386 0.25108 171 175 187
-3.18138 -4.27403 0.23303 189 193 202
-3.18601 -4.26547 0.24668 190 193 202
-3.19936 -4.24727 0.24279 205 204 216
-3.20799 -4.24744 0.22485 215 215 222
-3.21251 -4.24762 0.23800 216 216 222
-3.22567 -4.24422 0.23340 225 225 229
-3.23429 -4.24439 0.21546 235 234 236
-3.71636 -4.44691 0.04461 165 166 157
-3.73130 -4.45271 0.03889 137 141 134
-3.74051 -4.45288 0.01972 132 138 136
-3.80506 -4.46946 0.01123 145 159 146
-3.81434 -4.46964 -0.00806 153 164 156
-3.81889 -4.46562 0.00641 149 160 155
-3.83790 -4.46216 0.01559 143 143 139
-3.82816 -4.46580 -0.01287 159 169 153
-3.83469 -4.47529 0.00017 150 152 152
-3.85048 -4.48447 -0.00605 155 156 151
-3.86430 -4.48024 -0.01085 157 158 157
-3.87917 -4.48282 -0.01638 174 173 167
-3.89299 -4.47872 -0.02118 189 190 168
-3.90231 -4.47890 -0.04056 198 202 188
-3.90678 -4.47447 -0.02597 185 183 178
-3.91778 -4.45371 -0.02887 198 201 197
-3.92705 -4.45389 -0.04815 199 197 193
-3.94522 -4.44568 -0.03841 204 205 202
-3.94036 -4.44750 -0.05263 198 194 200
-3.95862 -4.44001 -0.04298 189 194 198
-4.06279 -4.38485 -0.07791 204 211 209
-4.07194 -4.38503 -0.09694 216 216 211
-4.07931 -4.39548 -0.08447 209 216 211
-4.09819 -4.41667 -0.09243 203 204 192
-4.11370 -4.42165 -0.09833 193 197 182
-4.12295 -4.42183 -0.11756 202 197 192
-4.68406 -4.37325 -0.30287 204 205 194
-4.66501 -4.37672 -0.31207 217 224 214
-4.69601 -4.36556 -0.30680 197 198 194
-4.70528 -4.36574 -0.32609 197 198 205
-5.25385 -4.25573 -0.50358 214 217 216
-5.23504 -4.25916 -0.51267 204 208 209
-5.25867 -4.25392 -0.48950 217 219 222
-5.24903 -4.25753 -0.51766 210 215 208
-5.27266 -4.25230 -0.49449 220 224 230
-5.26302 -4.25590 -0.52266 213 215 212
-2.05848 -4.31247 0.63906 36 28 27
-2.06695 -4.31264 0.62144 26 22 24
-2.78428 -3.90822 0.39795 32 24 35
-2.76837 -3.91113 0.39026 27 25 25
-2.78021 -3.90975 0.38603 31 25 35
-2.79514 -3.91480 0.39363 47 46 42
-2.80626 -3.91966 0.38932 64 67 52
-2.81405 -3.91981 0.37311 71 72 65
-3.12737 -4.32091 0.25003 57 47 59
-3.10939 -4.32419 0.24134 52 51 50
-3.12276 -4.32264 0.23657 54 48 52
-3.14082 -4.31585 0.24542 59 66 77
-3.15452 -4.29662 0.24152 122 138 149
-3.16815 -4.27484 0.23779 166 173 186
-3.19473 -4.25977 0.22898 203 205 210
-3.20338 -4.25993 0.21099 211 212 220
-3.71037 -4.43880 0.03147 164 165 161
-3.72527 -4.44468 0.02572 135 138 136
-3.73446 -4.44486 0.00659 138 138 141
-3.76761 -4.44180 0.01049 139 143 144
-3.75841 -4.44163 0.02962 130 127 133
-3.74874 -4.44524 0.00137 146 145 142
-3.76277 -4.44361 -0.00363 152 153 142
-3.77681 -4.44198 -0.00864 148 149 143
-3.78223 -4.44458 0.00502 143 151 140
-3.79144 -4.44475 -0.01414 147 149 143
-3.79728 -4.45018 -0.00077 150 156 149
-3.84306 -4.46927 -0.01848 164 166 146
-3.83818 -4.47110 -0.03273 163 172 169
-3.85844 -4.47573 -0.02444 162 159 152
-3.87458 -4.48661 -0.03091 183 186 182
-3.88390 -4.48679 -0.05031 196 200 183
-3.88817 -4.48098 -0.03554 193 198 180
-3.89749 -4.48116 -0.05492 195 195 184
-3.96417 -4.41969 -0.05972 188 190 188
-3.97338 -4.41987 -0.07886 215 212 202
-4.03978 -4.36723 -0.08425 202 200 198
-4.02111 -4.37064 -0.09328 210 208 203
-4.03500 -4.36902 -0.09823 213 209 206
-4.04888 -4.36741 -0.10319 208 209 207
-4.09737 -4.43748 -0.10914 223 221 208
-4.07835 -4.44094 -0.11833 211 214 213
-4.09249 -4.43930 -0.12338 215 215 216
-4.11555 -4.45453 -0.11671 219 215 200
-4.14978 -4.47731 -0.13043 204 204 202
-4.15916 -4.47749 -0.14993 207 209 216
-4.59508 -4.34449 -0.28483 205 200 203
-4.58588 -4.34431 -0.26571 216 220 218
-4.57622 -4.34792 -0.29395 206 206 201
-4.59025 -4.34629 -0.29896 197 191 188
-4.61653 -4.36432 -0.29375 207 207 207
-4.62577 -4.36450 -0.31298 199 203 207
-4.77078 -4.34402 -0.34868 202 199 200
-4.78002 -4.34419 -0.36790 195 196 200
-2.79009 -3.92411 0.38157 43 41 45
-2.80118 -3.92937 0.37722 59 64 55
-2.80899 -3.92952 0.36098 71 71 67
-3.13617 -4.31954 0.23187 50 57 68
-3.11820 -4.32281 0.22319 54 55 52
-3.13157 -4.32126 0.21842 48 57 66
-3.14985 -4.30260 0.22791 113 128 136
-3.16356 -4.27883 0.22435 163 171 181
-3.17653 -4.29574 0.21861 188 190 202
-3.19001 -4.27756 0.21480 200 202 208
-3.70442 -4.43094 0.01836 166 167 161
-3.68565 -4.43437 0.00929 203 200 201
-3.71969 -4.44019 0.01225 141 145 140
-3.72887 -4.44036 -0.00684 135 139 147
-3.85309 -4.47441 -0.03835 167 173 163
-3.83403 -4.47789 -0.04756 154 152 149
-4.11134 -4.45959 -0.13146 211 207 207
-4.09222 -4.46308 -0.14070 222 223 221
-4.14462 -4.47807 -0.14468 202 200 203
-4.15399 -4.47825 -0.16418 206 208 205
-4.59768 -4.32552 -0.30042 198 198 202
-2.77338 -3.93267 0.37375 32 25 32
-2.76147 -3.93405 0.37800 26 24 23
-2.75737 -3.93559 0.36602 24 19 20
-2.78483 -3.93499 0.36943 42 38 46
-2.79556 -3.94332 0.36499 58 59 57
-3.14512 -4.31113 0.21413 106 114 130
-3.15872 -4.29538 0.21018 162 164 174
-3.17188 -4.30195 0.20496 188 187 197
-3.18518 -4.30171 0.20013 200 199 204
-3.69963 -4.43292 0.00429 161 156 160
-3.68086 -4.43634 -0.00479 203 200 197
-3.70879 -4.43309 -0.01476 131 129 141
-3.71353 -4.43071 -0.00064 137 135 143
-3.72269 -4.43088 -0.01968 132 140 150
-3.84798 -4.47475 -0.05244 173 172 164
-3.84310 -4.47657 -0.06670 177 179 166
-3.86379 -4.48385 -0.05879 192 196 188
-3.87311 -4.48403 -0.07815 193 190 181
-3.97214 -4.36355 -0.09058 209 212 207
-3.95830 -4.36516 -0.08564 196 194 203
-3.95353 -4.36694 -0.09958 184 183 199
-3.97690 -4.36177 -0.07665 217 221 203
-3.98598 -4.36194 -0.09552 210 215 199
-4.10356 -4.44786 -0.14386 228 227 221
-4.09867 -4.44969 -0.15813 227 227 220
-4.11285 -4.44804 -0.16319 225 223 214
-2.76718 -3.95042 0.36143 26 21 28
-2.75109 -3.95336 0.35366 27 22 13
-2.76306 -3.95197 0.34939 23 25 21
-2.77906 -3.94965 0.35715 36 32 44
-2.78918 -3.96328 0.35254 54 53 55
-2.80111 -3.96260 0.34823 72 67 63
-2.81727 -3.95965 0.35604 74 71 71
-2.81313 -3.96120 0.34394 77 70 68
-2.80899 -3.96275 0.33184 74 71 69
-3.00147 -4.68300 0.22639 46 43 42
-2.98194 -4.68656 0.21695 42 43 40
-3.01531 -4.69527 0.22052 57 54 54
-3.14025 -4.32466 0.20000 100 109 124
-3.15390 -4.30943 0.19605 160 165 171
-3.16738 -4.29872 0.19186 184 186 192
-3.19396 -4.29770 0.18223 209 208 217
-3.20726 -4.29666 0.17745 221 220 225
-3.22515 -4.29340 0.18610 232 231 234
-3.22057 -4.29512 0.17270 231 231 231
-3.69349 -4.42298 -0.00849 156 149 151
-3.67477 -4.42640 -0.01754 200 199 193
-3.70262 -4.42316 -0.02748 127 130 134
-3.76486 -4.42814 -0.03488 153 161 151
-3.75570 -4.42796 -0.01583 147 149 144
-3.75089 -4.42976 -0.02989 153 160 147
-3.76967 -4.42634 -0.02081 148 149 147
-3.78364 -4.42471 -0.02580 144 153 152
-3.78010 -4.43597 -0.04097 145 150 148
-3.79893 -4.43254 -0.03187 151 162 153
-3.79383 -4.43236 -0.04574 161 168 158
