ply
format ascii 1.0
element face 0
property list uchar int vertex_indices
element vertex 1320
property float x
property float y
property float z
property uchar diffuse_red
property uchar diffuse_green
property uchar diffuse_blue
end_header
-5.27028 -4.64266 -0.22234 197 197 205
-5.28362 -4.64048 -0.22891 198 200 210
-1.28000 -5.83887 1.86551 62 54 42
-1.25804 -5.84522 1.85779 59 49 51
-1.28827 -5.84028 1.84289 73 63 62
-1.29793 -5.82625 1.85450 67 63 50
-1.30619 -5.82766 1.83193 75 64 59
-1.34173 -5.87862 1.84625 42 31 28
-1.37297 -5.87100 1.83030 43 41 47
-1.38133 -5.87242 1.80745 44 31 36
-1.38607 -5.87695 1.82565 55 58 53
-1.40828 -5.87053 1.83347 67 61 46
-1.39444 -5.87838 1.80277 46 37 33
-1.41639 -5.87302 1.81094 63 60 39
-1.40947 -5.87694 1.79559 49 40 29
-1.42477 -5.87444 1.78805 55 45 40
-1.43271 -5.86642 1.80202 65 58 45
-1.44108 -5.86784 1.77915 59 47 58
-1.44667 -5.86934 1.79631 64 60 55
-1.45504 -5.87077 1.77341 58 46 60
-1.46142 -5.86910 1.78952 65 65 60
-1.47620 -5.86882 1.78272 71 71 69
-1.50289 -5.88078 1.77323 77 62 81
-1.57327 -5.83044 1.72985 132 121 132
-1.60016 -5.77450 1.70507 157 149 157
-1.60841 -5.77591 1.68251 178 175 183
-2.17488 -3.86815 1.01615 40 35 33
-2.16154 -3.87200 1.01146 51 46 55
-2.17990 -3.86900 1.00241 22 21 13
-2.26304 -3.88090 0.97879 46 38 35
-2.24958 -3.88480 0.97406 27 23 16
-2.28161 -3.87768 0.96960 58 51 60
-2.29151 -3.87104 0.96360 53 43 41
-2.30071 -3.86992 0.95915 58 43 32
-2.30976 -3.87023 0.95510 44 32 23
-2.31902 -3.86872 0.95053 30 23 9
-2.41533 -3.92283 0.91872 31 28 19
-2.41014 -3.92195 0.93291 26 25 13
-2.40584 -3.92438 0.92339 25 26 12
-2.41963 -3.92040 0.92824 27 25 15
-2.42911 -3.91885 0.92357 30 26 31
-2.42482 -3.92128 0.91404 34 28 29
-2.43495 -3.91087 0.90709 33 26 27
-2.43923 -3.90844 0.91659 25 24 22
-2.44869 -3.90690 0.91193 26 19 20
-2.44433 -3.91042 0.90271 37 22 23
-2.45808 -3.90644 0.90755 22 17 14
-2.45385 -3.90807 0.89785 31 21 17
-2.46759 -3.90410 0.90268 16 16 15
-2.46331 -3.90653 0.89318 23 20 18
-2.45903 -3.90896 0.88369 27 27 23
-2.55673 -3.92987 0.85580 9 8 12
-2.54280 -3.93390 0.85090 5 7 4
-2.55239 -3.93233 0.84618 6 7 7
-2.56628 -3.92938 0.85133 18 16 26
-2.57586 -3.92836 0.84674 33 28 42
-2.58529 -3.93463 0.84384 49 46 52
-2.59490 -3.93306 0.83910 58 52 56
-2.63335 -3.93160 0.82124 49 41 45
-2.63862 -3.93250 0.80683 33 31 27
-2.64299 -3.92112 0.81449 44 34 26
-2.64825 -3.92201 0.80012 33 31 27
-2.66215 -3.90702 0.80260 46 29 34
-2.66738 -3.90792 0.78829 38 30 29
-2.67159 -3.89102 0.79471 42 29 38
-2.67681 -3.89191 0.78046 40 29 40
-2.68114 -3.89198 0.79057 41 27 47
-2.69072 -3.89347 0.78654 45 42 55
-2.70000 -3.87765 0.77876 83 80 91
-2.70958 -3.88019 0.77496 87 81 98
-2.71924 -3.88513 0.77166 71 70 89
-2.72879 -3.88424 0.76710 50 52 81
-2.73850 -3.88866 0.76366 30 27 45
-2.74771 -3.87717 0.75689 20 18 31
-2.75292 -3.87806 0.74265 35 30 34
-2.75726 -3.87654 0.75239 17 17 32
-2.76247 -3.87743 0.73815 37 30 34
-2.76683 -3.87616 0.74794 18 16 35
-2.77204 -3.87705 0.73369 35 32 22
-2.77613 -3.86951 0.74221 18 17 35
-2.78133 -3.87040 0.72799 34 35 22
-2.79546 -3.87272 0.73411 21 22 41
-2.80068 -3.87361 0.71986 37 34 36
-2.80517 -3.87455 0.73009 33 34 42
-2.81039 -3.87544 0.71582 42 35 39
-2.84859 -3.67898 0.66651 64 60 56
-2.90744 -3.63160 0.62906 49 44 44
-2.91226 -3.63242 0.61589 40 37 32
-3.23835 -3.97492 0.55498 22 21 30
-3.22368 -3.97916 0.54983 15 14 16
-3.23378 -3.97751 0.54485 17 16 20
-3.24733 -3.96772 0.54927 29 31 43
-3.27340 -3.94301 0.53185 46 53 44
-3.28794 -3.93881 0.53697 37 40 21
-3.28341 -3.94138 0.52692 48 54 45
-3.27888 -3.94394 0.51687 53 58 62
-3.47936 -3.82215 0.41085 18 16 13
-3.47403 -3.82124 0.42541 13 17 8
-3.46963 -3.82374 0.41565 12 18 11
-3.48376 -3.81966 0.42062 17 17 5
-3.49349 -3.81807 0.41582 16 17 6
-3.48956 -3.82218 0.40621 26 22 18
-3.49945 -3.82111 0.40146 30 28 20
-3.51069 -3.82451 0.39709 43 31 28
-3.52075 -3.82395 0.39238 54 56 57
-3.53193 -3.82696 0.38795 52 65 73
-3.54250 -3.82793 0.38335 67 77 79
-3.55299 -3.82857 0.37871 69 75 70
-3.56449 -3.83232 0.37430 62 70 63
-3.58478 -3.83120 0.36480 59 61 75
-3.59015 -3.83212 0.35012 50 51 55
-3.59652 -3.83544 0.36039 56 55 70
-3.60190 -3.83635 0.34568 49 50 47
-3.60370 -3.82591 0.35498 52 52 60
-3.60907 -3.82682 0.34031 49 48 46
-3.61313 -3.82318 0.35007 50 49 52
-3.61849 -3.82410 0.33541 45 44 46
-3.76691 -4.04626 0.32987 128 141 151
-3.77271 -4.04725 0.31400 151 154 160
-3.77782 -4.04537 0.32469 153 156 164
-3.78363 -4.04636 0.30881 157 156 162
-4.49123 -4.84934 0.17927 203 207 211
-4.48378 -4.84807 0.19963 216 220 218
-4.47147 -4.85505 0.17232 211 209 208
-4.48507 -4.85283 0.16562 204 205 205
-4.50375 -4.84486 0.17256 219 227 225
-4.51299 -4.83361 0.16583 225 230 230
-4.52041 -4.83487 0.14553 219 222 223
-4.56588 -4.76393 0.12610 223 228 224
-4.55856 -4.76268 0.14610 219 221 217
-4.55252 -4.76611 0.13269 218 218 214
-4.54647 -4.76954 0.11927 216 216 209
-4.57193 -4.76050 0.13952 228 233 226
-4.58530 -4.75832 0.13293 229 232 227
-4.66648 -4.68130 0.06172 216 218 213
-4.64738 -4.68682 0.05500 220 221 220
-4.66053 -4.68467 0.04852 214 213 210
-4.67368 -4.68252 0.04204 212 214 195
-4.75227 -4.68057 0.02242 221 220 218
-4.74505 -4.67934 0.04216 228 233 228
-4.73908 -4.68272 0.02892 231 232 228
-4.73311 -4.68611 0.01568 227 232 230
-4.75950 -4.68180 0.00268 212 214 209
-4.76510 -4.67776 0.01595 215 215 214
-4.77232 -4.67899 -0.00379 211 212 210
-5.28804 -4.62594 -0.23418 196 199 208
-5.26872 -4.63152 -0.24098 201 202 209
-5.30207 -4.62477 -0.24084 199 203 208
-5.31538 -4.62260 -0.24740 204 209 210
-5.34903 -4.47193 -0.29648 193 193 193
-5.34200 -4.47074 -0.27727 212 216 215
-5.33039 -4.47732 -0.30303 193 192 200
-5.35483 -4.46864 -0.28360 204 203 200
-5.34322 -4.47522 -0.30935 183 182 192
-5.36767 -4.46654 -0.28992 194 195 195
-5.35598 -4.46226 -0.30181 195 201 200
-5.36879 -4.46017 -0.30812 208 216 213
-5.36299 -4.46345 -0.32097 208 209 214
-1.46825 -5.87702 1.76875 62 56 65
-1.48633 -5.86290 1.75739 90 82 86
-1.54987 -5.84244 1.72387 133 122 132
-1.56738 -5.82981 1.71309 138 130 143
-1.58750 -5.80501 1.69846 155 148 162
-1.59580 -5.80643 1.67577 168 170 189
-1.63769 -6.07034 1.73383 162 157 174
-1.66100 -6.06360 1.74204 172 165 176
-1.65374 -6.06772 1.72593 150 145 158
-1.64647 -6.07184 1.70982 105 94 105
-2.11737 -3.91943 1.04206 38 15 27
-2.11227 -3.91856 1.05599 67 59 68
-2.10806 -3.92095 1.04665 73 62 66
-2.10384 -3.92334 1.03730 68 59 64
-2.13090 -3.91552 1.04682 20 10 15
-2.12668 -3.91791 1.03747 23 13 15
-2.17018 -3.87383 1.00791 38 31 32
-2.15682 -3.87769 1.00322 45 44 47
-2.17521 -3.87468 0.99416 23 21 10
-2.26832 -3.88023 0.96449 53 37 43
-2.25486 -3.88412 0.95976 41 30 28
-2.26412 -3.88261 0.95519 39 26 31
-2.27747 -3.87963 0.96018 56 58 46
-2.28724 -3.87406 0.95449 51 50 40
-2.29622 -3.87486 0.95057 58 48 32
-2.30515 -3.87616 0.94677 42 37 32
-2.31022 -3.87702 0.93290 15 16 11
-2.31371 -3.88084 0.94389 27 24 12
-2.32721 -3.87694 0.94864 19 17 13
-2.32300 -3.87933 0.93931 17 11 16
-2.31880 -3.88171 0.92999 14 11 9
-2.40179 -3.92396 0.91313 30 33 23
-2.41135 -3.92141 0.90821 40 37 35
-2.43071 -3.91268 0.89744 50 41 43
-2.56189 -3.93364 0.84213 13 12 18
-2.54795 -3.93767 0.83722 7 6 6
-2.55755 -3.93611 0.83250 12 12 15
-2.57141 -3.93497 0.83807 25 18 34
-2.58085 -3.94078 0.83503 40 37 37
-2.59035 -3.94602 0.83185 58 51 51
-2.60437 -3.94197 0.83678 57 56 60
-2.60000 -3.94445 0.82709 56 52 64
-2.60959 -3.94807 0.82351 55 57 44
-2.62892 -3.94482 0.81396 43 36 36
-2.62455 -3.94730 0.80426 37 35 29
-2.63421 -3.94572 0.79950 28 34 29
-2.68659 -3.91018 0.78001 32 29 42
-2.67267 -3.91421 0.77511 40 32 37
-2.68225 -3.91264 0.77039 32 34 36
-2.69619 -3.90947 0.77547 55 60 50
-2.70544 -3.89071 0.76712 68 72 66
-2.71542 -3.90867 0.76651 64 57 55
-2.72474 -3.89651 0.75958 54 49 57
-2.72997 -3.89740 0.74527 38 38 38
-2.73414 -3.88979 0.75381 44 37 40
-2.73937 -3.89068 0.73952 38 37 36
-2.74345 -3.88105 0.74763 36 32 31
-2.74866 -3.88194 0.73339 40 35 36
-2.83585 -3.68598 0.66256 42 36 36
-2.82287 -3.68973 0.65799 43 36 28
-2.83180 -3.68827 0.65359 38 37 35
-2.84494 -3.68664 0.65855 59 54 59
-2.89551 -3.64451 0.62620 67 70 51
-2.88268 -3.64822 0.62168 77 77 60
-2.90396 -3.63910 0.62115 53 52 39
-3.24164 -3.96459 0.53842 19 21 30
-3.22703 -3.96881 0.53328 15 15 15
-3.23709 -3.96717 0.52833 12 20 20
-3.25098 -3.95938 0.53301 28 31 38
-3.25979 -3.95175 0.52731 37 38 47
-3.26850 -3.94378 0.52158 46 48 57
-3.28598 -3.92880 0.51030 50 50 58
-3.29049 -3.92624 0.52030 38 30 44
-3.30045 -3.92462 0.51540 22 26 34
-3.29594 -3.92717 0.50540 41 38 43
-3.43613 -3.83127 0.42028 16 17 12
-3.43080 -3.83036 0.43484 12 13 4
-3.42640 -3.83286 0.42508 14 12 8
-3.44053 -3.82878 0.43005 14 16 6
-3.45026 -3.82719 0.42526 18 19 10
-3.44545 -3.82824 0.41536 18 20 20
-3.45957 -3.82416 0.42033 15 20 11
-3.45452 -3.82436 0.41036 21 21 20
-3.46502 -3.82552 0.40582 23 21 28
-3.47486 -3.82431 0.40106 31 26 49
-3.48520 -3.82482 0.39645 51 56 68
-3.49537 -3.82473 0.39178 61 74 62
-3.50600 -3.82610 0.38723 75 68 46
-3.51656 -3.82718 0.38264 92 105 93
-3.52728 -3.82872 0.37809 66 73 85
-3.53894 -3.83321 0.37375 58 69 78
-3.54923 -3.83320 0.36905 61 72 71
-3.56013 -3.83509 0.36448 58 66 59
-3.56550 -3.83600 0.34981 48 52 36
-3.57204 -3.84004 0.36013 54 59 53
-3.57742 -3.84096 0.34542 50 51 44
-3.58285 -3.84144 0.35550 53 53 58
-3.58824 -3.84236 0.34078 52 53 45
-3.73877 -4.01518 0.32245 86 99 103
-3.76162 -4.04763 0.31915 134 142 146
-3.76742 -4.04862 0.30328 151 157 156
-4.48112 -4.81379 0.15885 210 215 210
-4.46155 -4.81944 0.15196 205 206 207
-4.47502 -4.81724 0.14532 207 209 208
-4.48988 -4.80176 0.15220 214 216 216
-4.49723 -4.80302 0.13209 218 222 226
-4.56411 -4.74726 0.10632 208 211 212
-4.57139 -4.74850 0.08641 203 208 208
-4.57940 -4.74897 0.09971 213 216 217
-4.59874 -4.74338 0.10651 231 232 227
-4.58669 -4.75022 0.07978 203 207 202
-4.61257 -4.72948 0.08027 215 214 215
-4.60531 -4.72824 0.10013 229 232 229
-4.59330 -4.73505 0.07349 210 211 205
-4.61858 -4.72607 0.09359 228 232 228
-4.60657 -4.73288 0.06695 205 206 209
-4.63185 -4.72391 0.08705 233 235 231
-4.62381 -4.72345 0.07381 222 225 225
-4.64307 -4.71788 0.08059 234 234 230
-4.63707 -4.72128 0.06728 225 227 227
-4.71472 -4.67893 0.02251 223 226 228
-4.70751 -4.67770 0.04220 219 218 221
-4.69560 -4.68445 0.01578 214 213 213
-4.72067 -4.67555 0.03571 227 228 226
-4.74646 -4.68423 0.00917 221 222 218
-4.74049 -4.68762 -0.00407 226 230 220
-5.27191 -4.61530 -0.24600 195 195 198
-5.25267 -4.62086 -0.25277 197 199 201
-5.27917 -4.61653 -0.26583 184 182 189
-5.28002 -4.60603 -0.25174 186 184 194
-5.29020 -4.59968 -0.25779 197 201 215
-5.30938 -4.59413 -0.25104 204 210 211
-5.30340 -4.59752 -0.26429 205 213 217
-5.29743 -4.60091 -0.27755 202 204 208
-5.34645 -4.46070 -0.31402 193 199 202
-5.35345 -4.46190 -0.33315 208 213 218
-5.42561 -4.43318 -0.35623 199 205 209
-5.41864 -4.43199 -0.33717 184 180 192
-5.41287 -4.43526 -0.34995 189 188 193
-5.44411 -4.42783 -0.34972 212 211 214
-5.43835 -4.43110 -0.36251 216 221 220
-5.43258 -4.43437 -0.37529 201 206 206
-1.33237 -5.92470 1.82178 74 68 46
-1.30999 -5.93117 1.81391 74 70 56
-1.32540 -5.92865 1.80632 70 65 52
-1.34080 -5.92614 1.79873 74 64 53
-1.35407 -5.89819 1.80614 74 60 48
-1.36246 -5.89962 1.78320 79 66 54
-1.37077 -5.89040 1.79682 72 57 46
-1.38813 -5.87993 1.78662 67 55 45
-1.40318 -5.87835 1.77940 65 55 45
-1.42083 -5.86643 1.76875 70 60 53
-1.42919 -5.86785 1.74591 83 74 65
-1.43264 -5.87791 1.76582 76 68 65
-1.44102 -5.87933 1.74292 82 75 71
-1.46341 -5.87224 1.75052 79 75 72
-1.47179 -5.87366 1.72762 83 76 68
-1.48241 -5.85425 1.73796 87 82 79
-1.54079 -5.85596 1.71162 144 139 142
-1.55956 -5.83787 1.69913 145 144 152
-1.57769 -5.82230 1.68748 148 148 165
-2.11269 -3.92441 1.03348 49 26 37
-2.09915 -3.92833 1.02872 79 74 60
-2.12299 -3.91738 1.02726 30 15 19
-2.13650 -3.91348 1.03201 19 9 18
-2.13229 -3.91586 1.02267 22 11 23
-2.12808 -3.91825 1.01333 23 14 25
-2.27254 -3.88772 0.95245 31 22 32
-2.27762 -3.88859 0.93855 19 16 12
-2.29085 -3.88681 0.94387 30 17 22
-2.29594 -3.88768 0.92996 12 13 20
-2.29994 -3.88700 0.93975 20 18 23
-2.30504 -3.88787 0.92584 13 11 15
-2.38856 -3.92172 0.90670 35 31 21
-2.37482 -3.92570 0.90187 30 29 23
-2.38428 -3.92415 0.89721 35 31 15
-2.39374 -3.92261 0.89255 42 34 28
-2.39761 -3.92502 0.90327 43 41 32
-2.40280 -3.92591 0.88909 58 56 46
-2.40742 -3.91941 0.89757 48 49 47
-2.41260 -3.92029 0.88342 59 58 55
-2.41705 -3.91568 0.89236 51 52 59
-2.42223 -3.91656 0.87822 56 53 52
-2.42660 -3.91290 0.88740 57 61 54
-2.43586 -3.91399 0.88340 68 63 60
-2.44536 -3.91182 0.87858 49 42 33
-2.45468 -3.91244 0.87445 28 23 21
-2.46842 -3.90846 0.87929 14 21 17
-2.46414 -3.91089 0.86979 18 17 12
-2.45986 -3.91332 0.86029 16 15 8
-2.56697 -3.94089 0.82922 21 18 25
-2.55300 -3.94493 0.82430 9 11 15
-2.56262 -3.94336 0.81957 21 21 20
-2.57224 -3.94179 0.81483 32 29 25
-2.57639 -3.94746 0.82632 34 30 26
-2.58167 -3.94836 0.81189 38 29 31
-2.58592 -3.95148 0.82283 43 38 35
-2.59121 -3.95238 0.80838 37 31 33
-2.70163 -3.92067 0.76326 32 35 37
-2.70689 -3.92157 0.74886 38 30 26
-2.71119 -3.91633 0.75795 37 32 40
-2.71645 -3.91723 0.74356 34 30 33
-2.72045 -3.90052 0.75030 38 35 44
-2.72568 -3.90141 0.73599 34 32 33
-2.84112 -3.69219 0.65017 53 54 61
-2.82812 -3.69595 0.64560 32 37 33
-2.85026 -3.69315 0.64620 70 76 70
-2.85516 -3.69399 0.63279 78 77 65
-2.89256 -3.65828 0.61933 71 73 50
-2.87967 -3.66201 0.61480 77 78 63
-2.90071 -3.64930 0.61366 58 56 36
-2.90931 -3.64525 0.60886 44 38 24
-2.92214 -3.64154 0.61338 39 32 39
-2.91814 -3.64381 0.60451 38 34 33
-2.91414 -3.64607 0.59564 36 41 27
-3.24557 -3.95767 0.52240 20 27 30
-3.23100 -3.96188 0.51727 16 18 17
-3.25481 -3.95214 0.51698 29 33 44
-3.26348 -3.94399 0.51126 41 43 58
-3.27184 -3.93460 0.50541 52 67 61
-3.27730 -3.93553 0.49049 63 67 62
-3.28136 -3.93085 0.50024 58 64 62
-3.29032 -3.92462 0.49480 56 57 53
-3.30477 -3.92045 0.49988 38 28 25
-3.30027 -3.92300 0.48990 52 50 44
-3.35442 -3.84854 0.44907 23 18 15
-3.34909 -3.84763 0.46364 16 15 13
-3.34468 -3.85013 0.45387 22 20 16
-3.35882 -3.84604 0.45884 21 15 19
-3.36856 -3.84445 0.45405 21 14 17
-3.36376 -3.84538 0.44412 21 17 18
-3.37789 -3.84129 0.44909 15 16 12
-3.37321 -3.84267 0.43921 16 18 19
-3.38733 -3.83859 0.44418 14 17 15
-3.38331 -3.84255 0.43457 16 19 15
-3.39744 -3.83847 0.43954 16 14 17
-3.39365 -3.84334 0.43000 18 16 11
-3.40780 -3.83925 0.43498 13 12 10
-3.40330 -3.84140 0.42517 16 16 9
-3.41744 -3.83731 0.43015 10 10 8
-3.41284 -3.83909 0.42031 17 17 11
-3.42235 -3.83665 0.41543 28 19 14
-3.43173 -3.83377 0.41052 32 22 25
-3.44106 -3.83076 0.40560 37 31 43
-3.45017 -3.82698 0.40062 44 35 44
-3.46023 -3.82661 0.39594 53 48 53
-3.46555 -3.82752 0.38140 68 76 69
-3.47053 -3.82706 0.39132 54 69 67
-3.48068 -3.82692 0.38665 79 92 90
-3.49182 -3.83013 0.38224 90 103 98
-3.49716 -3.83104 0.36766 97 105 94
-3.50180 -3.82930 0.37750 93 98 86
-3.51130 -3.82688 0.37264 98 106 95
-3.52322 -3.83240 0.36837 67 74 77
-3.53469 -3.83629 0.36397 49 57 64
-3.54005 -3.83721 0.34932 45 51 51
-3.54490 -3.83604 0.35924 51 60 59
-3.55026 -3.83695 0.34458 44 49 50
-3.55723 -3.84246 0.35498 47 55 50
-3.56261 -3.84338 0.34029 46 50 46
-3.72090 -4.01209 0.31669 75 78 79
-3.71518 -4.01112 0.33234 50 50 63
-3.71044 -4.01380 0.32184 51 53 59
-3.70571 -4.01649 0.31134 76 77 77
-3.72663 -4.01307 0.30104 156 161 151
-3.73294 -4.01480 0.31177 121 128 117
-3.73867 -4.01578 0.29609 152 158 150
-3.75369 -4.04165 0.30806 146 158 149
-3.75947 -4.04264 0.29224 149 152 154
-4.38757 -4.81585 0.18503 198 199 191
-4.38150 -4.81929 0.17155 194 193 182
-4.46754 -4.77124 0.13883 210 213 213
-4.44819 -4.77683 0.13202 211 212 211
-4.46151 -4.77465 0.12546 210 211 211
-4.52312 -4.73820 0.10627 216 214 211
-4.51587 -4.73697 0.12609 222 222 217
-4.50988 -4.74037 0.11280 219 219 218
-4.50389 -4.74377 0.09951 226 229 224
-4.61710 -4.72549 0.06054 207 211 213
-4.61110 -4.72889 0.04724 208 210 210
-4.70212 -4.67034 0.00975 219 221 221
-4.68307 -4.67585 0.00305 213 212 202
-4.69619 -4.67371 -0.00341 211 212 207
-4.71803 -4.67319 0.00309 223 231 227
-5.25760 -4.60710 -0.25800 197 195 194
-5.23842 -4.61265 -0.26474 206 208 204
-5.26483 -4.60833 -0.27776 186 179 186
-5.27659 -4.59255 -0.26982 192 195 209
-5.28380 -4.59378 -0.28953 204 213 212
-5.33072 -4.46978 -0.32105 192 188 197
-5.31792 -4.47187 -0.31475 195 197 199
-5.33614 -4.45811 -0.32605 197 195 203
-5.34312 -4.45930 -0.34515 212 215 219
-5.39772 -4.42672 -0.36099 185 185 191
-5.38502 -4.42879 -0.35474 202 199 199
-5.37928 -4.43205 -0.36748 202 202 212
-5.39197 -4.42998 -0.37373 198 193 204
-5.40467 -4.42791 -0.37999 197 193 201
-1.38023 -5.88763 1.77252 80 67 55
-1.35801 -5.89405 1.76470 82 70 64
-1.37331 -5.89155 1.75717 85 71 65
-1.38861 -5.88906 1.74963 87 76 63
-1.39566 -5.88462 1.76482 80 68 56
-1.40404 -5.88605 1.74193 87 78 58
-1.41524 -5.86513 1.75173 82 72 60
-1.42358 -5.86655 1.72891 86 76 58
-1.53324 -5.86263 1.69714 148 149 152
-1.55295 -5.84049 1.68342 146 145 148
-1.56697 -5.84352 1.67764 127 126 145
-1.60403 -5.80815 1.65318 133 132 159
-1.61068 -5.84571 1.65808 124 113 141
-1.61905 -5.84713 1.63520 90 80 82
-1.60886 -5.92487 1.67566 109 93 115
-1.61737 -5.92632 1.65240 90 83 82
-2.10729 -3.93326 1.02603 60 50 37
-2.09372 -3.93718 1.02126 88 81 71
-2.11788 -3.92475 1.01938 35 17 26
-2.12299 -3.92562 1.00543 25 13 23
-2.25771 -3.90169 0.95044 43 33 34
-2.24839 -3.90321 0.95503 45 36 35
-2.24418 -3.90560 0.94568 49 42 44
-2.26712 -3.89950 0.94567 24 20 25
-2.32210 -3.89863 0.92029 22 15 14
-2.31276 -3.90015 0.92490 18 12 9
-2.32633 -3.89623 0.92967 15 12 13
-2.33567 -3.89470 0.92507 17 14 7
-2.33145 -3.89710 0.91569 22 16 12
-2.43161 -3.91595 0.87379 50 36 46
-2.41788 -3.91992 0.86895 62 70 68
-2.44105 -3.91471 0.86920 36 30 22
-2.44623 -3.91560 0.85505 25 18 8
-2.45031 -3.91608 0.86525 24 18 8
-2.45550 -3.91697 0.85108 18 18 7
-2.83725 -3.69710 0.64166 47 49 48
-2.82423 -3.70086 0.63708 33 30 22
-2.84663 -3.70128 0.63825 68 72 63
-2.85154 -3.70212 0.62481 76 75 66
-2.88961 -3.67247 0.61246 75 72 56
-2.87666 -3.67621 0.60791 77 76 72
-2.88557 -3.67475 0.60352 78 72 63
-2.89726 -3.65752 0.60579 65 60 46
-2.90630 -3.65786 0.60172 48 44 33
-3.24112 -3.96069 0.51239 19 21 27
-3.22655 -3.96490 0.50726 17 18 15
-3.23658 -3.96326 0.50232 19 18 21
-3.25045 -3.95556 0.50703 23 23 41
-3.25923 -3.94790 0.50138 34 37 50
-3.26763 -3.93857 0.49556 47 58 56
-3.28636 -3.92969 0.48510 65 62 65
-3.28186 -3.93225 0.47511 65 70 81
-3.29181 -3.93062 0.47021 64 68 69
-3.29542 -3.92396 0.47974 64 62 64
-3.30986 -3.91979 0.48482 55 52 55
-3.30086 -3.92489 0.46487 71 70 72
-3.32674 -3.88125 0.45636 65 65 56
-3.32137 -3.88033 0.47105 58 54 39
-3.33119 -3.87873 0.46621 44 32 25
-3.32230 -3.88377 0.44650 72 78 77
-3.34100 -3.87712 0.46137 28 21 17
-3.33656 -3.87964 0.45152 50 52 43
-3.34154 -3.85788 0.44463 40 42 37
-3.35042 -3.85272 0.43947 42 38 41
-3.35944 -3.84821 0.43439 45 39 45
-3.36854 -3.84411 0.42935 41 41 43
-3.37815 -3.84207 0.42452 37 39 33
-3.38769 -3.83979 0.41966 39 44 32
-3.39633 -3.83408 0.41450 45 62 43
-3.40648 -3.83419 0.40987 59 79 57
-3.41647 -3.83366 0.40518 65 74 40
-3.42650 -3.83324 0.40050 58 59 34
-3.43182 -3.83414 0.38596 65 69 66
-3.43603 -3.83095 0.39565 61 71 53
-3.44575 -3.82942 0.39087 66 74 56
-3.45587 -3.82925 0.38620 74 78 61
-3.47613 -3.82893 0.37685 71 80 84
-3.50749 -3.83139 0.36300 96 102 94
-3.52134 -3.84329 0.35917 63 67 60
-3.52671 -3.84421 0.34451 48 49 46
-3.53349 -3.84932 0.35488 40 53 52
-3.53887 -3.85023 0.34018 52 53 44
-4.38027 -4.78481 0.16482 200 204 202
-4.38755 -4.78605 0.14491 215 221 220
-4.50612 -4.71938 0.09332 223 225 218
-4.50016 -4.72275 0.08011 221 223 219
-4.51333 -4.72060 0.07362 221 224 219
-4.61764 -4.71397 0.04109 222 227 227
-4.59846 -4.71951 0.03434 208 207 207
-4.71775 -4.66109 -0.01596 221 226 223
-4.73084 -4.65895 -0.02241 226 227 222
-4.72492 -4.66231 -0.03555 227 227 223
-5.24308 -4.59854 -0.26987 204 201 197
-5.23713 -4.60192 -0.28308 212 213 211
-5.29576 -4.47253 -0.32065 195 192 202
-5.28876 -4.47133 -0.30153 187 192 198
-5.28298 -4.47462 -0.31436 190 196 201
-5.30154 -4.46925 -0.30782 189 188 197
-5.30276 -4.47372 -0.33978 205 205 212
-5.30599 -4.46708 -0.32649 205 205 201
-5.31350 -4.45811 -0.33183 203 204 204
-5.32048 -4.45930 -0.35090 218 228 221
-5.32294 -4.45171 -0.33751 208 214 220
-1.53323 -5.83636 1.67235 121 114 124
-2.10506 -3.92478 1.01348 72 63 56
-2.11213 -3.93566 1.01250 41 22 33
-2.18240 -3.95235 0.98372 35 35 21
-2.17723 -3.95147 0.99784 18 24 11
-2.17296 -3.95389 0.98837 32 29 17
-2.16869 -3.95632 0.97890 31 29 26
-2.18667 -3.94993 0.99319 25 27 15
-2.19611 -3.94839 0.98854 30 27 26
-2.19190 -3.95043 0.97896 41 39 29
-2.20560 -3.94647 0.98379 28 30 32
-2.20133 -3.94889 0.97432 42 41 38
-2.19706 -3.95131 0.96484 47 40 43
-2.25281 -3.90919 0.94246 52 44 42
-2.23925 -3.91311 0.93769 44 32 45
-2.24858 -3.91158 0.93309 54 39 51
-2.25792 -3.91006 0.92849 48 44 44
-2.26223 -3.90698 0.93768 39 30 29
-2.29964 -3.90026 0.91912 28 20 26
-2.29031 -3.90178 0.92372 20 15 24
-2.30850 -3.90283 0.91559 35 24 18
-2.31751 -3.90423 0.91175 41 28 25
-2.32656 -3.90552 0.90786 32 20 26
-2.34016 -3.90159 0.91265 23 18 11
-2.33592 -3.90399 0.90325 28 20 17
-2.42720 -3.92009 0.86471 46 32 38
-2.41346 -3.92406 0.85987 47 41 40
-2.43657 -3.91985 0.86036 31 20 24
-2.44176 -3.92073 0.84620 32 21 18
-2.83347 -3.70348 0.63338 45 43 31
-2.82044 -3.70725 0.62880 28 28 25
-2.84305 -3.71047 0.63044 64 70 56
-2.84798 -3.71131 0.61696 71 75 69
-2.89480 -3.67672 0.59970 69 63 52
-2.88184 -3.68047 0.59514 80 73 65
-3.24651 -3.96112 0.49732 19 20 26
-3.23194 -3.96533 0.49219 15 17 16
-3.24197 -3.96370 0.48725 17 19 18
-3.25648 -3.95918 0.49234 25 25 35
-3.26518 -3.95111 0.48668 37 36 52
-3.27276 -3.93794 0.48047 62 62 66
-3.31418 -3.89283 0.45211 75 67 59
-3.30879 -3.89191 0.46684 67 65 71
-3.30433 -3.89444 0.45696 68 64 68
-3.29988 -3.89697 0.44708 61 61 69
-3.30972 -3.89536 0.44223 61 53 63
-3.33026 -3.87426 0.44088 62 69 64
-3.33562 -3.87518 0.42622 52 54 68
-3.33791 -3.86367 0.43517 55 57 56
-3.34326 -3.86458 0.42056 51 51 67
-3.34565 -3.85372 0.42955 55 56 61
-3.35459 -3.84889 0.42445 69 71 65
-3.36384 -3.84539 0.41948 79 81 73
-3.37284 -3.84096 0.41443 72 69 76
-3.38251 -3.83923 0.40964 72 78 77
-3.39234 -3.83813 0.40490 95 116 96
-3.40136 -3.83392 0.39989 123 141 113
-3.41176 -3.83496 0.39533 116 126 91
-3.42189 -3.83494 0.39068 76 73 71
-3.44134 -3.83183 0.38111 64 70 55
-3.45130 -3.83112 0.37640 59 72 54
-3.46129 -3.83052 0.37168 54 62 60
-3.47180 -3.83168 0.36710 56 63 73
-3.48286 -3.83465 0.36264 69 70 82
-3.49261 -3.83308 0.35784 81 89 80
-3.50387 -3.83654 0.35340 77 77 75
-3.50921 -3.83745 0.33879 50 47 31
-3.51976 -3.85523 0.34999 58 54 50
-3.52514 -3.85615 0.33528 45 51 46
-4.35804 -4.78395 0.15801 209 211 196
-4.33874 -4.78953 0.15122 212 217 204
-4.35202 -4.78736 0.14467 218 223 211
-4.36619 -4.77041 0.15146 205 204 200
-4.37344 -4.77165 0.13164 214 212 217
-4.45700 -4.69240 0.09362 212 214 213
-4.44985 -4.69118 0.11314 221 224 223
-4.44395 -4.69453 0.10005 212 215 213
-4.46290 -4.68905 0.10671 220 221 219
-4.45109 -4.69574 0.08053 208 208 207
-4.61988 -4.70573 0.02165 220 222 222
-4.60074 -4.71126 0.01492 211 209 209
-4.61392 -4.70911 0.00843 213 213 210
-4.62709 -4.70696 0.00194 209 209 208
-4.68033 -4.65906 -0.01576 213 215 207
-4.66137 -4.66454 -0.02243 218 220 218
-4.67442 -4.66241 -0.02886 216 220 213
-5.29184 -4.47828 -0.33383 206 211 212
-5.30651 -4.45977 -0.34440 196 200 203
-5.31830 -4.43783 -0.35436 216 216 217
-5.33671 -4.43250 -0.34788 208 209 207
-5.33094 -4.43571 -0.36060 202 200 204
-5.34935 -4.43039 -0.35412 211 207 203
-5.34362 -4.43364 -0.36684 191 192 191
-5.33788 -4.43689 -0.37956 176 175 190
-2.10775 -3.93887 1.00335 52 41 45
-2.11598 -3.94362 1.00053 31 17 31
-2.12535 -3.94209 0.99592 25 20 27
-2.17751 -3.95871 0.97533 40 37 30
-2.18268 -3.95959 0.96119 52 47 51
-2.18703 -3.95674 0.97056 45 40 38
-2.19220 -3.95762 0.95642 51 48 59
-2.28508 -3.91239 0.91649 28 19 31
-2.27148 -3.91632 0.91171 30 18 16
-2.29278 -3.92462 0.91544 44 55 39
-2.30360 -3.91098 0.90769 56 74 60
-2.31267 -3.91204 0.90374 68 64 61
-2.32137 -3.91652 0.90065 48 38 36
-2.32651 -3.91739 0.88660 37 25 33
-2.33094 -3.91329 0.89560 35 26 26
-2.34457 -3.90935 0.90039 28 21 17
-2.34033 -3.91176 0.89098 31 22 26
-2.33608 -3.91417 0.88156 33 22 40
-2.42295 -3.92217 0.85513 41 29 38
-2.40920 -3.92614 0.85029 34 30 36
-2.41867 -3.92459 0.84563 38 29 36
-2.42813 -3.92305 0.84097 34 27 31
-2.43233 -3.92179 0.85074 33 23 27
-2.43751 -3.92268 0.83658 35 23 31
-2.82961 -3.70883 0.62490 40 38 35
-2.81656 -3.71261 0.62031 28 29 24
-2.83903 -3.71354 0.62153 59 60 58
-3.25289 -3.96647 0.48280 20 18 22
-3.23830 -3.97069 0.47766 17 16 11
-3.24835 -3.96905 0.47271 18 20 12
-3.26310 -3.96561 0.47793 26 23 36
-3.27099 -3.95364 0.47187 42 35 53
-3.27753 -3.93564 0.46521 51 66 60
-3.28655 -3.92964 0.45985 53 63 58
-3.29450 -3.91894 0.45402 56 63 64
-3.29992 -3.91986 0.43918 64 61 79
-3.31676 -3.88154 0.43618 53 51 60
-3.31233 -3.88406 0.42634 45 44 53
-3.32213 -3.88246 0.42151 39 44 54
-3.32472 -3.87203 0.43059 51 51 60
-3.33008 -3.87294 0.41596 44 50 54
-3.35042 -3.85231 0.41478 58 58 64
-3.33629 -3.85640 0.40981 45 50 45
-3.34601 -3.85481 0.40501 53 52 54
-3.35574 -3.85322 0.40022 58 55 65
-3.35995 -3.84994 0.40991 64 65 73
-3.36527 -3.85085 0.39536 60 52 60
-3.36908 -3.84599 0.40491 61 58 75
-3.37785 -3.84069 0.39981 64 62 68
-3.38801 -3.84088 0.39518 77 81 81
-3.39773 -3.83934 0.39040 93 103 106
-3.40756 -3.83818 0.38565 94 104 90
-3.41747 -3.83734 0.38092 75 82 74
-3.42688 -3.83464 0.37605 57 58 66
-3.43708 -3.83484 0.37140 45 39 58
-3.44696 -3.83382 0.36666 40 42 46
-3.45228 -3.83473 0.35212 30 32 28
-3.45690 -3.83302 0.36193 38 42 47
-3.46756 -3.83475 0.35738 42 39 54
-3.47929 -3.84004 0.35307 51 56 62
-3.48463 -3.84095 0.33847 48 50 62
-3.49130 -3.84613 0.34879 60 57 69
-3.49665 -3.84704 0.33415 49 48 54
-3.50329 -3.85198 0.34447 58 55 59
-3.50865 -3.85290 0.32979 46 48 40
-3.69177 -4.00882 0.28975 186 200 196
-3.70690 -4.00445 0.29508 178 189 174
-3.71114 -4.03295 0.28576 209 215 206
-3.72640 -4.02854 0.29112 180 182 170
-3.72165 -4.03123 0.28058 186 187 174
-3.71689 -4.03393 0.27004 184 183 176
-4.35458 -4.76133 0.13821 215 218 214
-4.34860 -4.76472 0.12495 226 229 221
-4.43355 -4.68850 0.08712 217 219 212
-4.42642 -4.68728 0.10658 215 213 215
-4.42053 -4.69062 0.09353 225 230 226
-4.46157 -4.68834 0.07421 209 211 209
-4.45567 -4.69169 0.06114 207 208 205
-4.67643 -4.64028 -0.03429 209 210 203
-4.65757 -4.64573 -0.04092 212 213 215
-4.67055 -4.64361 -0.04732 216 219 216
-4.68354 -4.64149 -0.05371 216 221 215
-4.68707 -4.63395 -0.04046 205 212 207
-4.69417 -4.63516 -0.05987 215 220 216
-4.70137 -4.63420 -0.04698 216 223 223
-4.72022 -4.62875 -0.04035 228 224 220
-4.71435 -4.63208 -0.05338 228 231 229
-4.85882 -4.56511 -0.13337 217 217 209
-4.84017 -4.57050 -0.13993 210 212 216
-4.85301 -4.56840 -0.14626 221 222 217
-4.88861 -4.59042 -0.14192 208 207 199
-4.89569 -4.59163 -0.16127 207 204 201
-4.99873 -4.56180 -0.19833 205 203 208
-4.99167 -4.56060 -0.17903 215 215 211
-4.98583 -4.56391 -0.19198 215 214 213
-5.01747 -4.55638 -0.19174 204 205 206
-5.01163 -4.55969 -0.20469 200 198 204
-5.00579 -4.56300 -0.21764 191 189 204
-5.26320 -4.48942 -0.33457 198 194 196
-5.30129 -4.46376 -0.35729 191 195 197
-5.30802 -4.45380 -0.36240 210 216 213
-5.31498 -4.45499 -0.38143 207 208 210
-5.31242 -4.44089 -0.36705 210 208 212
-5.31936 -4.44207 -0.38602 208 208 207
-2.11116 -3.94924 0.99204 41 24 20
-2.09754 -3.95318 0.98725 77 72 60
-2.11630 -3.95012 0.97800 38 30 38
-2.12217 -3.93852 0.98484 35 26 26
-2.13575 -3.93459 0.98962 42 31 31
-2.13152 -3.93699 0.98023 36 33 37
-2.12729 -3.93939 0.97085 36 36 45
-2.16392 -3.96185 0.97028 30 25 29
-2.15875 -3.96097 0.98441 25 22 23
-2.15019 -3.96582 0.96545 18 18 11
-2.17304 -3.96234 0.96617 43 39 38
-2.27990 -3.92232 0.90903 32 19 33
-2.26628 -3.92626 0.90424 42 26 28
-2.27566 -3.92473 0.89961 31 27 34
-2.28504 -3.92320 0.89499 27 31 37
-2.28885 -3.92438 0.90532 39 45 38
-2.29828 -3.92253 0.90062 47 61 53
-2.30712 -3.92577 0.89719 52 42 54
-2.31227 -3.92665 0.88312 36 28 22
-2.31610 -3.92810 0.89353 44 35 33
-2.32125 -3.92898 0.87943 29 25 27
-2.82586 -3.71598 0.61670 38 37 37
-2.81279 -3.71976 0.61210 24 25 22
-2.83554 -3.72443 0.61393 57 54 55
-2.84501 -3.72911 0.61050 72 73 66
-2.85817 -3.72531 0.61513 73 76 74
-2.85407 -3.72763 0.60604 78 74 72
-2.84997 -3.72995 0.59696 80 74 76
-2.89931 -3.71992 0.58369 59 57 50
-3.19223 -4.06118 0.51689 31 22 11
-3.20722 -4.05685 0.52216 11 12 13
-3.20090 -4.05029 0.51074 30 20 6
-3.21583 -4.04597 0.51599 12 11 15
-3.20823 -4.03251 0.50382 28 14 6
-3.22309 -4.02822 0.50904 14 11 17
-3.21471 -4.01071 0.49649 20 7 8
-3.22947 -4.00644 0.50168 11 14 14
-3.22487 -4.00905 0.49149 11 13 7
-3.25938 -3.97226 0.46828 22 22 23
-3.24477 -3.97649 0.46314 14 15 18
-3.25483 -3.97485 0.45818 15 19 14
-3.26843 -3.96574 0.46281 29 24 29
-3.27698 -3.95699 0.45714 35 30 41
-3.28408 -3.94171 0.45082 41 40 51
-3.29142 -3.92798 0.44471 49 48 67
-3.30556 -3.89919 0.43247 64 56 64
-3.37353 -3.84347 0.39009 75 66 74
-3.38350 -3.84289 0.38539 90 92 92
-3.39341 -3.84211 0.38067 92 93 93
-3.40307 -3.84033 0.37587 75 78 77
-3.41298 -3.83949 0.37115 61 66 65
-3.42301 -3.83906 0.36645 48 52 54
-3.42832 -3.83996 0.35191 36 41 36
-3.43267 -3.83729 0.36165 39 39 46
-3.43799 -3.83820 0.34711 36 37 26
-3.44217 -3.83490 0.35680 35 35 31
-3.44748 -3.83581 0.34227 29 34 18
-3.46333 -3.83785 0.34765 32 32 39
-3.45893 -3.84035 0.33788 32 30 22
-3.47462 -3.84166 0.34322 42 45 48
-3.60588 -3.93004 0.30043 50 45 46
-3.60035 -3.92910 0.31555 58 60 40
-3.59577 -3.93169 0.30541 51 59 48
-3.61046 -3.92745 0.31057 56 56 50
-3.62056 -3.92580 0.30559 44 49 50
-3.61792 -3.93430 0.29573 48 47 44
-3.63263 -3.93005 0.30091 46 42 40
-3.70468 -4.03068 0.27501 215 217 211
-3.71042 -4.03166 0.25932 185 179 173
-4.29845 -4.81249 0.15755 206 213 203
-4.29116 -4.81125 0.17750 193 197 197
-4.27909 -4.81809 0.15073 184 181 194
-4.30449 -4.80907 0.17093 210 217 204
-4.31782 -4.80689 0.16436 213 215 199
-4.31179 -4.81032 0.15098 223 223 206
-4.35249 -4.74193 0.11863 229 231 220
-4.33341 -4.74744 0.11192 225 223 223
-4.37156 -4.73641 0.12534 212 215 212
-4.36201 -4.73187 0.11224 206 207 203
-4.38105 -4.72636 0.11893 208 210 212
-4.37013 -4.71886 0.10591 192 196 207
-4.38911 -4.71337 0.11259 214 216 214
-4.38118 -4.71237 0.09953 207 214 222
-4.40014 -4.70689 0.10620 220 220 215
-4.39424 -4.71024 0.09310 210 212 216
-4.38833 -4.71359 0.08000 214 214 214
-4.40910 -4.68227 0.08069 212 214 212
-4.40200 -4.68106 0.10010 222 226 224
-4.39026 -4.68772 0.07406 207 206 203
-4.40323 -4.68560 0.06767 201 203 201
-4.41620 -4.68348 0.06128 199 201 196
-4.42368 -4.68352 0.07423 216 219 210
-4.43457 -4.67705 0.06793 209 211 206
-4.46947 -4.69115 0.05468 220 221 218
-4.48840 -4.68567 0.06134 223 224 223
-4.48250 -4.68902 0.04826 230 229 226
-4.47661 -4.69236 0.03518 229 230 228
-4.53765 -4.71446 0.02795 212 215 205
-4.53046 -4.71323 0.04762 224 227 228
-4.52451 -4.71660 0.03443 222 223 221
-4.54360 -4.71109 0.04114 220 224 222
-4.55079 -4.71231 0.02148 207 205 198
-5.29525 -4.48568 -0.36623 199 193 194
-5.30226 -4.48688 -0.38539 197 195 201
-1.62309 -5.81144 1.56849 102 93 89
-1.64509 -5.80508 1.57623 106 93 93
-1.63824 -5.80897 1.56103 104 89 87
-2.15983 -3.96312 0.96048 28 25 25
-2.14611 -3.96709 0.95566 15 15 15
-2.15556 -3.96554 0.95100 27 21 21
-2.16861 -3.96573 0.95694 40 34 36
-2.17809 -3.96407 0.95225 52 41 51
-2.18739 -3.96349 0.94785 49 43 51
-2.19257 -3.96437 0.93370 33 31 33
-2.19660 -3.96362 0.94363 49 39 39
-2.21035 -3.95964 0.94847 42 29 37
-2.20607 -3.96207 0.93897 43 32 30
-2.20178 -3.96450 0.92947 36 29 30
-2.82236 -3.72731 0.60916 34 28 35
-2.80924 -3.73111 0.60455 24 25 21
-2.83178 -3.73166 0.60567 53 47 52
-2.84161 -3.74139 0.60304 72 75 66
-2.84659 -3.74224 0.58944 77 76 70
-2.89601 -3.73108 0.57596 65 61 57
-2.88282 -3.73489 0.57132 75 72 65
-3.17018 -4.08655 0.51898 20 14 14
-3.16450 -4.08558 0.53451 14 9 7
-3.15980 -4.08825 0.52410 14 8 6
-3.15511 -4.09091 0.51368 13 11 5
-3.18020 -4.08274 0.51362 40 37 38
-3.18601 -4.05492 0.50552 84 91 68
-3.19986 -4.07331 0.50272 107 108 63
-3.21022 -4.07161 0.49762 110 111 87
-3.21710 -4.05115 0.49045 81 61 43
-3.21882 -4.00394 0.48045 48 21 28
-3.23354 -3.99968 0.48563 11 13 6
-3.22675 -3.99074 0.47422 28 8 2
-3.23638 -3.98672 0.46900 22 6 8
-3.26426 -3.97013 0.45291 19 21 13
-3.27227 -3.95872 0.44700 23 22 32
-3.28033 -3.94786 0.44116 32 30 43
-3.28580 -3.94879 0.42622 33 19 18
-3.28723 -3.93192 0.43487 43 39 53
-3.29412 -3.91639 0.42867 54 53 62
-3.30096 -3.90106 0.42252 59 58 60
-3.30635 -3.90197 0.40779 37 37 32
-3.30851 -3.88933 0.41675 52 51 55
-3.31389 -3.89025 0.40207 28 36 28
-3.31656 -3.88004 0.41123 42 46 51
-3.32493 -3.87234 0.40588 39 47 48
-3.33469 -3.87075 0.40106 41 46 47
-3.34202 -3.85900 0.39539 54 52 56
-3.35175 -3.85741 0.39060 68 62 61
-3.36042 -3.85153 0.38546 73 72 61
-3.36942 -3.84706 0.38044 86 87 80
-3.37925 -3.84596 0.37569 102 98 103
-3.38899 -3.84447 0.37092 104 95 95
-3.39921 -3.84486 0.36628 77 83 55
-3.40876 -3.84266 0.36145 59 67 55
-3.41408 -3.84356 0.34691 42 49 41
-3.41908 -3.84329 0.35682 46 52 45
-3.42440 -3.84420 0.34227 37 41 33
-3.47089 -3.84654 0.33358 40 42 40
-3.45671 -3.85064 0.32859 31 30 27
-3.46647 -3.84905 0.32378 34 25 22
-3.48270 -3.85206 0.32921 45 43 54
-3.49525 -3.85990 0.32496 42 46 51
-3.50926 -3.87243 0.32095 42 44 50
-3.52359 -3.86828 0.32599 42 48 47
-3.52290 -3.88337 0.31680 41 48 50
-3.53729 -3.87921 0.32186 47 52 46
-3.53425 -3.88651 0.31218 43 50 52
-3.54866 -3.88235 0.31725 50 56 47
-3.57174 -3.90622 0.29875 50 46 22
-3.58278 -3.90781 0.29397 60 45 33
-3.62220 -3.96415 0.28680 117 115 129
-3.62780 -3.96510 0.27151 226 229 223
-3.62211 -3.93111 0.28040 170 173 168
-3.62764 -3.93205 0.26526 227 229 226
-3.65074 -3.98516 0.27775 206 211 198
-3.65638 -3.98612 0.26233 227 228 229
-4.17757 -4.74298 0.18286 171 170 172
-4.15863 -4.74846 0.17620 179 179 180
-4.18281 -4.72181 0.17631 191 198 193
-4.20166 -4.71636 0.18294 191 194 198
-4.19579 -4.71969 0.16992 191 197 192
-4.18992 -4.72302 0.15690 199 204 199
-4.28878 -4.80740 0.14418 200 200 199
-4.26946 -4.81299 0.13738 195 193 194
-4.28276 -4.81082 0.13083 200 201 199
-4.29606 -4.80864 0.12427 195 193 196
-4.29732 -4.79417 0.13766 206 201 203
-4.31659 -4.78860 0.14444 216 211 202
-4.30561 -4.78057 0.13119 214 215 214
-4.32482 -4.77501 0.13795 215 213 207
-4.31884 -4.77841 0.12467 218 222 213
-4.34241 -4.73610 0.10556 224 221 217
-4.33648 -4.73946 0.09241 224 227 224
-4.35265 -4.72766 0.09919 199 194 192
-4.35981 -4.72888 0.07962 210 207 200
-4.36547 -4.72496 0.09275 187 185 192
-4.37263 -4.72618 0.07318 212 213 208
-4.37347 -4.71180 0.08650 203 203 216
-4.38061 -4.71302 0.06699 214 219 210
-4.42242 -4.66729 0.05526 195 199 196
-4.43652 -4.66761 0.04882 207 215 213
-4.44360 -4.66882 0.02947 227 226 223
-4.45628 -4.67951 0.04204 219 221 222
-4.46338 -4.68073 0.02262 226 228 225
-4.50963 -4.70206 0.02186 223 224 224
-4.50247 -4.70084 0.04143 226 225 224
-4.49655 -4.70420 0.02830 230 233 230
-4.50371 -4.70542 0.00873 224 229 227
-4.52569 -4.70587 0.01520 212 209 210
-4.53699 -4.70016 0.00888 213 214 210
-4.55600 -4.69467 0.01556 209 211 208
-4.55008 -4.69803 0.00243 215 220 212
-4.64324 -4.60784 -0.05810 210 212 216
-4.63039 -4.60993 -0.05177 216 218 215
-4.65631 -4.60615 -0.06445 207 212 214
-4.66916 -4.60405 -0.07078 206 211 213
-5.01648 -4.56972 -0.23753 194 197 198
-5.00356 -4.57183 -0.23117 189 189 187
-5.03525 -4.56429 -0.23093 211 218 215
-5.02940 -4.56761 -0.24390 203 209 214
-5.02355 -4.57092 -0.25687 205 208 202
-1.55499 -5.58200 1.53698 96 85 68
-1.53413 -5.58803 1.52964 94 88 70
-1.54849 -5.58568 1.52256 95 91 71
-1.58418 -5.63594 1.53381 49 34 47
-1.61270 -5.69794 1.53249 70 64 68
-1.62079 -5.69931 1.51040 49 28 38
-1.61949 -5.73253 1.53597 78 73 71
-1.62763 -5.73391 1.51370 61 35 27
-1.63094 -5.74620 1.53330 86 78 78
-1.64917 -5.72804 1.52142 93 82 77
-1.67078 -5.72180 1.52902 105 89 91
-1.67575 -5.66897 1.49786 96 85 83
-1.69711 -5.66280 1.50538 103 92 97
-1.70879 -5.57655 1.46496 88 84 88
-1.72974 -5.57049 1.47233 107 94 97
-2.13022 -3.95285 0.96027 20 21 20
-2.12083 -3.95438 0.96489 36 40 34
-2.14386 -3.94890 0.96507 13 11 7
-2.13961 -3.95131 0.95564 10 9 11
-2.13536 -3.95372 0.94622 9 9 8
-2.16400 -3.97021 0.94800 28 25 28
-2.15025 -3.97418 0.94316 29 17 17
-2.15972 -3.97264 0.93850 28 20 24
-2.16918 -3.97109 0.93384 29 24 31
-2.17358 -3.96791 0.94314 32 27 38
-2.17876 -3.96880 0.92898 29 27 28
-2.18280 -3.96797 0.93890 35 31 36
-2.18798 -3.96885 0.92473 28 24 28
-2.81882 -3.73840 0.60153 31 24 33
-2.80566 -3.74221 0.59690 25 23 14
-2.82822 -3.74222 0.59792 49 40 50
-2.83826 -3.75479 0.59568 68 72 61
-2.84325 -3.75564 0.58203 75 76 69
-3.16704 -4.09858 0.50964 16 12 14
-3.15192 -4.10295 0.50432 12 11 7
-3.17274 -4.09955 0.49406 27 31 47
-3.17733 -4.09616 0.50443 33 36 50
-3.20540 -4.07356 0.48715 180 179 169
-3.21503 -4.06790 0.48163 184 182 154
-3.22155 -4.04575 0.47439 167 158 127
-3.23033 -4.03627 0.46853 126 105 53
-3.23497 -4.00564 0.46053 69 49 15
-3.24172 -3.98674 0.45381 43 25 7
-3.25052 -3.97863 0.44820 33 15 4
-3.26939 -3.96927 0.43770 19 7 11
-3.27850 -3.96318 0.43234 26 9 15
-3.29066 -3.92360 0.41916 37 32 24
-3.29626 -3.90250 0.41254 39 36 30
-3.32003 -3.87277 0.39590 26 39 24
-3.32822 -3.86450 0.39054 29 43 37
-3.33715 -3.85954 0.38547 41 50 53
-3.34682 -3.85775 0.38066 58 60 58
-3.35617 -3.85459 0.37575 68 75 59
-3.36472 -3.84831 0.37060 72 84 65
-3.37488 -3.84855 0.36596 70 78 71
-3.38522 -3.84943 0.36135 65 72 63
-3.39054 -3.85034 0.34681 48 47 48
-3.39482 -3.84738 0.35653 58 59 52
-3.40014 -3.84829 0.34199 46 52 43
-3.40512 -3.84800 0.35190 49 54 49
-3.41044 -3.84891 0.33735 43 51 35
-3.47901 -3.85713 0.31954 49 35 20
-3.49209 -3.86680 0.31535 48 29 16
-3.50683 -3.88185 0.31143 42 21 15
-3.51886 -3.88741 0.30694 41 26 15
-3.53015 -3.89037 0.30229 47 27 16
-3.54310 -3.89862 0.29789 49 22 22
-3.55490 -3.90294 0.29327 50 41 54
-3.59199 -3.98803 0.29241 86 75 95
-3.58102 -3.91915 0.28432 133 126 116
-3.58652 -3.92008 0.26928 234 237 223
-3.59780 -3.93856 0.28028 175 179 155
-4.15950 -4.71616 0.16963 177 175 177
-4.14071 -4.72159 0.16302 180 187 181
-4.15364 -4.71948 0.15665 187 191 181
-4.16658 -4.71736 0.15027 192 202 185
-4.29135 -4.76483 0.11808 199 195 196
-4.28539 -4.76821 0.10487 201 200 194
-4.29855 -4.76606 0.09839 205 206 203
-4.30082 -4.75424 0.11168 208 215 211
-4.31989 -4.74873 0.11839 226 231 225
-4.30844 -4.73959 0.10537 218 223 221
-4.31859 -4.73083 0.09901 220 224 224
-4.39797 -4.66072 0.04899 212 213 211
-4.37926 -4.66613 0.04240 226 224 221
-4.39214 -4.66403 0.03606 226 227 224
-4.41229 -4.66163 0.04255 201 201 202
-4.41934 -4.66283 0.02326 223 226 225
-4.42595 -4.66113 0.03615 218 222 215
-4.43301 -4.66233 0.01685 222 226 225
-4.47843 -4.68279 0.01607 224 227 227
-4.47254 -4.68612 0.00303 209 211 203
-4.51155 -4.69282 0.00270 228 231 228
-4.51869 -4.69404 -0.01682 233 235 230
-4.52285 -4.68723 -0.00358 233 235 227
-4.52999 -4.68845 -0.02308 224 223 219
-4.61545 -4.59639 -0.06367 214 217 217
-4.60845 -4.59520 -0.04454 216 214 214
-4.60266 -4.59848 -0.05737 218 222 221
-4.62995 -4.59744 -0.07016 198 199 203
-4.64262 -4.59512 -0.07645 195 198 203
-4.65773 -4.59722 -0.08302 213 220 219
-4.67634 -4.59184 -0.07648 210 213 216
-4.67055 -4.59513 -0.08934 225 228 224
-4.66475 -4.59841 -0.10219 224 225 225
-1.56995 -5.55314 1.50657 94 88 67
-1.54923 -5.55913 1.49928 96 91 78
-1.56349 -5.55680 1.49225 96 92 81
-1.57776 -5.55447 1.48522 94 89 80
-1.58072 -5.56586 1.50397 89 84 64
-1.58855 -5.56720 1.48255 92 86 73
-1.58963 -5.58712 1.50382 84 78 60
-1.59790 -5.73865 1.52833 41 23 53
-1.66020 -5.64762 1.48252 63 39 33
-1.67897 -5.62528 1.46967 61 40 40
-2.12654 -3.95202 0.94998 23 21 13
-2.13167 -3.95290 0.93594 12 9 8
-2.81536 -3.75141 0.59413 30 24 18
-2.80215 -3.75523 0.58949 23 27 9
-2.81124 -3.75374 0.58500 25 26 12
-2.82440 -3.74901 0.58951 44 39 42
-2.83449 -3.76249 0.58736 63 71 68
-2.83949 -3.76334 0.57369 73 77 71
-3.18163 -4.08897 0.48798 91 108 118
-3.16655 -4.09333 0.48267 24 28 44
-3.18977 -4.07446 0.48150 150 165 162
-3.20137 -4.07988 0.47715 180 186 185
-3.20704 -4.08085 0.46165 192 195 199
-3.21176 -4.07831 0.47206 193 196 195
-3.22280 -4.08034 0.46733 204 207 195
-3.23101 -4.06715 0.46107 205 201 166
-3.23369 -4.02551 0.45205 198 189 146
-3.24275 -4.01801 0.44646 173 167 126
-3.23502 -3.92610 0.43285 146 137 96
-3.25278 -3.96350 0.43163 111 99 72
-3.26124 -3.95430 0.42601 89 74 51
-3.26872 -3.94069 0.42000 73 63 30
-3.27855 -3.93852 0.41505 63 57 10
-3.28573 -3.92410 0.40904 56 51 8
-3.29273 -3.90925 0.40303 52 44 15
-3.30050 -3.89826 0.39738 49 43 23
-3.30846 -3.88840 0.39186 48 46 29
-3.33381 -3.86654 0.37606 35 33 34
-3.34312 -3.86313 0.37112 44 46 40
-3.34845 -3.86404 0.35655 43 34 18
-3.35164 -3.85656 0.36595 50 48 41
-3.36128 -3.85467 0.36114 52 50 53
-3.37128 -3.85422 0.35644 53 51 54
-3.38165 -3.85519 0.35182 51 49 50
-3.38698 -3.85610 0.33727 43 47 44
-3.42115 -3.85101 0.33279 40 41 33
-3.40701 -3.85510 0.32781 41 50 36
-3.43530 -3.84692 0.33776 34 35 27
-3.43073 -3.84882 0.32795 38 25 22
-3.44487 -3.84473 0.33293 32 35 23
-3.44110 -3.84954 0.32330 39 36 18
-3.45065 -3.84725 0.31846 42 23 27
-3.46336 -3.85617 0.31425 46 54 61
-3.48282 -3.88846 0.31129 110 113 94
-3.49368 -3.89018 0.30660 121 109 79
-3.50433 -3.89113 0.30185 107 82 65
-3.51546 -3.89363 0.29717 106 86 83
-3.52787 -3.90028 0.29268 128 114 98
-3.53032 -3.87395 0.28663 158 145 112
-3.57710 -3.95772 0.28067 207 208 193
-3.57469 -3.91607 0.27400 226 229 212
-3.58018 -3.91700 0.25899 241 242 240
-4.25930 -4.74009 0.11167 203 199 195
-4.24624 -4.74222 0.11810 208 204 196
-4.29747 -4.73143 0.09241 202 201 199
-4.27852 -4.73691 0.08574 205 206 197
-4.29157 -4.73478 0.07932 204 201 197
-4.30703 -4.72140 0.08612 201 201 202
-4.31720 -4.71289 0.07983 219 220 218
-4.32432 -4.71411 0.06038 223 224 223
-4.39751 -4.64614 0.03023 224 227 225
-4.37888 -4.65153 0.02368 215 220 219
-4.40453 -4.64734 0.01104 228 230 222
-4.58908 -4.58722 -0.06932 206 206 213
-4.58210 -4.58603 -0.05026 216 217 217
-4.57634 -4.58930 -0.06304 203 202 201
-4.60334 -4.58797 -0.07577 213 212 215
-4.61717 -4.58789 -0.08218 204 201 195
-4.63059 -4.58702 -0.08854 196 197 193
-4.63757 -4.58821 -0.10763 217 223 221
-4.64398 -4.58608 -0.09490 213 218 217
-4.65096 -4.58727 -0.11400 223 222 221
-1.59061 -5.61880 1.49104 94 86 71
-1.56958 -5.62488 1.48364 92 84 74
-1.58406 -5.62251 1.47650 96 86 74
-1.59854 -5.62015 1.46937 101 89 80
-1.59039 -5.68201 1.50270 98 84 71
-1.59842 -5.68338 1.48073 101 89 85
-1.59883 -5.70784 1.50352 97 84 77
-1.60691 -5.70922 1.48142 101 93 89
-1.61271 -5.70948 1.49739 95 91 73
-1.62081 -5.71086 1.47527 103 97 86
-1.62700 -5.70939 1.49077 91 84 62
-1.67238 -5.62902 1.45506 74 55 27
-1.69563 -5.58448 1.43616 67 51 30
-1.71430 -5.56120 1.42326 67 55 54
-2.12183 -3.95706 0.94126 27 19 11
-2.82032 -3.75202 0.58049 33 37 33
-2.80711 -3.75583 0.57584 22 29 14
-2.83065 -3.76935 0.57888 55 64 65
-3.17938 -4.10612 0.47907 85 97 113
-3.18730 -4.08991 0.47244 145 162 162
-3.19812 -4.09070 0.46758 177 182 182
-3.20381 -4.09167 0.45204 191 192 197
-3.21881 -4.08681 0.45729 203 207 210
-3.22449 -4.08777 0.44175 210 218 213
-3.22822 -4.07989 0.45167 211 215 207
-3.23389 -4.08085 0.43616 216 217 219
-3.23643 -4.06685 0.44549 218 217 208
-3.25866 -4.01803 0.42627 221 219 194
-3.25722 -3.95931 0.41620 218 214 183
-3.26479 -3.94599 0.41026 214 211 170
-3.27072 -3.92529 0.40373 208 206 158
-3.28142 -3.92742 0.39917 203 200 153
-3.29624 -3.90164 0.38759 191 188 151
-3.30583 -3.89894 0.38266 191 190 153
-3.31234 -3.88281 0.37670 183 174 130
-3.31757 -3.86157 0.37039 130 112 55
-3.32839 -3.86474 0.36596 74 49 11
-3.33825 -3.86371 0.36121 53 30 14
-3.35735 -3.85908 0.35152 38 39 29
-3.36737 -3.85868 0.34681 44 43 36
-3.37750 -3.85867 0.34213 47 45 44
-3.41792 -3.85791 0.32328 47 50 30
-3.43609 -3.88750 0.32028 97 90 61
-3.44109 -3.86811 0.31442 133 133 93
-3.44704 -3.85265 0.30884 161 149 124
-3.45577 -3.84740 0.30384 178 175 146
-3.47096 -3.86502 0.30003 197 201 188
-3.48297 -3.87108 0.29558 211 212 187
-3.49510 -3.87737 0.29112 216 216 186
-3.50881 -3.88883 0.28687 223 223 205
-3.52046 -3.89309 0.28226 232 231 213
-3.53234 -3.89798 0.27765 241 239 219
-3.53779 -3.89891 0.26277 252 251 249
-3.54648 -3.91007 0.27332 246 246 227
-3.55194 -3.91100 0.25838 249 250 248
-3.56738 -3.90977 0.26359 245 245 240
-3.57285 -3.91070 0.24863 241 241 240
-4.14454 -4.68054 0.13744 188 184 183
-4.12595 -4.68591 0.13091 176 173 167
-4.24054 -4.71324 0.09899 211 214 204
-4.25714 -4.71961 0.09248 203 206 191
-4.30384 -4.69936 0.06716 215 218 214
-4.56835 -4.58836 -0.07556 201 206 201
-4.59676 -4.58974 -0.08846 226 232 227
-4.62297 -4.58691 -0.10111 211 214 212
-1.69934 -5.53880 1.40810 93 86 58
-1.70715 -5.54014 1.38675 101 87 84
-2.11812 -3.95643 0.93104 31 19 20
-2.12326 -3.95730 0.91701 18 14 11
-2.26240 -3.97707 0.86787 26 22 22
-2.27623 -3.97307 0.87273 23 22 8
-2.27192 -3.97551 0.86318 21 20 8
-2.81676 -3.76340 0.57273 26 36 31
-2.80350 -3.76724 0.56806 32 31 20
-2.82679 -3.77611 0.57035 50 57 56
-2.83642 -3.78147 0.56684 72 76 66
-2.84977 -3.77761 0.57154 79 73 76
-2.84561 -3.77997 0.56232 81 75 74
-2.84145 -3.78233 0.55309 78 74 70
-3.15711 -4.13270 0.48102 12 11 16
-3.15136 -4.13172 0.49672 10 11 5
-3.14661 -4.13441 0.48619 12 10 7
-3.14186 -4.13711 0.47565 12 7 7
-3.16186 -4.13000 0.49155 11 12 12
-3.17458 -4.10826 0.46855 77 84 97
-3.18590 -4.11180 0.46394 138 155 160
-3.19719 -4.11496 0.45927 174 176 177
-3.21603 -4.10008 0.44788 201 205 210
-3.21131 -4.10276 0.43742 201 203 208
-3.22174 -4.10105 0.43228 210 216 216
-3.24219 -4.06835 0.43008 221 223 224
-3.22718 -4.07269 0.42480 217 218 219
-3.23751 -4.07100 0.41971 218 223 223
-3.25149 -4.06135 0.42452 229 233 231
-3.25713 -4.06231 0.40908 236 238 241
-3.26028 -4.05200 0.41877 236 239 237
-3.26591 -4.05296 0.40337 243 244 245
-3.26748 -4.03503 0.41240 245 245 238
-3.27308 -4.03599 0.39708 249 249 247
-3.27437 -4.01709 0.40599 249 247 237
-3.27995 -4.01804 0.39076 252 252 251
-3.28175 -4.00198 0.39988 250 249 238
-3.28730 -4.00293 0.38470 254 254 252
-3.28768 -3.98054 0.39329 249 249 237
-3.29320 -3.98148 0.37822 254 254 253
-3.29299 -3.95682 0.38659 248 248 235
-3.29846 -3.95775 0.37163 253 254 252
-3.30022 -3.94256 0.38069 247 247 233
-3.30567 -3.94349 0.36579 253 253 252
-3.30615 -3.92287 0.37442 247 247 233
-3.31317 -3.90853 0.36860 246 243 221
-3.31714 -3.88133 0.36190 231 225 180
-3.32274 -3.86185 0.35582 194 179 128
-3.33381 -3.86605 0.35144 138 117 79
-3.34178 -3.85711 0.34615 80 60 33
-3.35307 -3.86206 0.34180 50 30 13
-3.36314 -3.86188 0.33710 47 27 16
-3.37290 -3.86039 0.33231 48 33 27
-3.38295 -3.86006 0.32759 48 41 30
-3.39709 -3.85597 0.33257 42 53 45
-3.39354 -3.86177 0.32299 46 47 34
-3.40435 -3.86426 0.31843 51 62 54
-3.42001 -3.88498 0.31487 93 95 101
-3.41898 -3.84287 0.30782 157 161 147
-3.43151 -3.85171 0.30359 196 202 182
-3.43912 -3.84239 0.29840 231 228 215
-3.44931 -3.84253 0.29370 243 242 223
-3.45462 -3.84344 0.27917 252 252 252
-3.46114 -3.84847 0.28928 239 240 238
-3.46647 -3.84937 0.27471 252 253 253
-3.47272 -3.85331 0.28478 240 244 242
-3.47806 -3.85422 0.27017 253 253 253
-3.48674 -3.86642 0.28063 246 247 243
-3.49211 -3.86734 0.26595 254 254 254
-3.50110 -3.88036 0.27646 251 251 249
-3.50650 -3.88128 0.26170 254 253 254
-3.51435 -3.89017 0.27207 253 252 250
-3.51977 -3.89110 0.25726 253 253 253
-3.52794 -3.90084 0.26768 253 252 249
-3.53338 -3.90176 0.25281 250 249 251
-4.13682 -4.67901 0.12464 195 193 184
-4.22390 -4.69108 0.08644 221 226 213
-4.20521 -4.69648 0.07986 195 194 199
-4.22571 -4.66311 0.08059 226 229 219
-4.30216 -4.61987 0.03743 212 211 210
-4.32057 -4.61455 0.04391 205 207 206
-4.31483 -4.61781 0.03119 208 211 210
-4.30909 -4.62106 0.01847 205 202 202
-4.31779 -4.59463 0.02567 222 227 222
-4.33609 -4.58934 0.03211 226 224 221
