ply
format ascii 1.0
element face 0
property list uchar int vertex_indices
element vertex 1240
property float x
property float y
property float z
property uchar diffuse_red
property uchar diffuse_green
property uchar diffuse_blue
end_header
-3.67392 -4.46690 0.03354 171 183 193
-3.70041 -4.48567 0.04671 143 146 155
-3.72130 -4.46306 0.04929 108 96 99
-3.73586 -4.46653 0.04900 104 95 89
-3.75088 -4.46885 0.06386 110 114 119
-3.75042 -4.46925 0.03376 110 116 112
-2.73774 -4.18852 0.05903 123 107 100
-2.72312 -4.18627 0.04456 128 108 95
-2.75228 -4.19071 0.05887 79 70 55
-2.76641 -4.19367 0.05863 66 64 56
-2.77901 -4.19966 0.05803 57 54 46
-2.79321 -4.20231 0.04317 49 48 28
-2.86421 -4.31602 0.04545 41 38 36
-2.84966 -4.31331 0.06068 33 35 24
-2.84943 -4.31351 0.04564 37 37 26
-2.87526 -4.32651 0.04434 46 49 44
-2.88322 -4.34378 0.04244 57 54 53
-2.89481 -4.35344 0.04142 68 60 59
-2.92034 -4.36793 0.03995 79 71 68
-2.93933 -4.36141 0.04081 90 87 71
-2.95808 -4.35525 0.04162 100 95 82
-2.97271 -4.35798 0.02630 123 110 95
-2.97854 -4.34502 0.04290 114 103 94
-2.99313 -4.34774 0.02764 121 109 95
-3.01003 -4.34574 0.04302 132 121 105
-3.02460 -4.34846 0.02777 130 120 111
-3.15874 -4.32897 0.04584 112 105 113
-3.17158 -4.33612 0.04512 155 156 169
-3.18816 -4.33363 0.04550 196 200 205
-3.20258 -4.33632 0.03041 207 208 207
-3.27708 -4.43341 0.03482 237 235 235
-3.26190 -4.43107 0.01980 233 230 230
-3.27685 -4.43361 0.01961 237 236 236
-3.29180 -4.43615 0.01941 221 217 218
-3.29045 -4.44048 0.03410 219 215 217
-3.30518 -4.44323 0.01868 209 206 210
-3.69046 -4.46247 0.03414 168 178 185
-3.70555 -4.46380 0.03409 126 126 149
-3.72012 -4.46651 0.01884 80 84 110
-3.72286 -4.45580 0.03510 93 89 107
-3.73765 -4.45818 0.03492 103 106 102
-3.75218 -4.46089 0.01972 109 119 122
-3.90529 -4.53810 0.02697 132 135 130
-3.89058 -4.53536 0.04237 121 122 121
-3.89035 -4.53556 0.02716 126 127 127
-3.92046 -4.54044 0.04198 140 145 138
-3.92023 -4.54064 0.02678 149 157 150
-3.92000 -4.54085 0.01157 152 158 150
-5.74547 -4.92052 -0.00455 206 204 209
-5.73028 -4.91794 -0.00436 206 202 203
-5.73005 -4.91815 -0.01981 196 203 200
-5.74570 -4.92032 0.01090 213 214 218
-5.76089 -4.92290 0.01071 214 211 210
-5.76807 -4.95335 -0.00811 213 216 217
-5.78359 -4.95574 0.00725 214 210 207
-5.78336 -4.95595 -0.00831 218 219 219
-5.78312 -4.95616 -0.02387 220 226 225
-5.92863 -5.00691 -0.01314 204 206 207
-5.91348 -5.00409 0.00272 197 198 200
-5.91324 -5.00430 -0.01294 204 207 207
-5.91300 -5.00451 -0.02860 210 213 210
-2.73918 -4.18555 0.04475 127 110 100
-2.72457 -4.18329 0.03029 131 118 90
-2.74683 -4.20097 0.04301 87 77 73
-2.76136 -4.20327 0.04284 70 66 64
-2.77411 -4.20903 0.04226 62 60 46
-2.85639 -4.29863 0.03240 45 41 38
-2.84190 -4.29592 0.04758 39 37 29
-2.84167 -4.29612 0.03259 39 34 36
-2.87885 -4.31855 0.03024 57 56 58
-2.88690 -4.33558 0.02832 66 62 67
-2.90036 -4.34108 0.02777 80 70 73
-2.91384 -4.34659 0.02722 90 77 76
-2.93411 -4.33714 0.02846 100 92 83
-2.94870 -4.33986 0.01320 132 123 93
-2.95129 -4.33438 0.02890 114 110 85
-2.96585 -4.33709 0.01366 128 116 96
-2.96233 -4.34535 0.02770 117 111 88
-2.97693 -4.34807 0.01242 125 113 96
-3.13114 -4.31943 0.03188 118 114 97
-3.11674 -4.31674 0.04696 122 114 98
-3.11629 -4.31714 0.01719 131 126 116
-3.14654 -4.31997 0.03193 112 100 93
-3.16023 -4.32483 0.03146 100 87 102
-3.17639 -4.32339 0.03173 138 141 160
-3.19068 -4.32672 0.03145 188 195 203
-3.67824 -4.44899 0.02059 171 183 194
-3.66371 -4.44627 0.03580 180 191 199
-3.66348 -4.44647 0.02078 178 192 199
-3.66325 -4.44668 0.00576 175 191 197
-3.69169 -4.45678 0.01978 156 166 179
-3.70721 -4.45624 0.01995 104 105 131
-3.73816 -4.45524 0.02028 101 114 123
-3.75268 -4.45795 0.00508 110 118 123
-3.87854 -4.51620 0.01416 117 118 116
-3.89136 -4.52937 0.01271 134 137 136
-3.90543 -4.53636 0.01200 147 148 145
-3.92013 -4.53911 -0.00339 157 157 150
-5.77080 -4.96570 -0.02506 215 222 220
-2.26988 -4.22006 0.02246 149 127 104
-2.28468 -4.22257 0.02227 149 128 115
-2.28445 -4.22277 0.00721 141 122 110
-2.73963 -4.18445 0.03027 132 115 94
-2.74850 -4.19752 0.02877 100 92 81
-2.75866 -4.20827 0.02755 79 67 61
-2.77086 -4.21516 0.02682 69 62 51
-2.78496 -4.21836 0.02654 54 52 31
-2.79966 -4.22062 0.04109 44 43 34
-2.79944 -4.22082 0.02636 43 43 31
-2.84819 -4.28228 0.01935 47 39 46
-2.83375 -4.27959 0.03446 37 34 31
-2.83353 -4.27979 0.01954 40 32 37
-2.85989 -4.29101 0.01839 57 53 53
-2.87427 -4.29417 0.01812 66 63 62
-2.89518 -4.31744 0.01548 90 80 78
-2.90675 -4.32690 0.01444 100 88 84
-2.92733 -4.31670 0.01581 111 97 88
-2.94185 -4.31941 0.00062 130 123 99
-2.94429 -4.31430 0.01623 121 112 92
-2.95879 -4.31700 0.00106 132 118 92
-3.13540 -4.30848 0.01837 126 122 107
-3.12059 -4.30619 0.00371 138 127 116
-3.15074 -4.30906 0.01841 117 108 93
-3.16080 -4.32300 0.01682 93 83 91
-3.18108 -4.31098 0.01841 120 122 143
-3.19403 -4.31766 0.01771 176 184 196
-3.20700 -4.32438 0.01700 204 206 209
-3.22182 -4.32666 0.03167 212 212 211
-3.22159 -4.32686 0.01681 211 211 212
-3.22137 -4.32706 0.00195 210 210 213
-3.69006 -4.46265 0.00405 128 136 151
-3.70463 -4.46537 -0.01120 73 72 87
-3.71114 -4.43936 0.00700 85 81 101
-3.72433 -4.44818 0.00604 86 85 100
-3.73883 -4.45089 -0.00914 105 114 123
-3.73838 -4.45354 0.00550 103 115 124
-3.75289 -4.45625 -0.00968 113 117 124
-3.87907 -4.51255 -0.00052 133 141 133
-3.86397 -4.51022 -0.01545 143 136 122
-3.89370 -4.51528 -0.01583 167 176 165
-3.90588 -4.53294 -0.00276 164 162 150
-3.92057 -4.53568 -0.01814 165 162 155
-5.77128 -4.96884 -0.04101 206 211 216
-5.79602 -5.00931 -0.04568 210 214 217
-5.81149 -5.01194 -0.04588 201 198 205
-2.02020 -4.17459 0.01102 142 128 112
-2.00518 -4.17227 -0.00384 141 129 109
-2.01997 -4.17479 -0.00403 139 126 102
-2.03475 -4.17730 -0.00422 131 118 99
-2.70581 -4.18884 0.01484 145 132 109
-2.69162 -4.18619 0.02970 133 113 97
-2.69117 -4.18658 0.00035 138 125 109
-2.70604 -4.18864 0.02951 130 114 95
-2.70559 -4.18903 0.00017 146 139 113
-2.72216 -4.18764 0.01512 138 124 99
-2.73634 -4.19029 0.00028 130 117 98
-2.73970 -4.18409 0.01570 132 119 94
-2.75413 -4.18645 0.01553 124 105 79
-2.75439 -4.21633 0.01184 93 69 59
-2.76694 -4.22261 0.01116 77 66 58
-2.78121 -4.22527 -0.00378 68 59 52
-2.78210 -4.22377 0.01114 63 57 43
-2.79801 -4.22341 0.01132 49 46 37
-2.81272 -4.22568 0.02587 42 40 30
-2.81250 -4.22588 0.01113 45 42 32
-2.81228 -4.22607 -0.00361 45 39 42
-2.85088 -4.27643 0.00519 65 57 55
-2.86691 -4.27601 0.00538 81 74 58
-2.88047 -4.28076 0.00490 93 86 79
-2.89104 -4.29195 0.00360 100 90 76
-2.90208 -4.30228 0.00242 108 95 83
-2.91864 -4.30074 0.00274 113 102 91
-3.14066 -4.29503 0.00526 134 126 112
-3.12591 -4.29276 -0.00935 138 124 113
-3.14044 -4.29523 -0.00954 139 126 118
-3.15483 -4.29843 0.00495 122 116 100
-3.16604 -4.30935 0.00369 100 92 87
-3.18538 -4.29961 0.00505 104 103 114
-3.19688 -4.30990 0.00388 155 162 176
-3.20913 -4.31840 0.00293 197 202 208
-3.67038 -4.41804 -0.00563 175 186 197
-3.65595 -4.41534 0.00947 178 193 199
-3.65573 -4.41554 -0.00544 179 189 199
-3.68184 -4.43324 -0.00742 152 157 169
-3.69702 -4.43379 -0.00736 95 94 112
-3.72700 -4.43628 -0.00743 93 99 106
-3.74146 -4.43898 -0.02256 108 115 121
-3.88076 -4.50300 -0.01442 150 157 143
-3.89536 -4.50572 -0.02970 181 183 167
-5.77075 -4.96782 -0.05648 204 204 207
-5.78585 -4.97063 -0.07228 197 196 195
-5.79592 -5.01007 -0.06149 197 196 207
-5.81566 -5.02970 -0.06376 210 209 210
-5.83144 -5.03214 -0.04815 198 200 208
-5.83496 -5.04712 -0.06576 213 213 211
-5.85078 -5.04956 -0.05010 194 198 202
-5.84907 -5.04408 -0.06527 200 202 201
-5.86488 -5.04651 -0.04963 191 192 192
-5.86464 -5.04673 -0.06547 195 195 187
-5.86440 -5.04694 -0.08130 192 198 193
-5.87899 -5.04481 -0.06511 188 177 170
-5.87923 -5.04460 -0.04929 186 180 180
-5.89187 -5.03749 -0.06410 180 161 172
-5.90763 -5.03991 -0.04851 199 201 205
-5.90739 -5.04012 -0.06430 194 195 208
-2.72121 -4.18920 0.00028 136 122 106
-2.72099 -4.18940 -0.01438 122 114 108
-2.73540 -4.19185 -0.01457 126 115 105
-2.75238 -4.18959 0.00051 136 116 85
-2.75216 -4.18978 -0.01414 139 124 96
-2.75253 -4.21972 -0.00333 109 90 79
-2.76316 -4.22977 -0.00451 91 77 53
-2.79359 -4.23197 -0.00453 52 46 46
-2.81884 -4.24459 -0.00591 43 41 40
-2.81907 -4.24439 0.00890 44 41 38
-2.83214 -4.24962 -0.00643 61 53 48
-2.86085 -4.25542 -0.00692 94 84 69
-2.87701 -4.25455 -0.00667 109 99 76
-2.89133 -4.25722 -0.02166 130 119 105
-2.89019 -4.25992 -0.00724 125 115 94
-2.89599 -4.28110 -0.00988 118 105 90
-2.93489 -4.29952 -0.01188 128 127 114
-2.94934 -4.30222 -0.02700 129 115 100
-3.15914 -4.28724 -0.00835 130 122 111
-3.14442 -4.28497 -0.02292 138 124 115
-3.15892 -4.28744 -0.02310 134 124 113
-3.17186 -4.29420 -0.00913 112 108 95
-3.18491 -4.30044 -0.00981 95 97 98
-3.20451 -4.28974 -0.00828 121 133 143
-3.21229 -4.30975 -0.01075 176 188 195
-3.22834 -4.30822 -0.01042 207 210 215
-3.24309 -4.31049 0.00418 212 211 215
-3.24287 -4.31069 -0.01060 213 212 217
-3.66106 -4.39427 -0.01757 181 187 202
-3.64672 -4.39159 -0.00256 171 180 193
-3.64649 -4.39179 -0.01739 171 178 194
-3.67333 -4.40579 -0.01893 165 168 185
-3.68515 -4.41935 -0.02055 108 101 127
-3.69912 -4.42459 -0.02110 72 63 88
-3.71211 -4.43393 -0.02217 84 88 96
-3.73007 -4.42274 -0.02059 104 115 113
-3.75954 -4.42681 -0.02085 115 122 128
-3.77439 -4.42910 -0.00615 120 125 121
-3.77589 -4.42175 -0.02006 128 136 132
-3.79072 -4.42403 -0.00539 120 121 119
-3.79006 -4.42613 -0.02050 130 136 127
-3.80490 -4.42842 -0.00582 118 122 122
-3.80467 -4.42862 -0.02069 125 126 120
-3.81582 -4.44706 -0.02293 135 137 129
-3.81605 -4.44686 -0.00801 124 127 120
-3.83049 -4.44956 -0.02312 140 142 131
-3.86676 -4.49546 -0.02865 151 149 133
-3.85218 -4.49274 -0.01339 144 148 144
-3.85195 -4.49294 -0.02845 146 146 137
-3.88134 -4.49818 -0.04390 181 182 168
-3.87863 -4.51285 -0.03075 176 175 166
-3.89326 -4.51558 -0.04607 187 190 164
-5.57443 -4.80808 -0.05346 200 197 197
-5.55978 -4.80535 -0.03811 200 202 203
-5.55955 -4.80555 -0.05326 198 200 201
-5.55932 -4.80575 -0.06841 202 201 203
-5.68015 -4.83233 -0.05562 179 179 186
-5.76602 -4.94969 -0.06979 207 207 200
-5.76579 -4.94990 -0.08534 200 202 199
-5.78106 -4.95250 -0.08554 203 205 200
-5.81062 -5.01080 -0.07718 209 211 210
-5.81038 -5.01101 -0.09292 213 216 213
-5.83012 -5.02928 -0.07936 214 216 211
-5.84541 -5.03214 -0.09535 198 197 197
-5.84673 -5.03612 -0.08008 194 195 195
-5.86202 -5.03898 -0.09609 200 204 202
-5.87157 -5.01782 -0.07754 194 191 185
-5.88798 -5.02402 -0.07818 185 179 188
-5.90320 -5.02686 -0.09412 195 201 201
-5.89688 -5.00243 -0.07536 193 202 211
-5.91251 -5.00484 -0.05990 201 201 202
-5.91227 -5.00505 -0.07556 202 203 204
-5.91203 -5.00526 -0.09121 200 202 205
-2.37701 -4.17883 -0.01623 143 126 121
-2.36243 -4.17635 -0.01604 153 142 124
-2.37724 -4.17863 -0.00139 145 125 106
-2.39182 -4.18111 -0.00158 140 126 101
-2.39137 -4.18151 -0.03125 125 112 103
-2.53525 -4.20987 -0.01880 139 135 112
-2.52088 -4.20719 -0.00376 135 127 111
-2.52065 -4.20739 -0.01862 140 129 116
-2.52043 -4.20759 -0.03347 147 136 117
-2.54984 -4.21236 -0.01899 139 127 115
-2.70397 -4.19186 -0.01487 131 118 97
-2.70375 -4.19206 -0.02955 127 113 96
-2.76747 -4.19045 -0.01408 129 115 105
-2.75286 -4.18820 -0.02854 137 128 102
-2.76724 -4.19064 -0.02872 138 125 113
-2.78103 -4.19450 -0.01449 121 110 77
-2.77738 -4.23261 -0.01951 81 74 54
-2.79597 -4.22699 -0.01860 56 38 35
-2.80908 -4.23224 -0.01916 48 40 42
-2.82391 -4.23405 -0.01926 67 63 62
-2.84184 -4.22954 -0.01850 100 95 77
-2.85687 -4.23087 -0.01854 102 95 85
-2.86926 -4.23766 -0.01931 113 107 91
-2.88029 -4.24739 -0.02048 121 106 99
-2.89459 -4.25006 -0.03544 127 112 111
-2.90096 -4.27020 -0.02327 132 125 112
-2.90074 -4.27040 -0.03812 140 130 117
-2.91533 -4.27288 -0.03830 129 122 109
-2.91243 -4.27940 -0.02437 127 121 100
-2.92682 -4.28209 -0.03943 127 120 99
-3.17742 -4.27974 -0.02192 122 119 106
-3.16274 -4.27748 -0.03645 135 124 111
-3.17720 -4.27994 -0.03663 132 124 111
-3.19074 -4.28511 -0.02250 104 108 102
-3.20720 -4.28242 -0.02199 92 101 106
-3.22698 -4.27091 -0.02030 133 146 157
-3.23407 -4.29268 -0.02309 188 199 209
-3.24937 -4.29292 -0.02297 211 212 218
-3.26405 -4.29518 -0.00845 214 213 217
-3.26382 -4.29538 -0.02316 216 213 215
-3.66340 -4.38459 -0.03109 165 172 182
-3.67264 -4.40780 -0.03404 120 113 133
-3.68659 -4.41292 -0.03458 63 57 71
-3.70021 -4.41946 -0.03530 65 69 68
-3.71551 -4.41924 -0.03513 99 110 104
-3.73147 -4.41615 -0.03458 111 119 119
-3.74554 -4.42092 -0.03507 114 116 121
-3.76054 -4.42174 -0.03504 123 125 128
-3.77805 -4.41151 -0.03353 137 142 136
-3.79125 -4.42004 -0.03453 138 144 128
-3.80243 -4.43794 -0.03676 136 136 118
-3.81685 -4.44063 -0.05185 167 172 157
-3.81475 -4.45116 -0.03838 154 155 144
-3.82778 -4.46143 -0.03960 152 147 132
-3.84271 -4.46373 -0.02482 135 138 130
-3.85229 -4.49035 -0.04315 153 157 149
-3.86443 -4.50611 -0.04510 169 174 166
-3.87904 -4.50884 -0.06040 187 186 169
-5.58914 -4.81107 -0.06883 185 177 178
-5.82282 -5.00172 -0.09159 209 205 206
-5.82258 -5.00193 -0.10728 206 207 205
-5.83801 -5.00455 -0.10748 203 200 202
-5.86476 -4.99316 -0.09007 203 205 198
-5.84915 -4.99076 -0.10552 208 209 208
-5.86452 -4.99337 -0.10571 211 212 205
-2.07477 -4.14405 -0.02938 123 108 95
-2.08964 -4.14634 -0.01467 128 124 108
-2.09570 -4.13763 -0.02831 126 111 102
-2.11053 -4.13992 -0.01363 134 128 110
-2.11031 -4.14012 -0.02850 136 124 106
-2.34471 -4.15321 -0.02791 131 120 103
-2.33043 -4.15054 -0.01296 143 130 105
-2.34494 -4.15301 -0.01315 146 134 107
-2.34449 -4.15341 -0.04268 132 111 99
-2.35945 -4.15548 -0.01334 149 135 117
-2.35900 -4.15587 -0.04287 133 119 109
-2.38411 -4.16725 -0.02941 132 111 103
-2.65295 -4.19850 -0.03092 142 134 111
-2.66766 -4.20076 -0.01637 138 128 117
-2.66743 -4.20096 -0.03111 144 131 119
-2.66721 -4.20116 -0.04585 146 130 118
-2.68777 -4.19250 -0.02977 129 116 105
-2.78242 -4.19153 -0.02869 139 132 102
-2.76782 -4.18928 -0.04314 138 126 111
-2.78220 -4.19173 -0.04333 144 132 112
-2.78703 -4.21329 -0.03157 120 104 73
-2.79552 -4.22764 -0.03342 94 67 62
-2.80525 -4.23970 -0.03494 90 78 72
-2.83387 -4.21363 -0.03115 109 104 93
-2.84807 -4.21628 -0.04602 138 123 107
-2.84948 -4.21366 -0.03100 131 120 102
-2.86367 -4.21631 -0.04586 142 122 106
-2.86023 -4.22368 -0.03224 128 114 100
-2.87445 -4.22634 -0.04713 137 125 113
-2.88362 -4.24014 -0.03422 126 116 108
-2.89788 -4.24280 -0.04915 132 121 111
-3.19752 -4.26736 -0.03474 127 123 107
-3.18290 -4.26511 -0.04921 138 128 110
-3.21419 -4.26394 -0.03411 98 94 79
-3.23283 -4.25521 -0.03275 88 92 92
-3.24574 -4.26141 -0.03346 139 156 171
-3.25328 -4.28207 -0.03616 192 200 211
-3.26745 -4.28519 -0.03644 213 213 217
-3.28209 -4.28745 -0.02195 215 213 214
-3.28186 -4.28764 -0.03662 216 213 216
-3.64291 -4.34687 -0.04098 162 169 181
-3.62872 -4.34423 -0.02613 162 168 181
-3.62849 -4.34442 -0.04080 163 166 180
-3.65487 -4.35864 -0.04244 153 163 168
-3.66038 -4.39558 -0.04736 117 109 124
-3.67346 -4.40390 -0.04834 70 63 79
-3.68690 -4.41098 -0.04916 64 69 73
-3.69898 -4.42373 -0.05076 92 100 101
-3.71708 -4.41205 -0.04900 117 122 119
-3.73276 -4.41002 -0.04857 130 131 121
-3.75107 -4.39672 -0.04660 145 144 133
-3.76537 -4.39938 -0.06157 169 164 153
-3.76495 -4.40195 -0.04717 160 156 144
-3.77926 -4.40462 -0.06215 169 166 155
-3.77953 -4.40423 -0.04733 163 158 150
-3.79384 -4.40690 -0.06231 168 165 159
-3.79263 -4.41309 -0.04839 165 166 156
-3.80696 -4.41577 -0.06339 166 167 158
-3.80581 -4.42180 -0.04943 167 171 153
-3.82017 -4.42448 -0.06445 164 167 155
-3.82474 -4.47484 -0.05637 163 164 148
-3.82451 -4.47504 -0.07139 162 161 151
-3.83927 -4.47755 -0.07158 163 157 153
-3.83759 -4.48650 -0.05781 160 164 151
-3.85008 -4.50025 -0.05954 155 158 157
-3.86249 -4.51477 -0.06137 182 183 175
-3.87714 -4.51751 -0.07670 186 175 168
-3.78660 -6.04369 -0.26774 240 242 245
-3.80729 -6.04688 -0.24726 236 232 232
-3.80667 -6.04743 -0.28874 249 251 252
-3.80905 -6.03385 -0.26619 250 250 247
-3.82939 -6.03731 -0.26645 254 254 251
-3.82907 -6.03759 -0.28714 253 254 254
-5.57770 -4.82639 -0.08613 213 206 196
-5.59242 -4.82913 -0.10153 191 188 176
-2.07956 -4.13720 -0.04325 136 113 91
-2.09756 -4.13488 -0.04274 135 107 91
-2.10965 -4.14092 -0.04345 147 124 98
-2.12448 -4.14321 -0.02877 143 125 105
-2.12426 -4.14341 -0.04364 148 129 99
-2.12403 -4.14361 -0.05850 154 136 115
-2.34148 -4.13295 -0.03988 139 117 98
-2.32727 -4.13029 -0.02501 147 128 115
-2.32705 -4.13049 -0.03970 146 127 106
-2.32682 -4.13069 -0.05439 146 126 109
-2.70036 -4.19821 -0.04509 142 132 106
-2.68568 -4.19595 -0.05961 157 140 123
-2.70014 -4.19841 -0.05980 146 137 115
-2.71459 -4.20087 -0.05998 145 149 111
-2.79123 -4.20474 -0.04503 144 125 106
-2.79101 -4.20494 -0.05970 139 131 120
-2.80545 -4.20760 -0.04527 131 110 101
-2.81965 -4.21025 -0.06013 126 105 103
-2.82285 -4.20407 -0.04460 123 106 104
-2.83857 -4.20385 -0.04440 128 119 110
-2.85274 -4.20649 -0.05923 141 127 108
-3.20073 -4.25877 -0.04814 136 127 107
-3.18614 -4.25653 -0.06258 140 131 103
-3.20051 -4.25897 -0.06276 141 132 111
-3.21424 -4.26343 -0.04864 120 113 84
-3.23615 -4.24616 -0.04603 88 84 67
-3.24949 -4.25111 -0.04657 82 91 102
-3.26212 -4.25802 -0.04739 134 150 168
-3.27006 -4.27772 -0.05002 186 196 210
-3.28114 -4.28922 -0.05149 211 212 217
-3.29578 -4.29148 -0.03700 215 212 216
-3.29556 -4.29167 -0.05168 214 213 217
-3.63115 -4.33401 -0.05397 157 165 172
-3.61700 -4.33137 -0.03915 160 165 174
-3.61677 -4.33156 -0.05378 160 165 170
-3.64589 -4.33504 -0.05395 138 149 157
-3.65008 -4.37618 -0.05959 103 94 109
-3.66146 -4.39073 -0.06148 63 49 77
-3.67449 -4.39917 -0.06250 60 64 75
-3.68640 -4.41230 -0.06419 93 105 97
-3.70496 -4.39882 -0.06213 121 127 118
-3.72244 -4.38932 -0.06064 137 143 133
-3.73673 -4.39199 -0.07559 160 161 154
-3.73809 -4.38705 -0.06016 150 154 146
-3.75236 -4.38972 -0.07510 159 158 153
-3.75252 -4.38980 -0.06038 161 156 150
-3.76680 -4.39247 -0.07532 159 160 156
-3.84849 -4.50708 -0.07556 160 159 154
-3.83340 -4.50475 -0.09049 176 170 161
-3.84826 -4.50728 -0.09068 186 182 171
-3.86312 -4.50981 -0.09087 188 193 192
-3.86247 -4.51393 -0.07636 182 180 173
-3.87712 -4.51666 -0.09169 187 185 180
-3.76962 -6.01774 -0.28503 236 238 238
-3.78961 -6.02147 -0.30595 253 254 252
-3.78421 -6.05693 -0.29029 241 243 246
-3.80433 -6.06068 -0.31134 254 254 254
-5.62596 -4.78572 -0.09518 202 202 193
-5.62573 -4.78592 -0.11021 188 186 182
-1.92466 -4.08054 -0.05180 142 129 120
-1.91038 -4.07788 -0.03685 145 127 114
-1.91016 -4.07807 -0.05161 152 139 124
-1.92488 -4.08034 -0.03704 137 118 108
-1.92444 -4.08074 -0.06656 149 131 120
-1.93939 -4.08281 -0.03723 130 110 101
-2.09865 -4.13321 -0.05731 147 124 101
-2.11301 -4.13589 -0.07234 151 134 122
-2.35658 -4.13421 -0.05456 149 128 117
-2.37101 -4.13667 -0.05474 134 118 114
-2.37079 -4.13686 -0.06943 129 115 106
-2.77891 -4.19794 -0.05885 135 123 114
-2.76451 -4.19549 -0.05866 133 121 112
-2.76428 -4.19569 -0.07332 129 117 111
-2.80820 -4.20187 -0.05907 139 127 110
-2.80798 -4.20207 -0.07373 141 128 113
-2.82238 -4.20452 -0.07391 132 113 104
-2.84121 -4.19823 -0.05819 132 121 114
-2.85536 -4.20087 -0.07299 139 128 116
-3.21836 -4.25237 -0.06163 132 123 106
-3.20381 -4.25013 -0.07602 138 133 115
-3.21814 -4.25257 -0.07621 130 119 113
-3.23086 -4.25961 -0.06251 117 108 86
-3.25233 -4.24320 -0.05994 84 81 66
-3.27036 -4.23561 -0.05867 72 79 88
-3.28260 -4.24343 -0.05964 118 132 149
-3.28142 -4.28802 -0.06597 171 181 193
-3.29671 -4.28808 -0.06581 200 206 214
-3.31134 -4.29034 -0.05133 216 216 220
-3.30896 -4.29658 -0.06687 212 215 220
-3.32361 -4.29884 -0.05237 234 234 229
-3.32732 -4.28793 -0.06544 230 230 226
-3.34193 -4.29018 -0.05098 229 228 227
-3.34149 -4.29100 -0.06572 229 229 228
-3.35611 -4.29325 -0.05126 210 210 209
-3.36447 -4.26865 -0.06229 210 209 208
-3.37899 -4.27089 -0.04792 204 202 203
-3.37877 -4.27108 -0.06248 205 201 204
-3.37855 -4.27128 -0.07703 203 201 202
-3.61056 -4.29925 -0.06387 153 163 169
-3.59652 -4.29663 -0.04917 156 161 167
-3.59630 -4.29683 -0.06368 156 161 166
-3.61078 -4.29906 -0.04935 158 164 169
-3.62299 -4.30832 -0.06501 147 155 160
-3.62779 -4.34578 -0.07027 116 122 126
-3.63959 -4.35804 -0.07187 67 71 82
-3.64966 -4.37713 -0.07446 50 37 61
-3.66429 -4.37916 -0.07459 70 71 81
-3.67512 -4.39606 -0.07686 102 113 109
-3.69025 -4.39626 -0.07672 128 133 126
-3.70459 -4.39893 -0.09172 159 162 152
-3.70760 -4.38746 -0.07528 151 156 143
-3.72189 -4.39013 -0.09024 159 162 156
-3.72158 -4.39213 -0.07578 161 167 156
-3.73588 -4.39480 -0.09075 157 159 154
-3.76652 -6.03507 -0.30814 249 252 250
-3.78657 -6.03881 -0.32912 254 254 254
-5.25359 -4.70259 -0.10258 193 181 189
-5.25336 -4.70279 -0.11754 181 172 183
-5.26806 -4.70529 -0.11773 192 193 197
-5.65585 -4.79343 -0.11094 206 213 203
-2.36314 -4.12372 -0.06761 149 135 121
-2.34853 -4.12147 -0.08207 148 135 114
-2.36292 -4.12392 -0.08225 152 141 120
-2.58773 -4.17286 -0.07209 148 136 124
-2.57352 -4.17021 -0.05722 133 117 107
-2.57330 -4.17041 -0.07191 142 129 109
-2.58751 -4.17306 -0.08678 149 139 129
-2.60216 -4.17532 -0.07228 146 139 119
-2.60194 -4.17552 -0.08696 144 137 118
-2.79595 -4.19495 -0.07284 132 128 115
-2.81011 -4.19759 -0.08766 138 123 116
-3.25496 -4.23587 -0.07335 125 118 88
-3.27105 -4.23337 -0.07279 89 86 61
-3.28621 -4.23330 -0.07260 67 68 61
-3.30450 -4.22458 -0.07112 89 97 107
-3.31163 -4.24648 -0.07422 137 151 173
-3.32223 -4.30187 -0.08214 212 216 222
-3.34243 -4.28789 -0.07987 216 220 223
-3.58632 -4.22759 -0.06822 155 159 172
-3.57252 -4.22501 -0.05377 160 160 166
-3.57231 -4.22520 -0.06804 160 162 168
-3.58654 -4.22740 -0.05395 156 160 164
-3.60056 -4.22978 -0.05413 157 159 161
-3.59753 -4.23978 -0.06986 153 159 165
-3.60235 -4.27485 -0.07490 143 151 159
-3.60243 -4.32783 -0.08260 120 128 133
-3.61657 -4.33047 -0.09740 35 17 43
-3.61622 -4.33234 -0.08309 90 76 101
-3.62576 -4.35265 -0.08593 42 35 57
-3.63813 -4.36286 -0.08727 37 31 44
-3.65144 -4.36972 -0.08811 79 74 78
-3.66225 -4.38635 -0.09039 128 129 116
-3.67656 -4.38902 -0.10538 160 164 159
-3.68099 -4.37237 -0.08814 150 154 139
-3.69429 -4.37952 -0.08902 153 157 146
-3.70856 -4.38218 -0.10396 146 144 140
-5.62741 -4.79474 -0.12648 188 187 183
-5.61238 -4.79242 -0.14135 204 200 200
-5.64199 -4.79745 -0.14173 208 211 206
-1.90800 -4.05948 -0.07832 162 148 128
-1.89356 -4.05702 -0.07814 161 144 126
-1.89334 -4.05722 -0.09283 163 140 124
-1.90777 -4.05967 -0.09301 157 140 121
-1.92221 -4.06213 -0.09320 147 133 118
-2.79694 -4.19274 -0.08710 130 121 107
-2.79672 -4.19294 -0.10172 134 122 103
-2.81109 -4.19538 -0.10191 133 119 112
-3.25411 -4.23773 -0.08810 142 132 112
-3.23964 -4.23550 -0.10243 139 130 112
-3.25389 -4.23793 -0.10261 140 130 116
-3.27039 -4.23476 -0.08746 136 122 88
-3.28706 -4.23058 -0.08663 106 101 66
-3.30023 -4.23583 -0.08724 67 70 53
-3.31449 -4.23815 -0.08741 63 62 82
-3.32849 -4.24076 -0.10207 73 64 70
-3.33025 -4.23627 -0.08694 103 108 137
-3.34157 -4.24682 -0.08837 147 152 175
-3.35042 -4.26462 -0.09091 165 168 186
-3.37187 -4.24637 -0.08792 180 189 201
-3.38630 -4.24816 -0.08801 191 197 200
-3.40073 -4.25039 -0.07373 198 200 202
-3.40489 -4.23762 -0.08621 192 197 201
-3.41927 -4.23984 -0.07198 195 196 199
-3.42153 -4.23262 -0.08525 192 196 199
-3.43588 -4.23484 -0.07105 193 191 194
-3.43567 -4.23503 -0.08544 191 194 195
-3.43545 -4.23522 -0.09982 159 170 177
-3.51253 -4.22711 -0.08330 171 172 178
-3.49869 -4.22452 -0.06881 178 177 183
-3.49847 -4.22471 -0.08312 174 178 180
-3.49825 -4.22491 -0.09743 151 160 171
-3.51275 -4.22691 -0.06899 174 174 181
-3.52681 -4.22931 -0.06917 169 170 176
-3.52854 -4.22314 -0.08251 166 170 176
-3.54279 -4.22534 -0.06840 166 166 170
-3.54257 -4.22553 -0.08269 162 169 172
-3.56161 -4.21116 -0.08031 157 159 168
-3.56183 -4.21097 -0.06609 164 163 166
-3.57537 -4.21372 -0.09471 86 68 104
-3.57168 -4.22679 -0.08251 146 153 164
-3.58549 -4.22936 -0.09696 55 48 70
-3.58129 -4.24435 -0.08501 129 141 152
-3.58514 -4.28244 -0.09064 115 114 122
-3.58814 -4.32453 -0.09687 89 69 105
-3.59621 -4.34954 -0.10050 45 34 55
-3.62553 -4.35285 -0.10062 45 42 62
-3.62531 -4.35304 -0.11532 131 134 122
-3.65449 -4.35749 -0.10095 138 137 130
-3.66870 -4.36014 -0.11583 156 161 153
-3.67128 -4.35085 -0.09976 158 158 151
-3.68547 -4.35350 -0.11460 162 163 161
-3.69585 -4.37263 -0.10269 152 155 145
-3.71009 -4.37529 -0.11760 158 153 146
-3.66500 -6.13060 -0.36499 211 208 210
-3.64456 -6.12678 -0.34359 206 207 215
-3.64424 -6.12707 -0.36472 212 215 213
-3.66468 -6.13088 -0.38611 233 239 239
-3.68545 -6.13441 -0.38638 244 246 250
-2.66598 -4.17350 -0.10047 146 132 122
-2.65182 -4.17086 -0.08565 145 134 112
-2.65159 -4.17106 -0.10028 146 132 121
-2.66620 -4.17331 -0.08583 141 127 118
-2.66575 -4.17370 -0.11510 155 145 122
-2.68058 -4.17575 -0.08602 145 133 120
-3.27107 -4.23253 -0.10156 138 126 109
-3.25663 -4.23031 -0.11585 143 137 119
-3.27085 -4.23273 -0.11604 140 132 124
-3.28739 -4.22929 -0.10085 135 127 102
-3.30350 -4.22651 -0.10022 124 123 84
-3.31433 -4.23820 -0.10186 94 89 66
-3.35683 -4.24588 -0.10248 90 79 113
-3.37851 -4.22675 -0.09927 106 108 147
-3.39042 -4.23569 -0.10048 122 129 158
-3.39212 -4.27494 -0.10645 138 151 174
-3.39959 -4.29782 -0.10984 152 166 174
-3.51697 -4.26038 -0.10259 132 140 147
-3.53564 -4.24794 -0.10045 121 124 133
-3.55584 -4.22995 -0.09744 109 107 134
-3.57892 -4.35655 -0.11646 43 22 45
-3.59433 -4.35566 -0.11612 50 46 59
-3.64072 -4.35189 -0.11494 150 155 138
-3.65492 -4.35454 -0.12981 162 163 143
-3.65689 -4.34770 -0.11409 155 159 147
-3.67107 -4.35034 -0.12893 154 158 136
-3.69693 -4.36763 -0.11661 162 159 156
-3.71116 -4.37029 -0.13150 162 154 145
-5.68733 -4.81016 -0.15811 200 199 200
-5.70192 -4.81288 -0.17338 214 213 212
-2.63216 -4.14922 -0.11174 140 127 113
-2.61807 -4.14659 -0.09699 149 135 114
-2.61785 -4.14678 -0.11155 143 134 117
-2.61762 -4.14698 -0.12612 138 136 123
-2.63238 -4.14902 -0.09717 146 129 113
-2.64647 -4.15165 -0.11192 133 110 112
-3.28932 -4.22370 -0.11437 134 125 118
-3.27492 -4.22148 -0.12862 140 128 118
-3.28910 -4.22389 -0.12881 138 128 120
-3.30372 -4.22550 -0.11446 132 123 103
-3.31661 -4.23147 -0.11521 132 123 96
-3.33307 -4.22756 -0.11438 122 113 85
-3.34445 -4.23786 -0.11583 97 88 81
-3.35847 -4.24076 -0.11609 67 59 70
-3.37433 -4.23840 -0.11551 43 34 58
-3.38335 -4.25589 -0.11812 31 29 45
-3.39043 -4.27948 -0.12170 40 35 53
-3.40622 -4.27751 -0.12118 58 50 65
-3.42557 -4.26466 -0.11891 70 55 84
-3.44004 -4.26689 -0.10459 160 168 179
-3.44112 -4.26309 -0.11845 76 61 94
-3.45557 -4.26532 -0.10415 157 165 176
-3.45705 -4.26023 -0.11778 78 60 91
-3.47148 -4.26245 -0.10351 156 167 173
-3.47234 -4.25927 -0.11742 74 56 86
-3.48726 -4.25937 -0.11724 71 52 80
-3.50265 -4.25793 -0.11680 63 48 71
-3.51660 -4.26053 -0.13141 55 50 52
-3.51481 -4.26691 -0.11804 44 39 46
-3.52879 -4.26952 -0.13267 76 75 69
-3.52230 -4.29149 -0.12177 32 22 38
-3.53637 -4.29411 -0.13649 77 79 68
-3.59968 -4.28253 -0.11931 111 111 86
-3.60271 -4.32503 -0.12591 138 132 104
-3.64267 -4.34396 -0.12832 157 155 149
-3.64244 -4.34415 -0.14297 160 156 158
-5.49022 -4.68222 -0.15586 217 216 199
-5.47596 -4.67956 -0.14094 209 212 200
-5.47573 -4.67975 -0.15568 216 220 206
-5.49044 -4.68202 -0.14113 211 216 199
-5.50492 -4.68448 -0.14131 203 208 197
-5.50447 -4.68488 -0.17079 195 189 184
-5.52944 -4.66899 -0.15326 204 203 198
-5.52967 -4.66879 -0.13860 203 199 193
-5.54408 -4.67124 -0.13878 213 207 200
-5.54386 -4.67144 -0.15345 219 216 207
-5.54363 -4.67163 -0.16811 213 213 210
-3.30404 -4.22422 -0.12864 136 130 115
-3.31748 -4.22867 -0.12916 134 123 116
-3.33368 -4.22545 -0.12842 135 124 113
-3.34591 -4.23331 -0.12950 135 129 105
-3.35858 -4.24002 -0.13039 126 115 88
-3.37057 -4.24880 -0.13162 109 101 69
-3.38639 -4.24656 -0.13104 83 81 47
-3.39744 -4.25831 -0.13276 74 67 46
-3.41145 -4.26093 -0.14743 140 132 94
-3.40638 -4.27657 -0.13555 62 55 29
-3.43424 -4.28371 -0.13629 42 32 39
-3.44832 -4.28634 -0.15103 139 126 92
-3.45071 -4.27942 -0.13537 45 31 33
-3.47562 -4.24846 -0.13006 40 23 39
-3.48699 -4.25973 -0.13170 38 26 29
-3.50096 -4.26234 -0.14633 147 148 127
-3.50393 -4.25329 -0.13043 48 40 53
-3.51787 -4.25589 -0.14502 151 144 123
-3.59875 -4.39344 -0.15148 157 156 147
-3.61312 -4.39612 -0.16652 170 158 157
-5.51806 -4.68287 -0.17027 191 191 188
-5.53230 -4.68553 -0.18518 205 207 205
-5.52922 -4.66918 -0.16793 203 205 204
-5.54341 -4.67183 -0.18278 209 208 206
-3.28492 -4.23477 -0.14504 141 135 123
-3.27070 -4.23236 -0.14486 131 129 113
-3.27048 -4.23255 -0.15933 148 139 127
-3.30260 -4.22776 -0.14363 144 136 122
-3.31656 -4.23037 -0.15825 157 150 127
-3.31644 -4.23114 -0.14398 144 140 117
-3.33253 -4.22824 -0.14326 144 130 118
-3.34383 -4.23876 -0.14482 138 124 113
-3.35730 -4.24325 -0.14535 133 116 101
-3.36824 -4.25509 -0.14712 136 123 101
-3.38227 -4.25771 -0.16180 158 154 129
-3.37858 -4.26892 -0.14923 138 129 104
-3.39265 -4.27155 -0.16395 157 151 133
-3.39010 -4.27955 -0.15079 140 131 103
-3.40419 -4.28218 -0.16555 158 147 128
-3.43251 -4.24271 -0.14414 136 119 86
-3.43229 -4.24290 -0.15855 162 156 129
-3.44646 -4.24531 -0.15873 142 139 135
-3.47224 -4.25858 -0.14614 126 111 83
-3.45783 -4.25635 -0.16040 145 145 136
-3.47202 -4.25877 -0.16058 157 159 136
-3.48185 -4.27558 -0.14877 120 109 85
-3.49588 -4.27820 -0.16346 170 158 150
-2.58786 -4.11635 -0.15053 131 116 100
-2.60230 -4.11858 -0.13624 138 129 111
-2.60186 -4.11897 -0.16519 148 131 108
-3.21955 -4.20762 -0.15596 141 136 116
-3.20560 -4.20501 -0.14136 140 125 106
-3.20517 -4.20540 -0.17019 147 140 121
-3.21977 -4.20742 -0.14155 131 118 105
-3.23393 -4.20983 -0.14173 136 132 117
-3.23038 -4.21864 -0.15763 145 138 127
-3.24480 -4.22086 -0.14337 146 140 124
-3.24458 -4.22106 -0.15782 151 134 128
-3.28644 -4.23026 -0.15870 154 149 133
-3.30043 -4.23287 -0.17334 162 164 142
-3.30329 -4.22548 -0.15764 156 153 133
-3.33153 -4.23062 -0.15806 159 142 129
-3.33131 -4.23081 -0.17249 154 145 135
-3.34269 -4.24153 -0.15971 157 138 125
-3.35963 -4.23617 -0.15855 166 155 116
-3.37084 -4.24715 -0.16021 163 153 123
-3.38484 -4.24976 -0.17486 165 151 128
-5.95246 -4.75996 -0.20577 207 210 208
-5.93799 -4.75749 -0.20559 202 206 207
-5.93776 -4.75769 -0.22032 204 206 202
-5.96672 -4.76262 -0.22069 207 214 209
-2.14809 -4.01739 -0.15518 150 131 114
-2.13417 -4.01479 -0.14061 137 124 120
-2.13395 -4.01498 -0.15500 141 125 116
-2.14831 -4.01719 -0.14079 139 125 121
-2.16244 -4.01960 -0.14098 141 125 111
-2.16200 -4.01998 -0.16974 165 154 116
-3.21919 -4.20818 -0.17044 152 145 127
-3.20480 -4.20596 -0.18467 145 135 130
-3.23313 -4.21078 -0.18504 162 152 139
-3.22874 -4.22251 -0.17273 158 149 133
-3.24273 -4.22512 -0.18738 165 157 146
-3.24291 -4.22505 -0.17294 162 151 136
-3.25734 -4.22727 -0.15866 151 139 132
-3.25690 -4.22766 -0.18758 164 160 147
-3.27177 -4.22870 -0.17309 150 138 128
-3.27156 -4.22889 -0.18755 166 158 141
-3.28576 -4.23131 -0.18773 161 152 145
-3.28467 -4.23465 -0.17390 159 155 137
-3.29867 -4.23726 -0.18855 166 162 152
-3.34035 -4.24771 -0.17523 163 159 142
-3.32590 -4.24549 -0.18953 153 148 131
-3.34013 -4.24791 -0.18972 159 165 145
-3.35437 -4.25075 -0.17552 188 183 154
-3.37027 -4.24836 -0.17486 185 170 144
-5.32883 -4.64831 -0.21148 191 181 187
-5.31459 -4.64565 -0.19659 214 211 203
-5.31437 -4.64585 -0.21130 207 205 199
-5.31415 -4.64604 -0.22601 208 207 201
-5.32905 -4.64811 -0.19677 192 182 185
-5.34350 -4.65057 -0.19696 177 167 179
-5.34220 -4.64404 -0.21054 191 184 189
-5.35685 -4.64630 -0.19604 192 194 193
-5.35641 -4.64669 -0.22541 212 207 192
-2.14999 -4.01461 -0.16901 165 150 118
-2.63019 -4.09627 -0.17519 144 117 103
-2.62997 -4.09646 -0.18956 139 114 107
-2.64453 -4.09848 -0.16100 154 139 118
-2.64431 -4.09867 -0.17537 162 143 121
-3.35599 -4.24569 -0.18906 175 175 171
-3.34156 -4.24346 -0.20335 153 155 139
-3.36999 -4.24830 -0.20371 192 200 176
-3.37466 -4.23524 -0.18693 190 188 173
-5.32667 -4.63622 -0.22409 200 200 201
-5.31203 -4.63396 -0.23857 207 210 202
-5.32645 -4.63641 -0.23875 210 212 208
-5.34086 -4.63886 -0.23894 212 212 209
-5.58866 -4.69212 -0.22944 206 201 192
-5.57421 -4.68966 -0.22925 215 214 198
-5.57399 -4.68986 -0.24396 215 213 202
-5.58844 -4.69232 -0.24415 207 206 199
-2.16444 -4.01644 -0.18342 159 147 113
-2.16422 -4.01663 -0.19779 146 132 109
-2.17878 -4.01865 -0.16923 158 147 116
-2.17856 -4.01884 -0.18360 155 142 114
-2.39379 -4.02521 -0.18099 161 156 134
-2.38000 -4.02264 -0.16655 139 132 121
-2.39401 -4.02502 -0.16673 157 144 117
-2.39358 -4.02540 -0.19525 164 151 138
-2.40802 -4.02740 -0.16691 160 137 116
-2.40975 -4.02455 -0.18059 169 154 127
-2.42397 -4.02674 -0.16653 161 142 122
-2.42375 -4.02693 -0.18077 161 145 132
-2.65329 -4.08249 -0.18667 157 142 124
-2.63901 -4.08029 -0.20080 135 114 100
-2.66734 -4.08488 -0.18685 145 134 125
-5.30160 -4.65794 -0.24302 201 207 198
-5.28732 -4.65528 -0.22807 192 189 178
-5.28710 -4.65547 -0.24283 190 192 192
-5.28687 -4.65567 -0.25759 186 186 184
-1.96459 -3.94464 -0.18831 153 142 129
-1.95060 -3.94226 -0.18813 163 149 134
-1.96437 -3.94483 -0.20254 147 133 124
-1.97879 -3.94683 -0.17426 148 130 106
-1.97857 -3.94702 -0.18849 139 125 113
-1.99729 -3.94328 -0.18747 155 139 127
-2.01125 -3.94565 -0.18765 171 155 143
-2.01103 -3.94584 -0.20186 168 153 141
-2.67938 -4.06310 -0.19695 153 137 130
-2.69335 -4.06548 -0.19713 161 150 132
-3.13894 -4.14522 -0.20358 159 156 140
-3.15271 -4.14779 -0.21800 159 155 141
-5.30013 -4.64987 -0.25630 195 198 186
-5.28543 -4.64760 -0.27084 188 190 184
-5.31011 -4.62309 -0.25126 201 204 191
-5.32448 -4.62553 -0.25144 210 214 203
-5.32426 -4.62573 -0.26607 207 208 200
-5.99567 -4.72629 -0.25765 189 186 198
-1.98433 -3.93954 -0.20119 143 130 126
-1.97016 -3.93735 -0.21521 151 137 118
-1.99807 -3.94210 -0.21557 165 152 142
-2.63512 -4.08698 -0.21637 136 119 95
-2.62103 -4.08458 -0.21619 140 127 120
-2.62081 -4.08478 -0.23053 145 138 122
-2.64898 -4.08957 -0.23089 152 143 132
-2.65491 -4.07920 -0.21457 150 136 130
-2.66874 -4.08178 -0.22904 152 139 139
-3.14160 -4.13855 -0.21649 148 149 141
-3.12743 -4.13637 -0.23052 131 130 133
-3.16401 -4.15672 -0.21944 155 148 125
-3.16379 -4.15691 -0.23370 160 151 134
-2.88022 -4.11597 -0.23143 151 153 132
-2.86640 -4.11339 -0.21696 140 128 113
-2.86618 -4.11359 -0.23125 145 134 119
-2.89448 -4.11817 -0.21732 157 142 128
-3.14242 -4.13629 -0.23022 133 134 136
-3.15615 -4.13885 -0.24460 147 142 132
-5.98909 -4.70701 -0.28321 192 190 195
-5.97461 -4.70478 -0.29754 200 196 191
-5.98887 -4.70721 -0.29772 202 199 195
-2.52668 -4.00950 -0.23220 148 137 123
-2.54076 -4.01167 -0.21826 159 145 120
-2.54055 -4.01186 -0.23238 159 145 118
-2.88361 -4.10887 -0.24424 149 150 135
-2.86939 -4.10667 -0.25831 152 139 133
-2.88340 -4.10906 -0.25849 144 128 120
-2.89741 -4.11144 -0.25867 142 135 120
-3.16786 -4.18337 -0.25293 147 144 137
-3.15354 -4.18117 -0.26710 154 141 132
-3.16764 -4.18356 -0.26728 153 140 130
-3.18175 -4.18596 -0.26746 143 134 123
-3.18233 -4.18486 -0.25293 157 155 144
-3.19622 -4.18745 -0.26746 145 135 124
-5.93950 -4.72317 -0.30178 206 202 206
-5.95363 -4.72580 -0.31656 174 176 184
-1.94034 -3.89528 -0.23589 148 135 122
-1.92673 -3.89274 -0.22164 163 150 131
-1.94055 -3.89509 -0.22182 165 163 138
-1.94013 -3.89546 -0.24995 141 128 106
-1.95437 -3.89744 -0.22200 164 154 135
-1.95416 -3.89763 -0.23606 150 134 125
-2.12287 -3.92196 -0.23738 149 132 129
-2.10928 -3.91942 -0.22315 169 152 144
-2.10907 -3.91961 -0.23720 153 138 132
-2.13689 -3.92412 -0.22351 165 152 140
-2.13255 -3.92990 -0.23874 154 143 135
-2.14659 -3.93207 -0.22485 166 154 135
-2.14637 -3.93225 -0.23892 160 151 137
-2.14616 -3.93244 -0.25299 159 153 136
-1.93672 -3.88019 -0.24697 143 131 120
-1.92317 -3.87766 -0.23278 157 144 128
-1.92296 -3.87785 -0.24679 154 145 130
-1.92275 -3.87804 -0.26080 160 148 129
-1.96012 -3.89007 -0.24845 152 137 117
-1.97412 -3.89223 -0.23460 152 138 127
-1.97391 -3.89242 -0.24863 153 137 123
-1.97369 -3.89260 -0.26266 158 147 127
-2.11476 -3.91189 -0.24955 154 145 126
-2.10120 -3.90936 -0.23535 155 138 128
-2.10078 -3.90973 -0.26338 164 158 143
-2.11455 -3.91207 -0.26356 162 156 144
-2.12832 -3.91442 -0.26374 163 158 134
-2.13278 -3.90852 -0.24849 148 138 118
-2.14631 -3.91104 -0.26266 162 158 130
-2.14284 -3.91585 -0.24974 152 150 128
-2.15640 -3.91838 -0.26393 165 155 129
-2.52973 -4.00416 -0.25922 147 124 120
-5.78667 -4.61528 -0.31257 214 220 215
-5.80094 -4.61748 -0.29845 213 208 206
-5.80073 -4.61767 -0.31275 217 216 214
-5.80051 -4.61786 -0.32705 214 214 214
-5.92739 -4.68448 -0.32342 205 204 191
-5.91318 -4.68206 -0.32324 205 206 197
-5.91296 -4.68226 -0.33770 205 208 201
-5.93399 -4.66166 -0.31873 186 189 184
-1.95105 -3.88176 -0.26095 157 154 134
-1.93707 -3.87961 -0.27478 174 160 138
-1.95083 -3.88195 -0.27495 164 155 138
-1.96460 -3.88429 -0.27513 162 151 140
-3.09194 -4.07940 -0.27637 155 149 136
-3.09216 -4.07921 -0.26235 158 160 147
-3.09173 -4.07959 -0.29039 148 136 122
-3.10593 -4.08156 -0.26252 162 159 137
-3.10572 -4.08175 -0.27654 154 149 136
-5.28469 -4.46730 -0.30764 201 202 196
-5.27086 -4.46495 -0.30746 201 198 191
-5.27065 -4.46514 -0.32153 195 186 186
-5.28491 -4.46711 -0.29356 195 199 182
-5.29831 -4.46984 -0.32189 222 218 214
-5.76838 -4.59798 -0.32371 189 196 200
-5.78217 -4.60056 -0.33814 211 215 214
-5.78177 -4.59808 -0.32344 205 210 212
-5.79555 -4.60065 -0.33786 222 221 217
-5.81846 -4.58627 -0.32024 199 197 203
-5.80453 -4.58390 -0.32006 212 212 211
-5.81868 -4.58608 -0.30606 204 200 203
-5.83261 -4.58845 -0.30624 199 200 209
-5.83239 -4.58864 -0.32042 199 197 207
-5.83218 -4.58883 -0.33459 195 196 203
-2.93472 -4.06508 -0.29089 167 142 123
-2.94833 -4.06762 -0.30513 161 145 136
-3.07965 -4.07343 -0.28938 151 144 135
-3.06568 -4.07128 -0.30321 158 150 154
-3.07944 -4.07362 -0.30339 158 155 144
-3.53417 -4.19655 -0.30471 160 154 141
-3.52004 -4.19438 -0.31870 144 138 141
-3.54831 -4.19873 -0.29072 163 160 151
-3.54810 -4.19892 -0.30489 174 165 150
-3.54788 -4.19911 -0.31906 172 172 161
-5.25724 -4.46564 -0.32194 199 199 190
-5.76529 -4.58734 -0.33578 194 202 205
-5.75111 -4.58516 -0.34981 196 194 196
-5.76507 -4.58753 -0.34999 209 210 207
-5.77904 -4.58991 -0.35017 218 213 206
-5.81450 -4.57303 -0.33172 193 190 194
-2.15233 -3.86130 -0.27995 152 143 132
-2.13876 -3.85899 -0.27977 155 145 132
-2.13855 -3.85918 -0.29358 153 140 129
-2.15254 -3.86111 -0.26614 157 155 154
-2.15212 -3.86148 -0.29375 143 132 118
-2.16610 -3.86342 -0.26632 160 150 142
-2.26890 -3.88989 -0.28329 164 151 128
-2.25552 -3.88739 -0.26928 158 143 125
-2.25510 -3.88776 -0.29696 174 151 142
-2.26911 -3.88970 -0.26945 154 136 120
-2.26869 -3.89007 -0.29713 175 162 140
-2.28271 -3.89202 -0.26963 152 127 127
-2.55546 -3.96145 -0.29179 156 150 137
-2.55525 -3.96163 -0.30571 159 148 125
-3.09762 -4.06591 -0.30135 156 150 125
-3.09741 -4.06610 -0.31531 157 145 132
-3.11134 -4.06825 -0.30152 153 142 119
-3.11113 -4.06844 -0.31549 158 150 132
-3.12918 -4.13032 -0.31418 157 137 124
-3.11546 -4.12776 -0.29982 153 145 142
-3.11525 -4.12795 -0.31400 156 151 139
-3.11503 -4.12814 -0.32818 142 143 134
-3.12940 -4.13013 -0.30000 155 150 143
-3.14311 -4.13269 -0.31436 152 123 116
-3.53557 -4.19151 -0.31774 161 155 152
-3.52145 -4.18933 -0.33172 147 138 131
-5.25607 -4.45931 -0.33467 191 193 183
-5.26968 -4.46185 -0.34891 213 214 203
-5.26938 -4.45828 -0.33415 202 204 191
-5.29672 -4.46126 -0.33415 214 212 206
-5.31052 -4.46361 -0.33433 207 207 200
-5.80001 -4.56942 -0.34538 196 193 193
-5.78591 -4.56725 -0.35932 204 202 203
-2.47605 -3.91948 -0.29855 146 136 130
-2.46247 -3.91717 -0.29837 143 138 130
-2.46226 -3.91736 -0.31219 146 138 125
-2.47626 -3.91930 -0.28473 149 137 126
-2.48983 -3.92161 -0.28490 160 145 122
-2.49059 -3.92028 -0.29837 167 152 134
-2.50416 -3.92259 -0.29855 175 158 144
-2.50395 -3.92277 -0.31236 181 162 147
-3.54488 -4.20852 -0.33527 170 164 160
-3.55905 -4.21070 -0.32125 165 155 147
-3.55862 -4.21108 -0.34966 148 142 143
-5.24210 -4.45752 -0.34863 176 190 178
-5.25449 -4.45013 -0.34676 201 213 201
-5.26806 -4.45266 -0.36096 206 206 203
-5.47427 -4.48383 -0.34880 210 205 185
-5.48804 -4.48617 -0.34897 202 195 187
-5.48782 -4.48636 -0.36299 195 194 194
-5.81025 -4.55971 -0.35713 181 190 173
-5.79620 -4.55754 -0.37104 210 203 194
-5.81004 -4.55990 -0.37122 214 206 191
-1.90804 -3.81973 -0.30432 154 144 124
-1.89468 -3.81724 -0.29034 151 142 129
-1.89447 -3.81742 -0.30415 160 154 133
-1.89426 -3.81761 -0.31795 164 156 139
-1.90825 -3.81955 -0.29052 159 148 130
-1.92160 -3.82204 -0.30449 154 137 114
-1.94784 -3.82775 -0.30510 156 147 130
-1.93427 -3.82544 -0.30493 154 140 123
-1.94805 -3.82756 -0.29129 146 134 114
-1.94763 -3.82793 -0.31891 161 153 138
-1.96141 -3.83006 -0.30528 161 149 133
-1.96120 -3.83024 -0.31909 164 151 139
-2.04578 -3.85985 -0.30973 163 149 130
-2.03236 -3.85735 -0.29569 176 158 143
-2.04599 -3.85967 -0.29586 176 164 135
-2.04557 -3.86004 -0.32359 163 143 122
-2.05919 -3.86236 -0.32377 150 141 124
-2.17941 -3.86578 -0.30779 168 162 140
-2.19277 -3.86827 -0.32177 174 162 144
-2.19099 -3.87080 -0.30860 169 161 142
-2.20435 -3.87330 -0.32259 168 157 137
-2.20536 -3.87202 -0.30852 167 152 130
-2.21872 -3.87451 -0.32251 159 146 131
-2.41530 -3.89702 -0.30889 174 157 148
-2.40197 -3.89454 -0.29495 173 162 138
-2.40176 -3.89472 -0.30872 176 163 150
-2.40156 -3.89490 -0.32249 177 166 157
-2.42904 -3.89914 -0.29530 161 141 136
-2.42635 -3.90310 -0.30995 157 139 133
-2.43990 -3.90540 -0.31012 153 126 124
-2.43969 -3.90558 -0.32391 149 133 117
-2.47494 -3.92106 -0.31269 154 152 132
-2.46115 -3.91894 -0.32634 140 132 113
-2.49394 -3.91486 -0.31088 170 156 149
-2.50728 -3.91735 -0.32484 171 159 143
-3.02965 -4.02048 -0.32093 166 157 147
-3.01626 -4.01798 -0.30692 159 151 143
-3.01605 -4.01816 -0.32076 168 160 148
-3.02986 -4.02029 -0.30709 166 157 150
-3.04346 -4.02260 -0.30727 163 146 142
-3.04068 -4.02837 -0.32239 157 142 140
-3.05451 -4.03050 -0.30870 151 138 137
-3.05430 -4.03069 -0.32256 154 140 136
-3.05409 -4.03087 -0.33642 144 130 130
-5.27932 -4.43858 -0.35762 207 207 195
-5.27911 -4.43876 -0.37159 202 201 198
-5.29284 -4.44110 -0.37177 177 174 180
-1.92644 -3.81610 -0.31682 155 142 118
-1.91269 -3.81399 -0.33042 167 150 133
-1.92623 -3.81629 -0.33060 170 158 138
-1.93977 -3.81859 -0.33077 169 158 135
-1.99086 -3.83171 -0.31868 170 159 134
-1.97751 -3.82922 -0.30471 165 151 129
-1.99107 -3.83153 -0.30488 166 154 131
-1.99065 -3.83190 -0.33247 183 171 150
-2.00463 -3.83383 -0.30506 151 141 136
-2.00442 -3.83402 -0.31885 152 138 132
-2.16548 -3.86387 -0.32147 173 170 136
-2.17884 -3.86636 -0.33545 173 162 148
-2.39765 -3.87825 -0.31890 174 160 144
-2.38396 -3.87614 -0.33244 159 145 148
-2.39744 -3.87844 -0.33262 170 154 154
-2.41986 -3.89000 -0.32095 172 162 155
-2.43315 -3.89248 -0.33487 141 129 122
-2.43135 -3.89537 -0.32186 150 137 126
-2.48094 -3.91155 -0.32421 152 144 120
-3.00702 -4.00593 -0.33207 161 144 137
-2.99346 -4.00362 -0.33189 167 159 146
-2.99325 -4.00381 -0.34569 161 156 148
-3.00723 -4.00575 -0.31827 168 164 144
-3.02038 -4.00842 -0.34604 149 144 136
-3.03091 -4.01750 -0.33404 161 150 142
-3.04429 -4.01999 -0.34804 147 140 130
-5.17549 -4.46921 -0.38090 197 202 202
-5.16180 -4.46666 -0.36658 185 191 188
-5.16159 -4.46684 -0.38072 193 200 190
-5.18917 -4.47176 -0.39522 199 197 177
-1.97955 -3.82655 -0.33155 186 167 152
-1.96600 -3.82425 -0.33138 168 155 140
-2.41586 -3.87332 -0.33100 165 155 153
-2.40220 -3.87121 -0.34451 167 153 143
-2.42910 -3.87579 -0.34485 146 128 123
-2.42794 -3.87767 -0.33167 158 145 145
-2.45020 -3.88936 -0.33373 148 139 124
-2.46389 -3.89147 -0.32019 145 133 113
-2.46825 -3.90778 -0.33742 148 132 120
-2.48470 -3.90554 -0.33650 151 141 113
-2.50187 -3.90209 -0.33529 146 137 112
-2.51516 -3.90457 -0.34920 157 156 137
-2.64634 -3.93414 -0.33883 155 139 136
-2.65966 -3.93663 -0.35277 172 160 147
-3.00681 -4.00612 -0.34587 150 149 138
-2.99304 -4.00399 -0.35950 168 166 156
-1.97483 -3.81329 -0.34238 165 158 134
-1.96154 -3.81081 -0.32847 163 155 133
-1.96133 -3.81099 -0.34221 152 148 116
-1.97462 -3.81347 -0.35612 160 151 131
-1.98812 -3.81577 -0.35629 162 145 130
-1.98426 -3.82062 -0.34381 177 161 144
-1.99758 -3.82311 -0.35774 158 140 136
-1.99379 -3.82791 -0.34523 167 154 136
-2.00733 -3.83021 -0.34540 167 153 130
-2.00712 -3.83039 -0.35918 167 153 146
-2.05744 -3.84462 -0.34739 164 150 132
-2.04409 -3.84213 -0.33342 156 141 128
-2.04367 -3.84250 -0.36102 163 154 138
-2.05765 -3.84443 -0.33359 164 148 125
-2.05723 -3.84480 -0.36119 162 152 142
-2.07296 -3.84440 -0.34694 176 162 135
-2.08672 -3.84652 -0.33333 156 146 128
-2.08651 -3.84670 -0.34712 176 158 139
-2.08630 -3.84689 -0.36091 174 162 153
-2.44473 -3.87474 -0.34421 143 134 123
-2.45821 -3.87696 -0.34436 160 153 124
-2.46940 -3.88270 -0.34539 163 139 139
-2.48264 -3.88517 -0.35924 184 170 152
-2.48209 -3.88617 -0.34585 166 151 144
-2.50446 -3.87452 -0.34260 168 169 140
-2.07770 -3.83820 -0.35912 171 160 148
-2.06396 -3.83608 -0.37271 159 144 138
-2.09101 -3.84068 -0.37305 165 151 147
-2.44169 -3.85663 -0.35371 157 145 127
-2.42811 -3.85454 -0.36714 184 170 143
-2.44148 -3.85681 -0.36731 173 159 129
-2.45485 -3.85909 -0.36748 162 141 125
-2.45352 -3.86125 -0.35446 158 145 129
-2.46670 -3.86370 -0.36825 165 138 134
-2.46912 -3.86013 -0.35379 169 161 137
-2.48343 -3.86094 -0.35360 172 168 146
-2.66242 -3.90646 -0.35940 174 167 148
-2.68165 -3.89876 -0.35710 156 141 138
-2.69503 -3.90104 -0.35727 163 146 142
-2.69482 -3.90122 -0.37088 164 156 139
-3.09066 -3.98167 -0.36547 149 138 118
-3.07724 -3.97939 -0.36529 149 139 137
-3.09087 -3.98149 -0.35181 158 159 141
-3.13065 -3.98916 -0.36614 142 137 132
-3.13044 -3.98934 -0.37980 145 135 131
-3.14386 -3.99163 -0.37997 157 146 136
-3.53491 -4.09770 -0.38058 173 162 165
-3.52113 -4.09557 -0.39421 148 155 150
-3.53470 -4.09788 -0.39439 151 151 151
-3.55642 -4.12062 -0.38533 173 175 157
-3.55621 -4.12080 -0.39921 172 172 160
-3.56984 -4.12312 -0.39938 169 160 139
-5.93030 -4.52865 -0.41689 189 199 186
-5.91686 -4.52614 -0.40282 196 192 183
-5.91644 -4.52651 -0.43060 202 212 194
-5.94374 -4.53115 -0.43095 197 193 189
-2.48825 -3.85338 -0.36523 172 167 155
-2.47472 -3.85129 -0.37862 161 142 139
-2.48804 -3.85356 -0.37879 166 160 149
-2.50137 -3.85583 -0.37896 165 155 149
-2.50022 -3.85775 -0.36593 177 166 159
-2.51335 -3.86020 -0.37968 155 144 129
-2.51510 -3.85762 -0.36550 174 154 145
-2.52822 -3.86007 -0.37923 171 152 133
-2.64769 -3.90623 -0.37335 170 160 138
-2.63406 -3.90413 -0.38684 172 147 146
-2.66120 -3.90836 -0.37348 155 127 119
-2.68054 -3.90050 -0.37110 160 142 135
-2.69371 -3.90296 -0.38489 155 154 128
-3.08492 -3.96230 -0.37466 149 138 134
-3.07177 -3.95984 -0.36090 144 133 135
-3.07136 -3.96021 -0.38808 165 160 145
-3.08472 -3.96248 -0.38825 162 161 151
-3.09961 -3.96164 -0.37411 156 147 129
-3.11274 -3.96409 -0.38786 167 157 143
-3.10874 -3.97330 -0.37661 167 155 140
-3.12191 -3.97576 -0.39040 168 150 148
-3.25528 -3.99993 -0.37890 156 158 141
-3.26846 -4.00239 -0.39269 172 173 153
-3.28847 -4.02458 -0.38381 162 155 145
-3.30213 -4.02668 -0.37029 158 160 145
-3.30192 -4.02687 -0.38398 160 157 146
-2.64979 -3.90251 -0.38601 164 147 142
-2.63618 -3.90041 -0.39948 161 158 143
-2.66232 -3.90629 -0.38656 153 128 128
-2.67552 -3.90875 -0.40039 152 136 130
-3.13066 -3.98855 -0.39322 163 151 149
-3.13045 -3.98874 -0.40688 163 160 152
-3.14478 -3.98924 -0.39299 153 150 140
-3.15884 -3.99001 -0.39278 137 135 119
-3.17205 -3.99247 -0.40660 145 146 130
-3.29757 -4.03774 -0.40035 139 134 144
-3.31128 -4.03985 -0.38679 160 157 146
-3.31086 -4.04022 -0.41426 146 128 124
-5.53058 -4.38619 -0.42159 219 216 206
-5.51699 -4.38410 -0.43504 204 212 198
-5.54376 -4.38865 -0.43538 203 199 191
-5.54465 -4.39156 -0.42249 210 206 194
-5.55784 -4.39402 -0.43629 203 201 195
-2.65680 -3.89052 -0.39649 159 152 142
-2.65659 -3.89070 -0.41008 150 134 117
-2.66995 -3.89297 -0.41025 156 151 140
-2.67067 -3.89191 -0.39643 156 148 152
-2.68382 -3.89436 -0.41019 152 144 128
-3.09653 -3.93637 -0.39511 139 128 123
-3.08307 -3.93429 -0.40843 157 140 133
