ply
format ascii 1.0
element face 0
property list uchar int vertex_indices
element vertex 1352
property float x
property float y
property float z
property uchar diffuse_red
property uchar diffuse_green
property uchar diffuse_blue
end_header
0.13175 -0.69118 -0.41621 254 254 254
0.13659 -0.69297 -0.41288 254 254 254
0.14141 -0.69477 -0.40956 254 254 254
0.14624 -0.69656 -0.40624 254 254 254
0.15105 -0.69835 -0.40292 254 254 254
0.15586 -0.70014 -0.39962 254 254 254
0.16066 -0.70193 -0.39631 254 254 254
0.16545 -0.70371 -0.39301 254 254 254
0.17024 -0.70549 -0.38972 254 254 254
0.17502 -0.70727 -0.38643 254 254 254
0.17979 -0.70904 -0.38314 254 254 254
0.18456 -0.71082 -0.37986 254 254 254
0.18932 -0.71259 -0.37658 254 254 254
0.19407 -0.71435 -0.37331 254 254 254
0.19882 -0.71612 -0.37004 254 254 254
0.20356 -0.71788 -0.36678 254 254 254
0.20830 -0.71964 -0.36352 254 254 254
0.21302 -0.72140 -0.36027 254 254 254
0.21775 -0.72316 -0.35702 254 254 254
0.22246 -0.72491 -0.35377 254 254 254
0.22717 -0.72666 -0.35053 254 254 254
-0.44884 -0.48267 -0.80715 252 251 251
-0.44319 -0.48477 -0.80327 252 251 251
-0.43755 -0.48686 -0.79939 252 251 251
-0.43191 -0.48895 -0.79552 252 251 251
-0.42628 -0.49104 -0.79165 252 252 251
-0.42067 -0.49312 -0.78779 252 252 252
-0.41506 -0.49520 -0.78394 252 252 252
-0.40945 -0.49728 -0.78009 252 252 252
-0.40386 -0.49936 -0.77625 252 252 252
-0.39828 -0.50143 -0.77241 252 252 252
-0.39270 -0.50350 -0.76858 252 252 252
-0.38713 -0.50556 -0.76475 252 252 252
-0.38157 -0.50762 -0.76093 252 252 252
-0.37602 -0.50968 -0.75712 252 252 252
-0.37048 -0.51174 -0.75331 252 252 252
-0.36494 -0.51379 -0.74950 252 252 252
-0.35941 -0.51584 -0.74570 252 253 252
-0.35390 -0.51789 -0.74191 253 253 253
-0.34838 -0.51993 -0.73813 253 253 253
-0.34288 -0.52197 -0.73435 253 253 253
-0.33739 -0.52401 -0.73057 253 253 253
-0.33190 -0.52605 -0.72680 253 253 253
-0.32642 -0.52808 -0.72304 253 253 253
-0.32095 -0.53011 -0.71928 253 253 253
-0.31549 -0.53213 -0.71552 253 254 254
-0.31004 -0.53416 -0.71178 254 254 254
-0.30459 -0.53618 -0.70803 254 254 254
-0.29915 -0.53819 -0.70430 254 254 254
-0.29373 -0.54021 -0.70057 254 254 254
-0.28830 -0.54222 -0.69684 254 254 254
-0.28289 -0.54423 -0.69312 254 254 254
-0.27748 -0.54623 -0.68941 254 254 254
-0.27209 -0.54824 -0.68570 254 254 254
-0.26670 -0.55024 -0.68199 254 254 254
-0.26131 -0.55223 -0.67830 254 254 254
-0.25594 -0.55423 -0.67460 254 254 254
-0.25057 -0.55622 -0.67092 254 254 254
-0.24521 -0.55820 -0.66723 254 254 254
-0.23986 -0.56019 -0.66356 254 254 254
-0.23452 -0.56217 -0.65989 254 254 254
-0.22919 -0.56415 -0.65622 254 254 254
-0.22386 -0.56613 -0.65256 254 254 254
-0.21854 -0.56810 -0.64890 254 254 254
-0.21323 -0.57007 -0.64525 254 254 254
-0.20792 -0.57204 -0.64161 254 254 254
-0.20263 -0.57400 -0.63797 254 254 254
-0.19734 -0.57596 -0.63434 254 254 254
-0.19206 -0.57792 -0.63071 254 254 254
-0.18678 -0.57988 -0.62708 254 254 254
-0.18152 -0.58183 -0.62346 254 254 254
-0.17626 -0.58378 -0.61985 254 254 254
-0.17101 -0.58573 -0.61624 254 254 254
-0.16577 -0.58767 -0.61264 254 254 254
-0.16053 -0.58962 -0.60904 254 254 254
-0.15530 -0.59156 -0.60545 254 254 254
-0.15008 -0.59349 -0.60186 254 254 254
-0.14487 -0.59543 -0.59828 254 254 254
-0.13967 -0.59736 -0.59471 254 254 254
-0.13447 -0.59928 -0.59113 254 254 254
-0.12928 -0.60121 -0.58757 254 254 254
-0.12409 -0.60313 -0.58401 254 254 254
-0.11892 -0.60505 -0.58045 254 254 254
-0.11375 -0.60697 -0.57690 254 254 254
-0.10859 -0.60888 -0.57335 254 254 254
-0.10344 -0.61079 -0.56981 254 254 254
-0.09829 -0.61270 -0.56628 254 254 254
-0.09315 -0.61461 -0.56275 254 254 254
-0.08802 -0.61651 -0.55922 254 254 254
-0.08290 -0.61841 -0.55570 254 254 254
-0.07778 -0.62031 -0.55218 254 254 254
-0.07267 -0.62221 -0.54867 254 254 254
-0.06757 -0.62410 -0.54517 254 254 254
-0.06248 -0.62599 -0.54167 254 254 254
-0.05739 -0.62787 -0.53817 254 254 254
-0.05231 -0.62976 -0.53468 254 254 254
-0.04724 -0.63164 -0.53119 254 254 254
-0.04217 -0.63352 -0.52771 254 254 254
-0.03711 -0.63540 -0.52424 254 254 254
-0.03206 -0.63727 -0.52077 254 254 254
-0.02702 -0.63914 -0.51730 254 254 254
-0.02198 -0.64101 -0.51384 254 254 254
-0.01695 -0.64287 -0.51038 254 254 254
-0.01193 -0.64474 -0.50693 254 254 254
-0.00691 -0.64660 -0.50349 254 254 254
-0.00191 -0.64846 -0.50004 254 254 254
0.00310 -0.65031 -0.49661 254 254 254
0.00809 -0.65216 -0.49318 254 254 254
0.01308 -0.65401 -0.48975 254 254 254
0.01806 -0.65586 -0.48633 254 254 254
0.02303 -0.65771 -0.48291 254 254 254
0.02800 -0.65955 -0.47950 254 254 254
0.03296 -0.66139 -0.47609 254 254 254
0.03791 -0.66322 -0.47269 254 254 254
0.04285 -0.66506 -0.46929 254 254 254
0.04779 -0.66689 -0.46590 254 254 254
0.05272 -0.66872 -0.46251 254 254 254
0.05765 -0.67055 -0.45912 254 254 254
0.06257 -0.67237 -0.45574 254 254 254
0.06748 -0.67419 -0.45237 254 254 254
0.07238 -0.67601 -0.44900 254 254 254
0.07728 -0.67783 -0.44563 254 254 254
0.08217 -0.67964 -0.44227 254 254 254
0.08705 -0.68145 -0.43892 254 254 254
0.09193 -0.68326 -0.43557 254 254 254
0.09680 -0.68507 -0.43222 254 254 254
-0.45320 -0.48843 -0.80154 252 251 251
-0.44756 -0.49052 -0.79767 252 251 251
-0.44193 -0.49260 -0.79381 252 252 251
-0.43631 -0.49468 -0.78996 252 252 252
-0.43070 -0.49675 -0.78611 252 252 252
-0.42510 -0.49883 -0.78226 252 252 252
-0.41950 -0.50090 -0.77843 252 252 252
-0.41392 -0.50296 -0.77459 252 252 252
-0.40834 -0.50503 -0.77077 252 252 252
-0.40277 -0.50709 -0.76695 252 252 252
-0.39721 -0.50914 -0.76313 252 252 252
-0.39166 -0.51120 -0.75932 252 252 252
-0.38611 -0.51325 -0.75552 252 252 252
-0.38058 -0.51530 -0.75172 252 252 252
-0.37505 -0.51734 -0.74793 252 252 252
-0.36953 -0.51939 -0.74414 252 253 252
-0.36402 -0.52142 -0.74036 253 253 253
-0.35852 -0.52346 -0.73659 253 253 253
-0.35302 -0.52549 -0.73282 253 253 253
-0.34753 -0.52752 -0.72905 253 253 253
-0.34205 -0.52955 -0.72530 253 253 253
-0.33658 -0.53157 -0.72154 253 253 253
-0.33112 -0.53360 -0.71779 253 253 253
-0.32567 -0.53561 -0.71405 254 254 254
-0.32022 -0.53763 -0.71032 254 254 254
-0.31478 -0.53964 -0.70658 254 254 254
-0.30935 -0.54165 -0.70286 254 254 254
-0.30393 -0.54366 -0.69914 254 254 254
-0.29851 -0.54566 -0.69542 254 254 254
-0.29310 -0.54766 -0.69171 254 254 254
-0.28770 -0.54966 -0.68801 254 254 254
-0.28231 -0.55165 -0.68431 254 254 254
-0.27693 -0.55364 -0.68062 254 254 254
-0.27155 -0.55563 -0.67693 254 254 254
-0.26619 -0.55762 -0.67325 254 254 254
-0.26083 -0.55960 -0.66957 254 254 254
-0.25547 -0.56158 -0.66590 254 254 254
-0.25013 -0.56356 -0.66224 254 254 254
-0.24479 -0.56553 -0.65857 254 254 254
-0.23947 -0.56750 -0.65492 254 254 254
-0.23414 -0.56947 -0.65127 254 254 254
-0.22883 -0.57144 -0.64762 254 254 254
-0.22353 -0.57340 -0.64398 254 254 254
-0.21823 -0.57536 -0.64035 254 254 254
-0.21294 -0.57732 -0.63672 254 254 254
-0.20766 -0.57927 -0.63310 254 254 254
-0.20238 -0.58122 -0.62948 254 254 254
-0.19711 -0.58317 -0.62587 254 254 254
-0.19185 -0.58512 -0.62226 254 254 254
-0.18660 -0.58706 -0.61865 254 254 254
-0.18136 -0.58900 -0.61506 254 254 254
-0.17612 -0.59094 -0.61146 254 254 254
-0.17089 -0.59287 -0.60788 254 254 254
-0.16567 -0.59481 -0.60429 254 254 254
-0.16046 -0.59674 -0.60072 254 254 254
-0.15525 -0.59866 -0.59715 254 254 254
-0.15005 -0.60058 -0.59358 254 254 254
-0.14486 -0.60251 -0.59002 254 254 254
-0.13967 -0.60442 -0.58646 254 254 254
-0.13450 -0.60634 -0.58291 254 254 254
-0.12933 -0.60825 -0.57936 254 254 254
-0.12416 -0.61016 -0.57582 254 254 254
-0.11901 -0.61207 -0.57229 254 254 254
-0.11386 -0.61397 -0.56876 254 254 254
-0.10872 -0.61587 -0.56523 254 254 254
-0.10359 -0.61777 -0.56171 254 254 254
-0.09846 -0.61967 -0.55819 254 254 254
-0.09335 -0.62156 -0.55468 254 254 254
-0.08824 -0.62345 -0.55118 254 254 254
-0.08313 -0.62534 -0.54767 254 254 254
0.34137 0.17667 -1.18418 33 35 47
0.33914 0.16449 -1.17124 47 52 60
0.34632 0.16160 -1.16774 51 44 64
0.35351 0.15871 -1.16424 31 38 54
0.36069 0.15581 -1.16074 39 46 55
0.36786 0.15293 -1.15724 43 52 64
0.37504 0.15004 -1.15374 49 51 61
0.38222 0.14715 -1.15025 36 48 56
0.38939 0.14426 -1.14675 35 49 65
0.39656 0.14137 -1.14326 34 46 70
0.40373 0.13849 -1.13976 32 41 72
0.41090 0.13560 -1.13627 28 40 74
0.41807 0.13271 -1.13277 18 41 78
0.42523 0.12983 -1.12928 18 38 75
0.43240 0.12695 -1.12579 21 33 72
0.43956 0.12406 -1.12230 19 38 74
0.44672 0.12118 -1.11881 21 38 76
0.45388 0.11830 -1.11532 19 37 75
0.46104 0.11542 -1.11183 18 38 77
0.46819 0.11253 -1.10834 18 40 81
0.47535 0.10965 -1.10486 17 43 87
0.48250 0.10678 -1.10137 18 45 93
0.32978 0.15530 -1.16191 47 33 46
0.33693 0.15242 -1.15843 39 33 48
0.34408 0.14954 -1.15495 39 38 42
0.35123 0.14667 -1.15147 45 47 53
0.35837 0.14379 -1.14799 49 53 61
0.36552 0.14092 -1.14451 47 53 58
0.37266 0.13804 -1.14103 41 53 55
0.37980 0.13517 -1.13755 38 51 60
0.38694 0.13230 -1.13407 32 46 61
0.39408 0.12943 -1.13059 29 42 58
0.40121 0.12655 -1.12712 25 39 57
0.40835 0.12368 -1.12364 22 38 61
0.41548 0.12081 -1.12016 22 38 59
0.42261 0.11794 -1.11669 21 38 57
0.42974 0.11508 -1.11322 20 39 56
0.43687 0.11221 -1.10974 20 39 55
0.44399 0.10934 -1.10627 19 38 53
0.45112 0.10647 -1.10280 20 37 50
0.45824 0.10361 -1.09933 22 38 56
0.46536 0.10074 -1.09586 22 39 62
0.47249 0.09788 -1.09239 22 39 65
0.47960 0.09501 -1.08892 21 39 66
0.48672 0.09215 -1.08546 20 41 70
0.32051 0.14619 -1.15268 53 38 53
0.32763 0.14333 -1.14921 42 35 49
0.33474 0.14047 -1.14574 43 41 51
0.34186 0.13761 -1.14228 50 51 57
0.34897 0.13475 -1.13882 50 54 60
0.35608 0.13189 -1.13535 47 56 61
0.36319 0.12903 -1.13189 43 53 59
0.37030 0.12617 -1.12843 39 50 66
0.37741 0.12331 -1.12497 31 47 61
0.38451 0.12045 -1.12151 27 44 54
0.39161 0.11760 -1.11805 24 41 55
0.39872 0.11474 -1.11459 21 39 58
0.40582 0.11188 -1.11113 19 37 59
0.41292 0.10903 -1.10768 16 38 57
0.42001 0.10617 -1.10422 15 39 55
0.42711 0.10332 -1.10077 17 40 52
0.43420 0.10047 -1.09731 18 39 53
0.44130 0.09761 -1.09386 19 38 55
0.44839 0.09476 -1.09040 20 39 56
0.45548 0.09191 -1.08695 21 39 57
0.46256 0.08906 -1.08350 21 39 57
0.46965 0.08621 -1.08005 21 39 54
0.47673 0.08336 -1.07660 22 39 58
0.31132 0.13717 -1.14352 73 64 50
0.31841 0.13432 -1.14007 61 43 51
0.32549 0.13148 -1.13663 53 48 58
0.33257 0.12863 -1.13318 55 53 66
0.33965 0.12578 -1.12973 52 54 63
0.34673 0.12294 -1.12629 50 53 62
0.35381 0.12009 -1.12284 46 52 60
0.36089 0.11725 -1.11940 41 49 59
0.36796 0.11440 -1.11595 34 46 55
0.37503 0.11156 -1.11251 28 44 52
0.38211 0.10872 -1.10907 23 41 53
0.38918 0.10588 -1.10563 20 36 58
0.39624 0.10304 -1.10219 18 35 58
0.40331 0.10020 -1.09875 15 35 54
0.41038 0.09736 -1.09531 14 37 51
0.41744 0.09452 -1.09187 16 38 50
0.42450 0.09168 -1.08843 17 37 53
0.43156 0.08884 -1.08500 17 36 53
0.43862 0.08600 -1.08156 17 37 49
0.44568 0.08316 -1.07813 18 37 51
0.45273 0.08033 -1.07469 18 38 53
0.45979 0.07749 -1.07126 18 38 51
0.46684 0.07466 -1.06782 19 38 57
0.53728 0.04634 -1.03354 27 48 66
0.54432 0.04351 -1.03011 27 49 65
0.55135 0.04069 -1.02669 28 51 67
0.55839 0.03786 -1.02326 29 53 65
0.30928 0.12540 -1.13102 69 54 60
0.31633 0.12257 -1.12759 59 54 61
0.32338 0.11974 -1.12416 57 56 65
0.33043 0.11690 -1.12073 53 56 66
0.33747 0.11407 -1.11731 51 54 64
0.34452 0.11124 -1.11388 49 52 61
0.35156 0.10841 -1.11045 45 50 56
0.35861 0.10558 -1.10702 38 47 53
0.36565 0.10275 -1.10360 30 43 51
0.37269 0.09993 -1.10017 24 38 53
0.37972 0.09710 -1.09675 21 34 56
0.38676 0.09427 -1.09333 18 35 58
0.39380 0.09144 -1.08990 15 34 52
0.40083 0.08862 -1.08648 16 35 49
0.40786 0.08579 -1.08306 17 35 48
0.41489 0.08297 -1.07964 16 35 48
0.42192 0.08014 -1.07622 16 34 49
0.42895 0.07732 -1.07280 15 34 46
0.43597 0.07450 -1.06938 16 36 46
0.44300 0.07168 -1.06596 17 37 48
0.45002 0.06885 -1.06255 18 37 49
0.45704 0.06603 -1.05913 17 36 52
0.46406 0.06321 -1.05572 18 38 59
0.52016 0.04067 -1.02842 22 46 64
0.52717 0.03786 -1.02501 23 48 61
0.53417 0.03504 -1.02160 23 49 63
0.54117 0.03223 -1.01820 25 50 65
0.54817 0.02942 -1.01479 28 50 64
0.30725 0.11375 -1.11864 58 56 59
0.31427 0.11093 -1.11523 61 57 63
0.32128 0.10811 -1.11182 58 57 67
0.32830 0.10529 -1.10841 54 57 71
0.33531 0.10247 -1.10500 54 53 65
0.34233 0.09966 -1.10158 49 49 57
0.34934 0.09684 -1.09818 40 44 55
0.35635 0.09403 -1.09477 29 41 53
0.36335 0.09121 -1.09136 24 35 50
0.37036 0.08840 -1.08795 21 32 47
0.37737 0.08559 -1.08454 17 33 51
0.38437 0.08277 -1.08114 13 32 49
0.39137 0.07996 -1.07773 15 31 48
0.39837 0.07715 -1.07433 15 31 46
0.40537 0.07434 -1.07092 14 32 45
0.41237 0.07153 -1.06752 15 31 46
0.41936 0.06872 -1.06412 16 31 46
0.42636 0.06591 -1.06072 16 34 44
0.43335 0.06310 -1.05732 16 36 45
0.44034 0.06030 -1.05392 18 35 52
0.44733 0.05749 -1.05052 18 34 51
0.45432 0.05468 -1.04712 17 35 50
0.46130 0.05188 -1.04372 16 36 55
0.46829 0.04907 -1.04032 18 35 56
0.47527 0.04627 -1.03693 19 36 56
0.48225 0.04346 -1.03353 19 38 58
0.48924 0.04066 -1.03014 22 40 57
0.49621 0.03786 -1.02674 24 42 57
0.50319 0.03506 -1.02335 21 42 58
0.51017 0.03225 -1.01996 21 43 58
0.51714 0.02945 -1.01657 23 44 60
0.52412 0.02665 -1.01317 22 46 60
0.53109 0.02385 -1.00978 24 47 61
0.53806 0.02106 -1.00639 23 43 61
0.30524 0.10220 -1.10638 56 58 63
0.31223 0.09939 -1.10299 55 58 65
0.31921 0.09659 -1.09959 54 57 68
0.32619 0.09379 -1.09620 52 55 63
0.33317 0.09098 -1.09280 46 51 58
0.34015 0.08818 -1.08941 39 46 55
0.34713 0.08538 -1.08602 27 40 51
0.35411 0.08258 -1.08262 21 33 49
0.36108 0.07978 -1.07923 19 29 45
0.36806 0.07698 -1.07584 17 28 45
0.37503 0.07418 -1.07245 14 28 44
0.38200 0.07139 -1.06907 14 28 42
0.38897 0.06859 -1.06568 14 27 39
0.39594 0.06579 -1.06229 15 27 41
0.40290 0.06300 -1.05890 16 26 40
0.40987 0.06020 -1.05552 17 27 43
0.41683 0.05741 -1.05213 17 29 44
0.42379 0.05461 -1.04875 16 30 44
0.43075 0.05182 -1.04537 17 31 48
0.43771 0.04902 -1.04198 18 32 48
0.44467 0.04623 -1.03860 16 33 45
0.45162 0.04344 -1.03522 15 34 45
0.45857 0.04065 -1.03184 18 34 46
0.46553 0.03786 -1.02846 19 34 48
0.47248 0.03507 -1.02508 18 36 52
0.47943 0.03228 -1.02170 22 38 50
0.48638 0.02949 -1.01833 23 40 49
0.49332 0.02670 -1.01495 23 40 50
0.50027 0.02391 -1.01157 23 41 53
0.50721 0.02113 -1.00820 24 42 57
0.51415 0.01834 -1.00482 25 44 59
0.52109 0.01555 -1.00145 26 45 58
0.52803 0.01277 -0.99808 22 38 63
0.30325 0.09076 -1.09423 55 58 69
0.31020 0.08797 -1.09085 56 57 71
0.31716 0.08518 -1.08748 53 55 63
0.32411 0.08239 -1.08410 48 52 58
0.33105 0.07960 -1.08072 38 46 55
0.33800 0.07682 -1.07735 26 38 50
0.34495 0.07403 -1.07397 19 29 45
0.35189 0.07124 -1.07060 18 23 37
0.35883 0.06846 -1.06722 19 23 32
0.36577 0.06567 -1.06385 21 25 36
0.37271 0.06289 -1.06048 22 26 37
0.37965 0.06011 -1.05711 23 28 38
0.38659 0.05732 -1.05374 25 28 40
0.39352 0.05454 -1.05037 25 28 40
0.40046 0.05176 -1.04700 25 30 41
0.40739 0.04898 -1.04363 26 32 42
0.41432 0.04620 -1.04026 28 35 42
0.42125 0.04342 -1.03689 29 36 43
0.42818 0.04064 -1.03353 29 36 43
0.43510 0.03786 -1.03016 29 36 43
0.44203 0.03508 -1.02680 29 36 42
0.44895 0.03230 -1.02343 30 37 43
0.45587 0.02953 -1.02007 32 38 46
0.46279 0.02675 -1.01671 33 41 49
0.46971 0.02397 -1.01335 35 43 48
0.47663 0.02120 -1.00998 37 44 46
0.48354 0.01842 -1.00662 37 44 48
0.49046 0.01565 -1.00326 37 44 51
0.49737 0.01288 -0.99991 40 44 54
0.50428 0.01010 -0.99655 40 45 57
0.51119 0.00733 -0.99319 40 46 56
0.30820 0.07665 -1.07884 52 51 61
0.32895 0.06833 -1.06876 26 35 42
0.33587 0.06556 -1.06540 23 27 37
0.34278 0.06278 -1.06204 26 26 32
0.34969 0.06001 -1.05868 32 32 32
0.35660 0.05724 -1.05533 39 36 39
0.36351 0.05447 -1.05197 42 38 44
0.37042 0.05170 -1.04862 43 39 44
0.37733 0.04893 -1.04526 42 38 41
0.38423 0.04616 -1.04191 42 38 43
0.39113 0.04339 -1.03855 42 40 46
0.39803 0.04063 -1.03520 42 43 46
0.40493 0.03786 -1.03185 44 46 45
0.41183 0.03509 -1.02850 46 47 44
0.41873 0.03233 -1.02515 43 46 42
0.42563 0.02956 -1.02180 43 43 40
0.43252 0.02680 -1.01845 46 41 44
0.43941 0.02403 -1.01510 46 42 50
0.44630 0.02127 -1.01176 45 45 51
0.45319 0.01851 -1.00841 44 48 49
0.46008 0.01574 -1.00506 48 49 48
0.46697 0.01298 -1.00172 53 48 47
0.47385 0.01022 -0.99838 51 49 49
0.48074 0.00746 -0.99503 51 50 54
0.48762 0.00470 -0.99169 50 51 55
0.49450 0.00194 -0.98835 50 52 56
0.50138 -0.00082 -0.98501 58 51 52
0.50826 -0.00358 -0.98166 57 50 53
0.31310 0.06268 -1.06359 25 30 19
0.31999 0.05992 -1.06024 26 28 24
0.32687 0.05716 -1.05690 28 30 28
0.33376 0.05440 -1.05356 35 35 37
0.34752 0.04888 -1.04688 50 49 50
0.35440 0.04613 -1.04354 50 51 52
0.36127 0.04337 -1.04020 52 51 56
0.36815 0.04061 -1.03686 55 58 59
0.37502 0.03786 -1.03352 57 54 54
0.38189 0.03510 -1.03019 51 48 50
0.38877 0.03235 -1.02685 48 50 51
0.39564 0.02960 -1.02352 53 55 55
0.40250 0.02684 -1.02018 55 56 59
0.40937 0.02409 -1.01685 48 53 55
0.41624 0.02134 -1.01351 48 54 48
0.42310 0.01859 -1.01018 62 60 52
0.42996 0.01584 -1.00685 65 58 58
0.43682 0.01309 -1.00352 53 52 56
0.44368 0.01034 -1.00019 46 48 54
0.45054 0.00759 -0.99686 50 50 52
0.45740 0.00484 -0.99353 61 61 51
0.46425 0.00209 -0.99020 59 60 52
0.47110 -0.00065 -0.98687 50 52 55
0.47796 -0.00340 -0.98355 43 47 54
0.48481 -0.00615 -0.98022 48 55 56
0.49166 -0.00889 -0.97690 77 73 48
0.49850 -0.01164 -0.97357 78 66 42
0.50535 -0.01438 -0.97025 49 48 55
0.77800 -0.12367 -0.83787 36 32 38
0.78479 -0.12639 -0.83457 38 36 47
0.81192 -0.13727 -0.82140 35 33 41
0.81870 -0.13998 -0.81811 33 34 44
0.85258 -0.15356 -0.80166 42 35 36
0.85935 -0.15628 -0.79837 27 24 27
0.33166 0.04335 -1.04183 53 57 64
0.33851 0.04060 -1.03851 58 61 60
0.34536 0.03786 -1.03518 54 52 52
0.35221 0.03512 -1.03186 53 56 51
0.35905 0.03237 -1.02854 65 77 79
0.36590 0.02963 -1.02522 72 83 84
0.37274 0.02689 -1.02190 53 56 51
0.37958 0.02415 -1.01858 42 44 46
0.38642 0.02141 -1.01526 52 52 57
0.39326 0.01867 -1.01194 56 57 59
0.40009 0.01593 -1.00862 42 49 56
0.40693 0.01319 -1.00530 35 43 50
0.41376 0.01045 -1.00199 49 55 56
0.42060 0.00772 -0.99867 58 60 60
0.42743 0.00498 -0.99536 51 50 50
0.43426 0.00224 -0.99204 35 39 45
0.44108 -0.00049 -0.98873 29 33 45
0.44791 -0.00323 -0.98541 43 48 47
0.45473 -0.00596 -0.98210 46 54 49
0.46156 -0.00870 -0.97879 40 43 50
0.46838 -0.01143 -0.97548 32 38 48
0.47520 -0.01416 -0.97217 30 42 49
0.48202 -0.01689 -0.96886 49 60 46
0.48884 -0.01962 -0.96555 57 62 40
0.49565 -0.02236 -0.96224 44 47 40
0.50247 -0.02509 -0.95894 35 38 36
0.50928 -0.02782 -0.95563 31 37 44
0.52291 -0.03327 -0.94902 57 66 55
0.52971 -0.03600 -0.94571 47 56 46
0.53652 -0.03873 -0.94241 44 51 47
0.54333 -0.04146 -0.93911 54 54 46
0.55013 -0.04418 -0.93580 44 38 46
0.57734 -0.05508 -0.92260 39 32 36
0.58413 -0.05781 -0.91930 32 29 27
0.59093 -0.06053 -0.91600 26 29 36
0.61810 -0.07141 -0.90282 37 37 39
0.62489 -0.07413 -0.89952 36 31 45
0.63168 -0.07685 -0.89623 40 41 54
0.63846 -0.07957 -0.89293 42 42 51
0.64525 -0.08229 -0.88964 39 40 42
0.65203 -0.08501 -0.88635 32 32 35
0.65881 -0.08772 -0.88306 23 26 36
0.67915 -0.09587 -0.87319 37 35 43
0.68592 -0.09859 -0.86990 39 38 35
0.69270 -0.10130 -0.86661 49 44 40
0.69947 -0.10402 -0.86332 26 24 40
0.70624 -0.10673 -0.86004 23 23 36
0.71301 -0.10944 -0.85675 27 32 39
0.71978 -0.11215 -0.85347 34 36 33
0.72655 -0.11486 -0.85018 32 34 28
0.73332 -0.11757 -0.84690 29 28 36
0.74008 -0.12028 -0.84362 24 22 42
0.76037 -0.12841 -0.83377 32 35 35
0.76712 -0.13112 -0.83049 31 30 26
0.77388 -0.13383 -0.82721 27 27 29
0.78064 -0.13653 -0.82393 32 24 31
0.78739 -0.13924 -0.82065 36 30 39
0.79415 -0.14195 -0.81738 30 29 36
0.80090 -0.14465 -0.81410 30 27 32
0.80765 -0.14735 -0.81082 30 23 34
0.81440 -0.15006 -0.80755 26 24 36
0.82114 -0.15276 -0.80427 31 29 40
0.82789 -0.15546 -0.80100 32 32 37
0.83463 -0.15817 -0.79773 35 33 37
0.84138 -0.16087 -0.79445 41 35 36
0.84812 -0.16357 -0.79118 36 25 33
0.85486 -0.16627 -0.78791 28 20 33
0.86160 -0.16897 -0.78464 23 20 35
0.86834 -0.17167 -0.78137 31 26 40
0.87507 -0.17437 -0.77810 38 29 34
0.88181 -0.17707 -0.77483 34 27 28
0.88854 -0.17976 -0.77156 28 22 36
0.32277 0.03513 -1.03352 55 55 65
0.32959 0.03240 -1.03021 60 58 60
0.33641 0.02967 -1.02690 52 48 48
0.34323 0.02694 -1.02360 35 36 36
0.35004 0.02421 -1.02029 37 44 52
0.35685 0.02148 -1.01699 47 51 64
0.36367 0.01875 -1.01368 40 43 48
0.37048 0.01602 -1.01038 38 40 48
0.37729 0.01329 -1.00707 49 51 55
0.38410 0.01057 -1.00377 56 57 55
0.39090 0.00784 -1.00047 48 47 47
0.39771 0.00512 -0.99717 38 35 34
0.40451 0.00239 -0.99387 39 38 39
0.41131 -0.00033 -0.99057 43 47 49
0.41812 -0.00306 -0.98727 42 43 40
0.42492 -0.00578 -0.98397 31 31 32
0.43171 -0.00850 -0.98067 24 24 29
0.43851 -0.01122 -0.97737 30 30 35
0.44531 -0.01394 -0.97408 34 38 42
0.45210 -0.01666 -0.97078 32 35 42
0.45889 -0.01938 -0.96748 28 32 40
0.46568 -0.02210 -0.96419 25 32 40
0.47247 -0.02482 -0.96090 31 38 44
0.47926 -0.02754 -0.95760 38 43 42
0.48605 -0.03026 -0.95431 39 38 34
0.49283 -0.03298 -0.95102 33 29 25
0.49962 -0.03569 -0.94773 25 25 32
0.50640 -0.03841 -0.94444 32 33 49
0.51318 -0.04112 -0.94115 40 42 45
0.51996 -0.04384 -0.93786 37 44 33
0.52674 -0.04655 -0.93457 34 43 33
0.53351 -0.04927 -0.93128 48 48 43
0.54029 -0.05198 -0.92800 46 41 37
0.54706 -0.05469 -0.92471 28 23 32
0.55383 -0.05741 -0.92142 27 23 41
0.56061 -0.06012 -0.91814 33 25 39
0.56737 -0.06283 -0.91486 33 25 31
0.57414 -0.06554 -0.91157 31 21 24
0.58091 -0.06825 -0.90829 28 20 30
0.58767 -0.07096 -0.90501 30 29 45
0.59444 -0.07367 -0.90173 31 34 43
0.60120 -0.07637 -0.89845 36 33 30
0.60796 -0.07908 -0.89517 31 29 37
0.61472 -0.08179 -0.89189 34 26 38
0.62148 -0.08450 -0.88861 37 26 36
0.62824 -0.08720 -0.88533 38 30 44
0.63499 -0.08991 -0.88205 31 29 40
0.64174 -0.09261 -0.87878 30 26 35
0.64850 -0.09532 -0.87550 24 24 33
0.65525 -0.09802 -0.87223 31 24 31
0.66200 -0.10072 -0.86895 26 28 45
0.66875 -0.10342 -0.86568 30 26 36
0.67549 -0.10613 -0.86240 35 31 26
0.68224 -0.10883 -0.85913 49 45 40
0.68898 -0.11153 -0.85586 39 30 39
0.69572 -0.11423 -0.85259 35 28 27
0.70247 -0.11693 -0.84932 33 32 24
0.70920 -0.11963 -0.84605 37 35 25
0.71594 -0.12232 -0.84278 31 31 19
0.72268 -0.12502 -0.83951 31 30 30
0.72942 -0.12772 -0.83624 35 31 30
0.73615 -0.13042 -0.83298 33 30 23
0.74288 -0.13311 -0.82971 39 33 31
0.74961 -0.13581 -0.82645 32 31 25
0.75634 -0.13850 -0.82318 33 30 20
0.76307 -0.14120 -0.81992 33 33 26
0.76980 -0.14389 -0.81665 38 30 24
0.77652 -0.14658 -0.81339 39 30 32
0.78325 -0.14928 -0.81013 31 27 34
0.78997 -0.15197 -0.80687 31 26 24
0.79669 -0.15466 -0.80361 34 26 28
0.80341 -0.15735 -0.80035 31 27 28
0.81013 -0.16004 -0.79709 33 28 35
0.81685 -0.16273 -0.79383 32 29 30
0.82356 -0.16542 -0.79057 36 32 36
0.83028 -0.16811 -0.78731 43 39 37
0.83699 -0.17080 -0.78406 46 33 42
0.84370 -0.17349 -0.78080 36 27 38
0.85041 -0.17617 -0.77755 35 27 29
0.85712 -0.17886 -0.77429 41 31 33
0.86382 -0.18155 -0.77104 45 33 34
0.87053 -0.18423 -0.76779 40 33 36
0.87723 -0.18692 -0.76453 35 30 36
0.88394 -0.18960 -0.76128 33 28 27
0.31396 0.02698 -1.02528 56 55 66
0.32075 0.02426 -1.02199 62 56 59
0.32754 0.02155 -1.01870 55 47 46
0.33432 0.01883 -1.01541 42 36 34
0.34111 0.01611 -1.01212 40 38 38
0.34789 0.01340 -1.00883 42 40 42
0.35468 0.01068 -1.00554 41 33 35
0.36146 0.00797 -1.00225 43 35 46
0.36824 0.00525 -0.99896 53 52 61
0.37502 0.00254 -0.99567 59 61 57
0.38179 -0.00017 -0.99239 54 49 43
0.38857 -0.00288 -0.98910 46 30 32
0.39534 -0.00560 -0.98582 40 24 31
0.40212 -0.00831 -0.98253 35 28 31
0.40889 -0.01102 -0.97925 33 29 30
0.41566 -0.01373 -0.97597 32 23 34
0.42243 -0.01644 -0.97268 27 19 33
0.42919 -0.01915 -0.96940 32 21 37
0.43596 -0.02185 -0.96612 32 26 40
0.44272 -0.02456 -0.96284 29 27 38
0.44949 -0.02727 -0.95956 31 26 34
0.45625 -0.02998 -0.95628 31 26 31
0.46301 -0.03268 -0.95300 33 31 44
0.46977 -0.03539 -0.94973 38 34 47
0.47652 -0.03809 -0.94645 42 34 41
0.48328 -0.04080 -0.94317 39 29 33
0.49004 -0.04350 -0.93990 36 28 33
0.49679 -0.04620 -0.93662 40 36 41
0.50354 -0.04891 -0.93335 44 39 42
0.51029 -0.05161 -0.93007 41 42 34
0.51704 -0.05431 -0.92680 38 44 33
0.52379 -0.05701 -0.92353 53 49 46
0.53053 -0.05971 -0.92026 56 50 40
0.53728 -0.06241 -0.91699 45 38 31
0.54402 -0.06511 -0.91372 41 40 42
0.55076 -0.06781 -0.91045 40 41 38
0.55750 -0.07051 -0.90718 44 38 40
0.56424 -0.07320 -0.90391 42 35 41
0.57098 -0.07590 -0.90064 42 34 44
0.57771 -0.07860 -0.89738 42 39 48
0.58445 -0.08129 -0.89411 37 41 41
0.59118 -0.08399 -0.89085 48 40 35
0.59791 -0.08668 -0.88758 41 39 48
0.60464 -0.08938 -0.88432 42 38 39
0.61137 -0.09207 -0.88106 44 39 34
0.61810 -0.09476 -0.87779 47 39 48
0.62483 -0.09745 -0.87453 42 41 45
0.63155 -0.10015 -0.87127 41 36 48
0.63827 -0.10284 -0.86801 35 34 42
0.64500 -0.10553 -0.86475 39 39 45
0.65172 -0.10822 -0.86149 33 39 47
0.65844 -0.11091 -0.85823 49 43 50
0.66515 -0.11360 -0.85498 49 50 54
0.67187 -0.11629 -0.85172 47 46 41
0.67858 -0.11897 -0.84846 43 43 41
0.68530 -0.12166 -0.84521 39 40 39
0.69201 -0.12435 -0.84195 53 49 44
0.69872 -0.12703 -0.83870 61 58 49
0.70543 -0.12972 -0.83544 45 41 29
0.71214 -0.13240 -0.83219 41 41 35
0.71884 -0.13509 -0.82894 42 42 38
0.72555 -0.13777 -0.82569 48 47 43
0.73225 -0.14046 -0.82244 62 58 54
0.73896 -0.14314 -0.81919 53 45 35
0.74566 -0.14582 -0.81594 47 43 34
0.75236 -0.14850 -0.81269 45 44 37
0.75905 -0.15118 -0.80944 49 53 45
0.76575 -0.15386 -0.80619 65 74 70
0.77245 -0.15654 -0.80295 68 71 62
0.77914 -0.15922 -0.79970 65 63 52
0.78583 -0.16190 -0.79645 67 66 52
0.79252 -0.16458 -0.79321 68 66 49
0.79921 -0.16726 -0.78997 53 53 41
0.80590 -0.16994 -0.78672 46 47 36
0.81259 -0.17261 -0.78348 47 44 40
0.81927 -0.17529 -0.78024 48 46 42
0.82596 -0.17796 -0.77700 53 48 44
0.83264 -0.18064 -0.77376 43 44 37
0.83932 -0.18331 -0.77052 48 50 42
0.30522 0.01891 -1.01712 56 56 58
0.31198 0.01620 -1.01384 60 58 55
0.31874 0.01350 -1.01057 55 54 46
0.32550 0.01080 -1.00729 49 49 41
0.33226 0.00809 -1.00402 48 49 43
0.33901 0.00539 -1.00074 50 49 44
0.34576 0.00269 -0.99747 56 49 45
0.35252 -0.00001 -0.99419 54 52 52
0.35927 -0.00272 -0.99092 55 58 60
0.36602 -0.00542 -0.98765 60 62 58
0.37277 -0.00812 -0.98438 58 59 51
0.37951 -0.01082 -0.98111 57 51 51
0.38626 -0.01351 -0.97784 54 50 49
0.39300 -0.01621 -0.97457 46 51 43
0.39974 -0.01891 -0.97130 47 55 48
0.40648 -0.02161 -0.96803 50 52 52
0.41322 -0.02430 -0.96477 44 46 50
0.41996 -0.02700 -0.96150 45 48 54
0.42670 -0.02969 -0.95824 44 51 46
0.43343 -0.03239 -0.95497 41 51 43
0.44017 -0.03508 -0.95171 47 55 44
0.44690 -0.03778 -0.94844 64 65 59
0.45363 -0.04047 -0.94518 67 67 72
0.46036 -0.04316 -0.94192 56 52 49
0.46709 -0.04585 -0.93866 52 51 48
0.47381 -0.04855 -0.93540 49 51 50
0.48054 -0.05124 -0.93214 64 67 63
0.48726 -0.05393 -0.92888 70 74 68
0.49399 -0.05662 -0.92562 56 53 50
0.50071 -0.05931 -0.92236 45 49 50
0.50743 -0.06199 -0.91910 41 48 53
0.51415 -0.06468 -0.91585 72 74 74
0.52086 -0.06737 -0.91259 82 86 75
0.52758 -0.07006 -0.90933 55 48 41
0.53429 -0.07274 -0.90608 45 51 51
0.54100 -0.07543 -0.90283 39 52 46
0.54772 -0.07811 -0.89957 64 68 56
0.55443 -0.08080 -0.89632 64 60 58
0.56113 -0.08348 -0.89307 54 56 53
0.56784 -0.08617 -0.88982 48 55 50
0.57455 -0.08885 -0.88657 41 53 49
0.58125 -0.09153 -0.88332 68 64 54
0.58795 -0.09421 -0.88007 58 56 58
0.59466 -0.09690 -0.87682 46 49 39
0.60136 -0.09958 -0.87357 44 52 39
0.60805 -0.10226 -0.87032 41 47 41
0.61475 -0.10494 -0.86708 56 62 46
0.62145 -0.10761 -0.86383 59 62 53
0.62814 -0.11029 -0.86059 48 42 37
0.63484 -0.11297 -0.85734 43 50 49
0.64153 -0.11565 -0.85410 37 48 50
0.64822 -0.11833 -0.85086 66 65 78
0.65491 -0.12100 -0.84761 68 80 93
0.66159 -0.12368 -0.84437 51 44 33
0.66828 -0.12635 -0.84113 42 44 38
0.67496 -0.12903 -0.83789 29 39 37
0.68165 -0.13170 -0.83465 54 60 59
0.68833 -0.13437 -0.83141 73 87 86
0.69501 -0.13705 -0.82817 50 44 34
0.70169 -0.13972 -0.82494 40 42 37
0.70837 -0.14239 -0.82170 35 36 35
0.71504 -0.14506 -0.81846 42 50 54
0.72172 -0.14773 -0.81523 74 88 90
0.72839 -0.15040 -0.81199 57 49 40
0.73506 -0.15307 -0.80876 45 43 37
0.74174 -0.15574 -0.80552 40 37 36
0.74840 -0.15841 -0.80229 40 49 49
0.75507 -0.16108 -0.79906 65 88 94
0.76174 -0.16375 -0.79583 75 87 95
0.76840 -0.16641 -0.79260 74 84 88
0.77507 -0.16908 -0.78937 80 94 83
0.78173 -0.17174 -0.78614 79 87 72
0.78839 -0.17441 -0.78291 51 49 36
0.79505 -0.17707 -0.77968 38 37 36
0.80171 -0.17974 -0.77645 40 39 40
0.80837 -0.18240 -0.77322 42 42 39
0.81502 -0.18506 -0.77000 46 42 35
0.82168 -0.18773 -0.76677 33 28 20
0.82833 -0.19039 -0.76355 41 41 31
0.93458 -0.23290 -0.71204 36 39 36
0.29656 0.01091 -1.00903 47 56 56
0.30330 0.00821 -1.00577 56 60 68
0.31003 0.00552 -1.00251 56 55 58
0.31676 0.00283 -0.99925 53 49 49
0.32348 0.00014 -0.99599 51 49 45
0.33021 -0.00255 -0.99273 52 46 41
0.33693 -0.00524 -0.98947 68 70 60
0.34366 -0.00793 -0.98621 63 64 54
0.35038 -0.01061 -0.98295 48 44 42
0.35710 -0.01330 -0.97970 48 48 43
0.36382 -0.01599 -0.97644 48 50 41
0.39068 -0.02673 -0.96343 46 38 43
0.39739 -0.02942 -0.96017 38 34 41
0.40410 -0.03210 -0.95692 41 40 40
0.41081 -0.03478 -0.95367 51 55 54
0.41752 -0.03747 -0.95042 51 55 45
0.42422 -0.04015 -0.94717 38 41 43
0.43093 -0.04283 -0.94392 39 44 46
0.43763 -0.04551 -0.94068 79 81 71
0.44433 -0.04819 -0.93743 94 89 86
0.45104 -0.05087 -0.93418 64 51 42
0.45773 -0.05355 -0.93093 44 45 38
0.46443 -0.05623 -0.92769 37 40 43
0.47113 -0.05891 -0.92444 72 82 75
0.47782 -0.06158 -0.92120 98 108 86
0.48452 -0.06426 -0.91796 59 57 47
0.49121 -0.06694 -0.91471 38 45 46
0.49790 -0.06961 -0.91147 32 38 52
0.50459 -0.07229 -0.90823 74 88 93
0.51128 -0.07496 -0.90499 97 111 106
0.51797 -0.07764 -0.90175 58 48 38
0.52465 -0.08031 -0.89851 41 46 52
0.53133 -0.08298 -0.89527 29 37 51
0.53802 -0.08566 -0.89203 65 73 63
0.54470 -0.08833 -0.88880 76 81 69
0.55138 -0.09100 -0.88556 58 61 56
0.55806 -0.09367 -0.88232 45 49 43
0.56473 -0.09634 -0.87909 28 37 43
0.57141 -0.09901 -0.87585 64 69 61
0.57808 -0.10168 -0.87262 67 67 52
0.58476 -0.10435 -0.86939 40 37 34
0.59143 -0.10702 -0.86615 32 35 35
0.59810 -0.10968 -0.86292 25 26 26
0.60477 -0.11235 -0.85969 49 62 48
0.61143 -0.11502 -0.85646 59 74 53
0.61810 -0.11768 -0.85323 43 29 21
0.62476 -0.12035 -0.85000 35 32 33
0.63143 -0.12301 -0.84677 27 23 33
0.63809 -0.12568 -0.84354 47 50 71
0.64475 -0.12834 -0.84032 61 81 105
0.65141 -0.13100 -0.83709 43 42 29
0.65807 -0.13367 -0.83386 36 39 29
0.66472 -0.13633 -0.83064 21 31 18
0.67138 -0.13899 -0.82741 27 36 44
0.67803 -0.14165 -0.82419 46 68 74
0.68468 -0.14431 -0.82097 41 39 36
0.69133 -0.14697 -0.81774 35 37 32
0.69798 -0.14963 -0.81452 28 29 24
0.70463 -0.15229 -0.81130 30 28 39
0.71128 -0.15495 -0.80808 66 76 79
0.71792 -0.15760 -0.80486 52 44 34
0.72457 -0.16026 -0.80164 40 40 27
0.73121 -0.16292 -0.79842 36 35 24
0.73785 -0.16557 -0.79520 31 27 30
0.74449 -0.16823 -0.79199 22 25 39
0.75113 -0.17088 -0.78877 15 18 39
0.75776 -0.17354 -0.78555 15 17 35
0.76440 -0.17619 -0.78234 17 19 29
0.77103 -0.17885 -0.77912 21 19 26
0.77767 -0.18150 -0.77591 30 23 26
0.78430 -0.18415 -0.77270 34 29 30
0.79093 -0.18680 -0.76948 36 34 34
0.79756 -0.18945 -0.76627 34 35 31
0.80418 -0.19210 -0.76306 45 43 30
0.81081 -0.19475 -0.75985 42 33 23
0.81743 -0.19740 -0.75664 31 21 25
0.82406 -0.20005 -0.75343 31 34 36
0.85054 -0.21064 -0.74060 32 30 32
0.92324 -0.23972 -0.70537 39 40 37
0.92984 -0.24236 -0.70217 31 32 30
0.30139 -0.00238 -0.99452 50 55 74
0.30809 -0.00506 -0.99127 57 61 64
0.31479 -0.00774 -0.98803 55 48 44
0.32148 -0.01041 -0.98479 40 30 35
0.32818 -0.01309 -0.98154 60 68 76
0.33487 -0.01577 -0.97830 70 76 68
0.34157 -0.01844 -0.97506 56 58 27
0.34826 -0.02112 -0.97182 48 51 24
0.35495 -0.02379 -0.96858 35 37 32
0.38169 -0.03448 -0.95562 62 53 52
0.38838 -0.03716 -0.95238 28 22 27
0.39506 -0.03983 -0.94915 46 59 61
0.40174 -0.04250 -0.94591 87 107 94
0.40842 -0.04517 -0.94268 84 93 64
0.41510 -0.04784 -0.93944 43 42 42
0.42177 -0.05051 -0.93621 32 24 34
0.42845 -0.05317 -0.93298 61 69 74
0.43512 -0.05584 -0.92974 91 97 103
0.44179 -0.05851 -0.92651 68 60 41
0.44846 -0.06118 -0.92328 39 39 33
0.45513 -0.06384 -0.92005 33 30 40
0.46180 -0.06651 -0.91682 62 73 75
0.46847 -0.06917 -0.91359 90 97 96
0.47513 -0.07184 -0.91036 53 48 35
0.48180 -0.07450 -0.90714 38 40 33
0.48846 -0.07716 -0.90391 34 32 30
0.49512 -0.07983 -0.90068 63 69 75
0.50178 -0.08249 -0.89746 82 90 105
0.50844 -0.08515 -0.89423 60 53 43
0.51509 -0.08781 -0.89101 47 45 40
0.52175 -0.09047 -0.88778 38 28 37
0.52840 -0.09313 -0.88456 53 54 55
0.53506 -0.09579 -0.88134 64 76 69
0.54171 -0.09845 -0.87812 49 55 56
0.54836 -0.10111 -0.87490 47 44 38
0.55501 -0.10377 -0.87167 33 31 32
0.56165 -0.10642 -0.86845 52 55 54
0.56830 -0.10908 -0.86524 64 71 38
0.57494 -0.11174 -0.86202 36 33 30
0.58159 -0.11439 -0.85880 37 31 31
0.58823 -0.11705 -0.85558 33 28 23
0.59487 -0.11970 -0.85237 39 51 39
0.60151 -0.12235 -0.84915 43 61 48
0.60815 -0.12501 -0.84594 37 32 23
0.61478 -0.12766 -0.84272 38 31 27
0.62142 -0.13031 -0.83951 37 23 22
0.62805 -0.13296 -0.83630 39 43 62
0.63468 -0.13562 -0.83308 51 69 92
0.64131 -0.13827 -0.82987 33 40 28
0.64794 -0.14092 -0.82666 36 38 37
0.65457 -0.14357 -0.82345 35 40 31
0.66120 -0.14622 -0.82024 34 34 37
0.66782 -0.14886 -0.81703 41 40 48
0.67445 -0.15151 -0.81382 34 33 30
0.68107 -0.15416 -0.81061 33 32 35
0.68769 -0.15681 -0.80741 38 35 48
0.69431 -0.15945 -0.80420 33 27 38
0.70093 -0.16210 -0.80100 45 44 43
0.70754 -0.16474 -0.79779 42 38 27
0.71416 -0.16739 -0.79459 34 38 22
0.72077 -0.17003 -0.79138 40 40 33
0.72739 -0.17267 -0.78818 39 33 34
0.73400 -0.17532 -0.78498 38 32 34
0.74061 -0.17796 -0.78178 29 28 29
0.74722 -0.18060 -0.77857 24 22 24
0.75383 -0.18324 -0.77537 37 27 29
0.76043 -0.18588 -0.77217 47 29 25
0.76704 -0.18852 -0.76897 49 29 23
0.77364 -0.19116 -0.76578 44 31 28
0.78024 -0.19380 -0.76258 40 32 33
0.78684 -0.19644 -0.75938 33 31 24
0.79344 -0.19908 -0.75618 45 46 26
0.80004 -0.20172 -0.75299 47 39 30
0.80664 -0.20435 -0.74979 29 24 24
0.81323 -0.20699 -0.74660 25 19 26
0.81983 -0.20963 -0.74341 39 30 39
0.83960 -0.21753 -0.73383 34 26 34
0.84619 -0.22016 -0.73064 27 24 30
0.91857 -0.24910 -0.69558 41 35 41
0.92514 -0.25173 -0.69239 36 33 40
0.29283 -0.01022 -0.98660 51 59 80
0.29950 -0.01288 -0.98337 59 60 67
0.30617 -0.01555 -0.98014 57 49 46
0.31950 -0.02088 -0.97368 43 44 58
0.32617 -0.02354 -0.97046 55 56 66
0.33283 -0.02620 -0.96723 51 48 37
0.33950 -0.02887 -0.96400 53 44 21
0.34616 -0.03153 -0.96078 46 31 19
0.37279 -0.04217 -0.94788 48 35 37
0.37944 -0.04483 -0.94466 34 24 20
0.38610 -0.04749 -0.94144 31 41 41
0.39275 -0.05014 -0.93822 41 65 61
0.39940 -0.05280 -0.93500 41 48 40
0.40605 -0.05546 -0.93178 35 21 29
0.41270 -0.05811 -0.92856 30 17 24
0.41934 -0.06077 -0.92534 26 31 43
0.42599 -0.06343 -0.92213 37 44 64
0.43263 -0.06608 -0.91891 40 36 37
0.43927 -0.06873 -0.91569 41 26 41
0.44592 -0.07139 -0.91248 43 28 40
0.45256 -0.07404 -0.90926 43 44 54
0.45919 -0.07669 -0.90605 44 49 68
0.46583 -0.07935 -0.90284 38 38 33
0.47247 -0.08200 -0.89962 46 44 41
0.47910 -0.08465 -0.89641 50 47 50
0.48573 -0.08730 -0.89320 50 45 51
0.49236 -0.08995 -0.88999 44 45 80
0.49899 -0.09260 -0.88678 46 38 53
0.50562 -0.09525 -0.88357 51 50 45
0.51225 -0.09789 -0.88036 60 51 51
0.51888 -0.10054 -0.87715 50 43 47
0.52550 -0.10319 -0.87395 42 43 53
0.53212 -0.10583 -0.87074 31 38 42
0.53874 -0.10848 -0.86753 53 56 47
0.54537 -0.11113 -0.86433 61 61 47
0.55198 -0.11377 -0.86112 51 44 46
0.55860 -0.11641 -0.85792 44 43 35
0.56522 -0.11906 -0.85471 30 32 22
0.57183 -0.12170 -0.85151 51 34 42
0.57845 -0.12434 -0.84831 44 40 37
0.58506 -0.12699 -0.84511 33 29 16
0.59167 -0.12963 -0.84191 30 31 25
0.59828 -0.13227 -0.83871 33 29 25
0.60489 -0.13491 -0.83551 42 36 42
0.61149 -0.13755 -0.83231 46 47 39
0.61810 -0.14019 -0.82911 38 40 48
0.62470 -0.14283 -0.82591 40 37 42
0.63131 -0.14547 -0.82272 30 31 22
0.63791 -0.14810 -0.81952 40 40 48
0.64451 -0.15074 -0.81632 44 54 55
0.65111 -0.15338 -0.81313 41 45 38
0.65770 -0.15601 -0.80994 45 37 32
0.66430 -0.15865 -0.80674 33 29 18
0.67089 -0.16128 -0.80355 28 27 38
0.67749 -0.16392 -0.80036 42 47 72
0.68408 -0.16655 -0.79716 38 38 48
0.69067 -0.16919 -0.79397 45 40 43
0.69726 -0.17182 -0.79078 37 32 22
0.70385 -0.17445 -0.78759 27 30 27
0.71043 -0.17708 -0.78440 41 48 66
0.71702 -0.17971 -0.78122 50 42 53
0.72360 -0.18234 -0.77803 52 52 47
0.73018 -0.18497 -0.77484 38 36 29
0.73676 -0.18760 -0.77166 20 20 28
0.74334 -0.19023 -0.76847 54 56 74
0.74992 -0.19286 -0.76528 81 78 82
0.75650 -0.19549 -0.76210 82 81 77
0.76307 -0.19812 -0.75892 72 73 77
0.76965 -0.20074 -0.75573 60 59 56
0.77622 -0.20337 -0.75255 53 53 42
0.78279 -0.20600 -0.74937 50 51 39
0.78936 -0.20862 -0.74619 48 46 36
0.79593 -0.21125 -0.74301 31 30 30
0.80250 -0.21387 -0.73983 23 34 37
0.80907 -0.21649 -0.73665 56 76 77
0.82876 -0.22436 -0.72711 40 37 33
0.83532 -0.22698 -0.72394 27 22 31
0.90740 -0.25578 -0.68904 42 33 49
0.91394 -0.25840 -0.68587 26 24 37
0.29762 -0.02329 -0.97232 44 42 44
0.32418 -0.03389 -0.95947 35 40 41
0.36396 -0.04979 -0.94021 63 65 50
0.37059 -0.05243 -0.93701 75 70 57
0.37721 -0.05508 -0.93380 42 40 45
0.38384 -0.05772 -0.93060 22 27 25
0.39046 -0.06037 -0.92739 26 29 44
0.39708 -0.06301 -0.92419 62 58 65
0.40370 -0.06566 -0.92098 62 61 44
0.41032 -0.06830 -0.91778 34 27 14
0.41694 -0.07094 -0.91458 20 18 26
0.42355 -0.07359 -0.91137 26 24 39
0.43017 -0.07623 -0.90817 72 55 62
0.43678 -0.07887 -0.90497 79 51 39
0.44339 -0.08151 -0.90177 41 32 39
0.45000 -0.08415 -0.89857 26 28 40
0.45661 -0.08679 -0.89537 29 30 37
0.46322 -0.08943 -0.89218 55 50 54
0.46982 -0.09207 -0.88898 67 57 81
0.47643 -0.09470 -0.88578 44 36 35
0.48303 -0.09734 -0.88259 28 28 48
0.48963 -0.09998 -0.87939 31 27 45
0.49623 -0.10261 -0.87620 44 51 57
0.50283 -0.10525 -0.87300 69 69 83
0.50943 -0.10789 -0.86981 49 43 43
0.51603 -0.11052 -0.86662 34 32 35
0.52262 -0.11315 -0.86343 26 30 26
0.52922 -0.11579 -0.86023 51 67 55
0.53581 -0.11842 -0.85704 79 91 77
0.54240 -0.12105 -0.85385 51 46 35
0.54899 -0.12369 -0.85066 39 35 34
0.55558 -0.12632 -0.84747 30 31 24
0.56216 -0.12895 -0.84429 51 38 54
0.56875 -0.13158 -0.84110 45 46 54
0.57533 -0.13421 -0.83791 35 31 14
0.58192 -0.13684 -0.83473 32 31 24
0.58850 -0.13947 -0.83154 29 25 21
0.59508 -0.14209 -0.82836 40 45 51
0.60166 -0.14472 -0.82517 51 71 57
0.60824 -0.14735 -0.82199 48 52 44
0.61481 -0.14997 -0.81881 42 40 38
0.62139 -0.15260 -0.81562 37 32 30
0.62796 -0.15523 -0.81244 42 44 42
0.63453 -0.15785 -0.80926 44 54 43
0.64110 -0.16048 -0.80608 41 47 42
0.64767 -0.16310 -0.80290 45 43 39
0.65424 -0.16572 -0.79972 40 33 25
0.66081 -0.16835 -0.79654 30 30 36
0.66737 -0.17097 -0.79337 42 47 58
0.67394 -0.17359 -0.79019 43 41 59
0.68050 -0.17621 -0.78701 50 62 88
0.68706 -0.17883 -0.78384 38 38 33
0.69362 -0.18145 -0.78066 30 25 33
0.70018 -0.18407 -0.77749 48 51 54
0.70674 -0.18669 -0.77431 58 49 59
0.71329 -0.18931 -0.77114 64 85 67
0.71985 -0.19193 -0.76797 51 49 30
0.72640 -0.19454 -0.76480 30 24 26
0.73295 -0.19716 -0.76163 47 55 74
0.73950 -0.19978 -0.75846 66 73 100
0.74605 -0.20239 -0.75529 76 72 101
0.75260 -0.20501 -0.75212 72 62 90
0.75915 -0.20762 -0.74895 63 57 67
0.76569 -0.21024 -0.74578 57 56 51
0.77224 -0.21285 -0.74261 49 52 44
0.77878 -0.21546 -0.73945 49 51 39
0.78532 -0.21808 -0.73628 41 34 32
0.79186 -0.22069 -0.73311 27 21 26
0.79840 -0.22330 -0.72995 17 24 36
0.80494 -0.22591 -0.72679 19 34 44
0.81147 -0.22852 -0.72362 29 39 37
0.81801 -0.23113 -0.72046 32 34 30
0.82454 -0.23374 -0.71730 26 24 22
0.83107 -0.23635 -0.71414 22 35 34
0.85719 -0.24678 -0.70150 36 30 25
0.89632 -0.26241 -0.68256 43 38 42
0.90284 -0.26501 -0.67940 33 26 26
0.90935 -0.26761 -0.67625 29 32 34
0.28915 -0.03096 -0.96457 53 51 47
0.34201 -0.05207 -0.93900 28 27 28
0.34861 -0.05470 -0.93581 27 33 26
0.36181 -0.05997 -0.92942 73 63 72
0.36841 -0.06260 -0.92623 45 32 39
0.37500 -0.06524 -0.92304 29 26 17
0.38160 -0.06787 -0.91985 26 30 33
0.38819 -0.07050 -0.91666 43 55 60
0.39478 -0.07313 -0.91347 57 76 58
0.40137 -0.07576 -0.91028 67 76 48
0.40796 -0.07840 -0.90709 34 35 39
0.41455 -0.08103 -0.90390 22 23 29
0.42114 -0.08365 -0.90072 51 49 54
0.42772 -0.08628 -0.89753 59 53 43
0.43431 -0.08891 -0.89435 39 36 41
0.44089 -0.09154 -0.89116 31 30 38
0.44747 -0.09417 -0.88798 27 23 35
0.45405 -0.09679 -0.88480 37 35 42
0.46063 -0.09942 -0.88161 49 45 64
0.46720 -0.10205 -0.87843 36 36 34
0.47378 -0.10467 -0.87525 31 34 39
0.48035 -0.10730 -0.87207 29 29 31
0.48693 -0.10992 -0.86889 31 36 38
0.49350 -0.11254 -0.86571 47 48 66
0.50007 -0.11517 -0.86253 41 43 43
0.50664 -0.11779 -0.85935 36 37 29
0.51320 -0.12041 -0.85618 32 33 22
0.51977 -0.12303 -0.85300 39 47 43
0.52633 -0.12565 -0.84982 51 57 67
0.53290 -0.12827 -0.84665 41 39 26
0.53946 -0.13089 -0.84347 39 37 32
0.54602 -0.13351 -0.84030 35 31 24
0.55258 -0.13613 -0.83712 36 35 38
0.55914 -0.13875 -0.83395 30 33 30
0.56569 -0.14137 -0.83078 30 28 19
0.57225 -0.14398 -0.82761 33 29 24
0.57880 -0.14660 -0.82444 28 26 21
0.58536 -0.14922 -0.82127 32 29 35
0.59191 -0.15183 -0.81810 34 42 49
0.59846 -0.15445 -0.81493 40 34 44
0.60501 -0.15706 -0.81176 42 37 35
0.61155 -0.15967 -0.80859 36 34 27
0.61810 -0.16229 -0.80543 35 29 25
0.62464 -0.16490 -0.80226 33 29 19
0.63119 -0.16751 -0.79909 30 33 38
0.63773 -0.17012 -0.79593 40 41 44
0.64427 -0.17274 -0.79276 40 36 28
0.65081 -0.17535 -0.78960 34 35 24
0.65735 -0.17796 -0.78644 38 40 36
0.66388 -0.18057 -0.78327 38 36 51
0.67042 -0.18318 -0.78011 46 59 97
0.67695 -0.18578 -0.77695 35 41 42
0.68349 -0.18839 -0.77379 26 29 41
0.69002 -0.19100 -0.77063 47 47 49
0.69655 -0.19361 -0.76747 54 58 79
0.70308 -0.19621 -0.76431 58 79 81
0.70960 -0.19882 -0.76116 45 51 39
0.71613 -0.20142 -0.75800 32 28 37
0.72265 -0.20403 -0.75484 27 28 51
0.72918 -0.20663 -0.75169 27 30 55
0.73570 -0.20924 -0.74853 28 31 55
0.74222 -0.21184 -0.74538 40 38 60
0.74874 -0.21444 -0.74222 49 49 56
0.75526 -0.21705 -0.73907 52 54 45
0.76177 -0.21965 -0.73591 44 49 35
0.76829 -0.22225 -0.73276 47 49 46
0.77480 -0.22485 -0.72961 45 39 40
0.78132 -0.22745 -0.72646 31 24 22
0.78783 -0.23005 -0.72331 22 21 18
0.79434 -0.23265 -0.72016 24 25 22
0.80085 -0.23525 -0.71701 30 30 25
0.80735 -0.23784 -0.71386 29 28 21
0.81386 -0.24044 -0.71072 25 23 14
0.82036 -0.24304 -0.70757 23 25 19
0.82687 -0.24563 -0.70442 22 29 37
0.83337 -0.24823 -0.70128 26 34 44
0.83987 -0.25083 -0.69813 32 34 34
0.85936 -0.25861 -0.68870 26 25 33
0.86586 -0.26120 -0.68556 28 27 38
0.87235 -0.26379 -0.68242 31 29 31
0.87885 -0.26639 -0.67927 36 35 32
0.88534 -0.26898 -0.67613 42 40 37
0.89183 -0.27157 -0.67299 36 33 28
0.89832 -0.27416 -0.66985 24 27 27
0.90481 -0.27675 -0.66672 33 33 38
0.28076 -0.03857 -0.95689 40 48 57
0.33339 -0.05958 -0.93143 30 31 27
0.33997 -0.06220 -0.92825 25 28 16
0.34654 -0.06482 -0.92508 23 31 34
0.35311 -0.06744 -0.92190 34 34 54
0.35968 -0.07006 -0.91872 38 29 40
0.36625 -0.07269 -0.91554 33 26 24
0.37281 -0.07531 -0.91237 25 25 20
0.37938 -0.07793 -0.90919 20 26 32
0.38594 -0.08055 -0.90602 36 46 45
0.39251 -0.08316 -0.90285 75 77 56
0.39907 -0.08578 -0.89967 40 39 48
0.40563 -0.08840 -0.89650 21 19 16
0.41219 -0.09102 -0.89333 26 24 26
0.41874 -0.09363 -0.89016 31 32 37
0.42530 -0.09625 -0.88699 37 33 36
0.43185 -0.09887 -0.88382 34 27 29
0.43841 -0.10148 -0.88065 28 22 25
0.44496 -0.10410 -0.87748 21 23 21
0.45151 -0.10671 -0.87431 24 29 29
0.45806 -0.10932 -0.87114 34 31 31
0.46461 -0.11194 -0.86798 35 30 36
0.47115 -0.11455 -0.86481 31 29 26
0.47770 -0.11716 -0.86164 26 29 21
0.48424 -0.11977 -0.85848 25 29 35
0.49078 -0.12238 -0.85532 37 37 38
0.49733 -0.12499 -0.85215 42 36 30
0.50387 -0.12760 -0.84899 37 34 22
0.51040 -0.13021 -0.84583 37 35 31
0.51694 -0.13282 -0.84266 27 30 35
0.52348 -0.13543 -0.83950 38 36 36
0.53001 -0.13804 -0.83634 45 41 37
0.53655 -0.14064 -0.83318 41 35 23
0.54308 -0.14325 -0.83002 36 36 32
0.54961 -0.14586 -0.82687 27 29 22
0.55614 -0.14846 -0.82371 37 34 26
0.56267 -0.15107 -0.82055 45 42 43
0.56919 -0.15367 -0.81740 38 32 21
0.57572 -0.15628 -0.81424 34 28 21
0.58224 -0.15888 -0.81108 24 24 36
0.58876 -0.16148 -0.80793 37 34 45
0.59528 -0.16409 -0.80478 46 37 37
0.60180 -0.16669 -0.80162 38 33 24
0.60832 -0.16929 -0.79847 35 32 25
0.61484 -0.17189 -0.79532 33 30 20
0.62136 -0.17449 -0.79217 27 33 32
0.62787 -0.17709 -0.78902 62 58 45
0.63438 -0.17969 -0.78587 52 43 31
0.64090 -0.18229 -0.78272 42 38 32
0.64741 -0.18489 -0.77957 38 34 30
0.65392 -0.18748 -0.77642 36 32 29
0.66043 -0.19008 -0.77327 43 38 48
0.66693 -0.19268 -0.77013 42 37 32
0.67344 -0.19527 -0.76698 44 40 36
0.67994 -0.19787 -0.76383 43 32 28
0.68644 -0.20046 -0.76069 33 22 45
0.69295 -0.20306 -0.75754 30 22 38
0.69945 -0.20565 -0.75440 31 21 28
0.70594 -0.20825 -0.75126 37 30 36
0.71244 -0.21084 -0.74812 40 34 41
0.71894 -0.21343 -0.74497 39 38 38
0.72543 -0.21602 -0.74183 41 44 40
0.73193 -0.21861 -0.73869 48 49 47
0.73842 -0.22120 -0.73555 50 53 50
0.74491 -0.22379 -0.73241 52 55 48
0.75140 -0.22638 -0.72927 51 50 41
0.75789 -0.22897 -0.72614 45 48 39
0.76437 -0.23156 -0.72300 43 43 36
0.77086 -0.23415 -0.71986 39 35 26
0.77734 -0.23674 -0.71673 30 27 18
0.78383 -0.23933 -0.71359 29 23 21
0.79031 -0.24191 -0.71046 33 23 22
0.79679 -0.24450 -0.70732 30 22 22
0.80327 -0.24708 -0.70419 28 22 25
0.80975 -0.24967 -0.70106 28 23 28
0.81622 -0.25225 -0.69792 29 25 28
0.82270 -0.25484 -0.69479 28 27 33
0.82917 -0.25742 -0.69166 29 29 37
0.83564 -0.26000 -0.68853 34 28 36
0.84212 -0.26259 -0.68540 35 25 37
0.84859 -0.26517 -0.68227 35 26 36
0.85505 -0.26775 -0.67914 33 26 36
0.86152 -0.27033 -0.67602 31 28 39
0.86799 -0.27291 -0.67289 38 34 42
0.87445 -0.27549 -0.66976 45 43 43
0.88092 -0.27807 -0.66664 41 39 31
0.88738 -0.28065 -0.66351 28 27 27
0.89384 -0.28323 -0.66039 32 40 62
0.29865 -0.05657 -0.93660 30 25 18
0.30520 -0.05918 -0.93343 21 17 23
0.33140 -0.06963 -0.92077 29 27 16
0.33794 -0.07224 -0.91760 21 22 16
0.34448 -0.07485 -0.91444 24 30 27
0.35103 -0.07746 -0.91128 40 51 31
0.35757 -0.08007 -0.90812 42 36 27
0.36410 -0.08268 -0.90496 35 28 27
0.37064 -0.08529 -0.90179 24 20 25
0.37718 -0.08789 -0.89863 29 31 38
0.38371 -0.09050 -0.89548 72 76 64
0.39025 -0.09311 -0.89232 56 50 54
0.39678 -0.09571 -0.88916 34 25 23
0.40331 -0.09832 -0.88600 32 25 21
0.40984 -0.10092 -0.88284 38 29 41
0.41637 -0.10353 -0.87969 60 49 72
0.42290 -0.10613 -0.87653 49 40 51
0.42942 -0.10873 -0.87338 38 32 25
0.43595 -0.11134 -0.87022 29 27 19
0.44247 -0.11394 -0.86707 25 29 35
0.44899 -0.11654 -0.86392 59 67 61
0.45551 -0.11914 -0.86076 70 69 44
0.46203 -0.12174 -0.85761 43 39 28
0.46855 -0.12434 -0.85446 31 34 22
0.47507 -0.12694 -0.85131 24 25 30
0.48158 -0.12954 -0.84816 64 64 56
0.48810 -0.13214 -0.84501 75 65 38
0.49461 -0.13474 -0.84186 48 43 31
0.50112 -0.13733 -0.83872 40 40 27
0.50763 -0.13993 -0.83557 28 31 28
0.51414 -0.14253 -0.83242 49 42 43
0.52065 -0.14512 -0.82928 62 59 38
0.52715 -0.14772 -0.82613 52 45 37
0.53366 -0.15031 -0.82299 43 42 36
0.54016 -0.15291 -0.81984 29 28 28
0.54666 -0.15550 -0.81670 51 51 39
0.55316 -0.15809 -0.81356 63 70 94
0.55966 -0.16068 -0.81041 47 44 30
0.56616 -0.16328 -0.80727 39 37 34
0.57266 -0.16587 -0.80413 27 28 36
0.57915 -0.16846 -0.80099 40 45 57
0.58565 -0.17105 -0.79785 51 48 77
0.59214 -0.17364 -0.79471 41 36 38
0.59863 -0.17623 -0.79157 39 34 31
0.60512 -0.17882 -0.78844 38 32 27
0.61161 -0.18141 -0.78530 30 39 35
0.61810 -0.18399 -0.78216 98 109 73
0.62459 -0.18658 -0.77903 73 67 44
0.63107 -0.18917 -0.77589 51 47 44
0.63755 -0.19175 -0.77276 45 37 36
0.64404 -0.19434 -0.76962 36 36 39
0.65052 -0.19693 -0.76649 46 47 51
0.65700 -0.19951 -0.76336 52 49 42
0.66348 -0.20209 -0.76023 69 63 41
0.66995 -0.20468 -0.75709 58 46 28
0.67643 -0.20726 -0.75396 35 24 30
0.68290 -0.20984 -0.75083 39 31 39
0.68938 -0.21243 -0.74770 47 40 40
0.70879 -0.22017 -0.73832 41 37 34
0.71526 -0.22275 -0.73519 39 42 37
0.72172 -0.22533 -0.73207 46 51 45
0.72819 -0.22791 -0.72894 52 56 52
0.73465 -0.23049 -0.72582 56 57 53
0.74111 -0.23306 -0.72269 55 56 45
0.74758 -0.23564 -0.71957 43 49 28
0.75404 -0.23822 -0.71644 42 49 35
0.76050 -0.24079 -0.71332 48 52 42
0.76695 -0.24337 -0.71020 48 50 38
