ply
format ascii 1.0
element face 0
property list uchar int vertex_indices
element vertex 1235
property float x
property float y
property float z
property uchar diffuse_red
property uchar diffuse_green
property uchar diffuse_blue
end_header
-2.13760 -4.04054 -0.14491 150 162 155
-2.15392 -4.04447 -0.14455 151 154 151
1.21158 -3.21910 -0.23394 209 212 203
1.19096 -3.22407 -0.23348 204 202 201
1.17037 -3.22903 -0.23301 209 208 207
1.14981 -3.23399 -0.23254 219 220 213
1.12927 -3.23894 -0.23207 210 213 205
1.10876 -3.24388 -0.23161 202 199 199
1.08829 -3.24881 -0.23114 214 215 203
1.06783 -3.25374 -0.23068 207 211 209
1.04741 -3.25867 -0.23021 208 217 218
1.02702 -3.26358 -0.22975 222 228 213
1.00665 -3.26849 -0.22929 212 217 204
0.98631 -3.27339 -0.22883 215 219 214
0.96600 -3.27829 -0.22836 221 228 214
0.94572 -3.28318 -0.22790 217 220 206
0.92546 -3.28806 -0.22744 210 209 201
0.90523 -3.29294 -0.22698 214 224 214
0.88503 -3.29780 -0.22652 211 216 211
0.86486 -3.30267 -0.22607 209 210 204
0.84471 -3.30752 -0.22561 201 197 193
0.82459 -3.31237 -0.22515 200 201 206
0.80450 -3.31721 -0.22469 204 203 206
0.78444 -3.32205 -0.22424 201 202 201
0.76440 -3.32688 -0.22378 195 200 204
0.74439 -3.33170 -0.22333 201 208 212
0.72441 -3.33652 -0.22288 213 222 213
0.70446 -3.34133 -0.22242 207 211 209
0.68453 -3.34613 -0.22197 202 200 204
0.66463 -3.35093 -0.22152 213 211 210
0.64475 -3.35572 -0.22107 212 211 210
0.62491 -3.36050 -0.22061 203 203 201
0.60509 -3.36528 -0.22016 208 207 202
0.58529 -3.37005 -0.21971 208 206 204
0.56553 -3.37482 -0.21926 202 202 204
0.54578 -3.37958 -0.21882 204 202 205
0.52607 -3.38433 -0.21837 202 200 205
0.50638 -3.38907 -0.21792 205 200 200
0.48672 -3.39381 -0.21747 214 209 206
0.46709 -3.39854 -0.21703 205 204 204
0.44748 -3.40327 -0.21658 204 209 203
0.42790 -3.40799 -0.21614 205 214 207
0.40834 -3.41270 -0.21569 212 212 203
0.38881 -3.41741 -0.21525 217 210 201
0.36931 -3.42211 -0.21481 216 213 207
0.34983 -3.42681 -0.21436 202 201 206
0.33038 -3.43149 -0.21392 203 203 209
0.31096 -3.43618 -0.21348 204 209 207
0.29156 -3.44085 -0.21304 203 204 200
0.27219 -3.44552 -0.21260 202 208 207
0.25284 -3.45018 -0.21216 208 212 206
0.23352 -3.45484 -0.21172 211 206 200
0.21422 -3.45949 -0.21128 207 205 197
0.19495 -3.46414 -0.21085 204 213 202
0.17571 -3.46878 -0.21041 205 212 204
0.15649 -3.47341 -0.20997 201 201 205
0.13729 -3.47803 -0.20953 201 204 206
0.11813 -3.48265 -0.20910 204 207 201
0.09898 -3.48727 -0.20866 198 204 196
0.07987 -3.49188 -0.20823 201 203 195
0.06077 -3.49648 -0.20780 195 189 213
0.04171 -3.50107 -0.20736 204 212 217
0.02267 -3.50566 -0.20693 205 205 203
0.00365 -3.51025 -0.20650 204 207 205
-0.01534 -3.51482 -0.20607 182 179 188
-0.03431 -3.51940 -0.20564 197 202 203
-0.05325 -3.52396 -0.20521 189 184 195
-0.07216 -3.52852 -0.20478 181 184 183
-0.09105 -3.53307 -0.20435 189 190 192
-0.10992 -3.53762 -0.20392 196 195 194
-0.12876 -3.54216 -0.20349 199 197 190
-0.14758 -3.54670 -0.20306 196 196 194
-0.16637 -3.55123 -0.20264 189 192 196
-0.18514 -3.55575 -0.20221 189 186 188
-0.20388 -3.56027 -0.20178 190 189 189
-0.22260 -3.56478 -0.20136 188 189 191
-0.24129 -3.56929 -0.20093 187 180 188
-0.25996 -3.57379 -0.20051 190 188 194
-0.27860 -3.57828 -0.20009 191 191 190
-0.29722 -3.58277 -0.19966 191 193 189
-0.31582 -3.58725 -0.19924 190 195 191
-0.33439 -3.59173 -0.19882 197 201 196
-0.35293 -3.59620 -0.19840 200 201 195
-0.37146 -3.60066 -0.19798 195 198 190
-0.38996 -3.60512 -0.19755 183 185 181
-0.40843 -3.60957 -0.19714 170 170 176
-0.42688 -3.61402 -0.19672 176 177 181
-0.44531 -3.61846 -0.19630 182 186 186
-0.46371 -3.62290 -0.19588 181 185 187
-0.48209 -3.62733 -0.19546 185 186 185
-0.50044 -3.63175 -0.19504 178 181 182
-0.51877 -3.63617 -0.19463 168 173 175
-0.53708 -3.64058 -0.19421 169 171 171
-0.55536 -3.64499 -0.19380 171 172 174
-0.57362 -3.64939 -0.19338 172 173 172
-0.59186 -3.65378 -0.19297 173 170 179
-0.61007 -3.65817 -0.19255 176 175 183
-0.62826 -3.66256 -0.19214 175 181 186
-0.64643 -3.66694 -0.19173 168 173 169
-0.66457 -3.67131 -0.19132 181 184 167
-0.68269 -3.67568 -0.19090 180 182 171
-0.70078 -3.68004 -0.19049 172 180 166
-0.71885 -3.68439 -0.19008 164 172 166
-0.73690 -3.68875 -0.18967 166 181 163
-0.75493 -3.69309 -0.18926 160 170 175
-0.77293 -3.69743 -0.18885 177 182 179
-0.79091 -3.70176 -0.18844 184 183 168
-0.80886 -3.70609 -0.18804 185 190 172
-0.82679 -3.71041 -0.18763 187 189 185
-0.84470 -3.71473 -0.18722 182 189 188
-0.86259 -3.71904 -0.18682 182 184 189
-0.88045 -3.72335 -0.18641 173 175 182
-0.89830 -3.72765 -0.18600 180 180 180
-0.91611 -3.73194 -0.18560 178 187 175
-0.93391 -3.73623 -0.18520 160 165 174
-0.95168 -3.74051 -0.18479 169 178 171
-0.96943 -3.74479 -0.18439 175 181 180
-0.98716 -3.74907 -0.18399 175 179 178
-1.00486 -3.75333 -0.18358 174 183 177
-1.02254 -3.75759 -0.18318 173 183 175
-1.04020 -3.76185 -0.18278 177 184 181
-1.05784 -3.76610 -0.18238 179 184 179
-1.07546 -3.77035 -0.18198 173 168 166
-1.09305 -3.77459 -0.18158 179 179 169
-1.11062 -3.77882 -0.18118 178 184 165
-1.12816 -3.78305 -0.18078 166 178 174
-1.14569 -3.78728 -0.18038 175 187 182
-1.16319 -3.79150 -0.17999 184 185 184
-1.18067 -3.79571 -0.17959 176 179 180
-1.19813 -3.79992 -0.17919 176 182 181
-1.21557 -3.80412 -0.17880 178 187 180
-1.23298 -3.80832 -0.17840 170 173 160
-1.25037 -3.81251 -0.17800 169 165 157
-1.26774 -3.81670 -0.17761 170 166 166
-1.28509 -3.82088 -0.17722 166 162 169
-1.30242 -3.82505 -0.17682 161 164 170
-1.31972 -3.82923 -0.17643 162 172 170
-1.33701 -3.83339 -0.17604 168 178 174
-1.35427 -3.83755 -0.17564 171 175 176
-1.37151 -3.84171 -0.17525 170 170 171
-1.38872 -3.84586 -0.17486 159 162 163
-1.40592 -3.85000 -0.17447 144 150 154
-1.42309 -3.85414 -0.17408 151 162 155
-1.44025 -3.85828 -0.17369 163 172 167
-1.45738 -3.86240 -0.17330 159 162 161
-1.47449 -3.86653 -0.17291 155 162 165
-1.49158 -3.87065 -0.17252 159 173 169
-1.50864 -3.87476 -0.17214 172 184 175
-1.52569 -3.87887 -0.17175 171 171 150
-1.54271 -3.88297 -0.17136 161 160 150
-1.55972 -3.88707 -0.17098 165 167 173
-1.57670 -3.89116 -0.17059 161 157 173
-1.59366 -3.89525 -0.17020 162 169 176
-1.61060 -3.89934 -0.16982 152 164 155
-1.62752 -3.90341 -0.16944 148 151 144
-1.64441 -3.90749 -0.16905 163 175 171
-1.66129 -3.91155 -0.16867 176 168 172
-1.67814 -3.91562 -0.16828 142 152 170
-1.69498 -3.91967 -0.16790 164 175 169
-1.71179 -3.92373 -0.16752 164 167 162
-1.72858 -3.92777 -0.16714 162 163 148
-1.74535 -3.93182 -0.16676 147 149 153
-1.76210 -3.93585 -0.16638 160 170 175
-1.77883 -3.93989 -0.16600 163 167 163
-1.79554 -3.94391 -0.16562 160 165 169
-1.81223 -3.94794 -0.16524 161 174 171
-1.82890 -3.95195 -0.16486 148 157 157
-1.84555 -3.95597 -0.16448 138 142 155
-1.86217 -3.95997 -0.16410 149 157 160
-1.87878 -3.96398 -0.16373 157 163 162
-1.89536 -3.96797 -0.16335 158 162 162
-1.91193 -3.97197 -0.16297 162 165 163
-1.92847 -3.97595 -0.16260 162 162 163
-1.94500 -3.97994 -0.16222 159 164 161
-1.96150 -3.98391 -0.16185 151 160 156
-1.97798 -3.98789 -0.16147 158 167 160
-1.99445 -3.99186 -0.16110 165 168 157
-2.01089 -3.99582 -0.16072 154 157 154
-2.02731 -3.99978 -0.16035 152 160 161
-2.04372 -4.00373 -0.15998 161 169 160
-2.06010 -4.00768 -0.15961 161 166 158
-2.07646 -4.01162 -0.15923 152 151 151
-2.09280 -4.01556 -0.15886 140 139 146
-2.10912 -4.01950 -0.15849 136 137 150
-2.12543 -4.02343 -0.15812 139 145 153
-2.14171 -4.02735 -0.15775 145 154 152
-2.15797 -4.03127 -0.15738 141 148 146
-2.17421 -4.03519 -0.15701 147 151 147
1.19421 -3.20743 -0.24801 215 217 209
1.17368 -3.21239 -0.24753 211 211 209
1.15318 -3.21734 -0.24706 205 204 208
1.13271 -3.22229 -0.24658 211 211 215
1.11226 -3.22723 -0.24611 209 210 211
1.09185 -3.23216 -0.24563 207 208 211
1.07146 -3.23708 -0.24516 206 211 211
1.05109 -3.24200 -0.24469 203 203 198
1.03076 -3.24691 -0.24422 211 209 205
1.01045 -3.25182 -0.24374 217 219 214
0.99018 -3.25672 -0.24327 190 195 190
0.96992 -3.26161 -0.24280 205 211 200
0.94970 -3.26649 -0.24233 213 219 216
0.92951 -3.27137 -0.24187 208 209 211
0.90934 -3.27625 -0.24140 204 211 198
0.88920 -3.28111 -0.24093 211 219 203
0.86908 -3.28597 -0.24046 209 214 207
0.84900 -3.29082 -0.24000 209 212 195
0.82894 -3.29567 -0.23953 204 199 185
0.80891 -3.30051 -0.23907 208 206 206
0.78890 -3.30534 -0.23860 211 212 207
0.76892 -3.31016 -0.23814 206 209 207
0.74897 -3.31498 -0.23768 196 199 205
0.72905 -3.31980 -0.23721 198 204 207
0.70915 -3.32460 -0.23675 200 203 200
0.68928 -3.32940 -0.23629 202 203 202
0.66944 -3.33420 -0.23583 209 208 206
0.64962 -3.33898 -0.23537 215 219 214
0.62983 -3.34376 -0.23491 212 213 210
0.61007 -3.34854 -0.23445 205 203 200
0.59033 -3.35331 -0.23400 207 206 200
0.57062 -3.35807 -0.23354 209 208 206
0.55094 -3.36282 -0.23308 203 200 208
0.53128 -3.36757 -0.23262 211 206 212
0.51165 -3.37231 -0.23217 212 209 210
0.49205 -3.37705 -0.23171 213 207 202
0.47247 -3.38178 -0.23126 217 217 208
0.45292 -3.38650 -0.23081 211 214 202
0.43339 -3.39122 -0.23035 209 208 202
0.41389 -3.39593 -0.22990 213 213 208
0.39442 -3.40063 -0.22945 213 213 201
0.37497 -3.40533 -0.22900 206 206 197
0.35555 -3.41002 -0.22855 201 198 199
0.33615 -3.41471 -0.22810 199 202 202
0.31678 -3.41938 -0.22765 198 203 207
0.29744 -3.42406 -0.22720 197 201 198
0.27812 -3.42872 -0.22675 208 211 208
0.25883 -3.43338 -0.22630 209 214 213
0.23956 -3.43804 -0.22586 205 211 211
0.22032 -3.44269 -0.22541 203 208 205
0.20110 -3.44733 -0.22496 214 217 209
0.18191 -3.45196 -0.22452 203 208 206
0.16275 -3.45659 -0.22407 202 200 191
0.14361 -3.46122 -0.22363 203 198 200
0.12449 -3.46583 -0.22319 198 202 203
0.10540 -3.47045 -0.22274 196 194 191
0.08634 -3.47505 -0.22230 196 195 197
0.06730 -3.47965 -0.22186 203 203 191
0.04829 -3.48424 -0.22142 200 204 216
0.02930 -3.48883 -0.22098 202 206 200
0.01034 -3.49341 -0.22054 195 194 197
-0.00860 -3.49799 -0.22010 193 202 200
-0.02751 -3.50255 -0.21966 189 189 184
-0.04640 -3.50712 -0.21922 196 205 205
-0.06527 -3.51167 -0.21878 194 191 205
-0.08411 -3.51622 -0.21835 188 183 191
-0.10292 -3.52077 -0.21791 188 189 189
-0.12171 -3.52531 -0.21747 190 195 187
-0.14047 -3.52984 -0.21704 195 199 201
-0.15921 -3.53437 -0.21660 200 205 208
-0.17793 -3.53889 -0.21617 198 205 206
-0.19662 -3.54340 -0.21573 199 193 193
-0.21529 -3.54791 -0.21530 198 196 192
-0.23393 -3.55242 -0.21487 187 190 188
-0.25255 -3.55691 -0.21444 188 189 188
-0.27114 -3.56141 -0.21400 192 191 193
-0.28971 -3.56589 -0.21357 186 182 186
-0.30826 -3.57037 -0.21314 189 194 191
-0.32678 -3.57484 -0.21271 187 197 187
-0.34527 -3.57931 -0.21228 191 196 191
-0.36375 -3.58378 -0.21186 195 199 192
-0.38220 -3.58823 -0.21143 183 189 184
-0.40062 -3.59268 -0.21100 175 178 179
-0.41902 -3.59713 -0.21057 174 173 176
-0.43740 -3.60157 -0.21015 182 178 176
-0.45575 -3.60600 -0.20972 189 187 181
-0.47408 -3.61043 -0.20930 185 185 183
-0.49239 -3.61485 -0.20887 186 186 185
-0.51067 -3.61927 -0.20845 188 190 189
-0.52893 -3.62368 -0.20802 181 182 184
-0.54716 -3.62808 -0.20760 173 176 173
-0.56537 -3.63248 -0.20718 171 172 172
-0.58356 -3.63687 -0.20676 175 167 172
-0.60173 -3.64126 -0.20633 183 178 183
-0.61987 -3.64564 -0.20591 187 185 184
-0.63798 -3.65002 -0.20549 184 181 183
-0.65608 -3.65439 -0.20507 176 177 170
-0.67415 -3.65876 -0.20465 171 171 164
-0.69220 -3.66312 -0.20423 172 177 167
-0.71022 -3.66747 -0.20382 187 186 175
-0.72822 -3.67182 -0.20340 178 183 167
-0.74620 -3.67616 -0.20298 168 179 169
-0.76415 -3.68050 -0.20256 164 176 174
-0.78209 -3.68483 -0.20215 164 170 160
-0.79999 -3.68916 -0.20173 176 175 172
-0.81788 -3.69348 -0.20132 176 185 180
-0.83574 -3.69779 -0.20090 185 188 178
-0.85358 -3.70210 -0.20049 177 177 175
-0.87140 -3.70641 -0.20008 169 164 171
-0.88920 -3.71070 -0.19966 172 174 178
-0.90697 -3.71500 -0.19925 176 177 183
-0.92472 -3.71929 -0.19884 180 183 179
-0.94244 -3.72357 -0.19843 165 175 167
-0.96015 -3.72784 -0.19802 171 185 164
-0.97783 -3.73212 -0.19761 172 175 172
-0.99549 -3.73638 -0.19720 186 185 183
-1.01313 -3.74064 -0.19679 173 175 171
-1.03074 -3.74490 -0.19638 168 181 174
-1.04833 -3.74915 -0.19597 185 195 188
-1.06590 -3.75339 -0.19556 179 175 185
-1.08345 -3.75763 -0.19516 168 165 172
-1.10097 -3.76186 -0.19475 183 187 180
-1.11848 -3.76609 -0.19434 188 190 176
-1.13596 -3.77031 -0.19394 167 174 159
-1.15342 -3.77453 -0.19353 164 168 152
-1.17085 -3.77874 -0.19313 178 182 176
-1.18827 -3.78295 -0.19272 175 178 173
-1.20566 -3.78715 -0.19232 175 176 175
-1.22303 -3.79135 -0.19192 182 187 180
-1.24038 -3.79554 -0.19151 182 180 169
-1.25771 -3.79972 -0.19111 176 169 168
-1.27501 -3.80390 -0.19071 170 170 174
-1.29229 -3.80808 -0.19031 170 176 175
-1.30956 -3.81225 -0.18991 169 176 171
-1.32680 -3.81641 -0.18951 162 168 167
-1.34401 -3.82057 -0.18911 154 161 170
-1.36121 -3.82473 -0.18871 158 160 170
-1.37838 -3.82887 -0.18831 164 166 161
-1.39554 -3.83302 -0.18791 156 159 154
-1.41267 -3.83716 -0.18752 149 160 153
-1.42978 -3.84129 -0.18712 152 163 157
-1.44687 -3.84542 -0.18672 165 172 177
-1.46394 -3.84954 -0.18633 163 170 178
-1.48098 -3.85366 -0.18593 158 171 176
-1.49801 -3.85777 -0.18554 154 163 159
-1.51501 -3.86188 -0.18514 160 165 167
-1.53199 -3.86598 -0.18475 153 159 164
-1.54896 -3.87008 -0.18435 166 175 161
-1.56590 -3.87417 -0.18396 173 177 166
-1.58281 -3.87826 -0.18357 152 162 171
-1.59971 -3.88234 -0.18318 159 160 173
-1.61659 -3.88642 -0.18278 159 168 169
-1.63345 -3.89049 -0.18239 156 163 164
-1.65028 -3.89455 -0.18200 156 160 168
-1.66710 -3.89862 -0.18161 168 180 180
-1.68389 -3.90267 -0.18122 151 160 172
-1.70066 -3.90672 -0.18083 160 161 166
-1.71741 -3.91077 -0.18044 161 170 160
-1.73414 -3.91481 -0.18006 162 171 169
-1.75085 -3.91885 -0.17967 163 165 173
-1.76754 -3.92288 -0.17928 180 181 172
-1.78421 -3.92691 -0.17889 160 163 153
-1.80086 -3.93093 -0.17851 155 162 162
-1.81749 -3.93495 -0.17812 161 164 160
-1.83410 -3.93896 -0.17774 158 163 153
-1.85068 -3.94296 -0.17735 142 154 154
-1.86725 -3.94697 -0.17697 153 165 160
-1.88380 -3.95096 -0.17658 171 172 159
-1.90032 -3.95495 -0.17620 169 162 155
-1.91683 -3.95894 -0.17582 157 156 151
-1.93331 -3.96292 -0.17543 155 156 152
-1.94978 -3.96690 -0.17505 156 160 156
-1.96622 -3.97087 -0.17467 155 166 159
-1.98264 -3.97484 -0.17429 162 177 160
-1.99905 -3.97880 -0.17391 169 180 153
-2.01543 -3.98276 -0.17353 159 167 156
-2.03180 -3.98671 -0.17315 153 165 170
-2.04814 -3.99066 -0.17277 163 171 166
-2.06447 -3.99461 -0.17239 162 165 160
-2.08077 -3.99854 -0.17201 152 156 154
-2.09705 -4.00248 -0.17163 140 145 139
-2.11332 -4.00641 -0.17126 142 150 153
-2.16199 -4.01816 -0.17013 141 148 145
-2.17818 -4.02207 -0.16975 144 150 149
1.17698 -3.19585 -0.26196 210 211 210
1.15654 -3.20080 -0.26148 207 209 209
1.13612 -3.20574 -0.26100 199 204 207
1.11574 -3.21068 -0.26051 207 211 212
1.09538 -3.21561 -0.26003 217 216 212
1.07505 -3.22053 -0.25955 218 217 215
1.05475 -3.22544 -0.25907 208 211 213
1.03448 -3.23035 -0.25859 208 209 204
1.01423 -3.23525 -0.25811 213 218 219
0.99402 -3.24015 -0.25763 211 223 212
0.97382 -3.24503 -0.25715 206 202 178
0.95366 -3.24991 -0.25668 203 203 205
0.93353 -3.25479 -0.25620 204 207 204
0.91342 -3.25966 -0.25572 206 210 210
0.89333 -3.26452 -0.25525 210 211 205
0.87328 -3.26937 -0.25477 212 219 206
0.85325 -3.27422 -0.25430 210 210 206
0.83325 -3.27906 -0.25382 210 210 202
0.81328 -3.28390 -0.25335 202 203 197
0.79333 -3.28873 -0.25288 208 206 208
0.77341 -3.29355 -0.25241 214 213 210
0.75352 -3.29837 -0.25194 218 220 216
0.73366 -3.30318 -0.25147 215 217 215
0.71382 -3.30798 -0.25100 208 206 208
0.69400 -3.31278 -0.25053 206 202 202
0.67422 -3.31756 -0.25006 204 209 210
0.65446 -3.32235 -0.24959 212 215 213
0.63473 -3.32713 -0.24912 214 214 216
0.61502 -3.33190 -0.24866 212 213 207
0.59534 -3.33666 -0.24819 206 204 196
0.57569 -3.34142 -0.24772 203 203 201
0.55606 -3.34617 -0.24726 208 211 214
0.53646 -3.35091 -0.24679 205 206 213
0.51689 -3.35565 -0.24633 210 207 212
0.49734 -3.36039 -0.24587 209 206 212
0.47782 -3.36511 -0.24541 216 218 213
0.45832 -3.36983 -0.24494 219 222 218
0.43885 -3.37455 -0.24448 211 214 208
0.41941 -3.37925 -0.24402 211 213 207
0.39999 -3.38395 -0.24356 213 214 207
0.38060 -3.38865 -0.24310 208 209 196
0.36123 -3.39334 -0.24264 198 198 196
0.34189 -3.39802 -0.24219 192 194 195
0.32257 -3.40269 -0.24173 196 209 203
0.30328 -3.40736 -0.24127 204 214 209
0.28402 -3.41203 -0.24082 201 206 196
0.26478 -3.41669 -0.24036 210 212 211
0.24557 -3.42134 -0.23990 205 206 210
0.22638 -3.42598 -0.23945 199 200 206
0.20722 -3.43062 -0.23900 199 206 202
0.18808 -3.43525 -0.23854 202 202 202
0.16897 -3.43988 -0.23809 196 198 203
0.14988 -3.44450 -0.23764 200 204 201
0.13082 -3.44912 -0.23719 212 210 208
0.11179 -3.45372 -0.23674 198 197 199
0.09278 -3.45833 -0.23629 192 190 187
0.07379 -3.46292 -0.23584 194 199 204
0.05483 -3.46751 -0.23539 198 191 186
0.03589 -3.47210 -0.23494 198 200 202
0.01698 -3.47667 -0.23449 199 194 187
-0.00190 -3.48125 -0.23404 202 205 192
-0.02076 -3.48581 -0.23360 191 199 199
-0.03960 -3.49037 -0.23315 186 192 185
-0.05841 -3.49493 -0.23271 193 197 195
-0.07720 -3.49948 -0.23226 193 198 209
-0.09596 -3.50402 -0.23182 191 191 197
-0.11470 -3.50855 -0.23137 193 193 193
-0.13341 -3.51308 -0.23093 195 204 191
-0.15210 -3.51761 -0.23049 200 203 200
-0.17077 -3.52213 -0.23004 202 203 201
-0.18941 -3.52664 -0.22960 200 201 198
-0.20802 -3.53115 -0.22916 198 196 195
-0.22662 -3.53565 -0.22872 198 198 192
-0.24518 -3.54014 -0.22828 188 191 189
-0.26373 -3.54463 -0.22784 188 193 187
-0.28225 -3.54911 -0.22740 193 188 187
-0.30074 -3.55359 -0.22697 190 187 188
-0.31921 -3.55806 -0.22653 192 201 196
-0.33766 -3.56253 -0.22609 184 193 184
-0.35608 -3.56699 -0.22565 183 188 186
-0.37448 -3.57144 -0.22522 188 191 187
-0.39286 -3.57589 -0.22478 181 184 178
-0.41121 -3.58034 -0.22435 180 187 184
-0.42954 -3.58477 -0.22391 188 190 186
-0.44784 -3.58920 -0.22348 191 191 184
-0.46612 -3.59363 -0.22305 189 193 184
-0.48438 -3.59805 -0.22262 187 188 185
-0.50261 -3.60246 -0.22218 186 186 188
-0.52082 -3.60687 -0.22175 187 188 188
-0.53901 -3.61127 -0.22132 185 186 182
-0.55717 -3.61567 -0.22089 174 180 173
-0.57531 -3.62006 -0.22046 171 174 175
-0.59343 -3.62445 -0.22003 179 180 182
-0.61152 -3.62883 -0.21960 187 189 190
-0.62959 -3.63320 -0.21918 183 185 190
-0.64764 -3.63757 -0.21875 175 177 183
-0.66566 -3.64194 -0.21832 171 171 173
-0.68366 -3.64629 -0.21790 174 169 169
-0.70164 -3.65065 -0.21747 174 180 179
-0.71959 -3.65499 -0.21705 180 177 172
-0.73752 -3.65933 -0.21662 175 174 165
-0.75543 -3.66367 -0.21620 166 169 168
-0.77332 -3.66800 -0.21577 173 183 180
-0.79118 -3.67232 -0.21535 168 177 172
-0.80902 -3.67664 -0.21493 173 179 175
-0.82684 -3.68095 -0.21451 169 172 182
-0.84463 -3.68526 -0.21408 180 181 176
-0.86240 -3.68956 -0.21366 174 183 177
-0.88015 -3.69386 -0.21324 161 156 155
-0.89788 -3.69815 -0.21282 170 182 180
-0.91558 -3.70244 -0.21240 181 173 178
-0.93326 -3.70672 -0.21198 169 174 170
-0.95092 -3.71099 -0.21157 170 173 164
-0.96856 -3.71526 -0.21115 187 198 184
-0.98617 -3.71953 -0.21073 189 189 183
-1.00376 -3.72379 -0.21031 186 190 184
-1.02133 -3.72804 -0.20990 185 187 178
-1.03888 -3.73229 -0.20948 174 177 179
-1.05640 -3.73653 -0.20907 185 190 184
-1.07391 -3.74077 -0.20865 172 165 182
-1.09139 -3.74500 -0.20824 160 168 174
-1.10885 -3.74923 -0.20783 169 174 174
-1.12628 -3.75345 -0.20741 179 177 177
-1.14370 -3.75766 -0.20700 167 176 171
-1.16109 -3.76187 -0.20659 164 169 154
-1.17846 -3.76608 -0.20618 179 189 175
-1.19581 -3.77028 -0.20577 185 189 179
-1.21314 -3.77447 -0.20536 182 186 178
-1.23044 -3.77866 -0.20495 175 183 182
-1.24773 -3.78285 -0.20454 175 181 177
-1.26499 -3.78703 -0.20413 171 176 173
-1.28223 -3.79120 -0.20372 156 161 167
-1.29945 -3.79537 -0.20331 160 171 174
-1.31664 -3.79953 -0.20290 172 183 178
-1.33382 -3.80369 -0.20250 163 169 167
-1.35097 -3.80784 -0.20209 146 155 168
-1.36810 -3.81199 -0.20169 148 159 170
-1.38521 -3.81613 -0.20128 164 171 168
-1.40230 -3.82027 -0.20088 164 165 167
-1.41937 -3.82440 -0.20047 164 172 166
-1.43642 -3.82853 -0.20007 160 171 167
-1.45345 -3.83265 -0.19966 161 166 165
-1.47045 -3.83677 -0.19926 160 157 160
-1.48743 -3.84088 -0.19886 161 156 167
-1.50440 -3.84498 -0.19846 157 162 162
-1.52134 -3.84909 -0.19806 169 180 166
-1.53826 -3.85318 -0.19766 174 184 175
-1.55515 -3.85727 -0.19726 188 191 185
-1.60573 -3.86951 -0.19606 167 162 152
-1.62254 -3.87359 -0.19566 170 163 165
-1.63934 -3.87765 -0.19526 171 164 157
-1.65611 -3.88171 -0.19486 162 167 160
-1.67286 -3.88577 -0.19447 162 172 174
-1.68959 -3.88982 -0.19407 150 162 174
-1.70631 -3.89386 -0.19368 158 169 163
-1.72300 -3.89790 -0.19328 158 166 156
-1.73967 -3.90194 -0.19288 159 158 155
-1.75632 -3.90597 -0.19249 167 162 155
-1.77295 -3.91000 -0.19210 178 179 171
-1.78955 -3.91402 -0.19170 170 173 163
-1.80614 -3.91803 -0.19131 163 168 158
-1.82271 -3.92204 -0.19092 164 168 161
-1.83926 -3.92605 -0.19053 162 170 165
-1.85578 -3.93005 -0.19013 162 165 170
-1.87229 -3.93405 -0.18974 167 171 173
-1.88878 -3.93804 -0.18935 177 183 164
-1.90524 -3.94202 -0.18896 173 171 155
-1.92169 -3.94601 -0.18857 150 159 144
-1.93812 -3.94998 -0.18818 146 159 145
-1.95452 -3.95395 -0.18780 156 163 157
-1.97091 -3.95792 -0.18741 169 169 165
-1.98727 -3.96188 -0.18702 169 170 164
-2.00362 -3.96584 -0.18663 159 169 155
-2.01994 -3.96979 -0.18625 152 165 151
-2.03625 -3.97374 -0.18586 150 164 164
-2.05254 -3.97768 -0.18547 149 160 167
-2.06880 -3.98162 -0.18509 149 152 161
-2.08505 -3.98555 -0.18470 152 155 154
-2.10128 -3.98948 -0.18432 151 154 139
-2.11748 -3.99341 -0.18394 157 163 157
-2.13367 -3.99732 -0.18355 169 180 173
1.15987 -3.18436 -0.27582 215 216 217
1.13952 -3.18930 -0.27532 212 218 216
1.11920 -3.19423 -0.27483 207 215 213
1.09890 -3.19916 -0.27434 210 211 211
1.07863 -3.20407 -0.27385 216 220 220
1.05839 -3.20898 -0.27336 219 222 220
1.03818 -3.21389 -0.27288 219 221 218
1.01799 -3.21878 -0.27239 215 215 212
0.99783 -3.22368 -0.27190 206 203 200
0.97770 -3.22856 -0.27141 207 202 204
0.95760 -3.23344 -0.27093 224 228 212
0.93752 -3.23831 -0.27044 216 213 213
0.91747 -3.24317 -0.26996 215 209 200
0.89745 -3.24803 -0.26948 216 226 219
0.87745 -3.25288 -0.26899 215 220 208
0.85748 -3.25773 -0.26851 206 214 207
0.83754 -3.26256 -0.26803 207 208 209
0.81763 -3.26740 -0.26755 212 211 209
0.79774 -3.27222 -0.26707 202 205 203
0.77788 -3.27704 -0.26659 207 209 211
0.75804 -3.28185 -0.26611 212 210 211
0.73824 -3.28666 -0.26563 213 211 209
0.71845 -3.29146 -0.26515 218 222 217
0.69870 -3.29625 -0.26467 206 201 211
0.67897 -3.30104 -0.26420 211 206 207
0.65927 -3.30581 -0.26372 211 211 209
0.63959 -3.31059 -0.26325 208 208 203
0.61994 -3.31536 -0.26277 208 207 207
0.60032 -3.32012 -0.26230 209 211 207
0.58072 -3.32487 -0.26182 208 206 194
0.56115 -3.32962 -0.26135 206 205 199
0.54161 -3.33436 -0.26088 205 208 212
0.52209 -3.33910 -0.26041 204 206 209
0.50260 -3.34383 -0.25994 208 207 204
0.48313 -3.34855 -0.25947 207 203 204
0.46369 -3.35326 -0.25900 219 218 216
0.44428 -3.35797 -0.25853 220 221 223
0.42489 -3.36268 -0.25806 212 216 216
0.40552 -3.36738 -0.25759 210 212 209
0.38619 -3.37207 -0.25712 203 207 196
0.36687 -3.37675 -0.25666 200 205 197
0.34759 -3.38143 -0.25619 200 206 204
0.32833 -3.38611 -0.25572 204 209 204
0.30909 -3.39077 -0.25526 196 208 214
0.28988 -3.39543 -0.25480 204 208 212
0.27070 -3.40009 -0.25433 204 207 205
0.25154 -3.40473 -0.25387 206 209 209
0.23241 -3.40938 -0.25341 207 205 207
0.21330 -3.41401 -0.25295 192 190 201
0.19421 -3.41864 -0.25248 191 190 196
0.17516 -3.42327 -0.25202 195 192 200
0.15612 -3.42788 -0.25156 198 202 204
0.13711 -3.43250 -0.25110 194 202 202
0.11813 -3.43710 -0.25065 208 201 203
0.09917 -3.44170 -0.25019 203 206 206
0.08024 -3.44629 -0.24973 190 193 195
0.06133 -3.45088 -0.24927 193 198 203
0.04245 -3.45546 -0.24882 192 182 198
0.02359 -3.46004 -0.24836 192 193 191
0.00476 -3.46461 -0.24791 198 195 192
-0.01405 -3.46917 -0.24745 210 217 205
-0.03284 -3.47373 -0.24700 191 197 194
-0.05160 -3.47828 -0.24655 192 197 189
-0.07034 -3.48283 -0.24609 191 189 187
-0.08905 -3.48737 -0.24564 183 188 196
-0.10773 -3.49190 -0.24519 183 193 193
-0.12640 -3.49643 -0.24474 194 199 197
-0.14503 -3.50095 -0.24429 195 201 192
-0.16365 -3.50546 -0.24384 196 197 197
-0.18224 -3.50997 -0.24339 198 198 194
-0.20080 -3.51448 -0.24294 198 195 184
-0.21935 -3.51898 -0.24249 198 198 189
-0.23786 -3.52347 -0.24204 196 195 186
-0.25636 -3.52796 -0.24160 191 192 187
-0.27483 -3.53244 -0.24115 191 193 188
-0.29327 -3.53691 -0.24071 196 196 191
-0.31169 -3.54138 -0.24026 196 201 198
-0.33009 -3.54585 -0.23982 197 207 200
-0.34846 -3.55030 -0.23937 192 197 188
-0.36681 -3.55475 -0.23893 182 184 183
-0.38514 -3.55920 -0.23849 184 186 180
-0.40344 -3.56364 -0.23804 190 190 176
-0.42172 -3.56808 -0.23760 193 196 188
-0.43998 -3.57251 -0.23716 198 203 201
-0.45821 -3.57693 -0.23672 194 197 199
-0.47642 -3.58135 -0.23628 187 190 189
-0.49460 -3.58576 -0.23584 189 188 186
-0.51277 -3.59016 -0.23540 187 188 189
-0.53090 -3.59457 -0.23496 184 186 185
-0.54902 -3.59896 -0.23453 182 184 176
-0.56711 -3.60335 -0.23409 173 181 172
-0.58518 -3.60773 -0.23365 171 180 180
-0.62125 -3.61648 -0.23278 189 188 188
-0.63925 -3.62085 -0.23235 184 179 186
-0.65722 -3.62521 -0.23191 174 177 179
-0.67518 -3.62957 -0.23148 161 165 166
-0.69311 -3.63392 -0.23105 174 170 167
-0.71101 -3.63826 -0.23061 184 187 188
-0.72890 -3.64260 -0.23018 180 185 174
-0.74676 -3.64693 -0.22975 180 179 161
-0.76460 -3.65126 -0.22932 180 175 164
-0.78242 -3.65559 -0.22889 185 186 181
-0.80021 -3.65990 -0.22846 174 174 177
-0.81798 -3.66421 -0.22803 171 178 172
-0.83573 -3.66852 -0.22760 176 183 184
-0.85345 -3.67282 -0.22717 182 185 179
-0.87116 -3.67711 -0.22674 183 182 175
-0.88884 -3.68140 -0.22632 166 170 166
-0.90650 -3.68569 -0.22589 174 187 178
-0.92413 -3.68997 -0.22546 179 175 172
-0.94175 -3.69424 -0.22504 170 172 166
-0.95934 -3.69851 -0.22461 167 167 158
-0.97691 -3.70277 -0.22419 178 185 170
-0.99445 -3.70703 -0.22376 179 189 171
-1.01198 -3.71128 -0.22334 179 185 183
-1.02948 -3.71553 -0.22292 189 193 185
-1.04696 -3.71977 -0.22250 178 176 181
-1.06442 -3.72400 -0.22207 173 175 176
-1.08186 -3.72823 -0.22165 179 180 176
-1.09927 -3.73246 -0.22123 181 185 171
-1.11666 -3.73668 -0.22081 168 167 173
-1.13403 -3.74089 -0.22039 167 168 173
-1.15138 -3.74510 -0.21997 162 173 173
-1.16871 -3.74931 -0.21955 171 180 170
-1.18602 -3.75350 -0.21914 186 192 184
-1.20330 -3.75770 -0.21872 193 200 189
-1.22056 -3.76188 -0.21830 183 191 188
-1.23780 -3.76607 -0.21788 171 175 186
-1.25502 -3.77024 -0.21747 173 181 179
-1.27222 -3.77442 -0.21705 174 184 173
-1.28939 -3.77858 -0.21664 161 165 161
-1.30655 -3.78275 -0.21622 159 163 163
-1.32368 -3.78690 -0.21581 163 171 174
-1.34079 -3.79105 -0.21540 154 159 172
-1.35788 -3.79520 -0.21498 150 161 172
-1.37495 -3.79934 -0.21457 157 179 171
-1.39200 -3.80348 -0.21416 169 180 170
-1.40902 -3.80761 -0.21375 173 176 170
-1.42603 -3.81173 -0.21334 162 167 168
-1.44301 -3.81585 -0.21293 153 164 173
-1.45998 -3.81997 -0.21252 163 169 165
-1.47692 -3.82408 -0.21211 162 164 157
-1.49384 -3.82818 -0.21170 168 165 164
-1.51074 -3.83228 -0.21129 172 172 169
-1.52762 -3.83638 -0.21088 184 188 165
-1.54448 -3.84047 -0.21047 176 177 172
-1.56131 -3.84455 -0.21007 180 171 182
-1.62845 -3.86084 -0.20845 164 166 165
-1.64518 -3.86490 -0.20804 162 168 154
-1.66190 -3.86896 -0.20764 162 175 172
-1.67859 -3.87301 -0.20723 165 173 178
-1.69526 -3.87705 -0.20683 148 165 167
-1.71191 -3.88109 -0.20643 157 179 162
-1.72854 -3.88513 -0.20603 156 164 155
-1.74515 -3.88916 -0.20563 158 161 154
-1.76174 -3.89318 -0.20523 168 163 158
-1.77831 -3.89720 -0.20482 177 186 179
-1.79486 -3.90122 -0.20443 176 184 172
-1.81139 -3.90523 -0.20403 162 162 161
-1.82790 -3.90923 -0.20363 157 170 177
-1.84438 -3.91323 -0.20323 157 171 172
-1.86085 -3.91723 -0.20283 166 175 175
-1.87730 -3.92122 -0.20243 176 176 172
-1.89373 -3.92520 -0.20204 179 180 165
-1.91013 -3.92918 -0.20164 172 174 160
-1.92652 -3.93316 -0.20124 157 162 159
-1.94289 -3.93713 -0.20085 147 157 155
-1.95924 -3.94110 -0.20045 158 171 169
-1.97556 -3.94506 -0.20006 168 170 177
-1.99187 -3.94901 -0.19966 168 167 177
-2.00816 -3.95296 -0.19927 166 173 175
-2.02443 -3.95691 -0.19888 164 167 163
-2.04067 -3.96085 -0.19849 162 160 159
-2.05690 -3.96479 -0.19809 155 158 162
-2.07311 -3.96872 -0.19770 155 156 163
-2.08930 -3.97265 -0.19731 164 168 167
-2.10547 -3.97657 -0.19692 168 174 168
-2.12162 -3.98049 -0.19653 165 174 174
-2.13775 -3.98441 -0.19614 162 169 174
1.14289 -3.17296 -0.28956 224 226 226
1.12263 -3.17789 -0.28906 217 222 218
1.10239 -3.18281 -0.28857 213 217 214
1.08219 -3.18772 -0.28807 209 212 209
1.06200 -3.19263 -0.28757 209 212 212
1.04185 -3.19753 -0.28707 213 213 215
1.02173 -3.20242 -0.28658 216 217 219
1.00163 -3.20731 -0.28608 218 218 214
0.98155 -3.21219 -0.28559 209 216 210
0.96151 -3.21706 -0.28509 209 214 201
0.94149 -3.22193 -0.28460 218 217 209
0.92150 -3.22679 -0.28411 222 222 218
0.90154 -3.23164 -0.28362 219 222 208
0.88160 -3.23649 -0.28313 202 201 209
0.86169 -3.24133 -0.28264 205 213 203
0.84181 -3.24616 -0.28215 206 210 198
0.82195 -3.25099 -0.28166 210 210 213
0.80212 -3.25581 -0.28117 210 212 211
0.78231 -3.26063 -0.28068 205 209 202
0.76254 -3.26544 -0.28019 199 201 207
0.74279 -3.27024 -0.27971 200 198 208
0.72306 -3.27503 -0.27922 204 204 206
0.70336 -3.27982 -0.27874 211 216 214
0.68369 -3.28461 -0.27825 200 199 207
0.66405 -3.28938 -0.27777 207 204 208
0.64443 -3.29415 -0.27728 209 210 214
0.62484 -3.29892 -0.27680 205 209 202
0.60527 -3.30367 -0.27632 208 208 200
0.58573 -3.30842 -0.27584 208 210 211
0.56621 -3.31317 -0.27536 207 206 198
0.54673 -3.31791 -0.27488 209 209 197
0.52726 -3.32264 -0.27440 207 208 204
0.50783 -3.32736 -0.27392 210 212 206
0.48841 -3.33208 -0.27344 210 213 206
0.46903 -3.33680 -0.27296 209 208 203
0.44967 -3.34150 -0.27249 218 218 216
0.43034 -3.34621 -0.27201 219 220 223
0.41103 -3.35090 -0.27153 221 224 223
0.39174 -3.35559 -0.27106 216 213 214
0.37249 -3.36027 -0.27058 211 206 196
0.35325 -3.36495 -0.27011 215 212 205
0.33405 -3.36962 -0.26964 215 219 221
0.31487 -3.37428 -0.26916 216 218 218
0.29571 -3.37894 -0.26869 202 202 216
0.27658 -3.38359 -0.26822 196 197 209
0.25747 -3.38823 -0.26775 198 204 205
0.23839 -3.39287 -0.26728 206 213 211
0.21934 -3.39751 -0.26681 213 210 210
0.20031 -3.40213 -0.26634 196 191 199
0.18130 -3.40675 -0.26587 191 193 197
0.16232 -3.41137 -0.26541 202 201 202
0.14337 -3.41598 -0.26494 203 204 203
0.12444 -3.42058 -0.26447 193 191 186
0.10553 -3.42518 -0.26401 203 197 191
0.08665 -3.42977 -0.26354 204 206 206
0.06779 -3.43435 -0.26308 192 190 195
0.04896 -3.43893 -0.26261 194 195 196
0.03016 -3.44350 -0.26215 197 195 199
0.01137 -3.44807 -0.26169 186 187 179
-0.00738 -3.45263 -0.26123 197 198 200
-0.02612 -3.45718 -0.26076 204 214 211
-0.04483 -3.46173 -0.26030 194 196 186
-0.06351 -3.46627 -0.25984 206 207 188
-0.08217 -3.47081 -0.25938 195 186 185
-0.10081 -3.47534 -0.25892 183 179 193
-0.11942 -3.47987 -0.25847 187 186 188
-0.13801 -3.48439 -0.25801 201 200 202
-0.15657 -3.48890 -0.25755 196 198 191
-0.17511 -3.49341 -0.25709 189 193 189
-0.19363 -3.49791 -0.25664 193 199 192
-0.21212 -3.50241 -0.25618 200 203 187
-0.23058 -3.50690 -0.25573 199 202 193
-0.24903 -3.51138 -0.25527 194 199 184
-0.26745 -3.51586 -0.25482 190 194 186
-0.28584 -3.52033 -0.25437 188 189 185
-0.30422 -3.52480 -0.25391 200 200 186
-0.32256 -3.52926 -0.25346 201 202 198
-0.34089 -3.53371 -0.25301 191 194 193
-0.35919 -3.53816 -0.25256 185 184 183
-0.37747 -3.54261 -0.25211 178 180 181
-0.39572 -3.54705 -0.25166 180 186 177
-0.41395 -3.55148 -0.25121 187 188 173
-0.43216 -3.55590 -0.25076 191 193 184
-0.45034 -3.56033 -0.25031 191 194 191
-0.46850 -3.56474 -0.24987 183 182 181
-0.48664 -3.56915 -0.24942 182 186 180
-0.50475 -3.57355 -0.24897 191 193 188
-0.52285 -3.57795 -0.24853 194 190 190
-0.54091 -3.58235 -0.24808 191 189 187
-0.55896 -3.58673 -0.24764 189 185 181
-0.57698 -3.59111 -0.24719 179 176 178
-0.59498 -3.59549 -0.24675 173 174 174
-0.66674 -3.61294 -0.24498 181 186 175
-0.68462 -3.61729 -0.24454 175 182 174
-0.70248 -3.62163 -0.24410 178 184 177
-0.72032 -3.62597 -0.24366 184 189 182
-0.73814 -3.63030 -0.24322 176 183 177
-0.75593 -3.63462 -0.24278 180 178 163
-0.77370 -3.63894 -0.24235 182 177 165
-0.79145 -3.64326 -0.24191 180 182 182
-0.80917 -3.64757 -0.24147 180 184 180
-0.82688 -3.65187 -0.24104 176 180 175
-0.84456 -3.65617 -0.24060 176 185 186
-0.86222 -3.66047 -0.24017 183 190 181
-0.87985 -3.66475 -0.23973 180 177 165
-0.89746 -3.66904 -0.23930 179 179 179
-0.91505 -3.67331 -0.23886 184 195 182
-0.93262 -3.67758 -0.23843 178 179 171
-0.95017 -3.68185 -0.23800 168 168 180
-0.96770 -3.68611 -0.23757 171 185 174
-0.98520 -3.69037 -0.23714 168 181 174
-1.00268 -3.69462 -0.23671 162 175 170
-1.02014 -3.69886 -0.23628 168 171 176
-1.03757 -3.70310 -0.23585 182 186 188
-1.05499 -3.70733 -0.23542 177 184 181
-1.07238 -3.71156 -0.23499 159 169 166
-1.08975 -3.71579 -0.23456 167 176 174
-1.10710 -3.72000 -0.23413 179 182 178
-1.12443 -3.72422 -0.23371 173 179 179
-1.14173 -3.72842 -0.23328 179 176 173
-1.15902 -3.73263 -0.23285 180 175 171
-1.17628 -3.73682 -0.23243 175 171 175
-1.19352 -3.74102 -0.23200 179 180 187
-1.21074 -3.74520 -0.23158 187 191 190
-1.22793 -3.74938 -0.23116 175 179 185
-1.24511 -3.75356 -0.23073 160 169 178
-1.26226 -3.75773 -0.23031 161 176 170
-1.27940 -3.76190 -0.22989 167 180 169
-1.29651 -3.76606 -0.22947 170 173 167
-1.31360 -3.77021 -0.22905 174 168 170
-1.33067 -3.77436 -0.22863 174 174 179
-1.34772 -3.77851 -0.22821 166 172 174
-1.36474 -3.78265 -0.22779 164 169 163
-1.38175 -3.78678 -0.22737 166 177 165
-1.39873 -3.79091 -0.22695 165 167 166
-1.41570 -3.79503 -0.22653 166 161 161
-1.43264 -3.79915 -0.22611 153 148 168
-1.44956 -3.80327 -0.22570 153 151 179
-1.48334 -3.81148 -0.22486 164 174 172
-1.50020 -3.81558 -0.22445 165 174 165
-1.51704 -3.81967 -0.22403 165 173 173
-1.53385 -3.82376 -0.22362 165 171 169
-1.55065 -3.82785 -0.22321 170 165 164
-1.56743 -3.83192 -0.22279 163 163 174
-1.65099 -3.85224 -0.22073 168 161 156
-1.66765 -3.85629 -0.22032 156 148 165
-1.68428 -3.86033 -0.21991 161 178 177
-1.70089 -3.86437 -0.21951 158 178 148
-1.71748 -3.86841 -0.21910 156 176 157
-1.73405 -3.87244 -0.21869 155 167 151
-1.75060 -3.87646 -0.21828 160 169 159
-1.76713 -3.88048 -0.21787 160 167 165
-1.78364 -3.88449 -0.21747 153 164 159
-1.80013 -3.88850 -0.21706 156 171 165
-1.81660 -3.89251 -0.21665 157 159 155
-1.83305 -3.89650 -0.21625 161 158 162
-1.84947 -3.90050 -0.21584 159 156 153
-1.86588 -3.90449 -0.21544 162 166 171
-1.88227 -3.90847 -0.21504 166 170 170
-1.89864 -3.91245 -0.21463 166 167 166
-1.91499 -3.91643 -0.21423 163 164 160
-1.93132 -3.92040 -0.21383 155 155 155
-1.94763 -3.92436 -0.21343 145 147 152
-1.96392 -3.92832 -0.21303 157 167 161
-1.98019 -3.93228 -0.21262 167 170 167
-1.99644 -3.93623 -0.21222 162 155 163
-2.01267 -3.94018 -0.21182 159 158 163
-2.02888 -3.94412 -0.21143 158 159 164
-2.04507 -3.94805 -0.21103 160 160 160
-2.06124 -3.95199 -0.21063 167 169 159
-2.07739 -3.95591 -0.21023 165 168 165
-2.09352 -3.95983 -0.20983 160 165 171
1.12604 -3.16164 -0.30321 220 225 223
1.10587 -3.16656 -0.30270 209 210 209
1.08572 -3.17147 -0.30219 211 214 204
1.06560 -3.17637 -0.30169 212 216 207
1.04550 -3.18127 -0.30118 207 213 208
1.02544 -3.18616 -0.30068 209 214 211
1.00540 -3.19104 -0.30018 216 219 221
0.98538 -3.19591 -0.29968 214 212 211
0.96540 -3.20078 -0.29917 210 209 210
0.94544 -3.20565 -0.29867 209 201 204
0.92550 -3.21050 -0.29817 212 209 205
0.90560 -3.21535 -0.29767 219 226 219
0.88572 -3.22020 -0.29717 214 218 214
0.86587 -3.22503 -0.29667 203 202 199
0.84604 -3.22986 -0.29618 201 203 194
0.82624 -3.23469 -0.29568 199 210 188
0.80647 -3.23951 -0.29518 215 218 219
0.78672 -3.24432 -0.29469 209 207 202
0.76700 -3.24912 -0.29419 213 216 209
0.74731 -3.25392 -0.29370 209 211 208
0.72764 -3.25871 -0.29320 201 202 205
0.70800 -3.26350 -0.29271 210 209 215
0.68839 -3.26828 -0.29222 206 214 218
0.66880 -3.27305 -0.29173 208 209 212
0.64924 -3.27782 -0.29124 206 208 212
0.62970 -3.28258 -0.29075 206 212 216
0.61019 -3.28733 -0.29026 207 213 209
0.59070 -3.29208 -0.28977 212 213 204
0.57124 -3.29682 -0.28928 214 218 215
0.55181 -3.30155 -0.28879 202 205 202
0.53240 -3.30628 -0.28830 201 204 197
0.51302 -3.31100 -0.28782 205 210 209
0.49367 -3.31572 -0.28733 214 222 211
0.47434 -3.32043 -0.28684 218 226 214
0.45503 -3.32513 -0.28636 214 213 208
0.43575 -3.32983 -0.28588 213 209 209
0.41650 -3.33452 -0.28539 209 210 211
0.39727 -3.33921 -0.28491 220 219 219
0.37806 -3.34389 -0.28443 216 215 213
0.35889 -3.34856 -0.28395 211 201 198
0.33973 -3.35322 -0.28347 216 212 203
0.32061 -3.35789 -0.28299 216 216 219
0.30150 -3.36254 -0.28251 216 217 216
0.28243 -3.36719 -0.28203 212 209 208
0.26337 -3.37183 -0.28155 206 208 206
0.24435 -3.37647 -0.28107 212 216 203
0.22535 -3.38110 -0.28059 212 215 209
0.20637 -3.38572 -0.28012 211 205 210
0.18742 -3.39034 -0.27964 210 207 197
0.16849 -3.39495 -0.27917 195 196 194
0.14958 -3.39955 -0.27869 195 197 199
0.13071 -3.40415 -0.27822 190 190 203
0.11185 -3.40875 -0.27774 198 201 199
0.09302 -3.41334 -0.27727 205 207 194
0.07422 -3.41792 -0.27680 198 192 194
0.05544 -3.42249 -0.27633 197 200 193
0.03668 -3.42706 -0.27586 194 187 185
0.01795 -3.43163 -0.27539 199 194 189
-0.00075 -3.43618 -0.27492 188 191 177
-0.01944 -3.44074 -0.27445 198 203 204
-0.03809 -3.44528 -0.27398 190 199 199
-0.05673 -3.44982 -0.27351 190 196 182
-0.07534 -3.45436 -0.27304 194 203 192
-0.09392 -3.45888 -0.27258 193 195 189
-0.11248 -3.46341 -0.27211 184 181 199
-0.13102 -3.46792 -0.27165 193 190 198
-0.14953 -3.47243 -0.27118 201 190 203
-0.16802 -3.47694 -0.27072 200 193 189
-0.18649 -3.48144 -0.27025 196 191 180
-0.20493 -3.48593 -0.26979 193 193 195
-0.22335 -3.49042 -0.26933 191 190 190
-0.24174 -3.49490 -0.26887 191 196 196
-0.26011 -3.49938 -0.26841 192 199 193
-0.27846 -3.50385 -0.26794 191 193 192
-0.29678 -3.50831 -0.26748 182 185 190
-0.31508 -3.51277 -0.26703 194 195 183
-0.33336 -3.51722 -0.26657 190 193 194
-0.35161 -3.52167 -0.26611 172 179 185
-0.36984 -3.52611 -0.26565 166 170 170
-0.38805 -3.53055 -0.26519 172 175 174
-0.40623 -3.53498 -0.26474 181 185 180
-0.42439 -3.53940 -0.26428 189 192 182
-0.44252 -3.54382 -0.26383 188 191 185
-0.46064 -3.54823 -0.26337 179 180 183
-0.47872 -3.55264 -0.26292 179 182 175
-0.49679 -3.55704 -0.26246 180 191 178
-0.51483 -3.56144 -0.26201 180 184 184
-0.53285 -3.56583 -0.26156 183 182 186
-0.55085 -3.57021 -0.26111 184 189 193
-0.56883 -3.57459 -0.26065 188 192 193
-0.58678 -3.57897 -0.26020 186 183 180
-0.67619 -3.60075 -0.25796 176 188 169
-0.69400 -3.60509 -0.25751 183 191 177
-0.71180 -3.60943 -0.25707 189 188 180
-0.72957 -3.61376 -0.25662 181 180 178
-0.74731 -3.61808 -0.25617 170 171 178
-0.76504 -3.62240 -0.25573 177 175 176
-0.78274 -3.62671 -0.25528 183 183 172
-0.80042 -3.63102 -0.25484 179 177 178
-0.81808 -3.63532 -0.25440 183 185 180
-0.83571 -3.63962 -0.25395 172 172 183
-0.85333 -3.64391 -0.25351 164 180 186
-0.87092 -3.64820 -0.25307 177 189 188
-0.88848 -3.65248 -0.25263 176 180 169
-0.90603 -3.65675 -0.25219 188 198 182
-0.92355 -3.66102 -0.25175 185 186 187
-0.94106 -3.66529 -0.25131 179 182 178
-0.95854 -3.66955 -0.25087 177 170 182
-0.97599 -3.67380 -0.25043 182 189 166
-0.99343 -3.67805 -0.24999 174 178 173
-1.01084 -3.68229 -0.24956 163 165 170
-1.02824 -3.68653 -0.24912 164 165 172
-1.04561 -3.69076 -0.24868 169 176 184
-1.06296 -3.69499 -0.24825 175 185 179
-1.08028 -3.69921 -0.24781 166 166 163
-1.09759 -3.70343 -0.24738 165 163 166
-1.11487 -3.70764 -0.24695 177 172 183
-1.13214 -3.71184 -0.24651 179 178 187
-1.14938 -3.71604 -0.24608 174 173 179
-1.16659 -3.72024 -0.24565 174 179 172
-1.18379 -3.72443 -0.24522 176 177 175
-1.20097 -3.72861 -0.24478 177 177 184
-1.21812 -3.73279 -0.24435 176 181 187
-1.23526 -3.73697 -0.24392 171 172 173
-1.25237 -3.74114 -0.24349 169 172 161
-1.26946 -3.74530 -0.24306 168 175 164
-1.28653 -3.74946 -0.24264 168 171 166
-1.30358 -3.75361 -0.24221 171 176 167
-1.32060 -3.75776 -0.24178 175 183 177
-1.33761 -3.76191 -0.24135 175 174 175
-1.35460 -3.76604 -0.24093 170 171 165
-1.37156 -3.77018 -0.24050 169 175 167
-1.38850 -3.77431 -0.24008 175 178 176
-1.40542 -3.77843 -0.23965 173 179 181
-1.48972 -3.79897 -0.23753 161 181 179
-1.50652 -3.80306 -0.23711 163 181 166
-1.67336 -3.84371 -0.23292 164 165 152
-1.68993 -3.84775 -0.23251 155 159 168
-1.70648 -3.85178 -0.23209 153 166 165
-1.72301 -3.85581 -0.23168 148 166 155
-1.73952 -3.85983 -0.23126 146 173 158
-1.78893 -3.87187 -0.23002 155 161 145
-1.80536 -3.87587 -0.22961 155 168 164
-1.82177 -3.87987 -0.22920 158 169 164
-1.83816 -3.88386 -0.22879 151 154 166
-1.85453 -3.88785 -0.22838 151 158 163
-1.87088 -3.89184 -0.22797 159 162 164
-1.88721 -3.89582 -0.22756 152 159 163
-1.90352 -3.89979 -0.22715 146 160 159
-1.91981 -3.90376 -0.22674 156 165 158
-1.93608 -3.90772 -0.22633 156 159 158
-1.95234 -3.91168 -0.22592 158 161 164
-1.96857 -3.91564 -0.22551 165 171 166
-1.98478 -3.91959 -0.22511 160 169 167
-2.00097 -3.92353 -0.22470 153 158 162
-2.01714 -3.92747 -0.22429 149 157 159
-2.03330 -3.93141 -0.22389 155 163 163
-2.04943 -3.93534 -0.22348 168 170 165
1.10932 -3.15041 -0.31675 223 219 218
1.08923 -3.15531 -0.31623 210 210 209
1.06917 -3.16021 -0.31572 215 218 207
1.04913 -3.16510 -0.31521 215 218 209
1.02912 -3.16999 -0.31470 209 213 209
1.00914 -3.17487 -0.31419 211 216 210
0.98919 -3.17974 -0.31368 220 224 218
0.96926 -3.18461 -0.31317 215 210 206
0.94936 -3.18947 -0.31266 213 211 209
0.92949 -3.19432 -0.31215 214 217 218
0.90964 -3.19916 -0.31164 210 219 222
0.88982 -3.20400 -0.31113 210 206 207
0.87002 -3.20884 -0.31063 206 204 206
0.85025 -3.21366 -0.31012 206 209 205
0.83051 -3.21848 -0.30962 202 212 203
0.81080 -3.22330 -0.30911 207 213 199
0.79111 -3.22810 -0.30861 218 218 211
0.77144 -3.23291 -0.30811 211 210 207
0.75181 -3.23770 -0.30761 213 215 213
0.73220 -3.24249 -0.30710 219 223 216
0.71261 -3.24727 -0.30660 205 214 211
0.69305 -3.25205 -0.30610 214 216 208
0.67352 -3.25681 -0.30560 206 211 199
0.65401 -3.26158 -0.30510 216 212 209
0.63453 -3.26633 -0.30461 210 211 210
0.61508 -3.27108 -0.30411 205 206 198
0.59565 -3.27583 -0.30361 205 210 206
0.57624 -3.28057 -0.30312 207 211 211
0.55687 -3.28530 -0.30262 218 224 220
0.53751 -3.29002 -0.30212 204 209 210
0.51819 -3.29474 -0.30163 200 204 207
0.49889 -3.29945 -0.30114 205 211 216
0.47961 -3.30416 -0.30064 212 218 212
0.46036 -3.30886 -0.30015 219 222 211
0.44113 -3.31355 -0.29966 223 220 210
0.42193 -3.31824 -0.29917 221 214 206
0.40276 -3.32292 -0.29868 207 201 195
0.38361 -3.32760 -0.29819 209 202 201
0.36449 -3.33227 -0.29770 209 207 202
0.34539 -3.33693 -0.29721 209 204 201
0.32631 -3.34159 -0.29672 216 211 204
0.30726 -3.34624 -0.29624 215 212 210
0.28824 -3.35089 -0.29575 211 213 209
0.26924 -3.35552 -0.29526 208 209 204
0.25027 -3.36016 -0.29478 209 209 205
0.23132 -3.36478 -0.29429 215 214 203
0.21239 -3.36940 -0.29381 213 218 209
0.19349 -3.37402 -0.29333 209 209 211
0.17462 -3.37863 -0.29284 212 207 203
0.15576 -3.38323 -0.29236 200 199 199
0.13694 -3.38783 -0.29188 191 192 196
0.11814 -3.39242 -0.29140 185 191 198
0.09936 -3.39700 -0.29092 190 195 201
0.08061 -3.40158 -0.29044 199 195 202
0.06188 -3.40615 -0.28996 200 202 209
0.04317 -3.41072 -0.28948 204 211 211
0.02449 -3.41528 -0.28900 198 197 193
0.00584 -3.41984 -0.28853 192 200 194
-0.01279 -3.42439 -0.28805 196 201 196
-0.03140 -3.42893 -0.28758 190 194 201
-0.04998 -3.43347 -0.28710 182 190 195
-0.06854 -3.43800 -0.28663 187 193 182
-0.08708 -3.44252 -0.28615 181 184 191
-0.10559 -3.44704 -0.28568 189 195 194
-0.12408 -3.45156 -0.28521 200 201 202
-0.14254 -3.45606 -0.28473 197 195 200
-0.16098 -3.46057 -0.28426 194 189 202
-0.17940 -3.46506 -0.28379 193 192 193
-0.19779 -3.46955 -0.28332 193 188 182
-0.21616 -3.47404 -0.28285 189 188 191
-0.23450 -3.47852 -0.28238 182 183 186
-0.25282 -3.48299 -0.28191 186 195 198
-0.27112 -3.48746 -0.28144 190 194 200
-0.28939 -3.49192 -0.28098 194 197 202
-0.30765 -3.49638 -0.28051 182 192 200
-0.32587 -3.50083 -0.28004 186 184 180
-0.34408 -3.50527 -0.27958 191 188 186
-0.36226 -3.50971 -0.27911 180 188 184
-0.38042 -3.51414 -0.27865 177 185 168
-0.39855 -3.51857 -0.27819 187 189 172
-0.41666 -3.52299 -0.27772 188 184 183
-0.43475 -3.52741 -0.27726 186 186 187
-0.45281 -3.53182 -0.27680 179 183 183
-0.47085 -3.53623 -0.27634 170 175 179
-0.48887 -3.54063 -0.27588 180 185 179
-0.50687 -3.54502 -0.27542 187 191 182
-0.52484 -3.54941 -0.27496 182 186 188
-0.54279 -3.55379 -0.27450 182 184 193
-0.56072 -3.55817 -0.27404 184 185 195
-0.57862 -3.56254 -0.27358 182 182 186
-0.59651 -3.56690 -0.27312 181 178 180
-0.68557 -3.58865 -0.27085 177 184 178
-0.70332 -3.59298 -0.27039 179 184 175
-0.72104 -3.59731 -0.26994 189 187 181
-0.73875 -3.60163 -0.26949 189 180 179
-0.75642 -3.60595 -0.26903 167 168 178
-0.77408 -3.61026 -0.26858 179 183 184
-0.79172 -3.61457 -0.26813 187 188 173
-0.80933 -3.61887 -0.26768 172 172 166
-0.82692 -3.62316 -0.26723 179 180 180
-0.84449 -3.62745 -0.26678 182 182 182
-0.86203 -3.63174 -0.26633 184 178 182
-0.87955 -3.63601 -0.26588 171 176 181
-0.89706 -3.64029 -0.26544 168 172 173
-0.91454 -3.64456 -0.26499 180 187 184
-0.93199 -3.64882 -0.26454 172 175 180
-0.94943 -3.65307 -0.26410 164 167 169
-0.96684 -3.65733 -0.26365 187 188 185
-0.98424 -3.66157 -0.26321 195 193 185
-1.00161 -3.66581 -0.26276 182 175 170
-1.01895 -3.67005 -0.26232 164 166 166
-1.03628 -3.67428 -0.26188 165 174 171
-1.05359 -3.67851 -0.26143 170 170 177
-1.07087 -3.68273 -0.26099 174 180 182
-1.08813 -3.68694 -0.26055 178 179 185
-1.10537 -3.69115 -0.26011 175 180 179
-1.12259 -3.69535 -0.25967 175 174 179
-1.13979 -3.69955 -0.25923 182 179 182
-1.15697 -3.70375 -0.25879 170 169 180
-1.17412 -3.70794 -0.25835 171 179 184
-1.19125 -3.71212 -0.25791 177 188 183
-1.20837 -3.71630 -0.25748 177 184 169
-1.22546 -3.72047 -0.25704 166 172 159
-1.24253 -3.72464 -0.25660 169 177 166
-1.25958 -3.72880 -0.25617 174 185 175
-1.27660 -3.73296 -0.25573 164 178 169
-1.29361 -3.73711 -0.25530 158 169 162
-1.31060 -3.74126 -0.25486 164 175 166
-1.32756 -3.74540 -0.25443 165 181 175
-1.34450 -3.74954 -0.25399 159 167 173
-1.36143 -3.75367 -0.25356 154 161 170
-1.37833 -3.75779 -0.25313 164 176 179
-1.39521 -3.76192 -0.25270 175 178 176
-1.41207 -3.76603 -0.25227 172 169 171
-1.42891 -3.77014 -0.25184 173 171 173
-1.44573 -3.77425 -0.25141 184 185 180
-1.46252 -3.77835 -0.25098 182 175 171
-1.49606 -3.78654 -0.25012 159 166 171
-1.51279 -3.79063 -0.24969 159 173 166
-1.52951 -3.79471 -0.24926 163 175 164
-1.69554 -3.83525 -0.24502 155 164 171
-1.71203 -3.83927 -0.24460 161 182 163
-1.72850 -3.84329 -0.24417 147 163 155
-1.74495 -3.84731 -0.24375 136 157 163
-1.84324 -3.87131 -0.24124 161 161 171
-1.85955 -3.87529 -0.24082 160 161 167
-1.87585 -3.87927 -0.24041 161 164 163
-1.89212 -3.88324 -0.23999 168 176 178
-1.90837 -3.88721 -0.23957 171 179 175
-1.92461 -3.89117 -0.23916 169 173 160
-1.94082 -3.89513 -0.23874 158 159 155
-1.95701 -3.89909 -0.23833 157 164 165
-1.97319 -3.90304 -0.23792 156 161 171
-1.98934 -3.90698 -0.23750 166 163 167
-2.00548 -3.91092 -0.23709 167 162 163
-2.02159 -3.91486 -0.23668 147 151 165
-2.03769 -3.91879 -0.23627 145 162 165
-2.05377 -3.92271 -0.23586 159 182 168
1.09272 -3.13926 -0.33019 216 216 221
1.07272 -3.14416 -0.32967 215 220 213
1.05274 -3.14904 -0.32915 217 218 216
1.03279 -3.15392 -0.32863 221 224 216
1.01287 -3.15880 -0.32811 213 214 209
0.99297 -3.16367 -0.32759 212 219 209
0.97310 -3.16853 -0.32707 217 222 211
0.95326 -3.17338 -0.32656 214 219 212
0.93344 -3.17823 -0.32604 207 212 209
0.91365 -3.18307 -0.32553 206 208 205
0.89389 -3.18791 -0.32501 213 214 217
0.87415 -3.19274 -0.32450 223 224 222
0.85444 -3.19756 -0.32398 220 225 220
0.83475 -3.20238 -0.32347 217 210 206
0.81510 -3.20719 -0.32296 200 198 201
