ply
format ascii 1.0
element face 0
property list uchar int vertex_indices
element vertex 1290
property float x
property float y
property float z
property uchar diffuse_red
property uchar diffuse_green
property uchar diffuse_blue
end_header
0.89049 -3.63477 2.06500 187 170 158
0.88265 -3.65317 2.06907 187 169 160
0.87477 -3.67166 2.07315 187 165 157
0.86685 -3.69025 2.07726 187 168 158
0.85889 -3.70893 2.08139 186 166 161
0.85089 -3.72771 2.08554 185 164 156
0.84284 -3.74659 2.08971 183 165 158
0.83476 -3.76556 2.09390 184 165 161
0.82663 -3.78464 2.09811 183 165 155
0.81846 -3.80381 2.10235 182 164 152
0.81025 -3.82309 2.10661 182 163 149
0.80199 -3.84246 2.11089 180 160 153
0.79369 -3.86194 2.11520 186 163 157
0.78535 -3.88153 2.11952 186 166 156
0.77696 -3.90121 2.12387 183 166 145
0.76853 -3.92101 2.12825 180 163 148
0.76005 -3.94090 2.13264 181 161 152
0.75153 -3.96091 2.13706 181 159 154
0.74296 -3.98102 2.14151 181 161 154
0.73434 -4.00124 2.14597 180 164 156
1.11926 -3.11453 1.93141 197 180 176
1.11253 -3.13035 1.93486 194 181 181
1.10578 -3.14625 1.93833 198 182 179
1.09899 -3.16222 1.94181 199 180 172
1.09217 -3.17827 1.94532 200 181 176
1.08531 -3.19440 1.94883 201 182 177
1.07843 -3.21060 1.95237 198 181 174
1.07151 -3.22688 1.95592 196 179 171
1.06455 -3.24324 1.95949 196 181 165
1.05757 -3.25968 1.96308 197 178 172
1.05054 -3.27620 1.96668 195 176 173
1.04349 -3.29281 1.97030 193 174 176
1.03640 -3.30949 1.97394 192 174 170
1.02927 -3.32625 1.97760 191 173 169
1.02211 -3.34310 1.98127 193 173 170
1.01492 -3.36003 1.98497 195 178 171
1.00769 -3.37704 1.98868 194 178 171
1.00042 -3.39414 1.99241 194 178 165
0.99312 -3.41132 1.99616 196 178 167
0.98578 -3.42859 1.99992 194 171 166
0.97840 -3.44594 2.00371 192 173 166
0.97099 -3.46338 2.00751 191 172 161
0.96354 -3.48091 2.01134 188 169 158
0.95605 -3.49853 2.01518 185 167 152
0.94853 -3.51623 2.01904 186 166 145
0.94097 -3.53403 2.02293 188 165 158
0.93336 -3.55191 2.02683 186 165 154
0.92572 -3.56989 2.03075 185 165 157
0.91805 -3.58795 2.03469 186 170 164
0.91033 -3.60611 2.03865 188 171 160
0.90257 -3.62436 2.04263 187 171 159
0.89477 -3.64271 2.04664 188 171 152
0.88694 -3.66115 2.05066 187 169 157
0.87906 -3.67968 2.05470 187 169 156
0.87114 -3.69832 2.05877 185 169 156
0.86318 -3.71704 2.06285 182 169 156
0.85518 -3.73587 2.06696 182 164 147
0.84714 -3.75479 2.07109 184 163 154
0.83905 -3.77381 2.07524 183 162 157
0.83093 -3.79293 2.07941 182 165 152
0.82276 -3.81215 2.08360 182 166 149
0.81454 -3.83148 2.08782 181 164 145
0.80629 -3.85090 2.09205 180 161 140
0.79799 -3.87043 2.09631 183 163 153
0.78965 -3.89006 2.10060 184 166 154
0.78126 -3.90980 2.10490 182 165 147
0.77283 -3.92964 2.10923 179 163 148
0.76435 -3.94958 2.11358 183 160 148
1.12350 -3.12128 1.91422 191 177 174
1.11678 -3.13713 1.91764 195 183 179
1.11003 -3.15307 1.92107 201 184 178
1.10324 -3.16907 1.92451 199 181 174
1.09642 -3.18516 1.92798 197 182 179
1.08957 -3.20132 1.93146 201 183 179
1.08269 -3.21756 1.93496 199 181 174
1.07577 -3.23388 1.93847 195 180 174
1.06882 -3.25028 1.94200 194 180 171
1.06183 -3.26675 1.94555 196 179 173
1.05481 -3.28331 1.94912 197 176 166
1.04776 -3.29995 1.95270 194 175 170
1.04067 -3.31667 1.95630 194 174 167
1.03355 -3.33347 1.95992 190 173 162
1.02639 -3.35036 1.96355 193 174 157
1.01919 -3.36732 1.96721 195 179 168
1.01196 -3.38438 1.97088 193 179 172
1.00470 -3.40151 1.97457 194 180 170
0.99740 -3.41873 1.97828 197 179 177
0.99006 -3.43604 1.98201 195 174 182
0.98269 -3.45344 1.98575 192 174 169
0.97528 -3.47092 1.98952 193 174 162
0.96783 -3.48849 1.99330 190 171 157
0.96034 -3.50614 1.99710 185 169 152
0.95282 -3.52389 2.00092 186 166 149
0.94526 -3.54173 2.00476 189 167 157
0.93766 -3.55965 2.00863 187 166 156
0.93002 -3.57767 2.01251 184 165 160
0.92234 -3.59578 2.01641 186 167 163
0.91462 -3.61398 2.02032 191 169 162
0.90687 -3.63228 2.02426 188 170 166
0.89907 -3.65067 2.02822 188 170 158
0.89124 -3.66915 2.03221 186 170 162
0.88336 -3.68773 2.03621 188 171 161
0.87544 -3.70640 2.04023 187 170 156
0.86748 -3.72518 2.04427 185 169 152
0.85948 -3.74405 2.04833 185 166 150
0.85144 -3.76302 2.05242 185 166 153
0.84336 -3.78208 2.05653 184 165 152
0.83523 -3.80125 2.06065 183 166 153
0.82706 -3.82052 2.06480 182 166 155
0.81885 -3.83989 2.06897 183 167 157
0.80230 -3.87894 2.07738 181 162 157
0.79395 -3.89862 2.08162 184 165 156
1.14773 -3.08082 1.88696 198 178 175
1.14110 -3.09649 1.89029 194 175 176
1.13445 -3.11223 1.89363 193 173 171
1.12776 -3.12804 1.89699 192 176 170
1.12104 -3.14393 1.90037 195 181 176
1.11429 -3.15990 1.90376 199 183 179
1.10750 -3.17594 1.90717 198 182 176
1.10069 -3.19206 1.91060 195 183 178
1.09384 -3.20826 1.91404 198 184 174
1.08695 -3.22454 1.91750 197 183 169
1.08004 -3.24089 1.92098 196 179 173
1.07309 -3.25733 1.92447 195 181 170
1.06610 -3.27384 1.92798 196 179 167
1.05909 -3.29044 1.93151 197 176 157
1.05203 -3.30711 1.93505 195 175 167
1.04495 -3.32387 1.93861 194 175 166
1.03783 -3.34071 1.94219 193 172 161
1.03067 -3.35763 1.94579 193 172 157
1.02348 -3.37464 1.94940 194 176 167
1.01625 -3.39173 1.95304 196 178 172
1.00899 -3.40891 1.95669 196 179 178
1.00169 -3.42617 1.96036 199 178 179
0.99435 -3.44352 1.96404 195 176 180
0.98698 -3.46095 1.96775 193 175 170
0.97957 -3.47847 1.97147 195 174 165
0.97212 -3.49608 1.97522 192 172 160
0.96464 -3.51378 1.97898 189 170 155
0.95712 -3.53157 1.98276 186 168 155
0.94956 -3.54944 1.98656 187 169 155
0.94196 -3.56741 1.99038 189 168 151
0.93432 -3.58547 1.99422 184 165 158
0.92665 -3.60363 1.99807 187 165 155
0.91893 -3.62187 2.00195 187 168 161
0.91118 -3.64021 2.00585 187 170 165
0.90338 -3.65864 2.00977 187 170 161
0.89555 -3.67717 2.01371 185 169 161
0.88767 -3.69579 2.01766 190 168 157
0.87975 -3.71451 2.02164 189 168 155
0.87180 -3.73333 2.02564 187 168 155
0.86380 -3.75225 2.02966 188 168 164
0.85576 -3.77126 2.03370 187 169 155
0.84767 -3.79038 2.03777 183 168 150
0.83955 -3.80959 2.04185 183 167 152
0.83138 -3.82891 2.04596 183 165 150
1.15858 -3.07187 1.86652 196 178 172
1.15199 -3.08750 1.86980 193 175 171
1.14536 -3.10320 1.87309 192 175 171
1.13871 -3.11897 1.87640 194 174 168
1.13202 -3.13482 1.87972 196 175 162
1.12531 -3.15075 1.88306 194 174 167
1.11856 -3.16675 1.88642 197 184 184
1.11177 -3.18283 1.88979 198 184 176
1.10496 -3.19898 1.89318 197 183 174
1.09811 -3.21522 1.89658 197 183 172
1.09123 -3.23153 1.90001 196 182 171
1.08432 -3.24792 1.90344 197 180 173
1.07737 -3.26439 1.90690 196 180 169
1.07039 -3.28095 1.91037 195 178 167
1.06337 -3.29758 1.91386 197 177 160
1.05632 -3.31429 1.91736 194 176 169
1.04924 -3.33109 1.92089 193 174 166
1.04212 -3.34797 1.92443 193 173 163
1.03496 -3.36493 1.92798 193 172 164
1.02777 -3.38197 1.93156 192 174 169
1.02055 -3.39910 1.93515 197 176 173
1.01329 -3.41632 1.93876 197 177 176
1.00599 -3.43362 1.94239 197 177 176
0.99866 -3.45101 1.94604 194 177 177
0.99129 -3.46848 1.94970 194 175 173
0.98388 -3.48604 1.95339 193 175 170
0.97643 -3.50369 1.95709 192 176 162
0.96895 -3.52143 1.96081 192 169 158
0.96143 -3.53926 1.96455 185 168 158
0.95387 -3.55718 1.96831 186 168 160
0.94627 -3.57519 1.97208 191 168 151
0.93864 -3.59330 1.97588 184 167 156
0.93096 -3.61149 1.97970 188 167 156
0.92325 -3.62978 1.98353 185 168 162
0.91549 -3.64816 1.98739 186 171 161
0.90770 -3.66664 1.99126 187 169 156
0.89987 -3.68521 1.99516 188 168 161
0.89199 -3.70388 1.99907 189 165 160
0.88408 -3.72264 2.00301 188 167 158
0.87612 -3.74151 2.00696 186 167 145
0.86812 -3.76047 2.01094 184 169 160
0.86008 -3.77953 2.01494 185 169 156
0.85200 -3.79869 2.01896 184 167 155
1.16940 -3.06295 1.84613 196 177 170
1.16284 -3.07853 1.84936 197 178 171
1.15625 -3.09419 1.85260 195 177 170
1.14963 -3.10993 1.85585 194 176 168
1.14298 -3.12573 1.85912 196 174 165
1.13630 -3.14162 1.86241 198 173 159
1.12958 -3.15758 1.86571 193 171 161
1.12284 -3.17362 1.86903 195 180 176
1.11606 -3.18973 1.87237 197 183 174
1.10924 -3.20592 1.87572 198 182 173
1.10240 -3.22219 1.87908 197 182 171
1.09552 -3.23854 1.88247 196 180 176
1.08861 -3.25497 1.88587 198 179 180
1.08166 -3.27148 1.88928 196 179 168
1.07468 -3.28807 1.89272 194 177 166
1.06767 -3.30474 1.89616 196 177 165
1.06062 -3.32149 1.89963 194 176 166
1.05354 -3.33832 1.90311 194 173 160
1.04642 -3.35524 1.90662 193 172 163
1.03927 -3.37224 1.91013 193 173 166
1.03208 -3.38932 1.91367 190 173 170
1.02486 -3.40649 1.91722 195 174 172
1.01760 -3.42375 1.92079 195 177 170
1.01030 -3.44109 1.92438 195 178 170
1.00297 -3.45852 1.92799 197 178 173
0.99560 -3.47603 1.93161 195 176 170
0.98819 -3.49363 1.93525 193 176 168
0.98075 -3.51133 1.93891 193 178 161
0.97327 -3.52911 1.94259 192 170 158
0.96575 -3.54698 1.94629 188 168 154
0.95819 -3.56494 1.95001 187 168 152
0.95060 -3.58299 1.95374 188 168 154
0.94296 -3.60114 1.95750 185 167 157
0.93529 -3.61938 1.96127 188 166 160
0.92758 -3.63771 1.96506 187 167 165
0.91982 -3.65613 1.96888 188 169 160
0.91203 -3.67466 1.97271 186 167 159
0.90420 -3.69327 1.97656 190 168 161
0.89633 -3.71199 1.98043 188 166 159
0.88841 -3.73080 1.98433 188 171 154
0.88046 -3.74970 1.98824 187 169 146
0.87246 -3.76871 1.99217 186 170 155
0.86442 -3.78782 1.99613 185 169 161
1.19959 -3.00784 1.81636 195 179 164
1.19315 -3.02317 1.81949 194 178 160
1.18669 -3.03857 1.82263 194 179 157
1.18020 -3.05404 1.82579 198 178 163
1.17367 -3.06959 1.82897 197 176 167
1.16712 -3.08521 1.83215 196 177 171
1.16053 -3.10090 1.83536 196 177 171
1.15391 -3.11667 1.83858 196 176 171
1.14727 -3.13251 1.84181 197 175 171
1.14058 -3.14843 1.84506 196 173 163
1.13387 -3.16443 1.84833 190 172 158
1.12713 -3.18050 1.85161 193 178 159
1.12035 -3.19665 1.85490 196 181 171
1.11354 -3.21288 1.85821 197 182 175
1.10670 -3.22918 1.86154 196 182 167
1.09982 -3.24557 1.86489 194 178 172
1.09291 -3.26203 1.86825 195 178 175
1.08597 -3.27858 1.87163 196 177 171
1.07899 -3.29521 1.87502 195 176 172
1.07198 -3.31191 1.87843 195 176 168
1.06493 -3.32870 1.88186 198 176 164
1.05785 -3.34557 1.88530 197 173 159
1.05074 -3.36253 1.88876 195 173 164
1.04358 -3.37957 1.89224 195 173 165
1.03640 -3.39669 1.89573 193 174 169
1.02918 -3.41390 1.89925 196 173 174
1.02192 -3.43120 1.90278 196 178 168
1.01462 -3.44858 1.90632 197 180 173
1.00729 -3.46605 1.90989 197 179 180
0.99993 -3.48360 1.91347 196 178 167
0.99252 -3.50124 1.91707 194 177 163
0.98508 -3.51898 1.92069 194 178 160
0.97760 -3.53680 1.92433 193 174 155
0.97008 -3.55471 1.92799 191 169 152
0.96253 -3.57272 1.93166 186 169 151
0.95493 -3.59081 1.93536 186 168 156
0.94730 -3.60900 1.93907 184 165 156
0.93963 -3.62728 1.94280 189 164 155
0.93192 -3.64566 1.94655 189 166 162
0.92417 -3.66413 1.95032 190 166 159
0.91637 -3.68269 1.95411 188 167 164
0.90854 -3.70135 1.95792 188 169 165
1.20386 -3.01436 1.79930 192 178 161
1.19743 -3.02972 1.80240 194 180 164
1.19097 -3.04515 1.80550 197 180 165
1.18448 -3.06066 1.80862 197 177 163
1.17796 -3.07624 1.81176 196 176 165
1.17140 -3.09190 1.81491 195 177 170
1.16482 -3.10762 1.81808 196 178 176
1.15821 -3.12343 1.82126 196 178 173
1.15156 -3.13931 1.82446 196 177 171
1.14488 -3.15526 1.82767 196 173 166
1.13817 -3.17129 1.83089 193 172 161
1.13143 -3.18740 1.83414 195 175 158
1.12465 -3.20358 1.83740 197 179 169
1.11784 -3.21985 1.84067 196 182 175
1.11100 -3.23619 1.84396 191 177 167
1.07630 -3.31911 1.86065 193 176 169
1.06925 -3.33593 1.86404 197 176 165
1.06217 -3.35284 1.86744 196 175 165
1.05506 -3.36984 1.87086 197 173 166
1.04791 -3.38692 1.87430 197 173 163
1.04073 -3.40408 1.87776 193 174 163
1.03351 -3.42133 1.88123 195 175 170
1.02625 -3.43866 1.88472 197 178 168
1.01896 -3.45608 1.88822 198 181 172
1.01163 -3.47359 1.89175 197 179 176
1.00426 -3.49119 1.89529 197 177 165
0.99686 -3.50887 1.89885 196 176 159
0.98942 -3.52665 1.90243 195 177 164
0.98194 -3.54451 1.90603 194 176 159
0.97443 -3.56247 1.90964 193 170 157
0.96687 -3.58051 1.91327 189 169 156
0.95928 -3.59865 1.91692 189 168 159
0.95165 -3.61688 1.92059 186 166 156
0.94398 -3.63521 1.92428 188 165 157
0.93627 -3.65363 1.92799 187 166 166
0.92852 -3.67214 1.93172 188 166 159
0.92073 -3.69075 1.93546 186 167 161
0.91290 -3.70946 1.93923 186 170 161
1.19526 -3.05176 1.78833 198 177 167
1.18877 -3.06730 1.79141 197 175 163
1.18225 -3.08291 1.79451 197 176 165
1.17570 -3.09860 1.79763 196 177 169
1.16912 -3.11436 1.80076 195 178 176
1.16251 -3.13020 1.80390 194 178 170
1.15586 -3.14611 1.80706 196 178 165
1.14919 -3.16210 1.81023 197 175 166
1.14248 -3.17817 1.81342 196 171 168
1.13574 -3.19431 1.81663 196 172 165
1.12896 -3.21054 1.81985 196 174 167
1.12216 -3.22684 1.82308 196 178 170
1.07358 -3.34318 1.84618 194 178 165
1.06651 -3.36013 1.84954 194 177 166
1.05939 -3.37717 1.85292 198 174 167
1.05225 -3.39428 1.85632 198 174 164
1.04506 -3.41148 1.85973 194 174 162
1.03785 -3.42877 1.86316 194 175 167
1.03059 -3.44615 1.86661 197 180 168
1.02330 -3.46361 1.87008 199 184 170
1.01597 -3.48116 1.87356 198 180 175
1.00861 -3.49880 1.87706 197 179 171
1.00121 -3.51652 1.88058 196 178 169
0.99377 -3.53434 1.88412 194 176 170
0.98629 -3.55224 1.88767 195 177 166
0.97878 -3.57024 1.89125 192 171 156
0.97123 -3.58833 1.89484 189 167 155
0.96364 -3.60651 1.89844 189 167 159
0.95601 -3.62479 1.90207 186 168 156
0.94834 -3.64315 1.90572 186 167 154
0.94063 -3.66162 1.90938 185 166 158
0.93288 -3.68018 1.91307 188 165 159
0.92509 -3.69883 1.91677 186 167 159
0.91726 -3.71758 1.92049 187 168 159
1.18001 -3.10532 1.78030 197 177 167
1.17343 -3.12112 1.78339 195 179 172
1.16682 -3.13699 1.78650 195 180 168
1.16018 -3.15294 1.78962 198 177 160
1.15350 -3.16896 1.79276 198 177 166
1.14680 -3.18507 1.79591 198 173 169
1.14006 -3.20125 1.79907 195 173 165
1.13329 -3.21750 1.80226 194 173 160
1.12648 -3.23384 1.80545 194 177 163
1.07085 -3.36744 1.83159 196 178 166
1.06374 -3.38451 1.83494 200 177 169
1.05659 -3.40167 1.83829 197 177 167
1.04941 -3.41891 1.84167 196 177 164
1.04220 -3.43624 1.84506 192 176 164
1.03494 -3.45365 1.84847 198 179 165
1.02766 -3.47115 1.85189 202 184 170
1.02033 -3.48874 1.85533 199 181 177
1.01297 -3.50642 1.85879 198 179 173
1.00557 -3.52419 1.86227 197 179 168
0.99813 -3.54205 1.86576 194 177 171
0.99066 -3.55999 1.86927 194 179 169
0.98315 -3.57803 1.87280 192 174 159
0.97559 -3.59617 1.87635 190 170 157
0.96801 -3.61439 1.87992 190 168 157
0.96038 -3.63271 1.88350 186 167 154
0.95271 -3.65112 1.88711 187 167 151
0.94500 -3.66963 1.89073 186 165 148
0.93725 -3.68823 1.89437 186 164 154
0.92947 -3.70693 1.89803 186 166 157
0.92164 -3.72573 1.90170 189 166 157
1.17114 -3.14380 1.76906 196 181 165
1.16450 -3.15978 1.77214 200 179 159
1.15783 -3.17584 1.77524 199 176 168
1.15113 -3.19198 1.77835 200 175 171
1.14439 -3.20819 1.78148 197 175 167
1.13762 -3.22449 1.78462 194 172 160
1.13082 -3.24086 1.78778 194 173 162
1.06809 -3.39187 1.81691 199 179 175
1.06095 -3.40907 1.82022 196 180 172
1.05377 -3.42635 1.82356 198 182 170
1.04656 -3.44372 1.82691 195 179 167
1.03931 -3.46117 1.83027 198 176 167
1.03202 -3.47872 1.83365 200 181 170
1.02470 -3.49635 1.83706 199 180 176
1.01734 -3.51407 1.84047 200 178 173
1.00994 -3.53188 1.84391 198 180 168
1.00251 -3.54977 1.84736 195 179 172
0.99503 -3.56776 1.85083 194 178 169
0.98752 -3.58585 1.85432 193 176 163
0.97997 -3.60402 1.85782 190 172 161
0.97238 -3.62229 1.86135 189 170 156
0.96476 -3.64065 1.86489 186 165 152
0.95709 -3.65911 1.86845 186 167 152
0.94939 -3.67766 1.87202 186 165 147
0.94164 -3.69631 1.87562 184 165 148
0.93385 -3.71505 1.87924 186 166 156
0.92603 -3.73389 1.88287 189 167 156
1.16217 -3.18273 1.75768 195 173 171
1.15546 -3.19891 1.76076 198 174 176
1.14873 -3.21516 1.76384 196 176 173
1.14197 -3.23149 1.76695 194 174 161
1.13517 -3.24790 1.77007 191 168 160
1.06532 -3.41649 1.80211 197 182 173
1.05814 -3.43381 1.80540 200 184 173
1.05093 -3.45122 1.80871 198 182 172
1.04368 -3.46871 1.81203 196 179 169
1.03640 -3.48630 1.81537 198 180 169
1.02908 -3.50397 1.81873 200 181 178
1.02172 -3.52173 1.82211 200 181 175
1.01432 -3.53958 1.82550 198 179 169
1.00689 -3.55752 1.82891 197 180 173
0.99942 -3.57556 1.83234 195 178 169
0.99191 -3.59368 1.83578 193 179 166
0.98436 -3.61190 1.83925 189 173 165
0.97678 -3.63021 1.84273 187 171 160
0.96915 -3.64861 1.84622 185 164 152
0.96148 -3.66711 1.84974 185 169 154
0.95378 -3.68571 1.85327 185 167 149
0.94604 -3.70440 1.85683 183 164 145
0.93825 -3.72319 1.86040 185 166 155
1.06252 -3.44129 1.78720 198 184 173
1.05531 -3.45874 1.79047 199 184 174
1.04807 -3.47627 1.79375 197 183 171
1.04079 -3.49390 1.79705 199 182 170
1.03347 -3.51161 1.80037 201 181 178
1.02611 -3.52941 1.80370 200 183 178
1.01872 -3.54731 1.80705 197 181 172
1.01128 -3.56529 1.81042 197 179 173
1.00381 -3.58336 1.81380 194 178 172
0.99631 -3.60153 1.81720 192 178 172
0.98876 -3.61979 1.82062 190 173 167
0.98118 -3.63815 1.82406 188 170 158
0.97355 -3.65660 1.82751 184 167 146
0.96589 -3.67514 1.83098 185 170 154
0.95819 -3.69378 1.83447 186 167 150
1.06692 -3.44879 1.76895 194 181 173
1.05971 -3.46627 1.77218 199 185 178
1.05246 -3.48385 1.77542 200 185 175
1.04518 -3.50152 1.77868 202 183 171
1.03787 -3.51927 1.78195 202 182 174
1.03051 -3.53711 1.78524 200 183 182
1.02312 -3.55505 1.78855 198 182 176
1.01569 -3.57308 1.79187 196 179 173
1.00822 -3.59119 1.79522 195 177 169
1.00072 -3.60940 1.79857 192 176 164
0.99317 -3.62771 1.80195 193 172 168
0.98559 -3.64611 1.80534 189 169 160
0.97797 -3.66460 1.80875 187 168 148
0.97031 -3.68319 1.81218 186 168 154
1.07132 -3.45630 1.75066 193 179 172
1.06411 -3.47383 1.75385 198 185 182
1.05687 -3.49145 1.75704 201 188 184
1.04959 -3.50915 1.76026 205 185 173
1.04228 -3.52695 1.76349 204 183 171
1.03492 -3.54484 1.76674 203 185 179
1.02753 -3.56281 1.77001 201 182 175
1.02011 -3.58088 1.77329 198 178 175
1.01264 -3.59904 1.77658 195 178 171
1.00514 -3.61730 1.77990 192 176 161
0.99759 -3.63564 1.78323 192 172 169
1.07573 -3.46384 1.73233 194 176 171
1.06853 -3.48141 1.73547 199 184 181
1.06129 -3.49906 1.73862 203 189 184
1.05401 -3.51681 1.74180 208 186 172
1.04670 -3.53465 1.74499 207 184 172
1.03935 -3.55258 1.74819 204 185 171
1.03196 -3.57060 1.75141 203 184 174
1.02453 -3.58871 1.75465 199 180 173
1.01707 -3.60691 1.75791 195 178 170
0.90035 -3.89159 1.80880 184 167 153
0.89224 -3.91138 1.81234 183 167 156
0.88408 -3.93127 1.81590 182 165 158
1.07296 -3.48900 1.71704 201 182 178
1.06572 -3.50670 1.72016 205 189 182
1.05844 -3.52449 1.72329 209 186 177
1.05113 -3.54237 1.72643 209 185 178
1.04378 -3.56034 1.72960 206 186 174
1.03640 -3.57840 1.73277 204 188 176
1.02897 -3.59655 1.73597 200 183 170
1.02151 -3.61480 1.73918 195 179 165
1.01401 -3.63314 1.74241 190 177 167
0.91288 -3.88044 1.78592 183 167 158
0.90482 -3.90017 1.78940 184 166 152
0.89670 -3.92001 1.79289 183 165 152
0.88855 -3.93995 1.79640 183 165 151
0.88035 -3.96000 1.79992 182 165 156
1.08459 -3.47896 1.69552 199 176 180
1.07739 -3.49661 1.69857 205 184 183
1.04085 -3.58622 1.71409 204 190 178
1.03342 -3.60442 1.71724 199 184 171
1.02596 -3.62271 1.72041 194 180 163
1.01847 -3.64109 1.72359 190 175 165
1.01093 -3.65957 1.72679 186 171 166
1.00335 -3.67815 1.73001 185 171 166
0.91736 -3.88899 1.76651 182 165 151
0.90929 -3.90877 1.76994 183 167 150
0.90118 -3.92866 1.77338 182 164 153
0.89303 -3.94865 1.77684 184 166 153
0.88483 -3.96875 1.78032 179 166 153
0.87659 -3.98896 1.78382 181 163 150
1.08904 -3.48655 1.67704 204 186 184
1.04531 -3.59406 1.69536 202 190 179
1.03789 -3.61230 1.69846 196 181 173
1.03043 -3.63064 1.70159 191 175 164
1.02293 -3.64907 1.70472 188 176 163
1.01540 -3.66759 1.70788 185 170 165
1.00782 -3.68621 1.71105 186 172 167
1.00021 -3.70493 1.71424 185 168 166
0.92185 -3.89757 1.74705 183 164 147
0.91378 -3.91740 1.75043 182 166 149
0.90567 -3.93733 1.75382 181 163 155
0.89752 -3.95737 1.75724 184 164 157
0.88932 -3.97753 1.76067 179 165 151
0.88108 -3.99779 1.76412 181 164 145
0.87279 -4.01815 1.76759 179 162 149
1.04236 -3.62021 1.67964 195 173 171
1.03490 -3.63859 1.68272 185 168 163
1.02741 -3.65706 1.68581 185 174 162
1.01988 -3.67563 1.68892 186 167 163
1.01230 -3.69429 1.69205 187 171 163
1.00469 -3.71305 1.69519 186 168 160
0.99704 -3.73191 1.69835 183 166 155
0.98935 -3.75087 1.70152 182 166 152
0.92635 -3.90616 1.72754 184 163 148
0.91828 -3.92604 1.73087 183 164 147
0.91017 -3.94603 1.73421 181 163 152
0.90202 -3.96612 1.73758 182 162 154
0.89382 -3.98632 1.74096 181 164 144
0.88558 -4.00663 1.74437 181 163 138
0.87730 -4.02705 1.74779 178 162 149
0.86897 -4.04759 1.75123 179 161 145
1.03939 -3.64656 1.66380 181 160 131
1.03190 -3.66507 1.66685 175 166 153
1.02437 -3.68369 1.66991 181 163 158
1.01680 -3.70239 1.67299 185 164 158
1.00919 -3.72120 1.67609 184 166 156
1.00154 -3.74010 1.67920 182 164 154
0.99385 -3.75911 1.68233 181 165 151
0.98612 -3.77821 1.68548 177 162 149
0.97835 -3.79741 1.68864 180 162 149
0.93086 -3.91478 1.70797 183 162 149
0.92279 -3.93471 1.71125 183 163 148
0.91469 -3.95475 1.71455 181 163 151
0.90654 -3.97489 1.71787 180 161 150
0.89834 -3.99514 1.72121 180 161 141
0.89010 -4.01551 1.72456 178 161 138
0.88182 -4.03598 1.72793 177 160 153
0.87349 -4.05656 1.73132 181 159 146
0.86511 -4.07726 1.73473 175 158 141
1.03640 -3.67311 1.64784 168 150 142
1.02887 -3.69176 1.65086 167 153 146
1.02130 -3.71052 1.65389 177 158 154
1.01369 -3.72937 1.65694 179 164 153
1.00605 -3.74832 1.66001 181 164 153
0.99836 -3.76737 1.66310 180 162 155
0.99063 -3.78652 1.66619 176 162 150
0.98286 -3.80577 1.66931 178 160 146
0.97505 -3.82512 1.67244 180 160 142
0.96720 -3.84457 1.67559 177 159 150
0.95931 -3.86413 1.67876 178 159 154
0.95138 -3.88379 1.68194 178 163 151
0.94340 -3.90356 1.68514 182 162 142
0.92732 -3.94341 1.69159 182 161 151
0.91921 -3.96349 1.69484 181 161 150
0.91106 -3.98369 1.69811 180 161 145
0.90287 -4.00399 1.70139 178 158 142
0.89463 -4.02440 1.70470 175 159 141
1.03338 -3.69986 1.63175 158 144 142
1.02582 -3.71866 1.63474 154 141 137
1.01821 -3.73756 1.63775 167 155 154
1.01057 -3.75656 1.64077 176 162 152
1.00288 -3.77565 1.64381 179 161 154
0.99515 -3.79485 1.64686 177 161 152
0.98739 -3.81414 1.64993 176 159 149
0.97958 -3.83354 1.65301 180 159 145
0.97173 -3.85304 1.65611 180 157 150
0.96384 -3.87265 1.65923 179 156 154
0.95591 -3.89236 1.66237 180 160 157
0.94793 -3.91217 1.66552 183 163 156
0.93991 -3.93209 1.66869 181 162 152
0.93185 -3.95212 1.67187 180 161 155
0.92375 -3.97226 1.67507 179 161 146
1.03034 -3.72683 1.61554 141 131 125
0.96838 -3.88119 1.63966 178 154 148
0.96045 -3.90095 1.64274 179 157 154
0.95248 -3.92081 1.64585 181 162 159
0.94446 -3.94078 1.64897 178 161 148
1.02728 -3.75400 1.59921 128 136 91
1.02419 -3.78139 1.58274 126 128 84
1.02108 -3.80900 1.56615 132 122 102
1.01795 -3.83682 1.54942 126 115 85
0.68791 -3.75280 2.50685 182 161 151
0.67996 -3.77247 2.51055 181 162 149
0.67196 -3.79225 2.51427 179 160 149
0.66393 -3.81213 2.51801 176 158 149
0.70884 -3.71981 2.47970 177 162 154
0.70098 -3.73931 2.48331 177 162 151
0.69308 -3.75891 2.48694 178 166 147
0.68513 -3.77862 2.49059 180 163 150
0.67715 -3.79843 2.49426 180 162 156
0.66912 -3.81835 2.49795 176 158 153
0.72958 -3.68711 2.45278 182 163 153
0.72181 -3.70644 2.45631 178 161 155
0.71400 -3.72587 2.45985 174 162 147
0.70615 -3.74540 2.46341 178 163 147
0.69825 -3.76504 2.46700 177 163 147
0.69032 -3.78478 2.47060 178 160 152
0.68234 -3.80462 2.47422 181 159 154
0.67432 -3.82457 2.47785 179 157 153
0.75779 -3.63565 2.42268 184 170 162
0.75015 -3.65471 2.42610 182 163 157
0.74246 -3.67387 2.42955 179 162 155
0.73474 -3.69312 2.43300 179 161 154
0.72698 -3.71248 2.43648 177 162 155
0.71917 -3.73195 2.43998 177 164 151
0.71133 -3.75151 2.44349 181 163 153
0.70344 -3.77118 2.44702 180 160 156
0.69551 -3.79095 2.45057 179 162 151
0.68754 -3.81082 2.45414 179 159 147
0.79308 -3.56620 2.38969 193 177 154
0.78560 -3.58489 2.39300 188 171 154
0.77809 -3.60369 2.39632 181 165 148
0.77053 -3.62258 2.39966 179 160 144
0.76293 -3.64157 2.40302 182 163 155
0.75530 -3.66066 2.40639 182 160 153
0.74762 -3.67985 2.40978 179 161 152
0.73990 -3.69914 2.41319 179 161 148
0.80564 -3.55338 2.36695 190 176 160
0.79820 -3.57201 2.37019 183 168 161
0.79073 -3.59074 2.37345 180 160 155
0.78322 -3.60957 2.37672 174 159 150
0.77567 -3.62849 2.38002 176 157 145
0.76808 -3.64751 2.38332 179 162 150
0.76045 -3.66663 2.38665 182 164 150
0.82550 -3.52213 2.34113 186 170 160
0.81815 -3.54061 2.34429 183 164 153
0.81076 -3.55917 2.34746 182 164 161
0.80333 -3.57784 2.35066 183 163 158
0.79587 -3.59659 2.35387 181 160 153
0.78837 -3.61545 2.35709 177 158 151
0.84519 -3.49116 2.31553 189 176 157
0.83792 -3.50947 2.31861 184 163 158
0.83062 -3.52788 2.32171 178 158 157
0.82327 -3.54638 2.32482 178 159 153
0.81589 -3.56498 2.32795 180 163 158
0.80847 -3.58367 2.33109 182 164 153
0.80102 -3.60246 2.33426 182 161 152
0.86472 -3.46045 2.29014 189 174 153
0.85753 -3.47861 2.29315 185 167 146
0.85030 -3.49686 2.29617 182 167 154
0.84304 -3.51520 2.29920 181 164 156
0.83574 -3.53363 2.30225 179 160 157
0.82840 -3.55217 2.30532 180 161 154
0.82103 -3.57079 2.30840 182 163 151
0.81362 -3.58951 2.31150 181 164 150
0.89115 -3.41209 2.26206 199 179 153
0.88407 -3.43000 2.26498 194 177 147
0.87696 -3.44800 2.26791 188 170 145
0.86982 -3.46610 2.27085 183 164 154
0.86264 -3.48428 2.27381 182 164 151
0.85542 -3.50256 2.27678 181 166 152
0.84816 -3.52093 2.27977 183 167 151
0.84087 -3.53940 2.28277 182 164 156
0.83354 -3.55796 2.28579 179 162 155
0.82618 -3.57661 2.28882 180 161 151
0.81877 -3.59537 2.29187 180 163 150
0.91026 -3.38205 2.23719 194 175 147
0.90326 -3.39981 2.24003 190 168 151
0.89623 -3.41766 2.24288 189 169 153
0.88917 -3.43560 2.24575 188 168 150
0.88207 -3.45363 2.24863 186 166 150
0.87493 -3.47175 2.25152 184 165 160
0.86775 -3.48997 2.25443 183 165 160
0.86054 -3.50828 2.25736 183 166 155
0.85330 -3.52668 2.26030 186 168 156
0.84601 -3.54517 2.26326 183 166 159
0.83869 -3.56376 2.26623 180 163 157
0.83133 -3.58245 2.26921 180 161 154
0.82394 -3.60123 2.27221 179 163 151
0.91534 -3.38758 2.21806 187 168 147
0.90835 -3.40537 2.22086 181 161 146
0.90133 -3.42324 2.22366 184 165 148
0.89427 -3.44121 2.22648 188 168 150
0.88718 -3.45927 2.22932 186 168 155
0.88005 -3.47742 2.23217 184 167 161
0.87288 -3.49566 2.23503 182 166 159
0.86568 -3.51400 2.23791 183 166 153
0.85844 -3.53243 2.24080 184 166 155
0.85116 -3.55095 2.24371 183 165 154
0.84385 -3.56957 2.24663 182 164 156
0.83650 -3.58829 2.24957 182 160 154
0.82911 -3.60710 2.25253 180 164 150
0.94116 -3.34020 2.19075 192 176 167
0.93429 -3.35775 2.19346 185 166 162
0.92738 -3.37539 2.19618 186 167 156
0.92043 -3.39311 2.19891 185 168 156
0.91345 -3.41093 2.20166 184 163 153
0.90643 -3.42883 2.20442 184 164 153
0.89938 -3.44683 2.20719 186 166 152
0.89230 -3.46492 2.20998 186 168 158
0.88517 -3.48310 2.21278 184 167 161
0.87801 -3.50137 2.21560 182 166 157
0.87082 -3.51973 2.21843 182 165 152
0.86359 -3.53819 2.22128 183 165 156
0.85632 -3.55674 2.22414 182 165 159
0.84901 -3.57539 2.22701 184 167 159
0.84167 -3.59414 2.22990 184 164 160
0.83428 -3.61298 2.23281 182 165 157
0.96664 -3.29345 2.16381 200 189 166
0.95987 -3.31076 2.16643 193 181 166
0.95307 -3.32817 2.16906 190 174 164
0.94624 -3.34566 2.17171 187 170 166
0.93937 -3.36324 2.17437 184 166 162
0.93246 -3.38090 2.17704 185 166 160
0.92553 -3.39866 2.17973 185 166 163
0.91855 -3.41650 2.18243 184 164 159
0.91155 -3.43443 2.18514 183 164 156
0.90450 -3.45246 2.18787 184 165 150
0.89742 -3.47057 2.19061 185 167 157
0.89031 -3.48878 2.19337 186 167 162
0.88316 -3.50708 2.19614 184 167 160
0.87597 -3.52547 2.19892 184 164 154
0.86874 -3.54396 2.20172 185 165 157
0.86148 -3.56254 2.20453 185 164 161
0.98512 -3.26440 2.13975 200 184 176
0.97843 -3.28158 2.14230 195 179 175
0.97170 -3.29884 2.14487 190 178 172
0.96494 -3.31618 2.14744 188 176 166
0.95815 -3.33361 2.15003 189 173 164
0.95132 -3.35113 2.15263 189 172 165
0.94446 -3.36873 2.15525 187 169 162
0.93756 -3.38643 2.15787 184 165 161
0.93063 -3.40421 2.16052 185 164 161
0.92367 -3.42208 2.16317 185 163 158
0.91667 -3.44004 2.16584 183 163 153
0.90963 -3.45809 2.16852 183 165 150
0.90256 -3.47624 2.17121 185 167 157
0.89545 -3.49447 2.17392 187 169 162
0.88831 -3.51280 2.17664 185 169 162
0.88113 -3.53122 2.17938 185 165 157
0.87391 -3.54974 2.18213 186 165 157
1.00345 -3.23560 2.11590 197 180 162
0.99683 -3.25263 2.11838 195 177 167
0.99017 -3.26975 2.12087 193 175 174
0.98349 -3.28695 2.12338 192 174 172
0.97677 -3.30423 2.12590 191 177 169
0.97002 -3.32160 2.12843 190 177 165
0.96323 -3.33906 2.13097 191 174 165
0.95641 -3.35661 2.13353 192 172 165
0.94956 -3.37424 2.13610 190 170 162
0.94267 -3.39196 2.13868 186 165 161
0.93574 -3.40977 2.14127 186 162 159
0.92879 -3.42767 2.14388 187 161 154
0.92179 -3.44566 2.14650 185 164 152
0.91476 -3.46374 2.14914 183 164 153
0.90770 -3.48191 2.15179 185 166 158
0.90060 -3.50017 2.15445 188 169 162
0.89346 -3.51853 2.15712 186 170 164
0.88629 -3.53698 2.15981 185 166 160
1.02162 -3.20704 2.09224 196 182 165
1.01508 -3.22393 2.09466 191 173 162
1.00849 -3.24090 2.09708 189 168 163
1.00188 -3.25796 2.09952 192 173 166
0.99524 -3.27510 2.10197 194 176 169
0.98856 -3.29233 2.10443 194 176 168
0.98184 -3.30964 2.10690 194 176 168
0.97510 -3.32704 2.10939 194 176 168
0.96832 -3.34452 2.11189 192 174 170
0.96151 -3.36209 2.11440 192 172 167
0.95466 -3.37975 2.11692 191 170 164
0.94778 -3.39750 2.11945 188 164 162
0.94086 -3.41534 2.12200 185 162 160
0.93391 -3.43326 2.12456 184 162 152
0.92693 -3.45128 2.12714 184 164 149
0.91991 -3.46939 2.12973 182 164 152
1.03965 -3.17871 2.06878 198 181 163
1.03317 -3.19546 2.07113 192 175 162
1.02666 -3.21230 2.07348 191 172 157
1.02012 -3.22921 2.07585 191 171 155
1.01355 -3.24621 2.07823 191 172 158
1.00694 -3.26330 2.08063 192 174 163
1.00030 -3.28046 2.08303 194 175 166
0.99363 -3.29772 2.08545 195 176 168
0.98693 -3.31505 2.08788 194 175 168
0.98019 -3.33248 2.09032 195 175 166
0.97342 -3.34999 2.09277 193 175 165
0.96661 -3.36759 2.09523 190 173 162
0.95977 -3.38527 2.09771 190 172 164
0.95290 -3.40305 2.10020 189 168 161
0.94599 -3.42091 2.10270 186 165 158
0.93905 -3.43887 2.10522 184 164 151
0.93207 -3.45691 2.10774 183 164 151
0.92506 -3.47505 2.11028 181 164 153
0.80780 -3.77828 2.15275 180 160 146
0.80015 -3.79808 2.15553 180 161 153
0.79245 -3.81799 2.15831 179 159 152
0.78471 -3.83801 2.16112 181 163 154
1.05753 -3.15061 2.04551 200 182 160
1.05112 -3.16723 2.04779 194 175 157
1.04468 -3.18392 2.05008 190 173 158
1.03821 -3.20070 2.05239 190 173 157
1.03171 -3.21756 2.05470 191 172 153
1.02518 -3.23450 2.05702 192 171 155
1.01861 -3.25153 2.05936 191 172 158
1.01201 -3.26864 2.06171 190 173 159
1.00538 -3.28583 2.06407 192 174 164
0.99872 -3.30311 2.06644 193 176 168
0.99202 -3.32048 2.06882 192 177 169
0.98529 -3.33793 2.07122 193 177 164
0.97852 -3.35546 2.07362 192 176 161
0.97173 -3.37309 2.07604 191 174 159
0.96490 -3.39080 2.07847 190 173 159
0.95803 -3.40861 2.08092 189 171 154
0.95113 -3.42650 2.08337 188 167 153
0.94419 -3.44448 2.08584 186 165 152
0.93722 -3.46256 2.08832 184 164 153
0.93022 -3.48072 2.09081 183 164 154
0.92318 -3.49898 2.09332 183 164 155
0.91610 -3.51733 2.09584 184 164 155
0.82070 -3.76470 2.12978 181 160 152
0.81309 -3.78443 2.13249 180 161 147
0.80544 -3.80427 2.13521 179 162 152
0.79775 -3.82421 2.13795 179 159 144
0.79001 -3.84426 2.14070 179 162 150
0.78224 -3.86442 2.14347 181 163 152
1.06892 -3.13923 2.02465 198 178 166
1.06255 -3.15579 2.02687 195 174 159
1.05615 -3.17243 2.02911 193 174 157
1.04972 -3.18915 2.03136 193 175 161
1.04326 -3.20595 2.03362 193 174 160
1.03676 -3.22284 2.03588 193 173 157
1.03024 -3.23980 2.03817 192 172 160
1.02368 -3.25686 2.04046 190 171 160
1.01709 -3.27399 2.04276 188 172 159
1.01046 -3.29121 2.04507 190 175 164
1.00381 -3.30852 2.04740 192 177 166
0.99712 -3.32591 2.04974 192 178 169
0.99039 -3.34338 2.05209 191 178 167
0.98364 -3.36095 2.05445 191 177 164
0.97685 -3.37860 2.05682 190 176 165
0.97002 -3.39634 2.05921 189 172 161
0.96317 -3.41417 2.06160 189 170 153
0.95627 -3.43209 2.06401 189 169 152
0.94935 -3.45011 2.06643 186 165 151
0.94238 -3.46821 2.06886 184 164 149
0.93539 -3.48640 2.07131 185 165 153
0.92835 -3.50469 2.07377 183 165 155
0.92128 -3.52307 2.07624 182 161 152
0.91418 -3.54154 2.07872 182 161 151
0.90703 -3.56011 2.08122 184 164 158
0.89985 -3.57877 2.08373 184 166 155
0.82598 -3.77084 2.10954 183 160 151
0.81838 -3.79060 2.11220 181 162 149
0.81074 -3.81047 2.11487 176 163 151
0.80305 -3.83045 2.11755 178 161 142
0.79533 -3.85053 2.12025 177 161 149
0.78756 -3.87072 2.12296 180 164 153
0.77975 -3.89102 2.12569 180 164 156
1.09285 -3.09510 1.99954 201 187 164
1.08658 -3.11145 2.00169 195 181 164
1.08028 -3.12788 2.00385 195 179 166
1.07395 -3.14438 2.00602 197 178 166
1.06758 -3.16097 2.00821 196 176 161
1.06119 -3.17763 2.01040 193 176 162
1.05477 -3.19438 2.01260 192 176 168
1.04831 -3.21121 2.01482 193 176 165
1.04182 -3.22812 2.01704 194 174 159
1.03531 -3.24511 2.01928 195 174 156
1.02875 -3.26219 2.02153 192 172 158
1.02217 -3.27935 2.02378 190 171 163
1.01555 -3.29660 2.02605 190 174 166
1.00891 -3.31393 2.02833 192 176 165
1.00222 -3.33135 2.03063 194 178 167
0.99551 -3.34885 2.03293 193 178 168
0.98876 -3.36644 2.03524 192 178 167
0.98198 -3.38412 2.03757 191 177 168
0.97516 -3.40189 2.03991 190 174 166
0.96831 -3.41975 2.04226 189 171 158
0.96143 -3.43770 2.04462 189 170 156
0.95451 -3.45574 2.04699 187 166 153
0.94755 -3.47387 2.04938 185 164 149
0.94056 -3.49209 2.05178 185 165 153
0.93353 -3.51041 2.05419 183 164 156
0.92647 -3.52881 2.05661 181 160 153
0.91937 -3.54732 2.05904 181 161 148
0.91224 -3.56592 2.06149 183 163 151
0.90507 -3.58461 2.06395 184 166 156
0.89786 -3.60340 2.06642 185 167 158
0.89061 -3.62229 2.06891 186 167 158
0.83127 -3.77698 2.08926 183 161 151
0.82368 -3.79678 2.09187 181 161 149
0.81604 -3.81668 2.09449 178 163 149
0.80837 -3.83669 2.09712 179 163 145
0.80065 -3.85680 2.09977 179 161 147
0.79289 -3.87703 2.10243 180 162 153
0.78509 -3.89736 2.10510 182 163 155
0.77725 -3.91780 2.10779 180 162 154
1.09786 -3.10020 1.98102 193 179 166
1.09160 -3.11657 1.98313 194 179 165
1.08530 -3.13302 1.98525 196 180 163
1.07898 -3.14955 1.98737 197 179 166
1.07262 -3.16616 1.98951 196 179 168
1.06624 -3.18285 1.99166 192 178 165
1.05982 -3.19962 1.99382 191 178 167
1.05337 -3.21647 1.99599 193 177 167
1.04689 -3.23341 1.99817 195 177 160
1.04038 -3.25043 2.00036 195 176 155
1.03384 -3.26753 2.00257 193 173 158
1.02726 -3.28472 2.00478 192 171 165
1.02065 -3.30199 2.00700 191 173 164
1.01401 -3.31935 2.00924 191 175 159
1.00734 -3.33679 2.01148 193 176 160
1.00063 -3.35433 2.01374 194 178 168
0.99389 -3.37194 2.01601 194 177 169
0.98712 -3.38965 2.01829 193 177 164
0.98031 -3.40745 2.02058 192 175 164
0.97346 -3.42533 2.02288 189 173 164
0.96659 -3.44331 2.02520 188 171 163
0.95967 -3.46138 2.02753 188 167 162
0.95273 -3.47954 2.02986 187 164 152
0.94574 -3.49779 2.03221 185 164 152
0.93873 -3.51613 2.03458 184 164 153
0.93167 -3.53457 2.03695 182 163 152
0.92458 -3.55310 2.03934 181 163 147
0.91745 -3.57173 2.04173 181 163 149
0.91029 -3.59045 2.04415 183 166 155
0.90309 -3.60927 2.04657 186 168 162
0.89585 -3.62819 2.04901 187 167 165
0.88858 -3.64721 2.05145 187 166 158
0.88126 -3.66632 2.05391 184 165 155
0.83657 -3.78313 2.06896 182 163 153
0.82899 -3.80296 2.07151 182 161 148
0.82136 -3.82290 2.07408 180 163 149
0.81369 -3.84294 2.07666 181 164 145
0.80598 -3.86309 2.07925 181 161 146
0.79823 -3.88335 2.08186 180 160 150
0.79044 -3.90371 2.08448 182 161 151
0.78261 -3.92419 2.08712 180 162 156
0.77473 -3.94477 2.08977 180 160 150
1.10288 -3.10529 1.96247 197 178 165
1.09662 -3.12169 1.96454 197 178 163
1.09033 -3.13816 1.96661 197 179 162
1.08402 -3.15472 1.96870 197 179 168
1.07767 -3.17135 1.97079 196 179 169
1.07129 -3.18807 1.97290 194 179 163
1.06488 -3.20486 1.97501 193 177 163
1.05844 -3.22174 1.97714 194 177 166
1.05197 -3.23870 1.97927 195 178 165
1.04547 -3.25575 1.98142 193 177 161
1.03893 -3.27288 1.98358 192 174 161
1.03236 -3.29009 1.98575 193 171 164
1.02576 -3.30739 1.98792 190 172 163
1.01913 -3.32478 1.99011 189 173 159
1.01246 -3.34225 1.99231 192 174 159
1.00576 -3.35981 1.99452 194 176 166
0.99903 -3.37745 1.99675 194 177 168
0.99226 -3.39519 1.99898 194 177 166
0.98546 -3.41301 2.00123 193 176 167
0.97862 -3.43093 2.00348 189 173 166
0.97175 -3.44893 2.00575 188 171 166
0.96485 -3.46703 2.00803 189 169 167
0.95791 -3.48521 2.01032 188 166 155
0.95093 -3.50349 2.01262 185 164 149
0.94392 -3.52187 2.01493 184 164 148
0.93688 -3.54033 2.01726 183 164 152
0.92980 -3.55890 2.01960 183 164 155
0.92268 -3.57755 2.02195 182 163 157
0.91552 -3.59631 2.02431 183 166 158
0.90833 -3.61516 2.02668 187 167 166
0.90110 -3.63410 2.02907 189 167 169
0.89383 -3.65315 2.03147 188 166 160
0.88652 -3.67230 2.03388 186 165 155
0.87918 -3.69154 2.03630 183 165 151
0.87180 -3.71089 2.03874 182 166 159
0.86438 -3.73034 2.04119 183 164 153
0.85692 -3.74989 2.04365 183 164 152
0.84942 -3.76954 2.04613 184 166 155
0.84188 -3.78930 2.04861 183 165 156
0.83430 -3.80916 2.05112 181 162 149
0.82668 -3.82913 2.05363 179 162 150
0.81902 -3.84920 2.05616 182 161 149
0.81132 -3.86938 2.05870 182 160 154
0.80358 -3.88967 2.06126 178 159 151
0.79580 -3.91007 2.06382 182 160 149
0.78797 -3.93058 2.06641 182 162 155
0.78010 -3.95120 2.06900 180 159 152
0.77219 -3.97193 2.07162 177 160 149
1.10790 -3.11040 1.94390 200 179 164
1.10165 -3.12682 1.94592 200 178 163
1.09537 -3.14332 1.94795 199 180 166
1.08906 -3.15990 1.94999 198 180 172
1.08272 -3.17656 1.95204 197 180 173
1.07635 -3.19330 1.95410 197 181 171
1.06995 -3.21012 1.95617 196 179 168
1.06352 -3.22702 1.95825 197 177 167
1.05705 -3.24401 1.96035 197 177 168
1.05056 -3.26108 1.96245 194 176 164
1.04403 -3.27824 1.96456 192 174 163
1.03747 -3.29548 1.96668 193 171 163
1.03087 -3.31280 1.96882 191 170 162
1.02425 -3.33021 1.97096 190 169 164
1.01759 -3.34771 1.97311 193 171 165
1.01090 -3.36530 1.97528 195 174 162
1.00417 -3.38297 1.97745 194 176 163
0.99741 -3.40073 1.97964 194 175 167
0.99062 -3.41859 1.98184 193 175 168
0.98379 -3.43653 1.98405 190 173 165
0.97693 -3.45456 1.98627 189 171 165
0.97003 -3.47268 1.98850 189 171 167
0.96310 -3.49090 1.99074 189 168 159
0.95613 -3.50921 1.99300 185 165 152
0.94913 -3.52761 1.99526 184 163 149
0.94209 -3.54611 1.99754 185 163 153
0.93502 -3.56470 1.99983 186 164 155
0.92791 -3.58338 2.00213 184 164 157
0.92076 -3.60217 2.00444 184 165 160
0.91357 -3.62105 2.00677 187 165 164
0.90635 -3.64003 2.00910 190 166 164
0.89909 -3.65910 2.01145 189 166 159
0.89180 -3.67828 2.01381 188 164 155
0.88446 -3.69756 2.01619 185 162 154
0.87709 -3.71693 2.01857 184 165 162
0.86967 -3.73641 2.02097 183 165 155
0.86222 -3.75600 2.02338 183 164 155
0.85473 -3.77568 2.02580 183 165 158
0.84720 -3.79547 2.02824 183 163 158
0.83963 -3.81537 2.03069 181 161 153
0.83202 -3.83537 2.03315 180 161 150
0.82437 -3.85547 2.03563 183 161 149
0.81667 -3.87569 2.03812 184 160 157
0.80894 -3.89601 2.04062 181 161 152
0.80116 -3.91645 2.04313 183 158 151
0.79335 -3.93699 2.04566 182 160 153
0.78549 -3.95764 2.04821 182 158 152
0.77758 -3.97841 2.05076 179 156 144
1.11914 -3.09915 1.92332 203 189 166
1.11293 -3.11551 1.92529 198 181 164
1.10669 -3.13196 1.92727 198 179 166
1.10042 -3.14848 1.92926 196 180 168
1.09412 -3.16508 1.93126 195 180 170
1.08778 -3.18177 1.93326 195 180 170
1.08142 -3.19853 1.93528 196 182 170
1.07503 -3.21538 1.93731 197 181 168
1.06860 -3.23231 1.93934 197 178 166
1.06215 -3.24932 1.94139 196 177 167
1.05566 -3.26642 1.94345 194 176 166
1.04914 -3.28360 1.94551 192 175 163
1.04258 -3.30087 1.94759 192 173 161
1.03600 -3.31822 1.94968 193 170 159
1.02938 -3.33566 1.95178 193 169 161
1.02273 -3.35319 1.95388 193 170 163
1.01604 -3.37080 1.95600 194 172 162
1.00933 -3.38850 1.95813 194 175 163
1.00257 -3.40629 1.96027 194 175 164
0.99579 -3.42417 1.96242 193 175 165
0.98897 -3.44214 1.96458 192 174 166
0.98211 -3.46020 1.96676 190 173 168
0.97523 -3.47835 1.96894 191 173 167
0.96830 -3.49659 1.97114 189 170 163
0.96134 -3.51493 1.97334 187 168 159
0.95435 -3.53336 1.97556 185 164 159
0.94732 -3.55189 1.97779 185 163 159
0.94025 -3.57051 1.98003 187 165 151
0.93315 -3.58923 1.98228 185 164 153
0.92601 -3.60804 1.98454 185 164 158
0.91883 -3.62695 1.98682 187 164 159
0.91161 -3.64596 1.98910 188 165 158
0.90436 -3.66507 1.99140 186 166 157
0.89707 -3.68427 1.99371 188 165 155
0.88975 -3.70358 1.99603 185 161 156
0.88238 -3.72299 1.99837 183 164 160
0.87498 -3.74250 2.00072 184 165 157
0.86753 -3.76212 2.00308 184 165 160
0.86005 -3.78183 2.00545 182 164 161
0.85253 -3.80166 2.00783 182 162 155
0.84496 -3.82158 2.01023 182 160 154
0.83736 -3.84162 2.01264 182 162 151
0.82972 -3.86176 2.01506 183 163 149
0.82203 -3.88201 2.01750 183 161 153
0.81430 -3.90236 2.01995 183 162 151
0.80654 -3.92283 2.02241 184 157 149
0.79873 -3.94341 2.02488 181 159 149
0.79088 -3.96410 2.02737 183 159 150
0.78298 -3.98490 2.02988 181 157 139
1.13035 -3.08793 1.90282 201 183 173
1.12417 -3.10424 1.90474 192 175 166
1.11797 -3.12063 1.90666 192 174 160
1.11174 -3.13710 1.90860 196 177 166
1.10547 -3.15365 1.91054 195 181 167
1.09918 -3.17028 1.91250 194 180 163
1.09285 -3.18699 1.91446 194 180 166
1.08650 -3.20378 1.91643 195 180 170
1.08011 -3.22065 1.91841 196 178 169
1.07369 -3.23761 1.92040 196 176 167
1.06724 -3.25465 1.92241 195 176 167
1.06076 -3.27177 1.92442 193 175 165
1.05425 -3.28898 1.92644 192 175 164
1.04771 -3.30627 1.92847 192 174 162
1.04113 -3.32365 1.93051 194 171 161
1.03452 -3.34111 1.93256 194 170 161
1.02787 -3.35867 1.93463 191 171 161
1.02120 -3.37631 1.93670 190 172 162
1.01449 -3.39403 1.93878 193 175 164
1.00774 -3.41185 1.94087 195 177 165
1.00097 -3.42976 1.94298 194 176 166
0.99415 -3.44776 1.94509 193 175 169
0.98731 -3.46585 1.94722 191 175 171
0.98043 -3.48403 1.94935 193 173 166
0.97351 -3.50230 1.95150 191 172 161
0.96656 -3.52067 1.95366 188 170 160
0.95957 -3.53912 1.95582 184 167 162
0.95255 -3.55768 1.95800 183 163 161
0.94549 -3.57633 1.96019 187 164 154
0.93839 -3.59508 1.96240 185 163 156
0.93126 -3.61392 1.96461 185 164 153
0.92409 -3.63286 1.96684 188 164 153
0.91689 -3.65190 1.96907 187 165 157
0.90964 -3.67104 1.97132 185 167 158
0.90236 -3.69028 1.97358 186 167 156
0.89504 -3.70962 1.97585 184 162 154
0.88768 -3.72906 1.97814 183 163 159
0.88029 -3.74860 1.98043 185 166 158
0.87285 -3.76825 1.98274 186 166 160
0.86537 -3.78799 1.98506 183 166 159
0.85786 -3.80785 1.98739 182 162 151
0.85031 -3.82781 1.98974 181 162 154
0.84271 -3.84788 1.99209 181 163 155
0.83507 -3.86805 1.99446 182 163 154
0.82740 -3.88833 1.99685 183 162 152
0.81968 -3.90872 1.99924 183 162 151
0.81192 -3.92922 2.00165 182 158 147
0.80412 -3.94984 2.00407 178 159 146
0.79627 -3.97056 2.00651 181 160 148
0.78839 -3.99140 2.00895 180 159 142
1.14762 -3.06057 1.88053 204 185 167
1.14151 -3.07675 1.88239 196 177 168
1.13538 -3.09301 1.88425 192 174 169
1.12921 -3.10935 1.88612 193 173 162
1.12302 -3.12576 1.88801 194 171 157
1.11679 -3.14225 1.88990 195 172 162
1.11053 -3.15883 1.89180 198 179 164
1.10425 -3.17548 1.89371 198 181 161
1.09793 -3.19221 1.89562 196 180 165
1.09158 -3.20903 1.89755 196 180 170
1.08520 -3.22593 1.89949 197 178 168
1.07879 -3.24291 1.90144 196 177 166
1.07235 -3.25998 1.90339 193 176 166
1.06588 -3.27712 1.90536 191 175 165
1.05937 -3.29436 1.90734 192 175 165
1.05284 -3.31168 1.90932 193 174 162
1.04627 -3.32908 1.91132 194 171 163
1.03966 -3.34658 1.91332 194 169 164
1.03303 -3.36416 1.91534 191 169 158
1.02636 -3.38182 1.91736 188 170 158
1.01966 -3.39958 1.91940 192 173 161
1.01292 -3.41742 1.92144 195 177 163
1.00615 -3.43536 1.92350 195 177 166
0.99935 -3.45338 1.92557 194 176 171
0.99251 -3.47150 1.92764 192 175 171
0.98563 -3.48971 1.92973 194 172 161
0.97873 -3.50801 1.93183 192 172 157
0.97178 -3.52641 1.93394 190 171 161
0.96480 -3.54490 1.93606 186 168 160
0.95779 -3.56348 1.93819 184 163 158
0.95074 -3.58216 1.94033 187 163 156
0.94365 -3.60094 1.94248 185 164 158
0.93652 -3.61981 1.94465 183 163 151
0.92936 -3.63878 1.94682 186 162 150
0.92217 -3.65785 1.94901 187 165 158
0.91493 -3.67702 1.95121 186 166 160
0.90766 -3.69629 1.95342 186 167 158
0.90034 -3.71566 1.95564 184 165 152
0.89299 -3.73513 1.95787 186 165 158
0.88561 -3.75471 1.96011 186 166 158
0.87818 -3.77438 1.96237 186 165 156
0.87071 -3.79417 1.96464 184 166 156
0.86320 -3.81405 1.96692 183 164 150
0.85566 -3.83405 1.96921 180 162 152
0.84807 -3.85415 1.97151 180 161 158
0.84044 -3.87435 1.97383 183 163 157
0.83277 -3.89467 1.97616 183 163 149
0.82506 -3.91509 1.97850 182 162 151
0.81731 -3.93563 1.98086 181 160 147
0.80952 -3.95628 1.98322 178 159 146
0.80168 -3.97703 1.98560 180 160 152
0.79380 -3.99791 1.98800 180 160 151
0.78588 -4.01889 1.99040 177 155 141
1.16476 -3.03344 1.85842 202 183 169
1.15871 -3.04949 1.86022 195 179 161
1.15264 -3.06561 1.86202 194 175 164
1.14654 -3.08182 1.86383 192 175 169
1.14042 -3.09810 1.86565 191 177 166
1.13426 -3.11446 1.86748 193 174 161
1.12807 -3.13089 1.86932 194 171 158
1.12185 -3.14741 1.87117 193 170 159
1.11560 -3.16401 1.87302 194 177 164
1.10932 -3.18069 1.87489 196 180 169
1.10301 -3.19745 1.87676 197 179 168
1.09667 -3.21429 1.87865 198 180 165
1.09030 -3.23122 1.88054 197 180 162
1.08390 -3.24822 1.88244 195 178 162
1.07747 -3.26531 1.88435 194 175 166
1.07100 -3.28249 1.88627 192 174 167
1.06450 -3.29975 1.88820 192 175 163
1.05797 -3.31710 1.89014 194 174 158
1.05141 -3.33453 1.89209 195 171 162
1.04482 -3.35205 1.89405 196 170 166
1.03819 -3.36965 1.89602 195 169 157
1.03153 -3.38735 1.89800 191 169 156
1.02483 -3.40513 1.89999 192 172 158
1.01810 -3.42300 1.90199 194 175 160
1.01134 -3.44097 1.90399 194 176 166
1.00455 -3.45902 1.90601 195 177 170
0.99772 -3.47717 1.90804 195 176 166
0.99085 -3.49540 1.91008 194 173 159
0.98395 -3.51373 1.91213 193 173 160
0.97701 -3.53216 1.91419 191 173 165
0.97004 -3.55068 1.91626 190 170 161
0.96304 -3.56929 1.91834 187 165 158
0.95599 -3.58800 1.92044 186 164 153
0.94891 -3.60681 1.92254 185 165 153
0.94180 -3.62571 1.92465 183 165 152
0.93464 -3.64471 1.92678 184 163 152
0.92745 -3.66381 1.92891 186 165 156
0.92023 -3.68301 1.93106 186 165 157
0.91296 -3.70231 1.93322 186 166 156
0.90566 -3.72171 1.93539 185 166 152
0.89831 -3.74122 1.93757 187 166 154
0.89093 -3.76082 1.93976 186 164 160
0.88351 -3.78053 1.94197 185 163 152
0.87605 -3.80035 1.94418 184 165 154
0.86856 -3.82027 1.94641 183 164 149
0.86102 -3.84029 1.94865 181 161 150
0.85344 -3.86043 1.95090 181 160 157
0.84582 -3.88067 1.95316 182 163 155
0.83816 -3.90102 1.95544 183 162 146
0.83046 -3.92148 1.95773 182 161 150
0.82271 -3.94204 1.96003 182 160 147
0.81493 -3.96273 1.96234 180 158 145
0.80710 -3.98352 1.96467 179 158 151
0.79923 -4.00442 1.96700 181 159 151
0.77536 -4.06783 1.97409 175 150 132
0.76732 -4.08920 1.97648 172 148 134
0.75923 -4.11069 1.97889 172 148 135
0.75110 -4.13229 1.98130 175 151 135
1.16977 -3.03844 1.83997 193 176 168
1.16374 -3.05451 1.84172 194 177 160
1.15767 -3.07066 1.84348 196 177 160
1.15158 -3.08689 1.84525 194 178 162
1.14546 -3.10319 1.84703 192 176 161
1.13931 -3.11957 1.84881 193 173 160
1.13313 -3.13604 1.85061 195 171 160
1.12692 -3.15258 1.85241 194 171 152
1.12068 -3.16920 1.85422 192 176 159
1.11441 -3.18591 1.85604 194 179 168
1.10811 -3.20269 1.85787 196 178 166
1.10177 -3.21956 1.85971 195 181 162
1.09541 -3.23651 1.86156 190 178 161
1.06964 -3.30515 1.86904 194 175 160
1.06312 -3.32252 1.87093 195 174 160
1.05657 -3.33998 1.87284 195 173 163
1.04998 -3.35752 1.87475 196 172 163
1.04336 -3.37516 1.87667 196 171 160
1.03670 -3.39288 1.87860 192 171 161
1.03002 -3.41069 1.88055 191 173 162
1.02330 -3.42859 1.88250 193 174 162
1.01654 -3.44658 1.88446 193 175 169
1.00976 -3.46466 1.88643 195 177 170
1.00293 -3.48284 1.88841 196 177 163
0.99607 -3.50111 1.89040 197 176 161
0.98918 -3.51946 1.89240 194 176 165
0.98225 -3.53792 1.89441 190 177 167
0.97529 -3.55647 1.89644 191 172 162
0.96829 -3.57511 1.89847 189 167 157
