ply
format ascii 1.0
element face 0
property list uchar int vertex_indices
element vertex 1290
property float x
property float y
property float z
property uchar diffuse_red
property uchar diffuse_green
property uchar diffuse_blue
end_header
2.56964 -3.35869 0.04554 172 176 162
2.56546 -3.37199 0.05704 171 172 156
2.56128 -3.38529 0.06854 168 164 153
2.55710 -3.39858 0.08003 163 161 159
2.55293 -3.41186 0.09151 166 169 163
2.54876 -3.42514 0.10299 167 171 157
2.54459 -3.43841 0.11446 158 156 152
2.54042 -3.45167 0.12592 151 153 153
2.53625 -3.46493 0.13738 144 156 155
2.55930 -3.30314 -0.00556 165 168 155
2.55513 -3.31642 0.00592 164 161 144
2.55097 -3.32969 0.01739 164 171 159
2.54681 -3.34295 0.02886 164 171 166
2.54265 -3.35621 0.04032 165 170 167
2.53849 -3.36946 0.05177 171 175 169
2.53434 -3.38270 0.06322 168 170 163
2.53019 -3.39594 0.07467 162 165 161
2.52604 -3.40917 0.08610 161 164 165
2.52189 -3.42239 0.09753 158 159 156
2.51774 -3.43561 0.10896 155 159 144
2.51360 -3.44882 0.12038 157 157 145
2.50946 -3.46202 0.13179 151 155 152
2.51588 -3.35375 0.03514 164 166 153
2.51175 -3.36694 0.04655 169 177 159
2.50762 -3.38013 0.05795 172 174 166
2.50349 -3.39332 0.06935 169 166 166
2.49936 -3.40649 0.08074 168 174 163
2.49524 -3.41966 0.09213 164 168 148
2.49111 -3.43283 0.10351 161 159 145
2.48699 -3.44598 0.11488 167 167 155
2.48288 -3.45913 0.12625 163 161 149
2.47876 -3.47227 0.13761 163 165 147
2.47465 -3.48541 0.14897 161 162 152
2.48111 -3.37759 0.05272 172 173 160
2.47701 -3.39072 0.06407 169 166 160
2.47290 -3.40384 0.07542 162 159 157
2.46880 -3.41696 0.08676 157 157 151
2.46470 -3.43007 0.09810 158 160 152
2.46061 -3.44317 0.10943 163 173 157
2.45242 -3.46936 0.13207 162 165 154
2.44833 -3.48244 0.14338 162 162 156
2.44424 -3.49552 0.15469 163 169 172
2.44015 -3.50859 0.16599 163 166 176
2.44258 -3.41427 0.08144 147 153 146
2.43851 -3.42733 0.09273 150 155 150
2.43443 -3.44038 0.10402 154 161 162
2.42629 -3.46647 0.12657 157 163 164
2.42222 -3.47950 0.13784 158 160 161
2.41816 -3.49252 0.14910 159 166 168
2.41409 -3.50554 0.16036 169 173 174
2.40037 -3.46360 0.12111 159 166 162
2.39633 -3.47658 0.13234 161 162 158
2.39229 -3.48955 0.14356 155 159 162
2.38825 -3.50252 0.15477 171 172 176
2.27594 -3.86292 0.46644 157 145 135
2.37064 -3.47368 0.12689 164 165 162
2.36662 -3.48660 0.13806 155 151 159
2.36260 -3.49952 0.14923 168 165 174
2.35859 -3.51243 0.16039 172 176 176
2.35457 -3.52533 0.17155 179 180 176
2.35056 -3.53822 0.18270 176 167 165
2.34655 -3.55111 0.19385 170 173 151
2.34254 -3.56400 0.20499 168 166 166
2.33854 -3.57687 0.21613 173 177 166
2.25093 -3.85851 0.45970 155 147 137
2.24697 -3.87124 0.47070 155 157 165
2.24301 -3.88396 0.48171 155 165 183
2.23905 -3.89667 0.49270 156 166 181
2.23510 -3.90938 0.50369 157 167 184
2.34516 -3.47080 0.12147 166 165 164
2.34116 -3.48368 0.13261 167 162 160
2.33716 -3.49654 0.14373 168 171 172
2.33317 -3.50940 0.15485 176 179 178
2.32918 -3.52225 0.16597 178 180 182
2.32519 -3.53510 0.17708 180 178 180
2.32120 -3.54794 0.18818 160 162 156
2.31722 -3.56077 0.19928 163 170 177
2.31323 -3.57359 0.21037 168 180 174
2.30925 -3.58641 0.22146 164 168 166
2.30527 -3.59923 0.23254 165 167 160
2.22611 -3.85414 0.45301 154 146 137
2.22217 -3.86682 0.46398 156 158 169
2.21823 -3.87949 0.47494 158 167 184
2.21430 -3.89215 0.48589 160 168 179
2.21037 -3.90481 0.49684 161 168 183
2.20644 -3.91747 0.50778 160 168 177
2.20251 -3.93011 0.51872 160 167 176
2.19859 -3.94275 0.52965 159 166 175
2.19466 -3.95539 0.54058 158 166 174
2.31987 -3.46795 0.11611 164 167 156
2.31590 -3.48077 0.12719 163 166 153
2.31192 -3.49359 0.13828 164 170 170
2.30795 -3.50640 0.14936 175 179 174
2.30398 -3.51920 0.16043 173 170 174
2.30002 -3.53199 0.17150 169 169 174
2.29605 -3.54478 0.18256 163 165 160
2.29209 -3.55757 0.19361 164 169 174
2.28813 -3.57034 0.20466 160 172 171
2.28417 -3.58311 0.21571 161 168 165
2.28021 -3.59587 0.22675 166 168 160
2.20148 -3.84980 0.44638 156 140 130
2.19757 -3.86243 0.45730 158 161 170
2.19365 -3.87505 0.46822 161 170 183
2.18974 -3.88767 0.47913 164 169 179
2.18583 -3.90028 0.49004 162 169 178
2.18192 -3.91289 0.50094 161 170 174
2.17802 -3.92548 0.51184 162 169 177
2.17411 -3.93808 0.52273 161 169 177
2.17021 -3.95066 0.53362 161 168 174
2.16631 -3.96324 0.54450 163 168 180
2.29479 -3.46512 0.11078 167 169 153
2.29084 -3.47790 0.12183 163 170 153
2.28689 -3.49066 0.13287 161 168 168
2.28294 -3.50342 0.14390 171 180 173
2.27899 -3.51617 0.15493 160 163 161
2.27504 -3.52892 0.16596 170 174 164
2.27110 -3.54166 0.17698 172 173 160
2.26716 -3.55439 0.18799 169 169 161
2.26322 -3.56711 0.19900 163 165 157
2.25928 -3.57983 0.21000 159 166 158
2.25535 -3.59255 0.22100 163 161 152
2.17705 -3.84549 0.43980 156 137 134
2.17316 -3.85808 0.45068 161 163 173
2.16926 -3.87065 0.46156 163 172 179
2.16537 -3.88322 0.47243 165 170 181
2.16149 -3.89578 0.48330 163 170 180
2.15760 -3.90834 0.49416 162 170 174
2.15371 -3.92089 0.50501 162 171 175
2.14983 -3.93343 0.51586 163 171 177
2.14595 -3.94597 0.52671 162 173 174
2.26991 -3.46232 0.10550 166 173 159
2.26597 -3.47504 0.11650 163 171 160
2.26204 -3.48775 0.12750 158 164 160
2.25812 -3.50046 0.13849 171 182 174
2.25419 -3.51317 0.14948 165 169 160
2.25027 -3.52586 0.16047 173 181 165
2.24635 -3.53855 0.17144 176 175 162
2.24243 -3.55124 0.18241 174 173 157
2.23851 -3.56391 0.19338 169 168 154
2.23459 -3.57658 0.20434 160 163 161
2.23068 -3.58925 0.21530 168 166 162
2.15281 -3.84122 0.43327 156 137 138
2.14894 -3.85376 0.44411 162 164 173
2.14507 -3.86628 0.45495 164 172 175
2.14120 -3.87881 0.46578 165 171 182
2.13733 -3.89132 0.47660 164 170 181
2.13346 -3.90383 0.48742 163 170 175
2.12960 -3.91633 0.49824 163 171 172
2.12574 -3.92883 0.50905 163 172 177
2.24522 -3.45953 0.10025 165 174 160
2.24131 -3.47221 0.11122 164 176 162
2.23740 -3.48487 0.12217 166 172 163
2.21010 -3.57336 0.19872 173 172 165
2.20620 -3.58597 0.20964 176 175 173
2.12876 -3.83699 0.42679 153 139 137
2.12491 -3.84947 0.43759 163 166 172
2.12106 -3.86195 0.44839 163 171 174
2.11721 -3.87442 0.45918 163 170 180
2.11336 -3.88689 0.46996 164 170 181
2.10952 -3.89935 0.48074 162 170 177
2.10567 -3.91181 0.49152 163 170 174
2.21683 -3.46939 0.10597 162 171 160
2.21294 -3.48201 0.11689 171 179 167
2.18192 -3.58273 0.20402 174 170 169
2.10489 -3.83278 0.42036 151 142 136
2.10106 -3.84522 0.43112 162 167 174
2.09723 -3.85765 0.44188 160 169 176
2.09341 -3.87008 0.45263 161 169 180
2.08958 -3.88250 0.46337 164 170 181
2.08576 -3.89491 0.47411 162 170 179
2.08193 -3.90732 0.48485 164 170 178
2.19254 -3.46660 0.10077 155 156 155
2.18868 -3.47917 0.11165 163 169 158
2.15782 -3.57950 0.19845 170 169 166
2.08121 -3.82861 0.41398 151 142 139
2.07740 -3.84100 0.42470 160 167 176
2.07359 -3.85339 0.43542 160 169 176
2.06979 -3.86576 0.44613 162 170 182
2.06598 -3.87814 0.45684 164 171 184
2.06218 -3.89050 0.46754 163 171 180
2.05838 -3.90287 0.47823 164 171 180
2.17229 -3.45131 0.08477 142 147 153
2.16845 -3.46384 0.09561 152 155 150
2.16460 -3.47636 0.10644 157 163 157
2.16076 -3.48887 0.11727 163 167 173
2.13391 -3.57630 0.19293 166 170 171
2.05771 -3.82447 0.40765 152 143 145
2.05392 -3.83681 0.41833 159 169 177
2.05013 -3.84915 0.42901 161 170 175
2.04635 -3.86148 0.43968 163 170 181
2.04256 -3.87381 0.45035 163 171 185
2.03878 -3.88613 0.46101 163 171 181
2.03500 -3.89845 0.47166 163 172 182
2.14836 -3.44861 0.07969 147 151 155
2.14453 -3.46109 0.09049 154 165 156
2.14071 -3.47356 0.10128 158 167 167
2.13689 -3.48603 0.11207 163 168 167
2.13307 -3.49849 0.12285 169 177 178
2.12925 -3.51095 0.13363 170 167 165
2.11019 -3.57313 0.18744 165 174 178
2.03439 -3.82036 0.40137 154 147 146
2.03062 -3.83266 0.41201 159 170 180
2.02686 -3.84495 0.42265 162 170 177
2.02309 -3.85724 0.43328 163 171 178
2.01932 -3.86952 0.44391 162 171 182
2.01556 -3.88179 0.45453 162 171 181
2.01180 -3.89406 0.46515 163 172 184
2.12461 -3.44593 0.07465 156 159 154
2.12081 -3.45836 0.08540 157 167 160
2.11700 -3.47079 0.09616 159 165 165
2.11320 -3.48321 0.10691 164 174 161
2.10940 -3.49562 0.11765 159 168 169
2.10560 -3.50803 0.12839 161 169 161
2.10181 -3.52043 0.13912 166 175 165
2.09801 -3.53283 0.14985 160 167 149
2.09422 -3.54522 0.16057 169 180 166
2.09043 -3.55760 0.17128 164 165 166
2.08664 -3.56998 0.18200 167 177 174
2.01125 -3.81628 0.39514 156 149 143
2.00750 -3.82854 0.40574 160 170 182
2.00375 -3.84078 0.41634 165 170 180
2.00001 -3.85302 0.42693 163 170 180
1.99626 -3.86526 0.43752 162 171 183
1.99252 -3.87749 0.44810 162 172 181
1.98878 -3.88971 0.45868 166 172 184
2.10105 -3.44327 0.06964 160 164 155
2.09726 -3.45566 0.08036 161 168 159
2.09348 -3.46804 0.09107 162 167 162
2.08970 -3.48041 0.10178 167 176 158
2.08592 -3.49278 0.11248 161 163 163
2.08214 -3.50514 0.12318 157 165 154
2.07836 -3.51750 0.13388 165 176 160
2.07459 -3.52984 0.14456 152 157 151
2.07082 -3.54219 0.15525 163 170 162
2.06705 -3.55453 0.16592 161 166 165
2.06328 -3.56686 0.17659 162 166 163
1.98829 -3.81224 0.38895 156 150 141
1.98456 -3.82444 0.39952 160 170 181
1.98083 -3.83664 0.41008 164 171 181
1.97710 -3.84884 0.42063 164 171 182
1.97338 -3.86103 0.43118 163 171 185
1.96965 -3.87321 0.44172 163 172 182
1.96593 -3.88539 0.45226 168 173 183
2.07389 -3.45297 0.07535 166 172 159
2.07013 -3.46531 0.08603 164 173 161
2.06637 -3.47763 0.09670 171 173 157
2.06261 -3.48995 0.10736 165 166 163
2.05885 -3.50227 0.11802 155 159 160
2.05510 -3.51458 0.12867 170 179 161
2.05134 -3.52688 0.13932 155 161 153
2.04759 -3.53918 0.14996 161 167 159
2.04384 -3.55147 0.16060 162 172 168
2.04009 -3.56376 0.17123 160 165 160
2.03634 -3.57603 0.18186 157 162 155
1.96550 -3.80822 0.38281 155 151 144
1.96179 -3.82038 0.39334 160 170 181
1.95808 -3.83254 0.40386 162 171 181
1.95437 -3.84469 0.41438 163 171 180
1.95066 -3.85683 0.42489 163 171 181
1.94696 -3.86897 0.43539 162 173 181
2.04696 -3.46260 0.08102 159 167 164
2.04322 -3.47488 0.09165 168 171 164
2.03948 -3.48715 0.10228 166 174 158
2.03574 -3.49942 0.11289 159 161 160
2.03201 -3.51168 0.12351 173 170 158
2.02827 -3.52394 0.13412 153 158 156
2.02454 -3.53619 0.14472 157 161 156
2.02081 -3.54844 0.15532 149 157 153
2.01708 -3.56068 0.16591 153 157 152
2.01335 -3.57291 0.17650 154 158 151
1.94288 -3.80424 0.37672 157 152 150
1.93919 -3.81635 0.38721 161 170 183
1.93550 -3.82846 0.39769 163 170 182
1.93181 -3.84057 0.40817 164 171 181
1.92812 -3.85267 0.41864 163 172 181
1.92444 -3.86476 0.42911 164 174 179
2.01653 -3.48437 0.09723 154 163 153
2.01281 -3.49659 0.10781 161 169 166
2.00909 -3.50881 0.11838 164 165 158
2.00538 -3.52102 0.12895 160 166 161
2.00166 -3.53323 0.13952 154 157 158
1.99795 -3.54543 0.15008 149 153 142
1.99424 -3.55762 0.16063 157 158 142
1.99053 -3.56981 0.17118 159 154 144
1.92043 -3.80028 0.37067 158 156 157
1.91676 -3.81235 0.38112 161 170 186
1.91308 -3.82442 0.39157 164 170 181
1.90942 -3.83648 0.40201 164 172 179
1.90575 -3.84853 0.41244 165 173 180
1.90208 -3.86058 0.42287 166 174 178
1.99744 -3.46943 0.08167 162 167 164
1.99374 -3.48161 0.09222 168 172 169
1.99004 -3.49379 0.10276 164 172 166
1.98635 -3.50596 0.11330 153 156 153
1.98265 -3.51813 0.12383 157 165 168
1.97896 -3.53029 0.13436 151 148 159
1.97527 -3.54244 0.14488 151 156 150
1.96789 -3.56673 0.16590 161 157 147
1.89815 -3.79635 0.36467 160 159 156
1.89449 -3.80838 0.37508 163 170 184
1.89084 -3.82040 0.38549 165 172 180
1.88719 -3.83242 0.39589 165 173 178
1.88354 -3.84443 0.40629 166 174 180
1.87990 -3.85644 0.41668 167 175 180
1.97481 -3.46673 0.07674 174 177 169
1.97113 -3.47887 0.08725 166 175 173
1.96745 -3.49100 0.09775 160 167 158
1.96378 -3.50313 0.10825 151 160 158
1.96010 -3.51525 0.11874 159 163 165
1.95642 -3.52737 0.12923 157 159 161
1.94541 -3.56368 0.16067 160 152 143
1.87603 -3.79246 0.35872 160 163 159
1.87240 -3.80444 0.36909 164 172 185
1.86876 -3.81642 0.37946 167 173 183
1.86513 -3.82839 0.38982 165 173 182
1.86150 -3.84036 0.40018 166 175 184
1.85788 -3.85232 0.41054 168 176 182
1.95235 -3.46406 0.07184 174 175 162
1.94869 -3.47615 0.08231 160 168 168
1.94503 -3.48824 0.09278 159 166 165
1.94137 -3.50032 0.10324 168 177 169
1.93771 -3.51240 0.11369 171 181 160
1.92310 -3.56065 0.15547 161 161 146
1.85408 -3.78859 0.35280 159 163 169
1.85046 -3.80053 0.36314 163 171 187
1.84685 -3.81247 0.37347 167 171 184
1.84324 -3.82439 0.38380 165 173 183
1.83963 -3.83632 0.39412 165 174 182
1.83602 -3.84824 0.40444 167 173 181
2.14810 -2.74027 -0.55737 95 100 87
2.14436 -2.75266 -0.54664 95 102 82
2.09581 -2.91322 -0.40762 142 143 134
2.09209 -2.92553 -0.39697 139 141 136
2.08837 -2.93784 -0.38631 142 151 133
2.08465 -2.95014 -0.37567 149 151 136
2.08093 -2.96243 -0.36502 140 141 141
1.93006 -3.46140 0.06698 167 173 164
1.92642 -3.47345 0.07742 160 165 170
1.92277 -3.48550 0.08784 163 174 171
1.90096 -3.55764 0.15030 156 156 142
1.83229 -3.78475 0.34693 162 165 172
1.82869 -3.79665 0.35723 164 171 188
1.82510 -3.80854 0.36753 166 171 182
1.82151 -3.82043 0.37782 165 172 185
1.81791 -3.83231 0.38811 165 174 180
1.81432 -3.84418 0.39839 167 173 180
2.05802 -2.96164 -0.36828 137 140 139
2.05433 -2.97388 -0.35768 124 134 136
2.04325 -3.01057 -0.32591 145 148 149
2.03956 -3.02278 -0.31533 142 150 143
2.03587 -3.03499 -0.30476 138 137 128
2.03219 -3.04720 -0.29419 141 136 133
2.02851 -3.05940 -0.28363 146 148 149
1.90431 -3.47078 0.07256 169 174 165
1.90068 -3.48277 0.08295 169 175 165
1.89706 -3.49477 0.09333 165 166 164
1.89344 -3.50676 0.10371 182 190 187
1.81066 -3.78094 0.34111 162 168 174
1.80708 -3.79279 0.35137 163 170 181
1.80351 -3.80464 0.36163 165 172 180
1.79993 -3.81649 0.37189 164 171 182
1.79636 -3.82832 0.38214 164 173 180
1.79279 -3.84016 0.39238 165 172 181
2.03161 -2.97305 -0.36094 131 133 130
2.02793 -2.98524 -0.35039 133 132 133
2.02426 -2.99742 -0.33984 138 140 141
2.02059 -3.00960 -0.32929 143 144 139
2.01692 -3.02177 -0.31875 144 148 140
1.88236 -3.46812 0.06773 173 179 172
1.87876 -3.48007 0.07808 167 182 177
1.87515 -3.49202 0.08843 159 155 154
1.87155 -3.50397 0.09877 150 149 166
1.86795 -3.51591 0.10911 161 167 177
1.78920 -3.77716 0.33533 162 167 175
1.78563 -3.78897 0.34555 162 170 177
1.78208 -3.80078 0.35578 164 170 179
1.77852 -3.81258 0.36599 163 170 180
1.77496 -3.82437 0.37621 163 171 180
1.77141 -3.83616 0.38642 163 171 182
1.86058 -3.46548 0.06294 168 172 159
1.85699 -3.47739 0.07326 157 151 148
1.85341 -3.48930 0.08357 163 161 136
1.84982 -3.50120 0.09387 147 142 150
1.82479 -3.58435 0.16588 187 181 180
1.76788 -3.77340 0.32959 163 169 174
1.76434 -3.78517 0.33978 162 171 176
1.76080 -3.79694 0.34996 164 169 176
1.75726 -3.80869 0.36015 162 170 179
1.75372 -3.82045 0.37032 163 170 178
1.75019 -3.83219 0.38049 163 170 179
1.83895 -3.46286 0.05819 162 165 160
1.83538 -3.47473 0.06847 163 167 157
1.80335 -3.58130 0.16076 179 178 171
1.74673 -3.76968 0.32389 164 169 174
1.74320 -3.78140 0.33404 164 169 179
1.73968 -3.79312 0.34419 165 170 181
1.73616 -3.80484 0.35434 165 170 183
1.73264 -3.81655 0.36448 164 170 181
1.72912 -3.82826 0.37462 165 171 183
1.81394 -3.47208 0.06371 158 164 166
1.79621 -3.53113 0.11485 183 194 180
1.79267 -3.54293 0.12506 170 175 164
1.78913 -3.55472 0.13527 162 166 158
1.78560 -3.56650 0.14548 165 167 167
1.78206 -3.57828 0.15568 167 157 160
1.76441 -3.63708 0.20660 174 180 170
1.76089 -3.64883 0.21678 170 172 166
1.75736 -3.66057 0.22694 170 172 166
1.72573 -3.76598 0.31823 161 171 176
1.72222 -3.77766 0.32835 164 171 179
1.71871 -3.78934 0.33847 165 172 181
1.71521 -3.80101 0.34858 166 171 182
1.71171 -3.81268 0.35868 166 172 181
1.70821 -3.82435 0.36878 166 173 181
1.78911 -3.48124 0.06919 179 183 169
1.77853 -3.51654 0.09977 169 162 172
1.77501 -3.52830 0.10995 172 178 170
1.77149 -3.54005 0.12013 169 165 165
1.76797 -3.55180 0.13030 160 159 152
1.76445 -3.56354 0.14047 169 173 171
1.76093 -3.57527 0.15063 174 173 168
1.74337 -3.63387 0.20138 169 166 161
1.73986 -3.64557 0.21151 169 168 162
1.73636 -3.65727 0.22165 176 176 168
1.73285 -3.66896 0.23177 169 164 160
1.72935 -3.68065 0.24189 168 163 164
1.72585 -3.69233 0.25201 172 169 165
1.72235 -3.70400 0.26212 170 171 161
1.71885 -3.71567 0.27223 173 176 166
1.70488 -3.76230 0.31261 161 172 177
1.70139 -3.77395 0.32270 165 172 176
1.69790 -3.78558 0.33278 165 173 179
1.69441 -3.79722 0.34285 165 173 178
1.69093 -3.80884 0.35292 166 172 175
1.76448 -3.49032 0.07463 166 174 174
1.76097 -3.50205 0.08478 180 181 170
1.75747 -3.51377 0.09493 155 150 156
1.75396 -3.52548 0.10508 167 173 166
1.75046 -3.53719 0.11522 177 181 168
1.74695 -3.54890 0.12536 175 179 163
1.74345 -3.56060 0.13549 173 174 179
1.73995 -3.57229 0.14562 175 176 176
1.72248 -3.63067 0.19619 158 162 155
1.71899 -3.64234 0.20629 159 167 164
1.71550 -3.65399 0.21639 171 175 170
1.71201 -3.66564 0.22648 165 165 158
1.70853 -3.67729 0.23656 159 164 165
1.70504 -3.68893 0.24665 169 176 172
1.70156 -3.70056 0.25672 169 172 154
1.69808 -3.71219 0.26680 176 178 148
1.69460 -3.72382 0.27686 177 173 150
1.68418 -3.75865 0.30704 161 170 178
1.68070 -3.77026 0.31709 163 172 177
1.67723 -3.78185 0.32713 164 173 180
1.67376 -3.79345 0.33717 164 174 181
1.67030 -3.80503 0.34721 166 172 179
1.73306 -3.52269 0.10025 169 179 175
1.72958 -3.53436 0.11036 182 186 171
1.72609 -3.54602 0.12046 176 180 169
1.72261 -3.55768 0.13056 173 175 161
1.71913 -3.56933 0.14065 176 180 170
1.70174 -3.62751 0.19104 167 170 162
1.69827 -3.63913 0.20111 169 171 161
1.69479 -3.65074 0.21117 173 175 163
1.69132 -3.66235 0.22122 169 169 157
1.68786 -3.67395 0.23127 164 160 154
1.68439 -3.68555 0.24132 167 165 159
1.68093 -3.69715 0.25136 177 186 161
1.67746 -3.70873 0.26140 193 201 150
1.67400 -3.72032 0.27143 184 181 152
1.66363 -3.75503 0.30150 161 169 178
1.66017 -3.76660 0.31152 163 170 180
1.65672 -3.77815 0.32153 166 171 182
1.65326 -3.78970 0.33153 167 171 182
1.64981 -3.80125 0.34153 167 172 180
1.70538 -3.54316 0.11559 171 174 177
1.70191 -3.55478 0.12565 179 188 174
1.68115 -3.62436 0.18593 169 172 163
1.67769 -3.63594 0.19596 172 170 160
1.67424 -3.64751 0.20598 175 177 167
1.67078 -3.65908 0.21601 173 180 167
1.66733 -3.67064 0.22602 174 173 162
1.66388 -3.68220 0.23603 176 170 164
1.66044 -3.69375 0.24604 175 178 168
1.65699 -3.70530 0.25604 178 189 164
1.64322 -3.75144 0.29601 161 171 176
1.63978 -3.76296 0.30599 164 171 180
1.63635 -3.77448 0.31596 167 171 181
1.63291 -3.78599 0.32593 167 169 179
1.62948 -3.79749 0.33590 167 171 181
1.66070 -3.62124 0.18085 171 179 167
1.65726 -3.63278 0.19085 172 172 160
1.65383 -3.64431 0.20084 169 171 159
1.65039 -3.65584 0.21082 161 167 156
1.64696 -3.66736 0.22081 162 160 149
1.64353 -3.67888 0.23078 166 158 154
1.64009 -3.69039 0.24076 173 171 168
1.63667 -3.70189 0.25072 175 177 164
1.62296 -3.74787 0.29055 164 171 177
1.61954 -3.75935 0.30050 166 173 182
1.61612 -3.77083 0.31044 168 174 184
1.61270 -3.78230 0.32037 167 172 182
1.60929 -3.79376 0.33031 167 172 185
1.64040 -3.61814 0.17581 175 179 179
1.63698 -3.62963 0.18577 176 179 175
1.63356 -3.64113 0.19573 168 169 157
1.63014 -3.65261 0.20568 160 159 152
1.62673 -3.66410 0.21563 162 162 159
1.62331 -3.67557 0.22557 167 167 158
1.61990 -3.68704 0.23551 176 180 168
1.61649 -3.69851 0.24544 177 177 163
1.60626 -3.73288 0.27522 167 171 179
1.60285 -3.74433 0.28513 167 172 178
1.59945 -3.75577 0.29504 167 172 180
1.59604 -3.76720 0.30495 166 173 183
1.59264 -3.77863 0.31485 166 174 187
1.58924 -3.79006 0.32475 168 175 189
1.62025 -3.61506 0.17081 174 182 181
1.61685 -3.62651 0.18074 178 185 182
1.61344 -3.63797 0.19066 168 170 163
1.61004 -3.64941 0.20057 157 158 156
1.60664 -3.66086 0.21049 159 159 162
1.60324 -3.67229 0.22040 165 164 166
1.59984 -3.68373 0.23030 174 181 171
1.59645 -3.69515 0.24020 174 181 164
1.59305 -3.70657 0.25010 176 173 167
1.58966 -3.71799 0.25999 179 181 178
1.58627 -3.72940 0.26987 173 176 183
1.58288 -3.74081 0.27975 168 171 179
1.57949 -3.75221 0.28963 166 171 179
1.57611 -3.76360 0.29950 167 172 181
1.57272 -3.77500 0.30937 167 173 184
1.56934 -3.78638 0.31924 169 174 185
1.60024 -3.61200 0.16584 161 163 165
1.59685 -3.62342 0.17573 168 167 168
1.59346 -3.63483 0.18562 165 166 159
1.59008 -3.64624 0.19550 160 163 154
1.58669 -3.65764 0.20538 164 163 159
1.58331 -3.66904 0.21526 167 164 163
1.57993 -3.68043 0.22513 165 169 160
1.57655 -3.69182 0.23499 162 168 160
1.57317 -3.70320 0.24486 172 176 176
1.56980 -3.71458 0.25471 176 180 180
1.56642 -3.72595 0.26456 171 174 180
1.56305 -3.73731 0.27441 166 171 176
1.55968 -3.74868 0.28426 166 171 176
1.55631 -3.76003 0.29410 167 170 175
1.55294 -3.77138 0.30393 166 170 176
1.54957 -3.78273 0.31376 167 172 181
1.58037 -3.60896 0.16091 167 169 161
1.57700 -3.62034 0.17076 173 170 161
1.57363 -3.63172 0.18062 167 158 157
1.57026 -3.64308 0.19047 160 154 155
1.56689 -3.65445 0.20031 165 165 160
1.56352 -3.66580 0.21016 169 166 161
1.56016 -3.67716 0.21999 164 166 161
1.55680 -3.68850 0.22982 164 167 164
1.55343 -3.69985 0.23965 173 176 176
1.55008 -3.71118 0.24948 176 180 179
1.54672 -3.72252 0.25929 170 175 180
1.54336 -3.73384 0.26911 165 171 172
1.54000 -3.74517 0.27892 165 171 180
1.53665 -3.75648 0.28873 166 169 177
1.53330 -3.76780 0.29853 165 170 179
1.52995 -3.77910 0.30832 165 172 184
1.56064 -3.60595 0.15601 166 170 165
1.55728 -3.61729 0.16583 170 171 163
1.55393 -3.62862 0.17565 164 156 150
1.55058 -3.63995 0.18547 157 155 148
1.54722 -3.65127 0.19528 159 162 158
1.54387 -3.66259 0.20509 162 162 161
1.54053 -3.67391 0.21489 165 170 166
1.53718 -3.68522 0.22469 172 177 171
1.53383 -3.69652 0.23449 179 181 175
1.53049 -3.70782 0.24428 180 181 176
1.52715 -3.71911 0.25406 169 175 176
1.52381 -3.73040 0.26384 164 170 175
1.52047 -3.74168 0.27362 165 171 180
1.51713 -3.75296 0.28339 167 170 176
1.51379 -3.76423 0.29316 164 171 177
1.51046 -3.77550 0.30292 163 172 182
1.54105 -3.60296 0.15114 159 167 170
1.53771 -3.61426 0.16093 164 170 162
1.53437 -3.62555 0.17072 161 163 146
1.53103 -3.63684 0.18050 153 156 147
1.52770 -3.64813 0.19028 158 160 156
1.52436 -3.65941 0.20006 163 163 159
1.52103 -3.67068 0.20983 166 163 162
1.51770 -3.68195 0.21959 171 168 166
1.51437 -3.69321 0.22935 176 178 171
1.51104 -3.70447 0.23911 174 177 174
1.50772 -3.71573 0.24886 165 168 175
1.50439 -3.72698 0.25861 163 170 179
1.50107 -3.73822 0.26836 164 170 183
1.49775 -3.74946 0.27810 165 170 177
1.49443 -3.76070 0.28783 163 170 177
1.52159 -3.59998 0.14631 154 163 165
1.51827 -3.61125 0.15607 161 168 158
1.51495 -3.62250 0.16582 158 163 152
1.51162 -3.63375 0.17557 156 158 152
1.50831 -3.64500 0.18532 166 166 154
1.50499 -3.65624 0.19506 169 167 154
1.50167 -3.66748 0.20480 166 164 155
1.49836 -3.67871 0.21453 166 162 160
1.49504 -3.68993 0.22426 170 169 167
1.49173 -3.70115 0.23398 167 169 171
1.48842 -3.71237 0.24370 163 164 175
1.48511 -3.72358 0.25342 162 168 179
1.48180 -3.73479 0.26313 162 169 182
1.47850 -3.74599 0.27284 162 168 178
1.47519 -3.75719 0.28254 161 167 179
1.50227 -3.59703 0.14151 149 154 151
1.49896 -3.60826 0.15124 150 155 154
1.49566 -3.61947 0.16096 156 160 159
1.49235 -3.63069 0.17068 166 168 161
1.48905 -3.64189 0.18039 173 173 158
1.48575 -3.65310 0.19010 173 174 153
1.48245 -3.66429 0.19980 165 167 147
1.47915 -3.67549 0.20951 161 163 155
1.47585 -3.68667 0.21920 167 167 165
1.47255 -3.69786 0.22889 163 163 166
1.46926 -3.70904 0.23858 161 164 173
1.46596 -3.72021 0.24826 161 168 177
1.46267 -3.73138 0.25794 161 169 179
1.45938 -3.74254 0.26762 159 168 175
1.45609 -3.75370 0.27729 158 167 176
1.48309 -3.59410 0.13675 150 151 148
1.47979 -3.60529 0.14644 146 148 150
1.47650 -3.61647 0.15613 153 158 155
1.47321 -3.62764 0.16582 163 167 160
1.46993 -3.63881 0.17550 169 172 163
1.46664 -3.64997 0.18517 167 169 158
1.46335 -3.66113 0.19485 162 163 151
1.46007 -3.67229 0.20451 167 171 159
1.45679 -3.68344 0.21418 168 173 168
1.45351 -3.69458 0.22384 163 166 165
1.45023 -3.70572 0.23349 161 167 172
1.44695 -3.71686 0.24314 160 168 175
1.44367 -3.72799 0.25279 160 168 176
1.44040 -3.73911 0.26243 158 166 172
1.43713 -3.75023 0.27207 156 166 170
1.46403 -3.59119 0.13202 154 154 155
1.46076 -3.60234 0.14168 156 155 153
1.45748 -3.61348 0.15134 153 152 146
1.45421 -3.62461 0.16099 153 154 151
1.45093 -3.63575 0.17064 164 169 162
1.44766 -3.64687 0.18028 165 166 156
1.44439 -3.65799 0.18992 162 162 154
1.44113 -3.66911 0.19956 172 177 166
1.43786 -3.68022 0.20919 165 171 165
1.43459 -3.69133 0.21881 160 167 165
1.43133 -3.70243 0.22844 160 169 175
1.42807 -3.71353 0.23805 160 170 174
1.42481 -3.72462 0.24767 161 169 173
1.42155 -3.73571 0.25728 155 162 169
1.44511 -3.58830 0.12732 155 159 158
1.44185 -3.59941 0.13695 166 167 160
1.43859 -3.61051 0.14657 160 153 146
1.43533 -3.62161 0.15619 150 145 147
1.43207 -3.63270 0.16581 164 169 163
1.42882 -3.64379 0.17542 175 180 163
1.42556 -3.65488 0.18503 176 177 159
1.42231 -3.66596 0.19463 177 180 165
1.41906 -3.67703 0.20423 168 168 158
1.41581 -3.68810 0.21383 158 164 165
1.41256 -3.69917 0.22342 157 169 177
1.40931 -3.71023 0.23300 160 171 175
1.40607 -3.72128 0.24259 161 170 170
1.42632 -3.58543 0.12266 154 160 157
1.42307 -3.59650 0.13225 171 172 169
1.41983 -3.60757 0.14184 167 161 156
1.41658 -3.61863 0.15143 150 149 145
1.41334 -3.62968 0.16102 155 163 159
1.41010 -3.64074 0.17060 173 183 173
1.40686 -3.65178 0.18017 182 188 170
1.40363 -3.66282 0.18974 174 171 158
1.40039 -3.67386 0.19931 160 156 156
1.39716 -3.68489 0.20887 152 160 164
1.39392 -3.69592 0.21843 155 167 175
1.39069 -3.70695 0.22799 161 170 178
1.38746 -3.71796 0.23754 160 166 171
1.40765 -3.58258 0.11802 153 155 153
1.40442 -3.59361 0.12759 166 164 167
1.40119 -3.60464 0.13715 163 162 159
1.39797 -3.61566 0.14670 151 154 147
1.39474 -3.62668 0.15625 149 156 151
1.39151 -3.63770 0.16580 156 163 160
1.38829 -3.64871 0.17535 161 164 159
1.38507 -3.65971 0.18489 157 154 151
1.38185 -3.67071 0.19442 145 146 152
1.37863 -3.68171 0.20395 145 155 157
1.37541 -3.69270 0.21348 153 166 173
1.37219 -3.70369 0.22300 159 168 179
1.36898 -3.71467 0.23252 157 164 172
1.39234 -3.56874 0.10388 162 166 161
1.38912 -3.57975 0.11342 161 157 152
1.38590 -3.59074 0.12295 163 159 152
1.38269 -3.60173 0.13248 156 157 153
1.37947 -3.61272 0.14201 151 155 153
1.37626 -3.62370 0.15153 160 162 155
1.37305 -3.63468 0.16104 159 157 152
1.36984 -3.64566 0.17056 153 154 151
1.36664 -3.65662 0.18006 156 161 152
1.36343 -3.66759 0.18957 151 156 145
1.36023 -3.67855 0.19907 147 153 149
1.35702 -3.68950 0.20856 150 164 174
1.35382 -3.70045 0.21806 154 165 177
1.35062 -3.71139 0.22754 152 163 171
1.34742 -3.72233 0.23703 146 156 158
1.37711 -3.55500 0.08983 158 167 154
1.37391 -3.56597 0.09934 163 165 159
1.37071 -3.57693 0.10885 162 160 151
1.36751 -3.58789 0.11835 163 162 151
1.36431 -3.59885 0.12785 158 160 154
1.36111 -3.60980 0.13734 155 163 157
1.35791 -3.62074 0.14683 169 174 163
1.35472 -3.63169 0.15631 176 175 165
1.35152 -3.64262 0.16580 171 171 161
1.34833 -3.65355 0.17527 164 167 153
1.34514 -3.66448 0.18475 157 157 144
1.34195 -3.67540 0.19421 152 156 148
1.33876 -3.68632 0.20368 147 160 165
1.33557 -3.69723 0.21314 152 165 170
1.33239 -3.70814 0.22260 149 160 165
1.32920 -3.71905 0.23205 148 159 168
1.32602 -3.72994 0.24150 149 158 168
1.36199 -3.54134 0.07587 164 165 154
1.35880 -3.55228 0.08535 161 165 156
1.35561 -3.56321 0.09483 162 162 154
1.35242 -3.57414 0.10431 160 158 150
1.34924 -3.58506 0.11378 160 158 155
1.34605 -3.59598 0.12324 168 166 160
1.34287 -3.60690 0.13271 175 175 164
1.33969 -3.61781 0.14216 180 184 176
1.33650 -3.62871 0.15162 185 182 178
1.33333 -3.63961 0.16107 176 165 162
1.33015 -3.65051 0.17051 162 159 156
1.32697 -3.66140 0.17996 162 164 159
1.32380 -3.67228 0.18939 157 161 155
1.32062 -3.68316 0.19883 152 159 157
1.31745 -3.69404 0.20826 159 169 162
1.31428 -3.70491 0.21768 153 160 155
1.31111 -3.71578 0.22711 151 160 166
1.30794 -3.72664 0.23652 150 161 164
1.30477 -3.73750 0.24594 142 152 158
1.34061 -3.54958 0.08091 168 170 159
1.33743 -3.56047 0.09035 163 168 159
1.33426 -3.57136 0.09980 163 170 162
1.33109 -3.58225 0.10924 165 170 164
1.32792 -3.59313 0.11867 175 177 166
1.32475 -3.60401 0.12810 178 178 169
1.32158 -3.61489 0.13753 176 177 177
1.31842 -3.62575 0.14695 180 174 178
1.31525 -3.63662 0.15637 172 164 167
1.31209 -3.64748 0.16579 162 167 167
1.30892 -3.65833 0.17520 164 173 167
1.30576 -3.66918 0.18461 163 167 159
1.30260 -3.68003 0.19401 164 169 161
1.29945 -3.69087 0.20341 165 171 161
1.29629 -3.70171 0.21280 160 167 160
1.29313 -3.71254 0.22220 169 177 167
1.28998 -3.72336 0.23158 168 176 160
1.32254 -3.54689 0.07649 174 176 162
1.31938 -3.55775 0.08591 165 166 157
1.31622 -3.56861 0.09532 165 165 157
1.31306 -3.57946 0.10473 163 165 160
1.30991 -3.59031 0.11413 168 171 166
1.30675 -3.60115 0.12353 170 173 169
1.30360 -3.61199 0.13293 167 169 171
1.30045 -3.62282 0.14232 174 175 173
1.29730 -3.63365 0.15171 175 175 168
1.29415 -3.64447 0.16109 168 171 165
1.29100 -3.65529 0.17048 168 169 164
1.28785 -3.66610 0.17985 168 170 156
1.28471 -3.67691 0.18922 169 178 157
1.28157 -3.68772 0.19859 163 174 159
1.27842 -3.69852 0.20796 164 175 167
1.27528 -3.70932 0.21732 179 184 174
1.27214 -3.72011 0.22668 172 173 164
1.26900 -3.73089 0.23603 172 184 166
1.26587 -3.74168 0.24538 170 174 163
1.26273 -3.75245 0.25472 172 183 181
1.30459 -3.54423 0.07210 172 175 171
1.30144 -3.55505 0.08149 168 167 161
1.29830 -3.56587 0.09087 167 160 158
1.29516 -3.57669 0.10025 164 159 155
1.29202 -3.58750 0.10962 171 172 159
1.28888 -3.59830 0.11899 170 170 159
1.28574 -3.60911 0.12836 165 162 157
1.28260 -3.61990 0.13772 172 175 167
1.27946 -3.63069 0.14708 180 185 173
1.27633 -3.64148 0.15643 176 173 165
1.27320 -3.65227 0.16578 166 163 158
1.27006 -3.66305 0.17513 166 168 152
1.26693 -3.67382 0.18447 169 177 157
1.26380 -3.68459 0.19381 169 180 165
1.26068 -3.69535 0.20314 174 179 171
1.25755 -3.70611 0.21247 167 164 166
1.25442 -3.71687 0.22180 149 149 157
1.25130 -3.72762 0.23112 174 186 176
1.24818 -3.73837 0.24044 176 181 172
1.24506 -3.74911 0.24976 170 174 174
1.24194 -3.75985 0.25907 174 176 166
1.23882 -3.77058 0.26837 170 175 160
1.23570 -3.78131 0.27768 182 189 176
1.28363 -3.55237 0.07710 171 173 167
1.28050 -3.56315 0.08645 170 175 173
1.27737 -3.57393 0.09580 172 177 171
1.27424 -3.58471 0.10514 178 179 163
1.27112 -3.59548 0.11448 179 176 160
1.26799 -3.60624 0.12382 176 172 165
1.26487 -3.61701 0.13315 177 179 171
1.26175 -3.62776 0.14248 177 179 169
1.25863 -3.63852 0.15180 172 166 154
1.25551 -3.64926 0.16112 163 155 137
1.25239 -3.66001 0.17044 159 156 146
1.24928 -3.67075 0.17975 161 165 161
1.24616 -3.68148 0.18906 163 169 166
1.24305 -3.69221 0.19836 172 173 169
1.23993 -3.70294 0.20766 165 158 158
1.23682 -3.71366 0.21696 150 147 151
1.23371 -3.72437 0.22625 169 172 167
1.23060 -3.73508 0.23554 170 165 158
1.22750 -3.74579 0.24482 164 165 159
1.22439 -3.75649 0.25410 172 172 164
1.22129 -3.76719 0.26338 169 170 167
1.21818 -3.77789 0.27265 188 187 180
1.21508 -3.78858 0.28192 188 182 169
1.26282 -3.56045 0.08206 155 158 161
1.25970 -3.57120 0.09138 154 160 166
1.25659 -3.58194 0.10069 165 170 167
1.25348 -3.59267 0.11000 172 173 170
1.25037 -3.60340 0.11931 176 179 174
1.24726 -3.61413 0.12861 178 180 170
1.24415 -3.62485 0.13791 175 174 168
1.24105 -3.63557 0.14720 181 178 169
1.23794 -3.64628 0.15649 179 176 161
1.23484 -3.65699 0.16578 166 171 158
1.23173 -3.66769 0.17506 164 174 162
1.22863 -3.67839 0.18434 159 164 157
1.22553 -3.68909 0.19361 161 161 161
1.22244 -3.69978 0.20288 165 163 160
1.21934 -3.71046 0.21215 154 147 156
1.21624 -3.72114 0.22141 165 173 171
1.21315 -3.73182 0.23067 170 176 162
1.21005 -3.74249 0.23992 169 173 152
1.20696 -3.75316 0.24917 167 163 147
1.20387 -3.76383 0.25842 161 167 168
1.20078 -3.77448 0.26766 170 169 169
1.19769 -3.78514 0.27690 173 164 159
1.24836 -3.54705 0.06841 165 173 165
1.24525 -3.55777 0.07770 158 160 152
1.24215 -3.56848 0.08699 157 152 149
1.23906 -3.57918 0.09627 166 167 159
1.23596 -3.58988 0.10555 173 172 166
1.23286 -3.60058 0.11482 169 168 164
1.22977 -3.61127 0.12410 162 165 158
1.22667 -3.62196 0.13336 161 168 162
1.22358 -3.63264 0.14263 175 184 177
1.22049 -3.64332 0.15189 174 179 176
1.21740 -3.65399 0.16115 155 154 156
1.21431 -3.66466 0.17040 155 158 150
1.21122 -3.67533 0.17965 156 167 157
1.20814 -3.68599 0.18889 159 166 165
1.20505 -3.69664 0.19813 171 178 175
1.20197 -3.70729 0.20737 161 164 165
1.19889 -3.71794 0.21660 159 164 168
1.19581 -3.72858 0.22583 168 175 164
1.19273 -3.73922 0.23506 174 179 161
1.18965 -3.74985 0.24428 170 172 158
1.18657 -3.76048 0.25350 160 166 171
1.18350 -3.77111 0.26271 160 161 163
1.18042 -3.78173 0.27192 170 177 161
1.17735 -3.79234 0.28112 176 181 163
1.17121 -3.81356 0.29953 163 179 172
1.22472 -3.56578 0.08262 166 172 164
1.22163 -3.57645 0.09188 175 182 163
1.21855 -3.58711 0.10113 173 175 158
1.21547 -3.59777 0.11037 166 171 157
1.21239 -3.60843 0.11962 154 160 141
1.20931 -3.61908 0.12885 151 154 140
1.20623 -3.62973 0.13809 166 167 161
1.20315 -3.64037 0.14732 162 160 163
1.20008 -3.65101 0.15655 142 140 149
1.19700 -3.66165 0.16577 144 146 141
1.19393 -3.67228 0.17499 144 147 140
1.19086 -3.68290 0.18420 145 147 151
1.18779 -3.69352 0.19341 161 167 169
1.18472 -3.70414 0.20262 161 167 162
1.18165 -3.71475 0.21182 157 160 160
1.17858 -3.72536 0.22102 155 162 157
1.17551 -3.73597 0.23022 157 165 164
1.17245 -3.74656 0.23941 162 166 161
1.16939 -3.75716 0.24860 167 174 171
1.16633 -3.76775 0.25779 166 166 158
1.16326 -3.77833 0.26697 173 181 163
1.16021 -3.78892 0.27614 179 185 169
1.15715 -3.79949 0.28532 164 169 156
1.15409 -3.81006 0.29448 163 170 158
1.20126 -3.58436 0.09673 165 170 141
1.19819 -3.59499 0.10595 160 171 142
1.19512 -3.60561 0.11516 165 174 149
1.19206 -3.61623 0.12437 162 167 149
1.18899 -3.62684 0.13358 168 167 158
1.18593 -3.63745 0.14278 171 169 161
1.18287 -3.64805 0.15198 160 159 155
1.17981 -3.65865 0.16117 153 156 150
1.17675 -3.66925 0.17036 150 159 146
1.17369 -3.67984 0.17955 143 148 144
1.17063 -3.69043 0.18873 147 155 152
1.16758 -3.70101 0.19791 154 159 151
1.16452 -3.71159 0.20708 154 156 146
1.16147 -3.72216 0.21625 145 150 135
1.15841 -3.73273 0.22542 148 150 145
1.15536 -3.74330 0.23458 147 150 147
1.15231 -3.75386 0.24374 154 159 151
1.14927 -3.76441 0.25289 160 169 159
1.14622 -3.77497 0.26205 168 173 165
1.14317 -3.78551 0.27119 173 175 159
1.14013 -3.79606 0.28034 174 178 153
1.13709 -3.80659 0.28948 174 171 152
1.13404 -3.81713 0.29861 160 155 149
1.08857 -3.97462 0.43520 154 164 156
1.08555 -3.98508 0.44428 172 173 159
1.17492 -3.61339 0.11992 175 169 153
1.17187 -3.62397 0.12910 160 157 153
1.16882 -3.63454 0.13827 158 156 159
1.16577 -3.64512 0.14744 159 159 156
1.16272 -3.65568 0.15660 160 164 148
1.15968 -3.66624 0.16576 165 165 148
1.15663 -3.67680 0.17492 165 164 154
1.15359 -3.68735 0.18407 160 152 146
1.15055 -3.69790 0.19322 162 150 129
1.14751 -3.70845 0.20237 156 154 135
1.14447 -3.71899 0.21151 135 147 137
1.14143 -3.72952 0.22065 142 156 150
1.13839 -3.74005 0.22978 139 143 134
1.13535 -3.75058 0.23891 141 145 134
1.13232 -3.76110 0.24804 154 158 161
1.12929 -3.77162 0.25716 164 168 162
1.12625 -3.78213 0.26628 170 167 157
1.12322 -3.79264 0.27539 175 176 164
1.12019 -3.80315 0.28450 182 182 165
1.11716 -3.81365 0.29361 164 166 150
1.11414 -3.82414 0.30271 146 146 143
1.07490 -3.96020 0.42072 170 172 169
1.07189 -3.97063 0.42977 167 173 161
1.06888 -3.98106 0.43882 176 183 161
1.06587 -3.99149 0.44786 166 169 156
1.06287 -4.00191 0.45690 159 159 147
1.05986 -4.01233 0.46594 157 162 147
1.19750 -3.47309 -0.00375 187 187 182
1.19445 -3.48369 0.00544 185 180 164
1.14879 -3.64220 0.14293 174 177 156
1.14575 -3.65273 0.15206 178 178 147
1.14272 -3.66326 0.16119 166 160 145
1.13969 -3.67378 0.17032 153 147 154
1.13666 -3.68430 0.17945 151 148 151
1.13363 -3.69481 0.18857 163 163 140
1.13060 -3.70532 0.19768 152 156 141
1.12758 -3.71583 0.20680 149 155 155
1.12455 -3.72633 0.21590 161 156 163
1.12153 -3.73683 0.22501 164 161 159
1.11850 -3.74732 0.23411 157 160 148
1.11548 -3.75781 0.24321 151 149 149
1.11246 -3.76829 0.25230 155 150 150
1.10944 -3.77877 0.26139 158 162 157
1.10643 -3.78925 0.27048 165 168 164
1.10341 -3.79972 0.27956 169 168 154
1.10039 -3.81019 0.28864 161 155 153
1.09738 -3.82065 0.29771 158 153 139
1.05831 -3.95627 0.41535 155 162 165
1.05532 -3.96667 0.42437 172 174 167
1.05232 -3.97707 0.43339 177 180 167
1.04933 -3.98746 0.44241 169 174 156
1.04633 -3.99785 0.45142 150 150 135
1.04334 -4.00824 0.46043 156 161 143
1.02840 -4.06010 0.50541 157 163 154
1.02542 -4.07046 0.51439 159 163 153
1.18345 -3.46016 -0.01694 165 171 165
1.13493 -3.62879 0.12934 172 179 164
1.13191 -3.63929 0.13845 180 185 162
1.12889 -3.64979 0.14755 158 155 145
1.12587 -3.66029 0.15666 144 145 140
1.12285 -3.67078 0.16576 151 157 152
1.11984 -3.68126 0.17485 162 167 160
1.11682 -3.69174 0.18394 152 156 149
1.11381 -3.70222 0.19303 131 137 133
1.11080 -3.71269 0.20211 152 159 159
1.10778 -3.72316 0.21119 152 142 160
1.10477 -3.73362 0.22027 153 158 164
1.10176 -3.74408 0.22934 161 169 160
1.09876 -3.75454 0.23841 151 158 153
1.09575 -3.76499 0.24748 152 149 135
1.09274 -3.77544 0.25654 157 158 141
1.08974 -3.78588 0.26560 157 146 136
1.08674 -3.79632 0.27465 160 155 149
1.08373 -3.80675 0.28370 161 164 160
1.08073 -3.81718 0.29275 153 160 161
1.07773 -3.82760 0.30179 154 163 152
1.07474 -3.83803 0.31083 159 164 145
1.07174 -3.84844 0.31986 158 158 149
1.04482 -3.94200 0.40102 146 143 128
1.04184 -3.95237 0.41001 151 160 147
1.03885 -3.96274 0.41901 167 173 159
1.03587 -3.97311 0.42800 170 170 163
1.03289 -3.98347 0.43699 166 171 153
1.02991 -3.99382 0.44597 150 150 144
1.02693 -4.00418 0.45495 160 159 143
1.02395 -4.01452 0.46393 157 154 146
1.02098 -4.02487 0.47290 157 156 147
1.01800 -4.03521 0.48187 148 145 132
1.01503 -4.04554 0.49083 148 152 145
1.01206 -4.05587 0.49979 152 156 140
1.00909 -4.06620 0.50875 158 159 141
1.00612 -4.07652 0.51771 160 158 143
1.00315 -4.08684 0.52666 162 164 143
1.00018 -4.09716 0.53560 164 163 140
0.99721 -4.10747 0.54455 153 151 139
0.99425 -4.11777 0.55349 153 150 140
0.99128 -4.12807 0.56242 154 152 131
0.98832 -4.13837 0.57135 141 143 117
0.98536 -4.14866 0.58028 141 146 134
0.98240 -4.15895 0.58921 150 155 143
1.16646 -3.45785 -0.02090 186 197 179
1.11816 -3.62594 0.12491 178 173 157
1.11214 -3.64688 0.14307 163 166 151
1.10914 -3.65734 0.15215 161 164 133
1.10613 -3.66779 0.16122 161 160 135
1.10313 -3.67825 0.17029 167 173 163
1.10012 -3.68869 0.17935 152 156 151
1.09712 -3.69914 0.18841 131 136 131
1.09412 -3.70958 0.19746 146 142 138
1.09113 -3.72001 0.20651 144 122 120
1.08813 -3.73044 0.21556 150 140 136
1.08513 -3.74087 0.22461 162 156 156
1.08214 -3.75129 0.23365 149 143 145
1.07914 -3.76171 0.24268 153 153 146
1.07615 -3.77212 0.25172 154 166 158
1.07316 -3.78253 0.26075 146 146 144
1.07017 -3.79294 0.26977 148 151 154
1.06718 -3.80334 0.27879 153 157 149
1.06419 -3.81373 0.28781 150 147 153
1.06121 -3.82412 0.29683 143 149 143
1.05822 -3.83451 0.30584 150 152 131
1.05524 -3.84490 0.31485 141 140 143
1.05225 -3.85527 0.32385 149 152 145
1.04927 -3.86565 0.33285 150 147 143
1.02844 -3.93816 0.39574 157 156 128
1.02547 -3.94850 0.40471 157 158 139
1.02250 -3.95883 0.41368 156 157 143
1.01953 -3.96917 0.42264 164 165 157
1.01656 -3.97949 0.43160 162 159 146
1.01359 -3.98982 0.44056 151 146 154
1.01063 -4.00014 0.44951 160 152 151
1.00766 -4.01045 0.45846 156 151 152
1.00470 -4.02077 0.46740 162 159 151
1.00174 -4.03107 0.47635 154 150 134
0.99878 -4.04138 0.48528 153 151 136
0.99582 -4.05167 0.49422 151 148 124
0.99286 -4.06197 0.50315 149 151 139
0.98990 -4.07226 0.51207 159 162 151
0.98694 -4.08255 0.52100 166 173 153
0.98399 -4.09283 0.52991 174 177 155
0.98104 -4.10311 0.53883 164 158 152
0.97808 -4.11338 0.54774 160 154 151
0.97513 -4.12365 0.55665 164 160 142
0.97218 -4.13391 0.56555 148 146 135
0.96923 -4.14417 0.57446 146 149 143
0.96629 -4.15443 0.58335 157 164 147
0.96334 -4.16468 0.59225 154 148 134
1.10149 -3.62311 0.12052 173 171 160
1.07756 -3.70648 0.19284 153 162 159
1.07457 -3.71688 0.20186 155 156 147
1.07159 -3.72728 0.21088 152 145 138
1.06861 -3.73767 0.21990 156 162 165
1.06562 -3.74806 0.22891 165 173 165
1.06264 -3.75845 0.23792 171 172 160
1.05966 -3.76883 0.24693 154 154 145
1.05669 -3.77920 0.25593 149 149 153
1.05371 -3.78958 0.26493 152 155 152
1.05073 -3.79994 0.27392 142 150 142
1.04776 -3.81031 0.28291 155 157 145
1.04479 -3.82067 0.29190 148 142 138
1.04181 -3.83102 0.30088 150 140 124
1.03884 -3.84137 0.30986 145 141 142
1.03587 -3.85172 0.31883 144 148 136
1.03290 -3.86206 0.32781 150 147 133
1.02994 -3.87240 0.33677 150 150 135
1.01216 -3.93434 0.39051 160 157 139
1.00920 -3.94465 0.39945 153 151 141
1.00624 -3.95495 0.40839 154 153 149
1.00329 -3.96525 0.41732 164 168 156
1.00033 -3.97555 0.42625 160 151 140
0.99738 -3.98584 0.43518 164 162 155
0.99442 -3.99613 0.44411 159 152 157
0.99147 -4.00641 0.45303 153 148 148
0.98852 -4.01669 0.46194 151 153 139
0.98557 -4.02696 0.47086 150 145 129
0.98263 -4.03723 0.47977 162 157 144
0.97968 -4.04750 0.48867 156 152 139
0.97673 -4.05776 0.49758 142 144 138
0.97379 -4.06802 0.50647 151 156 151
0.97085 -4.07828 0.51537 159 169 157
0.96790 -4.08853 0.52426 172 174 158
0.96496 -4.09877 0.53315 165 158 154
0.96202 -4.10901 0.54203 161 159 158
0.95909 -4.11925 0.55092 162 163 153
0.95615 -4.12948 0.55979 154 150 140
0.95321 -4.13971 0.56867 151 150 144
0.95028 -4.14994 0.57754 152 156 145
0.94734 -4.16016 0.58640 148 144 130
0.94441 -4.17037 0.59527 146 145 136
0.94148 -4.18059 0.60412 151 151 145
0.93855 -4.19080 0.61298 158 158 148
0.93562 -4.20100 0.62183 149 149 134
0.93269 -4.21120 0.63068 148 151 132
0.92977 -4.22140 0.63953 150 151 134
0.92684 -4.23159 0.64837 147 147 134
0.92392 -4.24178 0.65720 146 151 139
0.92100 -4.25196 0.66604 147 150 138
0.91807 -4.26214 0.67487 147 145 141
1.12981 -3.46375 -0.01966 140 145 147
1.05516 -3.72414 0.20624 147 147 148
1.05219 -3.73450 0.21522 146 155 161
1.04922 -3.74486 0.22421 155 164 169
1.04625 -3.75521 0.23319 158 160 155
1.04329 -3.76555 0.24217 143 143 142
1.04032 -3.77590 0.25114 156 161 152
1.03736 -3.78624 0.26011 156 156 139
1.03439 -3.79657 0.26908 123 128 127
1.03143 -3.80690 0.27804 154 174 165
1.02847 -3.81723 0.28700 163 165 151
1.02551 -3.82755 0.29595 162 160 139
1.02255 -3.83787 0.30490 154 147 143
1.01960 -3.84818 0.31385 137 140 133
1.01664 -3.85849 0.32279 152 152 131
1.01369 -3.86880 0.33174 157 157 135
1.01073 -3.87910 0.34067 149 153 147
1.00778 -3.88940 0.34960 143 143 149
0.99599 -3.93055 0.38530 156 153 144
0.99304 -3.94082 0.39422 143 143 130
0.99009 -3.95109 0.40313 151 150 149
0.98715 -3.96136 0.41203 158 166 159
0.98421 -3.97163 0.42094 157 160 149
0.98127 -3.98188 0.42984 161 168 159
0.97833 -3.99214 0.43874 142 142 145
0.97539 -4.00239 0.44763 148 149 146
0.97245 -4.01264 0.45652 147 151 139
0.96951 -4.02288 0.46541 146 152 140
0.96658 -4.03312 0.47429 165 164 161
0.96365 -4.04335 0.48317 163 155 149
0.96071 -4.05359 0.49204 145 144 136
0.95778 -4.06381 0.50091 151 159 147
0.95485 -4.07403 0.50978 158 164 155
0.95192 -4.08425 0.51865 167 158 146
0.94899 -4.09447 0.52751 157 145 148
0.94607 -4.10468 0.53636 148 146 151
0.94314 -4.11488 0.54522 153 159 155
0.94022 -4.12508 0.55407 161 163 145
0.93729 -4.13528 0.56291 156 155 145
0.93437 -4.14547 0.57176 148 152 140
0.93145 -4.15566 0.58060 145 145 131
0.92853 -4.16585 0.58943 144 141 132
0.92561 -4.17603 0.59826 150 152 142
0.92269 -4.18620 0.60709 159 161 150
0.91978 -4.19638 0.61592 155 155 139
0.91686 -4.20654 0.62474 154 161 145
0.91395 -4.21671 0.63356 159 165 146
0.91104 -4.22687 0.64237 158 159 145
0.90812 -4.23703 0.65118 158 162 148
0.90521 -4.24718 0.65999 163 166 153
0.82995 -4.50970 0.88773 118 118 111
0.82708 -4.51974 0.89644 120 123 110
0.82420 -4.52978 0.90515 116 115 94
0.82132 -4.53981 0.91385 113 109 99
0.81845 -4.54984 0.92256 106 103 99
0.81557 -4.55986 0.93125 100 99 89
0.81270 -4.56989 0.93995 115 118 97
0.80983 -4.57991 0.94864 127 123 100
0.80696 -4.58992 0.95733 122 123 93
0.80409 -4.59993 0.96601 112 112 98
0.80122 -4.60993 0.97469 109 102 101
0.79835 -4.61994 0.98337 108 100 103
0.79548 -4.62993 0.99204 110 110 103
0.79262 -4.63993 1.00071 112 115 99
0.77831 -4.68984 1.04401 113 107 106
0.77545 -4.69981 1.05266 121 114 106
0.77260 -4.70977 1.06130 110 104 95
0.76974 -4.71973 1.06994 117 116 118
0.76689 -4.72969 1.07858 116 115 111
1.11316 -3.46145 -0.02357 151 154 154
1.03588 -3.73134 0.21058 157 159 151
1.02701 -3.76230 0.23744 155 163 160
1.02406 -3.77261 0.24638 155 160 153
1.02111 -3.78292 0.25532 144 151 135
1.01816 -3.79322 0.26426 138 139 115
1.01521 -3.80352 0.27320 161 173 159
1.01226 -3.81382 0.28213 165 169 147
1.00931 -3.82411 0.29106 166 162 137
1.00637 -3.83439 0.29998 151 148 135
1.00342 -3.84467 0.30890 147 150 133
1.00048 -3.85495 0.31782 150 148 133
0.99754 -3.86522 0.32673 150 153 137
0.99460 -3.87549 0.33564 140 142 138
0.99166 -3.88576 0.34454 146 142 138
0.98872 -3.89602 0.35345 148 145 139
0.98579 -3.90628 0.36234 146 139 132
0.98285 -3.91653 0.37124 159 160 160
0.97992 -3.92678 0.38013 155 155 150
0.97698 -3.93702 0.38902 151 154 145
0.97405 -3.94726 0.39790 156 150 150
0.97112 -3.95750 0.40678 159 156 151
0.96819 -3.96773 0.41566 154 151 149
0.96526 -3.97796 0.42453 155 161 150
0.96233 -3.98818 0.43340 133 132 123
0.95941 -3.99840 0.44227 153 162 146
0.95648 -4.00861 0.45113 158 155 139
0.95356 -4.01883 0.45999 149 153 148
0.95064 -4.02903 0.46884 157 164 156
0.94771 -4.03924 0.47769 159 152 142
0.94479 -4.04943 0.48654 152 151 142
0.94187 -4.05963 0.49539 160 167 153
0.93896 -4.06982 0.50423 168 172 157
0.93604 -4.08000 0.51306 163 155 138
0.93312 -4.09019 0.52190 153 142 142
0.93021 -4.10037 0.53073 141 134 142
0.92730 -4.11054 0.53956 141 144 147
0.92438 -4.12071 0.54838 149 154 147
0.92147 -4.13087 0.55720 150 148 141
0.91856 -4.14104 0.56601 145 146 134
0.91566 -4.15119 0.57483 146 143 126
0.91275 -4.16135 0.58363 141 136 128
0.90984 -4.17150 0.59244 145 150 143
0.90694 -4.18164 0.60124 154 155 147
0.90403 -4.19178 0.61004 159 155 141
0.90113 -4.20192 0.61883 155 151 144
0.89823 -4.21205 0.62762 157 156 144
0.89533 -4.22218 0.63641 158 158 149
0.89243 -4.23231 0.64520 158 157 154
0.88953 -4.24243 0.65398 163 163 158
0.88664 -4.25254 0.66275 168 163 157
0.88374 -4.26266 0.67153 158 149 143
0.85773 -4.35349 0.75033 124 118 109
0.85485 -4.36356 0.75907 124 115 111
0.85196 -4.37363 0.76780 121 112 111
0.84908 -4.38369 0.77653 124 121 110
0.84620 -4.39375 0.78526 124 120 107
0.84332 -4.40380 0.79398 119 112 104
0.84044 -4.41386 0.80270 114 111 103
0.83757 -4.42390 0.81142 119 119 103
0.83469 -4.43395 0.82013 112 113 101
0.83182 -4.44399 0.82884 116 119 111
0.82894 -4.45402 0.83755 119 120 112
0.82607 -4.46405 0.84625 117 116 114
0.82320 -4.47408 0.85495 116 114 112
0.82033 -4.48410 0.86365 120 117 110
0.81746 -4.49412 0.87234 115 113 97
0.81459 -4.50414 0.88103 123 123 109
0.81173 -4.51415 0.88972 121 121 109
0.80886 -4.52416 0.89840 116 115 93
0.80600 -4.53416 0.90708 115 108 103
0.80313 -4.54416 0.91575 108 107 103
0.80027 -4.55416 0.92442 105 106 97
0.79741 -4.56415 0.93309 117 118 104
0.79455 -4.57414 0.94176 128 126 108
0.79169 -4.58412 0.95042 128 126 98
0.78883 -4.59410 0.95908 112 116 105
0.78598 -4.60407 0.96773 113 113 102
0.78312 -4.61405 0.97638 113 108 103
0.78027 -4.62401 0.98503 113 118 107
0.77741 -4.63398 0.99367 115 118 107
0.77456 -4.64394 1.00231 111 111 104
0.76317 -4.68373 1.03684 107 101 97
0.76032 -4.69367 1.04546 115 103 110
0.75748 -4.70361 1.05408 109 107 108
0.75463 -4.71354 1.06270 116 109 116
0.75179 -4.72347 1.07131 114 111 114
0.74895 -4.73339 1.07992 115 112 108
0.74611 -4.74331 1.08853 116 109 97
0.74327 -4.75323 1.09713 122 113 112
0.74043 -4.76314 1.10573 117 109 110
1.09364 -3.46957 -0.01844 169 170 160
1.02261 -3.71792 0.19703 168 168 167
1.00203 -3.78990 0.25948 172 180 146
0.99909 -3.80016 0.26839 160 164 150
0.99615 -3.81042 0.27729 130 134 134
0.99322 -3.82068 0.28619 141 140 129
0.99029 -3.83094 0.29509 138 136 103
0.98736 -3.84118 0.30398 137 142 128
