ply
format ascii 1.0
element face 0
property list uchar int vertex_indices
element vertex 1271
property float x
property float y
property float z
property uchar diffuse_red
property uchar diffuse_green
property uchar diffuse_blue
end_header
1.98506 -3.32864 -0.04007 154 155 157
1.97817 -3.34033 -0.03052 162 167 163
1.97129 -3.35202 -0.02097 158 162 158
1.96440 -3.36372 -0.01142 169 175 156
1.95752 -3.37542 -0.00187 163 164 163
1.95063 -3.38711 0.00768 168 182 165
1.94375 -3.39881 0.01723 165 166 153
1.93686 -3.41051 0.02678 161 166 158
1.92997 -3.42221 0.03634 164 173 150
1.92308 -3.43391 0.04589 167 167 151
1.91619 -3.44561 0.05545 160 158 150
1.90930 -3.45731 0.06500 160 158 145
1.90241 -3.46902 0.07456 164 163 157
1.89552 -3.48072 0.08412 161 160 166
1.88863 -3.49243 0.09368 153 153 156
1.86795 -3.52755 0.12236 163 170 159
2.14166 -3.02030 -0.29454 137 145 142
2.13482 -3.03192 -0.28505 137 144 139
2.12798 -3.04355 -0.27556 144 145 142
2.12113 -3.05517 -0.26607 139 148 137
2.11429 -3.06679 -0.25658 128 135 139
2.10744 -3.07842 -0.24708 134 132 127
2.10060 -3.09004 -0.23759 133 139 145
2.09375 -3.10167 -0.22809 155 165 154
2.08690 -3.11330 -0.21860 156 160 148
2.08006 -3.12493 -0.20910 145 150 143
2.07321 -3.13656 -0.19961 149 153 151
2.06636 -3.14819 -0.19011 149 162 155
2.05951 -3.15982 -0.18061 146 146 144
2.05266 -3.17146 -0.17111 147 149 146
2.04581 -3.18309 -0.16161 158 164 155
2.03896 -3.19473 -0.15211 161 168 156
2.03210 -3.20636 -0.14261 161 168 158
2.02525 -3.21800 -0.13311 147 157 145
2.01840 -3.22964 -0.12360 142 150 139
2.01154 -3.24128 -0.11410 149 157 154
2.00469 -3.25292 -0.10459 153 157 155
1.99784 -3.26456 -0.09509 154 153 148
1.99098 -3.27620 -0.08558 154 156 151
1.98412 -3.28785 -0.07607 160 163 152
1.97727 -3.29949 -0.06656 167 174 159
1.97041 -3.31114 -0.05705 161 173 160
1.96355 -3.32278 -0.04754 158 162 150
1.95669 -3.33443 -0.03803 158 155 157
1.94984 -3.34608 -0.02852 155 154 157
1.94298 -3.35773 -0.01901 160 166 157
1.93612 -3.36938 -0.00950 162 171 169
1.92926 -3.38103 0.00002 164 173 171
1.92239 -3.39268 0.00953 166 174 164
1.91553 -3.40434 0.01905 167 175 164
1.90867 -3.41599 0.02856 169 176 162
1.90181 -3.42765 0.03808 176 174 157
1.89494 -3.43930 0.04760 161 164 166
1.88808 -3.45096 0.05712 160 165 156
1.88121 -3.46262 0.06664 171 173 158
1.87435 -3.47428 0.07616 170 170 163
1.80566 -3.59093 0.17141 168 167 163
1.79879 -3.60260 0.18094 159 162 161
1.79192 -3.61427 0.19047 167 177 160
1.78504 -3.62594 0.20000 171 174 164
1.77817 -3.63761 0.20953 174 178 161
1.77130 -3.64929 0.21907 166 171 152
1.76442 -3.66096 0.22860 166 171 153
1.75755 -3.67264 0.23813 163 170 159
1.75067 -3.68432 0.24767 170 177 161
1.74379 -3.69600 0.25720 169 176 155
1.73692 -3.70767 0.26674 160 166 161
2.11966 -3.01566 -0.30100 141 137 135
2.11285 -3.02724 -0.29155 140 139 144
2.10603 -3.03881 -0.28209 143 144 141
2.09921 -3.05039 -0.27264 147 148 145
2.09239 -3.06197 -0.26318 152 148 152
2.08557 -3.07355 -0.25373 147 154 148
2.07875 -3.08513 -0.24427 130 129 134
2.07193 -3.09672 -0.23481 144 154 148
2.06511 -3.10830 -0.22535 154 163 149
2.05828 -3.11989 -0.21589 156 159 150
2.05146 -3.13147 -0.20643 155 159 157
2.04464 -3.14306 -0.19697 146 156 158
2.03781 -3.15464 -0.18751 148 160 155
2.03099 -3.16623 -0.17805 151 160 153
2.02416 -3.17782 -0.16859 156 161 159
2.01734 -3.18941 -0.15912 155 162 157
2.01051 -3.20100 -0.14966 154 164 156
2.00368 -3.21260 -0.14019 151 157 145
1.99686 -3.22419 -0.13072 148 150 130
1.99003 -3.23578 -0.12126 152 155 141
1.98320 -3.24738 -0.11179 159 161 153
1.97637 -3.25898 -0.10232 161 161 150
1.96954 -3.27057 -0.09285 154 158 150
1.96271 -3.28217 -0.08338 151 157 148
1.95588 -3.29377 -0.07391 152 158 147
1.94905 -3.30537 -0.06444 153 162 151
1.94221 -3.31697 -0.05496 164 173 159
1.93538 -3.32858 -0.04549 166 168 154
1.92855 -3.34018 -0.03601 157 156 140
1.92171 -3.35178 -0.02654 144 149 145
1.91488 -3.36339 -0.01706 153 147 145
1.90804 -3.37499 -0.00759 156 157 155
1.90121 -3.38660 0.00189 166 172 166
1.89437 -3.39821 0.01137 160 162 145
1.88753 -3.40982 0.02085 164 172 162
1.88070 -3.42143 0.03033 163 163 155
1.87386 -3.43304 0.03981 163 173 163
1.86702 -3.44465 0.04929 161 174 155
1.86018 -3.45627 0.05878 162 169 159
1.85334 -3.46788 0.06826 153 162 164
1.84650 -3.47950 0.07774 158 167 161
1.79176 -3.57245 0.15365 164 163 159
1.78491 -3.58408 0.16314 155 155 151
1.77806 -3.59570 0.17263 158 159 149
1.77122 -3.60733 0.18213 168 172 168
1.76437 -3.61896 0.19162 179 180 176
1.75752 -3.63058 0.20112 178 177 177
1.75067 -3.64221 0.21061 162 156 164
1.74382 -3.65384 0.22011 169 177 176
1.73697 -3.66547 0.22960 163 165 159
1.73012 -3.67711 0.23910 155 156 155
1.72327 -3.68874 0.24860 165 171 154
2.11141 -2.98799 -0.32624 137 148 129
2.09783 -3.01106 -0.30741 133 133 140
2.09104 -3.02259 -0.29799 135 152 153
2.08425 -3.03412 -0.28858 114 116 142
2.07745 -3.04565 -0.27916 137 146 146
2.07066 -3.05719 -0.26974 148 154 145
2.06386 -3.06873 -0.26032 148 136 153
2.05707 -3.08026 -0.25090 147 153 139
2.05027 -3.09180 -0.24148 152 160 151
2.04347 -3.10334 -0.23206 155 164 166
2.03668 -3.11488 -0.22263 158 167 162
2.02988 -3.12642 -0.21321 163 168 163
2.02308 -3.13796 -0.20379 151 155 149
2.01628 -3.14950 -0.19436 147 147 139
2.00948 -3.16105 -0.18493 151 151 148
2.00268 -3.17259 -0.17551 157 165 153
1.99588 -3.18414 -0.16608 154 154 143
1.98908 -3.19569 -0.15665 154 160 146
1.98228 -3.20723 -0.14722 155 169 150
1.97548 -3.21878 -0.13779 153 162 150
1.96867 -3.23033 -0.12836 152 158 154
1.96187 -3.24188 -0.11893 155 161 159
1.95507 -3.25343 -0.10950 154 163 157
1.94826 -3.26499 -0.10007 152 161 146
1.94146 -3.27654 -0.09063 153 156 144
1.93465 -3.28809 -0.08120 157 161 157
1.92784 -3.29965 -0.07176 164 176 172
1.92104 -3.31121 -0.06232 167 170 167
1.91423 -3.32276 -0.05289 174 177 163
1.90742 -3.33432 -0.04345 168 169 156
1.90061 -3.34588 -0.03401 144 142 150
1.89380 -3.35744 -0.02457 157 169 162
1.88699 -3.36900 -0.01513 161 160 165
1.88018 -3.38057 -0.00569 174 172 173
1.87337 -3.39213 0.00375 170 168 156
1.86656 -3.40370 0.01320 170 174 163
1.85975 -3.41526 0.02264 159 168 162
1.85294 -3.42683 0.03208 159 171 164
1.84612 -3.43839 0.04153 155 160 150
1.83931 -3.44996 0.05098 159 171 169
1.83249 -3.46153 0.06042 151 160 171
1.82568 -3.47310 0.06987 156 163 167
1.81886 -3.48467 0.07932 166 172 166
1.79159 -3.53097 0.11712 168 172 163
1.78478 -3.54255 0.12657 160 163 154
1.77796 -3.55412 0.13603 156 162 153
1.77114 -3.56570 0.14548 162 169 162
1.76432 -3.57728 0.15493 164 169 162
1.75750 -3.58886 0.16439 167 173 161
1.75067 -3.60044 0.17385 172 175 169
1.74385 -3.61202 0.18330 173 179 175
1.73703 -3.62361 0.19276 169 167 155
1.73021 -3.63519 0.20222 150 153 151
1.72338 -3.64678 0.21168 162 172 162
1.71656 -3.65836 0.22114 171 169 155
1.70973 -3.66995 0.23060 153 157 150
1.70291 -3.68154 0.24006 161 175 160
2.09646 -2.97203 -0.34191 142 142 130
2.08970 -2.98351 -0.33253 141 143 131
2.08293 -2.99500 -0.32315 141 151 137
2.07617 -3.00648 -0.31377 138 141 137
2.06940 -3.01797 -0.30439 140 152 157
2.06263 -3.02946 -0.29501 119 124 136
2.05586 -3.04095 -0.28563 136 145 145
2.04909 -3.05244 -0.27625 151 160 156
2.04232 -3.06393 -0.26686 148 149 156
2.03555 -3.07543 -0.25748 152 154 151
2.02878 -3.08692 -0.24809 157 156 153
2.02201 -3.09841 -0.23871 138 140 143
2.01524 -3.10991 -0.22932 142 143 142
2.00846 -3.12141 -0.21993 165 173 156
2.00169 -3.13290 -0.21055 155 160 150
1.99492 -3.14440 -0.20116 143 148 143
1.98814 -3.15590 -0.19177 148 151 153
1.98137 -3.16740 -0.18238 155 164 161
1.97459 -3.17890 -0.17299 160 170 154
1.96782 -3.19041 -0.16359 163 170 151
1.96104 -3.20191 -0.15420 161 169 155
1.95426 -3.21342 -0.14481 155 164 147
1.94748 -3.22492 -0.13541 153 161 146
1.94071 -3.23643 -0.12602 155 162 150
1.93393 -3.24793 -0.11662 152 157 149
1.92715 -3.25944 -0.10722 148 151 147
1.92037 -3.27095 -0.09783 153 156 146
1.91359 -3.28246 -0.08843 156 161 149
1.90680 -3.29397 -0.07903 159 160 148
1.90002 -3.30549 -0.06963 161 171 162
1.89324 -3.31700 -0.06023 168 175 161
1.88646 -3.32851 -0.05083 171 170 161
1.87967 -3.34003 -0.04142 158 153 150
1.87289 -3.35154 -0.03202 160 174 173
1.86611 -3.36306 -0.02262 163 173 155
1.85932 -3.37458 -0.01321 155 161 140
1.85253 -3.38610 -0.00381 169 174 168
1.84575 -3.39762 0.00560 177 190 179
1.83896 -3.40914 0.01501 170 174 170
1.83217 -3.42066 0.02441 168 171 173
1.82538 -3.43218 0.03382 165 166 163
1.81860 -3.44371 0.04323 165 171 166
1.81181 -3.45523 0.05264 160 169 158
1.80502 -3.46676 0.06206 157 159 152
1.79823 -3.47829 0.07147 170 172 167
1.77785 -3.51287 0.09971 156 160 144
1.77106 -3.52440 0.10912 153 161 150
1.76426 -3.53593 0.11854 162 170 159
1.75747 -3.54747 0.12796 163 168 159
1.75068 -3.55900 0.13737 165 173 161
1.74388 -3.57054 0.14679 167 174 164
1.73708 -3.58207 0.15621 172 181 171
1.73029 -3.59361 0.16563 178 182 166
1.72349 -3.60515 0.17505 172 172 161
1.71669 -3.61668 0.18447 166 168 157
1.70990 -3.62822 0.19390 161 167 157
1.70310 -3.63976 0.20332 163 163 158
1.69630 -3.65131 0.21274 176 176 169
1.68950 -3.66285 0.22217 171 168 163
1.68270 -3.67439 0.23159 144 156 147
2.08163 -2.95618 -0.35745 142 138 139
2.07489 -2.96762 -0.34811 136 138 141
2.06815 -2.97906 -0.33877 134 143 140
2.06141 -2.99051 -0.32943 147 151 141
2.05466 -3.00195 -0.32009 153 150 137
2.04792 -3.01339 -0.31074 143 148 158
2.04118 -3.02484 -0.30140 139 150 151
2.03443 -3.03628 -0.29205 133 122 124
2.02769 -3.04773 -0.28270 140 145 140
2.02095 -3.05918 -0.27336 142 149 164
2.01420 -3.07063 -0.26401 152 157 153
2.00745 -3.08208 -0.25466 182 172 155
2.00071 -3.09353 -0.24531 143 133 144
1.99396 -3.10498 -0.23596 139 151 141
1.98721 -3.11643 -0.22661 164 167 152
1.98046 -3.12789 -0.21726 166 170 153
1.97371 -3.13934 -0.20790 148 156 145
1.96696 -3.15080 -0.19855 152 160 149
1.96021 -3.16225 -0.18919 151 153 150
1.95346 -3.17371 -0.17984 159 167 159
1.94671 -3.18517 -0.17048 170 175 165
1.93996 -3.19663 -0.16113 166 169 162
1.93321 -3.20809 -0.15177 157 162 152
1.92646 -3.21955 -0.14241 156 161 154
1.91970 -3.23101 -0.13305 161 167 163
1.91295 -3.24248 -0.12369 162 171 168
1.90619 -3.25394 -0.11433 158 164 162
1.89944 -3.26541 -0.10497 154 156 156
1.89268 -3.27687 -0.09561 154 161 154
1.88593 -3.28834 -0.08624 158 159 148
1.87917 -3.29981 -0.07688 156 156 159
1.87241 -3.31128 -0.06751 160 166 162
1.86565 -3.32275 -0.05815 173 182 172
1.85889 -3.33422 -0.04878 165 161 153
1.85214 -3.34569 -0.03942 155 161 161
1.84538 -3.35716 -0.03005 169 174 155
1.83861 -3.36864 -0.02068 167 175 156
1.83185 -3.38011 -0.01131 175 189 167
1.82509 -3.39159 -0.00194 165 165 155
1.81833 -3.40306 0.00743 168 164 154
1.81157 -3.41454 0.01680 172 179 178
1.80480 -3.42602 0.02618 167 168 162
1.79804 -3.43750 0.03555 166 173 160
1.79128 -3.44898 0.04492 163 167 153
1.78451 -3.46046 0.05430 156 161 153
1.77775 -3.47195 0.06368 156 160 166
1.77098 -3.48343 0.07305 160 166 166
1.76421 -3.49491 0.08243 164 170 159
1.75745 -3.50640 0.09181 155 159 153
1.75068 -3.51789 0.10119 156 161 153
1.74391 -3.52937 0.11057 169 174 159
1.73714 -3.54086 0.11995 171 177 162
1.73037 -3.55235 0.12933 169 176 161
1.72360 -3.56384 0.13871 167 177 166
1.71683 -3.57533 0.14809 171 182 174
1.71006 -3.58683 0.15748 172 174 162
1.70329 -3.59832 0.16686 167 165 155
1.69651 -3.60981 0.17625 160 162 156
1.68974 -3.62131 0.18563 165 170 160
1.68297 -3.63281 0.19502 165 167 159
1.67619 -3.64430 0.20441 171 170 169
1.66942 -3.65580 0.21380 169 176 160
1.66264 -3.66730 0.22319 161 164 147
1.65587 -3.67880 0.23258 162 165 160
2.07362 -2.92907 -0.38219 137 139 137
2.06691 -2.94046 -0.37288 141 151 141
2.06019 -2.95186 -0.36358 142 144 137
2.05348 -2.96325 -0.35427 133 134 137
2.04676 -2.97465 -0.34497 124 133 142
2.04004 -2.98605 -0.33566 136 144 144
2.03333 -2.99745 -0.32635 137 140 140
2.02661 -3.00885 -0.31704 132 139 146
2.01989 -3.02025 -0.30773 141 154 148
2.01317 -3.03165 -0.29842 141 141 131
2.00645 -3.04306 -0.28911 147 147 131
1.99973 -3.05446 -0.27980 142 142 141
1.99301 -3.06587 -0.27049 148 147 148
1.98629 -3.07727 -0.26117 171 174 166
1.97957 -3.08868 -0.25186 167 162 154
1.97284 -3.10009 -0.24255 157 161 162
1.96612 -3.11150 -0.23323 170 177 167
1.95940 -3.12291 -0.22391 167 168 164
1.95267 -3.13432 -0.21460 154 166 165
1.94595 -3.14573 -0.20528 159 168 167
1.93922 -3.15714 -0.19596 151 154 153
1.93250 -3.16856 -0.18664 154 165 153
1.92577 -3.17997 -0.17732 161 168 159
1.91904 -3.19139 -0.16800 161 167 156
1.91231 -3.20280 -0.15868 161 162 152
1.90559 -3.21422 -0.14935 161 161 155
1.89886 -3.22564 -0.14003 165 164 157
1.89213 -3.23706 -0.13071 166 166 160
1.88540 -3.24848 -0.12138 159 165 161
1.87867 -3.25990 -0.11206 155 160 157
1.87194 -3.27132 -0.10273 158 162 159
1.86520 -3.28275 -0.09340 168 170 158
1.85847 -3.29417 -0.08407 164 167 162
1.85174 -3.30560 -0.07474 165 174 163
1.84501 -3.31702 -0.06541 167 168 167
1.83827 -3.32845 -0.05608 168 171 160
1.83154 -3.33988 -0.04675 155 162 156
1.82480 -3.35131 -0.03742 163 166 148
1.81807 -3.36274 -0.02809 164 150 156
1.81133 -3.37417 -0.01875 177 190 176
1.80459 -3.38560 -0.00942 158 165 164
1.79786 -3.39704 -0.00008 165 171 166
1.79112 -3.40847 0.00925 167 172 167
1.78438 -3.41990 0.01859 159 162 159
1.77764 -3.43134 0.02793 165 169 160
1.77090 -3.44278 0.03726 169 169 156
1.76416 -3.45422 0.04660 159 160 152
1.75742 -3.46565 0.05594 156 161 159
1.75068 -3.47709 0.06528 160 165 157
1.74394 -3.48853 0.07463 160 165 155
1.73720 -3.49998 0.08397 156 163 158
1.73045 -3.51142 0.09331 162 168 160
1.72371 -3.52286 0.10266 169 173 165
1.71696 -3.53431 0.11200 170 176 172
1.71022 -3.54575 0.12135 176 180 166
1.70347 -3.55720 0.13069 177 180 164
1.69673 -3.56865 0.14004 172 180 172
1.68998 -3.58010 0.14939 171 169 162
1.68324 -3.59155 0.15874 171 166 158
1.67649 -3.60300 0.16808 161 163 160
1.66974 -3.61445 0.17743 171 179 159
1.66299 -3.62590 0.18679 165 166 165
1.65624 -3.63735 0.19614 170 173 167
1.64949 -3.64881 0.20549 160 164 165
1.64274 -3.66026 0.21484 156 168 166
1.63599 -3.67172 0.22420 150 157 157
1.62924 -3.68318 0.23355 165 177 165
2.07905 -2.87946 -0.42526 125 132 132
2.07237 -2.89081 -0.41599 126 134 136
2.06568 -2.90216 -0.40673 131 134 134
2.05899 -2.91351 -0.39746 132 135 131
2.05230 -2.92486 -0.38819 133 139 138
2.04561 -2.93621 -0.37892 137 147 141
2.03892 -2.94756 -0.36965 143 147 138
2.03223 -2.95891 -0.36038 138 135 129
2.02553 -2.97027 -0.35111 132 122 120
2.01884 -2.98162 -0.34184 136 132 137
2.01215 -2.99298 -0.33257 141 140 140
2.00546 -3.00434 -0.32330 145 153 140
1.99876 -3.01570 -0.31402 147 161 147
1.99207 -3.02706 -0.30475 144 145 145
1.98537 -3.03842 -0.29547 150 159 141
1.97868 -3.04978 -0.28620 142 121 115
1.97198 -3.06114 -0.27692 155 160 160
1.96528 -3.07250 -0.26764 153 159 163
1.95858 -3.08387 -0.25836 146 150 150
1.95189 -3.09523 -0.24908 137 148 149
1.94519 -3.10660 -0.23980 162 165 155
1.93849 -3.11796 -0.23052 173 170 155
1.93179 -3.12933 -0.22124 157 164 158
1.92509 -3.14070 -0.21196 154 167 167
1.91839 -3.15207 -0.20267 154 164 154
1.91169 -3.16344 -0.19339 154 162 147
1.90498 -3.17481 -0.18411 158 169 156
1.89828 -3.18618 -0.17482 161 170 158
1.89158 -3.19756 -0.16553 164 171 155
1.88487 -3.20893 -0.15625 163 166 156
1.87817 -3.22031 -0.14696 160 160 159
1.87147 -3.23168 -0.13767 161 165 163
1.86476 -3.24306 -0.12838 161 165 158
1.85805 -3.25444 -0.11909 162 165 155
1.85135 -3.26582 -0.10980 167 175 166
1.84464 -3.27720 -0.10051 170 171 162
1.83793 -3.28858 -0.09121 163 166 164
1.83122 -3.29996 -0.08192 164 168 165
1.82452 -3.31134 -0.07263 161 162 160
1.81781 -3.32273 -0.06333 156 158 159
1.81110 -3.33411 -0.05404 162 171 165
1.80439 -3.34550 -0.04474 179 190 172
1.79767 -3.35689 -0.03544 174 178 171
1.79096 -3.36827 -0.02614 171 170 165
1.78425 -3.37966 -0.01684 155 149 162
1.77754 -3.39105 -0.00754 160 165 165
1.77083 -3.40244 0.00176 165 168 162
1.76411 -3.41383 0.01106 170 177 160
1.75740 -3.42523 0.02036 168 173 165
1.75068 -3.43662 0.02966 165 173 167
1.74397 -3.44801 0.03897 162 171 161
1.73725 -3.45941 0.04827 164 172 162
1.73053 -3.47081 0.05757 166 175 161
1.72382 -3.48220 0.06688 165 170 155
1.71710 -3.49360 0.07619 164 171 161
1.71038 -3.50500 0.08550 156 165 168
1.70366 -3.51640 0.09480 149 158 166
1.69694 -3.52780 0.10411 160 172 168
1.69022 -3.53920 0.11342 172 178 170
1.68350 -3.55061 0.12273 168 170 167
1.67678 -3.56201 0.13204 163 169 167
1.67006 -3.57342 0.14136 167 170 157
1.66334 -3.58482 0.15067 168 169 150
1.65661 -3.59623 0.15998 165 169 162
1.64989 -3.60764 0.16930 177 185 176
1.64317 -3.61905 0.17861 173 174 176
1.63644 -3.63046 0.18793 177 184 175
1.62972 -3.64187 0.19725 153 164 159
1.62299 -3.65328 0.20656 149 154 138
1.61626 -3.66469 0.21588 149 150 141
2.05779 -2.87546 -0.43108 123 130 138
2.05113 -2.88676 -0.42185 122 132 138
2.04447 -2.89807 -0.41262 133 143 136
2.03780 -2.90937 -0.40339 139 143 136
2.03114 -2.92068 -0.39415 137 139 136
2.02447 -2.93199 -0.38492 136 141 132
2.01780 -2.94330 -0.37569 139 144 139
2.01114 -2.95461 -0.36645 138 146 152
2.00447 -2.96592 -0.35722 140 143 139
1.99780 -2.97723 -0.34798 148 157 150
1.99113 -2.98855 -0.33874 156 163 165
1.98446 -2.99986 -0.32950 157 164 166
1.97779 -3.01118 -0.32026 161 167 161
1.97112 -3.02249 -0.31102 151 163 163
1.96445 -3.03381 -0.30178 154 161 155
1.95778 -3.04513 -0.29254 151 158 141
1.95111 -3.05645 -0.28330 164 165 161
1.94443 -3.06777 -0.27406 160 166 166
1.93776 -3.07909 -0.26481 159 167 170
1.93109 -3.09041 -0.25557 157 159 159
1.92441 -3.10173 -0.24633 169 172 165
1.91774 -3.11306 -0.23708 175 177 168
1.91106 -3.12438 -0.22783 170 169 165
1.90439 -3.13571 -0.21859 161 164 168
1.89771 -3.14704 -0.20934 155 166 162
1.89103 -3.15836 -0.20009 151 163 157
1.88435 -3.16969 -0.19084 156 169 161
1.87768 -3.18102 -0.18159 157 164 160
1.87100 -3.19235 -0.17234 158 169 167
1.86432 -3.20368 -0.16309 160 169 159
1.85764 -3.21502 -0.15383 159 159 149
1.85096 -3.22635 -0.14458 160 165 167
1.84428 -3.23768 -0.13532 161 171 170
1.83760 -3.24902 -0.12607 160 166 155
1.83091 -3.26035 -0.11681 166 170 162
1.82423 -3.27169 -0.10756 164 167 155
1.81755 -3.28303 -0.09830 161 162 159
1.81086 -3.29437 -0.08904 173 179 175
1.80418 -3.30571 -0.07978 169 174 167
1.79749 -3.31705 -0.07052 152 149 155
1.79081 -3.32839 -0.06126 162 162 169
1.78412 -3.33973 -0.05200 183 195 186
1.77744 -3.35108 -0.04274 177 181 176
1.77075 -3.36242 -0.03348 167 171 156
1.76406 -3.37377 -0.02421 142 148 142
1.75737 -3.38511 -0.01495 157 169 165
1.75068 -3.39646 -0.00568 177 184 174
1.74399 -3.40781 0.00358 172 178 169
1.73730 -3.41916 0.01285 165 166 156
1.73061 -3.43051 0.02212 161 160 154
1.72392 -3.44186 0.03138 162 172 161
1.71723 -3.45321 0.04065 166 177 166
1.71054 -3.46457 0.04992 165 172 166
1.70385 -3.47592 0.05919 164 170 161
1.69715 -3.48728 0.06847 161 166 159
1.69046 -3.49863 0.07774 147 150 156
1.68376 -3.50999 0.08701 149 153 158
1.67707 -3.52135 0.09628 167 179 174
1.67037 -3.53271 0.10556 172 179 175
1.66368 -3.54407 0.11483 164 165 160
1.65698 -3.55543 0.12411 165 159 156
1.65028 -3.56679 0.13339 173 175 160
1.64359 -3.57815 0.14266 172 181 156
1.63689 -3.58951 0.15194 163 170 162
1.63019 -3.60088 0.16122 168 167 168
1.62349 -3.61224 0.17050 172 176 171
1.61679 -3.62361 0.17978 177 182 176
1.61009 -3.63498 0.18906 166 171 163
1.60339 -3.64635 0.19835 151 156 140
1.59669 -3.65772 0.20763 152 151 151
2.03669 -2.87148 -0.43686 120 127 136
2.03005 -2.88274 -0.42766 116 124 129
2.02341 -2.89401 -0.41847 123 133 130
2.01013 -2.91654 -0.40007 138 148 143
2.00349 -2.92780 -0.39087 141 146 133
1.99685 -2.93907 -0.38167 138 137 135
1.99020 -2.95034 -0.37247 135 135 149
1.98356 -2.96161 -0.36327 147 155 151
1.97692 -2.97288 -0.35407 153 158 152
1.97027 -2.98415 -0.34487 156 160 157
1.96363 -2.99542 -0.33566 159 158 156
1.95698 -3.00669 -0.32646 157 162 163
1.95033 -3.01797 -0.31725 156 173 166
1.94369 -3.02924 -0.30805 158 163 166
1.93704 -3.04052 -0.29884 156 166 167
1.93039 -3.05179 -0.28964 160 167 172
1.92374 -3.06307 -0.28043 156 162 165
1.91709 -3.07435 -0.27122 159 164 171
1.91044 -3.08563 -0.26201 162 168 168
1.90379 -3.09691 -0.25280 171 181 164
1.89714 -3.10819 -0.24359 171 171 141
1.89049 -3.11947 -0.23438 172 171 152
1.88384 -3.13075 -0.22516 169 171 165
1.87719 -3.14204 -0.21595 162 167 157
1.87053 -3.15332 -0.20674 154 161 153
1.86388 -3.16461 -0.19752 160 167 165
1.85723 -3.17590 -0.18831 159 158 157
1.85057 -3.18718 -0.17909 154 152 156
1.84392 -3.19847 -0.16987 159 164 162
1.83726 -3.20976 -0.16066 163 172 162
1.83060 -3.22105 -0.15144 162 169 169
1.82395 -3.23234 -0.14222 159 167 167
1.81729 -3.24364 -0.13300 162 170 159
1.81063 -3.25493 -0.12378 172 179 167
1.80397 -3.26622 -0.11456 171 173 156
1.79731 -3.27752 -0.10533 166 168 157
1.79065 -3.28882 -0.09611 169 177 174
1.78399 -3.30011 -0.08689 160 162 164
1.77733 -3.31141 -0.07766 153 156 163
1.77067 -3.32271 -0.06844 171 177 165
1.76401 -3.33401 -0.05921 179 185 177
1.75735 -3.34531 -0.04998 176 178 169
1.75069 -3.35661 -0.04075 164 169 156
1.74402 -3.36792 -0.03153 147 154 138
1.73736 -3.37922 -0.02230 164 168 159
1.73069 -3.39053 -0.01307 177 182 183
1.72403 -3.40183 -0.00384 174 177 179
1.71736 -3.41314 0.00540 179 180 166
1.71070 -3.42444 0.01463 177 180 169
1.70403 -3.43575 0.02386 172 177 162
1.69736 -3.44706 0.03309 159 159 153
1.69069 -3.45837 0.04233 148 152 152
1.68403 -3.46968 0.05157 160 169 159
1.67736 -3.48100 0.06080 163 165 160
1.67069 -3.49231 0.07004 154 151 161
1.66402 -3.50362 0.07928 157 160 164
1.65735 -3.51494 0.08851 166 171 165
1.65067 -3.52626 0.09775 169 175 167
1.64400 -3.53757 0.10699 169 177 164
1.63733 -3.54889 0.11624 172 177 163
1.63066 -3.56021 0.12548 178 186 174
1.62398 -3.57153 0.13472 170 179 161
1.61731 -3.58285 0.14396 148 154 160
1.61064 -3.59417 0.15321 155 163 158
1.60396 -3.60549 0.16245 159 163 164
1.59728 -3.61682 0.17170 159 167 171
1.59061 -3.62814 0.18094 162 170 167
1.58393 -3.63947 0.19019 151 153 145
1.57725 -3.65079 0.19944 159 158 147
0.69768 -5.14275 1.41759 102 108 101
0.69093 -5.15420 1.42694 88 87 102
2.01575 -2.86753 -0.44259 128 137 137
2.00913 -2.87875 -0.43343 131 144 135
1.99590 -2.90120 -0.41511 142 150 153
1.98928 -2.91242 -0.40594 147 155 158
1.98266 -2.92365 -0.39678 149 156 153
1.97605 -2.93487 -0.38761 142 146 145
1.96943 -2.94610 -0.37845 140 145 147
1.96281 -2.95732 -0.36928 154 160 150
1.95619 -2.96855 -0.36011 157 150 155
1.94957 -2.97978 -0.35095 153 156 156
1.94294 -2.99101 -0.34178 164 164 158
1.93632 -3.00224 -0.33261 150 157 164
1.92970 -3.01347 -0.32344 151 162 164
1.92308 -3.02470 -0.31427 157 160 158
1.91645 -3.03594 -0.30510 159 162 163
1.90983 -3.04717 -0.29592 155 163 159
1.90320 -3.05841 -0.28675 151 143 157
1.89658 -3.06964 -0.27758 158 161 165
1.88995 -3.08088 -0.26840 160 169 168
1.88333 -3.09212 -0.25923 170 185 174
1.87670 -3.10336 -0.25005 170 177 150
1.87007 -3.11460 -0.24087 174 180 158
1.86345 -3.12584 -0.23169 172 171 161
1.85682 -3.13708 -0.22252 172 172 161
1.85019 -3.14832 -0.21334 162 169 157
1.84356 -3.15957 -0.20416 158 164 163
1.83693 -3.17081 -0.19498 164 169 165
1.83030 -3.18206 -0.18579 168 170 167
1.82367 -3.19330 -0.17661 170 172 169
1.81703 -3.20455 -0.16743 170 173 169
1.81040 -3.21580 -0.15824 164 164 169
1.80377 -3.22705 -0.14906 156 160 164
1.79714 -3.23830 -0.13987 160 169 163
1.79050 -3.24955 -0.13069 175 182 173
1.78387 -3.26080 -0.12150 179 185 173
1.77723 -3.27205 -0.11231 173 177 168
1.77060 -3.28331 -0.10313 167 171 165
1.76396 -3.29456 -0.09394 161 167 162
1.75732 -3.30582 -0.08475 160 166 171
1.75069 -3.31707 -0.07556 167 176 167
1.74405 -3.32833 -0.06636 169 174 163
1.73741 -3.33959 -0.05717 169 169 157
1.73077 -3.35085 -0.04798 168 175 167
1.72413 -3.36211 -0.03879 169 178 166
1.71749 -3.37337 -0.02959 173 179 162
1.71085 -3.38463 -0.02040 167 166 162
1.70421 -3.39590 -0.01120 170 174 180
1.69757 -3.40716 -0.00200 183 189 179
1.69093 -3.41843 0.00720 184 189 179
1.68428 -3.42969 0.01639 177 180 168
1.67764 -3.44096 0.02559 162 164 158
1.67100 -3.45223 0.03479 156 161 155
1.66435 -3.46349 0.04399 168 178 165
1.65771 -3.47476 0.05319 175 178 169
1.65106 -3.48604 0.06240 166 165 165
1.64442 -3.49731 0.07160 161 165 162
1.63777 -3.50858 0.08080 163 168 160
1.63112 -3.51985 0.09001 165 171 163
1.62448 -3.53113 0.09921 165 171 164
1.61783 -3.54240 0.10842 161 166 159
1.61118 -3.55368 0.11763 165 172 163
1.60453 -3.56496 0.12683 164 171 162
1.59788 -3.57623 0.13604 151 150 139
1.59123 -3.58751 0.14525 145 145 138
1.58458 -3.59879 0.15446 152 157 158
1.57793 -3.61007 0.16367 162 169 171
1.57127 -3.62136 0.17288 167 171 165
1.56462 -3.63264 0.18209 151 147 142
1.55797 -3.64392 0.19131 158 163 145
0.68832 -5.11883 1.39552 93 99 111
0.68160 -5.13023 1.40484 94 94 108
0.67487 -5.14164 1.41415 104 110 111
0.66814 -5.15305 1.42347 98 95 103
0.66141 -5.16446 1.43278 94 91 104
1.99496 -2.86362 -0.44828 132 140 131
1.96859 -2.90834 -0.41177 154 158 159
1.96199 -2.91952 -0.40264 152 159 159
1.95540 -2.93070 -0.39351 138 148 155
1.94880 -2.94189 -0.38438 140 153 155
1.94221 -2.95307 -0.37525 156 167 158
1.93561 -2.96426 -0.36612 159 165 165
1.92901 -2.97544 -0.35698 152 156 161
1.92242 -2.98663 -0.34785 165 171 169
1.91582 -2.99782 -0.33871 141 149 158
1.90922 -3.00901 -0.32958 141 151 157
1.90262 -3.02020 -0.32044 156 161 158
1.89602 -3.03139 -0.31130 162 170 159
1.88942 -3.04258 -0.30216 152 148 154
1.88282 -3.05378 -0.29303 163 164 166
1.87622 -3.06497 -0.28389 164 164 162
1.86962 -3.07617 -0.27475 158 163 167
1.86301 -3.08736 -0.26560 162 172 169
1.85641 -3.09856 -0.25646 157 164 150
1.84981 -3.10976 -0.24732 171 183 168
1.84320 -3.12096 -0.23818 175 179 171
1.83660 -3.13216 -0.22903 178 180 174
1.82999 -3.14336 -0.21989 175 179 166
1.82339 -3.15456 -0.21074 163 167 161
1.81678 -3.16576 -0.20159 163 164 165
1.81018 -3.17696 -0.19245 169 169 171
1.80357 -3.18817 -0.18330 170 172 171
1.79696 -3.19937 -0.17415 172 173 168
1.79035 -3.21058 -0.16500 169 169 166
1.78374 -3.22179 -0.15585 158 163 162
1.77713 -3.23300 -0.14670 157 167 163
1.77052 -3.24420 -0.13755 169 176 170
1.76391 -3.25541 -0.12840 172 176 171
1.75730 -3.26663 -0.11924 168 171 168
1.75069 -3.27784 -0.11009 167 172 172
1.74408 -3.28905 -0.10093 168 177 170
1.73746 -3.30026 -0.09178 171 178 173
1.73085 -3.31148 -0.08262 174 181 172
1.72424 -3.32269 -0.07347 171 177 163
1.71762 -3.33391 -0.06431 167 166 147
1.71101 -3.34513 -0.05515 158 166 165
1.70439 -3.35635 -0.04599 163 173 168
1.69778 -3.36756 -0.03683 167 176 172
1.69116 -3.37878 -0.02767 172 174 159
1.68454 -3.39001 -0.01851 177 179 172
1.67792 -3.40123 -0.00935 172 174 168
1.67131 -3.41245 -0.00018 175 184 181
1.66469 -3.42367 0.00898 175 183 177
1.65807 -3.43490 0.01815 162 167 164
1.65145 -3.44612 0.02731 160 166 157
1.64483 -3.45735 0.03648 166 173 162
1.63821 -3.46858 0.04564 172 178 167
1.63158 -3.47981 0.05481 165 169 157
1.62496 -3.49104 0.06398 159 163 151
1.61834 -3.50227 0.07315 162 169 158
1.61172 -3.51350 0.08232 164 169 162
1.60509 -3.52473 0.09149 166 169 163
1.59847 -3.53596 0.10066 160 165 159
1.59184 -3.54720 0.10983 162 167 154
1.58522 -3.55843 0.11901 161 163 150
1.57859 -3.56967 0.12818 157 164 138
1.57197 -3.58090 0.13735 144 148 144
1.56534 -3.59214 0.14653 139 147 154
1.55871 -3.60338 0.15571 162 167 160
1.55208 -3.61462 0.16488 172 171 159
1.54545 -3.62586 0.17406 162 161 147
1.53883 -3.63710 0.18324 142 152 140
0.68574 -5.08372 1.36435 113 121 112
0.67904 -5.09508 1.37362 95 88 95
0.67233 -5.10644 1.38290 86 87 95
0.66563 -5.11781 1.39218 91 89 104
0.65893 -5.12917 1.40146 100 108 107
0.65223 -5.14054 1.41074 104 104 102
0.64552 -5.15191 1.42002 102 99 107
1.94805 -2.90428 -0.41756 154 159 146
1.94148 -2.91542 -0.40846 151 154 148
1.93491 -2.92657 -0.39937 142 149 154
1.92833 -2.93771 -0.39027 146 153 152
1.92176 -2.94885 -0.38117 150 156 149
1.91519 -2.96000 -0.37207 148 157 150
1.90862 -2.97114 -0.36297 146 145 141
1.90204 -2.98229 -0.35387 150 153 157
1.89547 -2.99343 -0.34477 141 143 149
1.88889 -3.00458 -0.33567 144 147 144
1.88232 -3.01573 -0.32657 147 155 154
1.87574 -3.02688 -0.31746 142 157 152
1.86916 -3.03803 -0.30836 154 164 168
1.86259 -3.04918 -0.29925 164 169 172
1.85601 -3.06034 -0.29015 163 164 164
1.84943 -3.07149 -0.28104 155 157 166
1.84285 -3.08264 -0.27193 156 160 164
1.83627 -3.09380 -0.26283 154 161 155
1.82969 -3.10496 -0.25372 170 183 174
1.82311 -3.11611 -0.24461 178 184 174
1.81653 -3.12727 -0.23550 174 178 172
1.80995 -3.13843 -0.22639 176 179 167
1.80337 -3.14959 -0.21728 166 173 161
1.79678 -3.16075 -0.20816 165 171 164
1.79020 -3.17191 -0.19905 171 173 170
1.78362 -3.18307 -0.18994 168 174 171
1.77703 -3.19424 -0.18082 170 177 171
1.77045 -3.20540 -0.17171 172 175 164
1.76386 -3.21657 -0.16259 163 167 152
1.75728 -3.22773 -0.15348 161 170 153
1.75069 -3.23890 -0.14436 164 171 163
1.74410 -3.25007 -0.13524 161 154 152
1.73752 -3.26124 -0.12612 165 162 157
1.73093 -3.27241 -0.11700 172 182 188
1.72434 -3.28358 -0.10788 164 168 179
1.71775 -3.29475 -0.09876 174 186 177
1.71116 -3.30592 -0.08964 176 183 178
1.70457 -3.31710 -0.08051 182 190 171
1.69798 -3.32827 -0.07139 177 179 153
1.69139 -3.33945 -0.06227 163 171 164
1.68480 -3.35062 -0.05314 158 165 164
1.67820 -3.36180 -0.04402 160 168 175
1.67161 -3.37298 -0.03489 177 180 173
1.66502 -3.38416 -0.02576 179 181 173
1.65842 -3.39534 -0.01663 168 172 163
1.65183 -3.40652 -0.00750 165 172 168
1.64523 -3.41770 0.00162 168 171 164
1.63864 -3.42888 0.01075 160 161 156
1.63204 -3.44007 0.01989 165 169 167
1.62545 -3.45125 0.02902 169 174 169
1.61885 -3.46244 0.03815 169 176 164
1.61225 -3.47363 0.04728 165 169 156
1.60565 -3.48481 0.05642 162 165 152
1.59905 -3.49600 0.06555 165 172 160
1.59245 -3.50719 0.07469 161 167 161
1.58585 -3.51838 0.08382 159 166 162
1.57925 -3.52957 0.09296 162 171 165
1.57265 -3.54076 0.10210 164 169 154
1.56605 -3.55196 0.11124 160 162 146
1.55945 -3.56315 0.12038 159 169 144
1.55285 -3.57435 0.12952 151 155 154
1.54624 -3.58554 0.13866 146 151 152
1.53964 -3.59674 0.14780 163 171 154
1.53304 -3.60794 0.15694 163 168 161
1.52643 -3.61913 0.16608 161 168 151
1.51983 -3.63033 0.17523 138 144 143
0.68317 -5.04888 1.33341 111 117 114
0.67649 -5.06020 1.34265 112 120 108
0.66982 -5.07152 1.35189 108 115 108
0.66314 -5.08284 1.36113 99 101 98
0.65646 -5.09416 1.37037 99 102 97
0.64979 -5.10548 1.37962 101 102 105
0.64311 -5.11680 1.38886 104 106 105
0.63643 -5.12812 1.39810 111 109 99
0.62975 -5.13945 1.40735 106 103 99
1.93421 -2.88916 -0.43236 156 168 144
1.92766 -2.90026 -0.42330 157 160 141
1.92111 -2.91136 -0.41424 152 155 148
1.91456 -2.92246 -0.40518 147 157 154
1.90802 -2.93356 -0.39611 154 158 153
1.90147 -2.94466 -0.38705 151 153 151
1.89492 -2.95577 -0.37798 149 154 148
1.88837 -2.96687 -0.36892 150 152 136
1.88182 -2.97797 -0.35985 150 150 146
1.87527 -2.98908 -0.35078 154 155 157
1.86871 -3.00019 -0.34172 164 163 157
1.86216 -3.01130 -0.33265 155 159 153
1.85561 -3.02240 -0.32358 136 144 144
1.84906 -3.03351 -0.31451 159 176 163
1.84250 -3.04462 -0.30544 159 162 155
1.83595 -3.05573 -0.29636 160 168 167
1.82939 -3.06685 -0.28729 160 163 167
1.82284 -3.07796 -0.27822 161 162 164
1.81628 -3.08907 -0.26915 157 158 159
1.80972 -3.10019 -0.26007 160 164 167
1.80317 -3.11130 -0.25099 172 176 174
1.79661 -3.12242 -0.24192 168 176 173
1.79005 -3.13354 -0.23284 173 180 170
1.78349 -3.14466 -0.22376 172 178 165
1.77693 -3.15578 -0.21469 169 175 162
1.77038 -3.16690 -0.20561 164 169 160
1.76381 -3.17802 -0.19653 160 168 165
1.75725 -3.18914 -0.18745 168 178 175
1.75069 -3.20026 -0.17837 171 176 174
1.74413 -3.21139 -0.16928 165 169 164
1.73757 -3.22251 -0.16020 166 175 161
1.73101 -3.23364 -0.15112 164 170 161
1.72444 -3.24476 -0.14203 161 157 150
1.71788 -3.25589 -0.13295 166 166 162
1.71131 -3.26702 -0.12386 175 181 190
1.70475 -3.27815 -0.11477 172 170 178
1.69818 -3.28928 -0.10569 176 186 176
1.69162 -3.30041 -0.09660 167 175 176
1.68505 -3.31154 -0.08751 179 190 179
1.67848 -3.32268 -0.07842 173 179 157
1.67192 -3.33381 -0.06933 173 182 168
1.66535 -3.34495 -0.06024 169 171 168
1.65878 -3.35608 -0.05115 170 179 179
1.65221 -3.36722 -0.04206 182 187 179
1.64564 -3.37836 -0.03296 180 186 183
1.63907 -3.38949 -0.02387 169 176 166
1.63250 -3.40063 -0.01477 161 166 159
1.62593 -3.41177 -0.00568 165 172 164
1.61935 -3.42291 0.00342 164 170 161
1.61278 -3.43406 0.01252 171 173 166
1.60621 -3.44520 0.02161 170 172 169
1.59963 -3.45634 0.03071 164 170 166
1.59306 -3.46749 0.03981 160 165 160
1.58649 -3.47864 0.04891 163 167 155
1.57991 -3.48978 0.05801 168 171 154
1.57333 -3.50093 0.06711 160 165 154
1.56676 -3.51208 0.07622 157 166 160
1.56018 -3.52323 0.08532 161 170 162
1.55360 -3.53438 0.09442 160 167 152
1.54703 -3.54553 0.10353 157 164 155
1.54045 -3.55668 0.11263 164 173 164
1.53387 -3.56784 0.12174 158 159 152
1.52729 -3.57899 0.13084 152 151 147
1.52071 -3.59014 0.13995 156 159 151
1.51413 -3.60130 0.14906 150 156 152
1.50755 -3.61246 0.15817 146 157 146
1.50096 -3.62361 0.16728 154 160 142
0.66067 -5.04813 1.33032 109 108 105
0.65402 -5.05941 1.33952 103 106 103
0.64737 -5.07068 1.34873 98 102 104
0.64071 -5.08196 1.35794 104 110 111
0.63406 -5.09324 1.36715 109 113 122
0.62741 -5.10452 1.37635 111 111 114
0.62075 -5.11580 1.38556 113 115 104
0.61410 -5.12708 1.39477 108 108 102
1.92047 -2.87415 -0.44706 156 166 152
1.91394 -2.88521 -0.43803 156 166 152
1.90742 -2.89627 -0.42900 150 154 147
1.90090 -2.90732 -0.41997 152 158 161
1.89437 -2.91838 -0.41094 151 160 162
1.88785 -2.92944 -0.40191 152 156 159
1.88132 -2.94051 -0.39288 156 159 157
1.87479 -2.95157 -0.38385 160 164 157
1.86827 -2.96263 -0.37482 158 162 152
1.86174 -2.97369 -0.36579 152 147 160
1.85521 -2.98476 -0.35675 156 158 168
1.84868 -2.99582 -0.34772 161 155 164
1.84215 -3.00689 -0.33868 157 161 156
1.83563 -3.01796 -0.32965 151 161 154
1.82910 -3.02903 -0.32061 161 170 159
1.82257 -3.04010 -0.31157 155 166 156
1.81603 -3.05117 -0.30254 157 168 174
1.80950 -3.06224 -0.29350 167 171 176
1.80297 -3.07331 -0.28446 167 171 169
1.79644 -3.08438 -0.27542 159 152 157
1.78990 -3.09546 -0.26638 155 155 162
1.78337 -3.10653 -0.25733 165 171 176
1.77684 -3.11761 -0.24829 166 179 176
1.77030 -3.12868 -0.23925 168 179 174
1.76377 -3.13976 -0.23020 169 177 168
1.75723 -3.15084 -0.22116 167 174 164
1.75069 -3.16192 -0.21211 161 167 162
1.74416 -3.17300 -0.20307 161 170 165
1.73762 -3.18408 -0.19402 170 180 174
1.73108 -3.19516 -0.18497 175 180 177
1.72454 -3.20624 -0.17592 172 177 175
1.71800 -3.21733 -0.16688 171 179 171
1.71147 -3.22841 -0.15783 166 172 165
1.70493 -3.23950 -0.14877 163 164 163
1.69838 -3.25058 -0.13972 167 172 174
1.69184 -3.26167 -0.13067 175 181 186
1.68530 -3.27276 -0.12162 180 184 184
1.67876 -3.28385 -0.11257 179 184 177
1.67222 -3.29494 -0.10351 168 176 177
1.66567 -3.30603 -0.09446 176 186 184
1.65913 -3.31712 -0.08540 174 185 172
1.65259 -3.32821 -0.07634 176 187 177
1.64604 -3.33931 -0.06729 176 182 180
1.63949 -3.35040 -0.05823 173 184 184
1.63295 -3.36150 -0.04917 182 186 174
1.62640 -3.37259 -0.04011 177 184 178
1.61986 -3.38369 -0.03105 169 176 170
1.61331 -3.39479 -0.02199 168 175 166
1.60676 -3.40589 -0.01293 167 171 168
1.60021 -3.41699 -0.00386 171 177 171
1.59366 -3.42809 0.00520 178 184 172
1.58711 -3.43919 0.01426 180 185 175
1.58056 -3.45029 0.02333 175 176 168
1.57401 -3.46140 0.03239 160 164 161
1.56746 -3.47250 0.04146 160 168 162
1.56091 -3.48361 0.05053 166 171 157
1.55436 -3.49471 0.05959 158 162 152
1.54780 -3.50582 0.06866 160 165 160
1.54125 -3.51693 0.07773 163 168 162
1.53470 -3.52804 0.08680 156 159 156
1.52814 -3.53915 0.09587 148 154 155
1.52159 -3.55026 0.10494 163 173 170
1.51503 -3.56137 0.11402 160 168 155
1.50847 -3.57248 0.12309 151 153 150
1.50192 -3.58360 0.13216 152 154 154
1.49536 -3.59471 0.14124 145 150 138
1.48880 -3.60583 0.15031 137 146 130
1.48224 -3.61695 0.15939 152 162 146
0.65159 -5.02492 1.30891 105 101 94
0.64496 -5.03615 1.31808 106 106 102
0.63833 -5.04738 1.32725 104 104 103
0.63171 -5.05862 1.33642 95 103 104
0.62508 -5.06985 1.34559 99 107 108
0.61845 -5.08109 1.35477 106 111 120
0.61182 -5.09233 1.36394 113 114 118
0.60519 -5.10357 1.37312 119 118 114
0.59856 -5.11480 1.38229 112 112 105
1.90683 -2.85925 -0.46164 168 171 173
1.90033 -2.87027 -0.45265 169 172 172
1.89383 -2.88128 -0.44365 165 169 164
1.88733 -2.89230 -0.43466 161 167 165
1.88083 -2.90332 -0.42567 158 169 171
1.87433 -2.91434 -0.41667 153 163 163
1.86782 -2.92536 -0.40767 146 153 160
1.86132 -2.93638 -0.39868 155 161 156
1.85482 -2.94740 -0.38968 162 165 158
1.84832 -2.95842 -0.38068 157 149 159
1.84181 -2.96944 -0.37168 148 128 167
1.83531 -2.98047 -0.36268 151 154 165
1.82880 -2.99149 -0.35368 154 157 146
1.82229 -3.00252 -0.34468 145 152 156
1.81579 -3.01355 -0.33567 151 159 156
1.80928 -3.02457 -0.32667 162 169 164
1.80277 -3.03560 -0.31767 160 172 170
1.79627 -3.04663 -0.30866 161 164 170
1.78976 -3.05766 -0.29966 165 169 175
1.78325 -3.06869 -0.29065 167 171 169
1.77674 -3.07973 -0.28164 163 160 159
1.77023 -3.09076 -0.27263 159 165 162
1.76372 -3.10179 -0.26363 164 170 171
1.75721 -3.11283 -0.25462 166 174 170
1.75070 -3.12386 -0.24561 165 172 167
1.74418 -3.13490 -0.23660 166 171 162
1.73767 -3.14594 -0.22759 168 173 167
1.73116 -3.15698 -0.21857 165 171 172
1.72464 -3.16801 -0.20956 166 173 170
1.71813 -3.17906 -0.20055 167 176 169
1.71162 -3.19010 -0.19153 168 174 172
1.70510 -3.20114 -0.18252 173 177 173
1.69858 -3.21218 -0.17350 171 176 176
1.69207 -3.22322 -0.16449 162 165 171
1.68555 -3.23427 -0.15547 162 163 170
1.67903 -3.24532 -0.14645 174 180 174
1.67252 -3.25636 -0.13743 181 188 184
1.66600 -3.26741 -0.12841 174 181 184
1.65948 -3.27846 -0.11939 165 165 169
1.65296 -3.28951 -0.11037 168 178 183
1.64644 -3.30056 -0.10135 179 185 185
1.63992 -3.31161 -0.09233 182 193 184
1.63340 -3.32266 -0.08330 178 185 179
1.62688 -3.33371 -0.07428 179 185 179
1.62035 -3.34477 -0.06526 164 167 180
1.61383 -3.35582 -0.05623 176 180 169
1.60731 -3.36688 -0.04720 171 177 169
1.60078 -3.37793 -0.03818 167 172 171
1.59426 -3.38899 -0.02915 173 182 174
1.58773 -3.40005 -0.02012 167 168 168
1.58121 -3.41111 -0.01109 173 173 174
1.57468 -3.42217 -0.00206 177 182 178
1.56816 -3.43323 0.00697 184 193 183
1.56163 -3.44429 0.01600 185 187 174
1.55510 -3.45535 0.02503 171 174 166
1.54857 -3.46642 0.03406 167 176 168
1.54205 -3.47748 0.04310 166 174 163
1.53552 -3.48855 0.05213 157 161 156
1.52899 -3.49961 0.06116 162 162 162
1.52246 -3.51068 0.07020 168 166 165
1.51593 -3.52175 0.07924 157 156 155
1.50939 -3.53282 0.08827 142 145 148
1.50286 -3.54389 0.09731 158 172 166
1.49633 -3.55496 0.10635 160 173 159
1.48980 -3.56603 0.11539 148 157 145
1.48326 -3.57710 0.12443 154 158 147
1.47673 -3.58817 0.13347 148 151 138
1.47020 -3.59925 0.14251 147 152 129
1.46366 -3.61032 0.15155 150 155 146
1.45713 -3.62140 0.16060 140 144 145
0.66238 -4.96831 1.26025 129 137 150
0.65578 -4.97950 1.26939 138 139 138
0.64258 -5.00188 1.28765 106 101 109
0.63597 -5.01307 1.29679 102 105 100
0.62937 -5.02426 1.30593 109 109 103
0.62277 -5.03545 1.31506 109 113 103
0.61616 -5.04664 1.32420 108 108 99
0.60956 -5.05784 1.33334 104 103 94
0.60295 -5.06903 1.34248 103 107 108
0.59635 -5.08023 1.35162 108 113 116
0.58974 -5.09142 1.36076 120 120 127
0.58313 -5.10262 1.36990 115 112 113
1.89329 -2.84446 -0.47612 161 162 168
1.88682 -2.85544 -0.46716 166 169 172
1.88034 -2.86641 -0.45820 165 167 172
1.87386 -2.87739 -0.44924 163 163 166
1.86738 -2.88837 -0.44028 159 163 165
1.86091 -2.89934 -0.43132 156 164 163
1.85443 -2.91032 -0.42235 156 159 157
1.84795 -2.92130 -0.41339 157 163 162
1.84147 -2.93228 -0.40443 159 162 151
1.83499 -2.94326 -0.39546 157 160 165
1.82851 -2.95424 -0.38649 155 157 170
1.82203 -2.96523 -0.37753 159 154 167
1.81554 -2.97621 -0.36856 155 155 152
1.80906 -2.98719 -0.35959 156 165 143
1.80258 -2.99818 -0.35062 155 159 158
1.79610 -3.00917 -0.34165 149 160 160
1.78961 -3.02015 -0.33268 160 164 162
1.78313 -3.03114 -0.32371 164 170 169
1.77664 -3.04213 -0.31474 164 171 164
1.77016 -3.05312 -0.30577 161 165 166
1.76367 -3.06411 -0.29680 172 178 172
1.75719 -3.07510 -0.28782 180 182 170
1.75070 -3.08610 -0.27885 165 174 159
1.74421 -3.09709 -0.26987 165 171 163
1.73772 -3.10808 -0.26090 168 167 167
1.73123 -3.11908 -0.25192 170 172 165
1.72474 -3.13007 -0.24294 169 174 164
1.71826 -3.14107 -0.23396 170 175 170
1.71176 -3.15207 -0.22499 169 173 176
1.70527 -3.16307 -0.21601 168 174 171
1.69878 -3.17407 -0.20703 164 175 169
1.69229 -3.18507 -0.19804 163 173 173
1.68580 -3.19607 -0.18906 171 177 178
1.67931 -3.20707 -0.18008 169 174 180
1.67281 -3.21808 -0.17110 162 163 170
1.66632 -3.22908 -0.16211 165 169 170
1.65982 -3.24008 -0.15313 177 182 166
1.65333 -3.25109 -0.14414 179 186 170
1.64683 -3.26210 -0.13516 164 168 166
1.64034 -3.27311 -0.12617 156 156 158
1.63384 -3.28411 -0.11718 163 171 178
1.62734 -3.29512 -0.10819 181 185 181
1.62085 -3.30613 -0.09920 183 188 183
1.61435 -3.31715 -0.09021 184 189 179
1.60785 -3.32816 -0.08122 185 187 173
1.60135 -3.33917 -0.07223 152 150 172
1.59485 -3.35018 -0.06324 165 168 164
1.58835 -3.36120 -0.05425 167 174 171
1.58185 -3.37222 -0.04525 168 175 178
1.57535 -3.38323 -0.03626 175 183 177
1.56885 -3.39425 -0.02727 168 170 168
1.56235 -3.40527 -0.01827 172 172 176
1.55584 -3.41629 -0.00927 168 171 176
1.54934 -3.42731 -0.00028 171 178 174
1.54283 -3.43833 0.00872 176 180 171
1.53633 -3.44935 0.01772 171 174 168
1.52983 -3.46037 0.02672 166 174 166
1.52332 -3.47140 0.03572 160 165 161
1.51681 -3.48242 0.04472 152 154 156
1.51031 -3.49345 0.05372 157 159 157
1.50380 -3.50447 0.06272 162 163 161
1.49729 -3.51550 0.07173 162 165 156
1.49078 -3.52653 0.08073 149 155 152
1.48428 -3.53756 0.08973 159 175 161
1.47777 -3.54859 0.09874 163 172 159
1.47126 -3.55962 0.10775 156 163 147
1.46475 -3.57065 0.11675 160 163 147
1.45824 -3.58168 0.12576 152 155 146
1.45173 -3.59272 0.13477 153 161 143
1.44521 -3.60375 0.14378 164 162 144
1.43870 -3.61479 0.15279 146 145 139
1.43219 -3.62582 0.16180 146 147 147
0.85042 -4.61166 0.96665 96 94 86
0.84386 -4.62278 0.97572 97 96 95
0.83730 -4.63389 0.98480 100 98 98
0.83073 -4.64501 0.99388 105 103 93
0.82417 -4.65613 1.00296 107 107 91
0.81761 -4.66725 1.01204 105 107 93
0.81105 -4.67838 1.02112 98 102 92
0.80448 -4.68950 1.03020 99 105 100
0.79792 -4.70062 1.03928 113 113 109
0.79135 -4.71175 1.04836 116 112 104
0.78479 -4.72287 1.05745 111 115 113
0.77822 -4.73400 1.06653 109 115 117
0.77165 -4.74513 1.07561 116 118 113
0.76509 -4.75625 1.08470 121 120 110
0.75852 -4.76738 1.09379 117 117 103
0.75195 -4.77851 1.10287 109 118 100
0.74538 -4.78964 1.11196 109 109 102
0.73881 -4.80078 1.12105 111 109 103
0.73224 -4.81191 1.13014 111 112 102
0.69939 -4.86759 1.17559 116 121 118
0.69281 -4.87873 1.18469 112 118 120
0.68624 -4.88986 1.19378 112 111 117
0.67967 -4.90100 1.20288 111 105 110
0.65994 -4.93443 1.23017 126 133 135
0.65336 -4.94557 1.23926 138 140 132
0.64679 -4.95672 1.24836 135 130 140
0.62705 -4.99016 1.27566 107 104 111
0.62047 -5.00131 1.28476 106 105 110
0.61390 -5.01245 1.29387 114 110 105
0.60732 -5.02361 1.30297 113 112 108
0.60073 -5.03476 1.31207 119 116 114
0.59415 -5.04591 1.32118 110 105 98
0.58757 -5.05706 1.33028 100 101 102
0.58099 -5.06821 1.33939 101 98 114
0.57441 -5.07937 1.34850 108 110 128
0.56782 -5.09052 1.35760 116 117 113
1.87985 -2.82978 -0.49049 162 166 158
1.87340 -2.84072 -0.48157 166 169 167
1.86695 -2.85165 -0.47264 166 170 164
1.86049 -2.86259 -0.46371 161 165 162
1.85404 -2.87352 -0.45478 160 160 162
1.84759 -2.88446 -0.44586 154 155 157
1.84113 -2.89540 -0.43693 149 156 155
1.83467 -2.90633 -0.42800 155 159 156
1.82822 -2.91727 -0.41906 162 166 166
1.82176 -2.92821 -0.41013 160 163 161
1.81530 -2.93915 -0.40120 148 154 163
1.80885 -2.95010 -0.39227 153 162 164
1.80239 -2.96104 -0.38333 167 172 162
1.79593 -2.97198 -0.37440 156 159 146
1.78947 -2.98293 -0.36546 155 165 149
1.78301 -2.99387 -0.35653 155 157 156
1.77655 -3.00482 -0.34759 143 146 152
1.77009 -3.01576 -0.33865 154 153 157
1.76362 -3.02671 -0.32972 164 166 160
1.75716 -3.03766 -0.32078 160 169 166
1.75070 -3.04861 -0.31184 159 165 168
1.74424 -3.05956 -0.30290 176 182 176
1.73777 -3.07051 -0.29396 188 192 178
1.73131 -3.08147 -0.28502 171 175 162
1.72484 -3.09242 -0.27607 167 173 166
1.71838 -3.10337 -0.26713 172 171 171
1.71191 -3.11433 -0.25819 178 183 176
1.70545 -3.12528 -0.24924 170 175 173
1.69898 -3.13624 -0.24030 169 175 177
1.69251 -3.14720 -0.23135 172 178 179
1.68604 -3.15816 -0.22240 170 175 169
1.67958 -3.16912 -0.21346 168 176 169
1.67311 -3.18008 -0.20451 168 178 178
1.66664 -3.19104 -0.19556 169 176 180
1.66017 -3.20200 -0.18661 167 171 176
1.65370 -3.21296 -0.17766 168 174 168
1.64723 -3.22393 -0.16871 169 178 172
1.64075 -3.23489 -0.15976 171 173 163
1.63428 -3.24586 -0.15080 161 164 157
1.62781 -3.25682 -0.14185 149 156 152
1.62134 -3.26779 -0.13290 161 171 167
1.61486 -3.27876 -0.12394 166 180 173
1.60839 -3.28973 -0.11499 176 186 177
1.60191 -3.30070 -0.10603 176 182 183
1.59544 -3.31167 -0.09707 186 193 188
1.58896 -3.32264 -0.08812 187 191 185
1.58249 -3.33362 -0.07916 155 154 166
1.57601 -3.34459 -0.07020 157 157 156
1.56953 -3.35556 -0.06124 160 167 170
1.56306 -3.36654 -0.05228 168 180 185
1.55658 -3.37752 -0.04332 179 183 177
1.55010 -3.38849 -0.03436 167 167 166
1.54362 -3.39947 -0.02539 166 169 173
1.53714 -3.41045 -0.01643 165 170 169
1.53066 -3.42143 -0.00747 166 170 161
1.52418 -3.43241 0.00150 170 171 162
1.51770 -3.44339 0.01046 165 169 166
1.51121 -3.45437 0.01943 160 166 164
1.50473 -3.46536 0.02840 154 153 152
1.49825 -3.47634 0.03736 147 145 148
1.49176 -3.48733 0.04633 155 162 158
1.48528 -3.49831 0.05530 164 169 162
1.47880 -3.50930 0.06427 167 173 159
1.47231 -3.52029 0.07324 157 164 156
1.46583 -3.53128 0.08221 159 168 153
1.45934 -3.54227 0.09119 161 167 156
1.45285 -3.55326 0.10016 162 165 158
1.44637 -3.56425 0.10913 166 167 158
1.43988 -3.57524 0.11811 155 157 150
1.43339 -3.58623 0.12708 146 149 145
1.42690 -3.59723 0.13606 171 175 149
1.42041 -3.60822 0.14503 161 161 153
1.41392 -3.61922 0.15401 147 145 141
0.83421 -4.60142 0.95589 115 113 103
0.82767 -4.61250 0.96493 115 113 100
0.82114 -4.62358 0.97398 111 106 102
0.81460 -4.63465 0.98302 112 109 111
0.80806 -4.64573 0.99207 113 114 110
0.80152 -4.65681 1.00111 112 113 101
0.79498 -4.66789 1.01016 106 104 99
0.78844 -4.67898 1.01921 103 99 103
0.78190 -4.69006 1.02825 105 104 106
0.77536 -4.70114 1.03730 108 107 104
0.76881 -4.71223 1.04635 113 111 111
0.76227 -4.72331 1.05540 115 115 111
0.75573 -4.73440 1.06445 118 115 110
0.74919 -4.74549 1.07350 117 118 111
0.74264 -4.75657 1.08256 112 116 103
0.73610 -4.76766 1.09161 105 109 101
0.72955 -4.77875 1.10066 112 114 108
0.72300 -4.78984 1.10972 116 117 111
0.71646 -4.80093 1.11877 114 117 114
0.70991 -4.81203 1.12783 110 116 105
0.70336 -4.82312 1.13689 109 115 106
0.69682 -4.83421 1.14594 116 122 115
0.69027 -4.84531 1.15500 123 123 119
0.68372 -4.85641 1.16406 118 118 116
0.67717 -4.86750 1.17312 115 116 115
0.67062 -4.87860 1.18218 116 114 116
0.66407 -4.88970 1.19124 113 114 123
0.65097 -4.91190 1.20937 130 137 138
0.64441 -4.92300 1.21843 132 136 132
0.63786 -4.93410 1.22749 131 131 129
0.61820 -4.96742 1.25469 105 113 108
0.61164 -4.97852 1.26376 107 111 106
0.60509 -4.98963 1.27283 108 109 106
0.59853 -5.00074 1.28189 105 106 103
0.59198 -5.01185 1.29096 106 107 106
0.58542 -5.02296 1.30003 109 113 110
0.57886 -5.03407 1.30910 101 101 101
0.57230 -5.04518 1.31818 96 98 96
0.56574 -5.05629 1.32725 97 95 104
0.55919 -5.06740 1.33632 98 103 119
0.55263 -5.07852 1.34540 115 119 110
1.86009 -2.82610 -0.49587 162 173 158
1.85366 -2.83700 -0.48697 161 163 156
1.84722 -2.84789 -0.47808 161 163 156
1.84079 -2.85879 -0.46918 160 165 162
1.83436 -2.86968 -0.46029 164 167 167
1.82793 -2.88058 -0.45139 158 159 159
1.82150 -2.89148 -0.44249 154 160 157
1.81506 -2.90238 -0.43360 157 163 159
1.80863 -2.91327 -0.42470 162 168 167
1.80220 -2.92417 -0.41580 162 169 171
1.79576 -2.93508 -0.40690 154 163 163
1.78932 -2.94598 -0.39800 163 169 160
1.78289 -2.95688 -0.38910 163 165 155
1.77645 -2.96778 -0.38020 154 162 152
