ply
format ascii 1.0
element face 0
property list uchar int vertex_indices
element vertex 1281
property float x
property float y
property float z
property uchar diffuse_red
property uchar diffuse_green
property uchar diffuse_blue
end_header
2.12480 -3.49795 0.16030 152 152 139
2.11436 -3.50830 0.16813 152 153 137
2.10392 -3.51865 0.17597 146 149 135
2.09349 -3.52900 0.18380 143 144 136
2.08305 -3.53935 0.19164 141 138 125
2.07261 -3.54969 0.19947 144 140 131
2.06217 -3.56004 0.20731 139 136 127
2.05173 -3.57039 0.21514 142 139 125
2.04129 -3.58074 0.22298 138 137 120
2.03086 -3.59109 0.23081 135 136 123
2.33520 -3.26205 -0.02217 136 141 129
2.32481 -3.27235 -0.01437 142 144 132
2.31442 -3.28265 -0.00658 141 151 134
2.30403 -3.29295 0.00122 147 139 136
2.29365 -3.30325 0.00902 147 152 149
2.28326 -3.31355 0.01682 143 136 122
2.27287 -3.32385 0.02461 143 141 128
2.26248 -3.33415 0.03241 141 136 132
2.25209 -3.34445 0.04021 142 139 136
2.24169 -3.35476 0.04801 135 136 131
2.23130 -3.36506 0.05581 137 137 130
2.22091 -3.37536 0.06361 142 142 125
2.21052 -3.38566 0.07141 147 149 129
2.20013 -3.39597 0.07921 151 154 140
2.18973 -3.40627 0.08701 147 150 135
2.17934 -3.41657 0.09481 138 140 127
2.16895 -3.42688 0.10261 133 133 130
2.15855 -3.43718 0.11041 134 133 134
2.14816 -3.44749 0.11821 135 138 134
2.13777 -3.45779 0.12602 139 144 132
2.12737 -3.46810 0.13382 142 148 134
2.11698 -3.47841 0.14162 137 144 137
2.10658 -3.48871 0.14942 143 146 135
2.09618 -3.49902 0.15723 144 150 134
2.08579 -3.50933 0.16503 135 140 131
2.07539 -3.51963 0.17283 137 141 135
2.06499 -3.52994 0.18064 136 135 120
2.05460 -3.54025 0.18844 140 134 126
2.04420 -3.55056 0.19624 135 135 124
2.03380 -3.56087 0.20405 136 135 122
2.02340 -3.57118 0.21185 135 136 124
2.01300 -3.58149 0.21966 134 135 126
2.31624 -3.25377 -0.03229 137 140 128
2.30589 -3.26403 -0.02453 139 144 129
2.29554 -3.27429 -0.01676 127 131 133
2.28520 -3.28455 -0.00899 142 141 138
2.27485 -3.29481 -0.00123 144 146 143
2.26450 -3.30507 0.00654 140 139 121
2.25415 -3.31533 0.01431 143 136 121
2.24380 -3.32559 0.02208 140 127 118
2.23345 -3.33585 0.02985 140 132 124
2.22310 -3.34611 0.03761 131 129 130
2.21275 -3.35637 0.04538 134 134 130
2.20239 -3.36664 0.05315 137 140 125
2.19204 -3.37690 0.06092 139 142 129
2.18169 -3.38716 0.06869 141 142 133
2.17134 -3.39742 0.07646 140 142 129
2.16098 -3.40769 0.08423 130 133 125
2.15063 -3.41795 0.09200 125 128 131
2.14028 -3.42822 0.09977 132 134 136
2.12992 -3.43848 0.10754 138 141 134
2.11957 -3.44875 0.11531 141 148 135
2.10921 -3.45901 0.12308 143 145 140
2.09886 -3.46928 0.13086 149 149 137
2.08850 -3.47955 0.13863 140 141 129
2.07815 -3.48981 0.14640 137 143 131
2.06779 -3.50008 0.15417 134 136 128
2.05744 -3.51035 0.16195 136 138 133
2.04708 -3.52061 0.16972 135 137 128
2.03672 -3.53088 0.17749 144 142 131
2.02636 -3.54115 0.18527 139 136 128
2.01601 -3.55142 0.19304 136 135 126
2.00565 -3.56169 0.20081 136 134 126
1.99529 -3.57196 0.20859 135 134 125
0.70801 -4.84815 1.17472 108 111 99
2.29743 -3.24555 -0.04234 139 142 127
2.28712 -3.25577 -0.03460 143 144 127
2.27681 -3.26599 -0.02686 131 129 130
2.26650 -3.27621 -0.01913 141 142 138
2.25619 -3.28643 -0.01139 144 142 141
2.24589 -3.29665 -0.00365 145 144 134
2.23558 -3.30687 0.00408 144 139 130
2.22527 -3.31709 0.01182 141 132 121
2.21495 -3.32731 0.01956 143 139 126
2.20464 -3.33753 0.02730 141 136 133
2.19433 -3.34776 0.03504 143 142 138
2.18402 -3.35798 0.04278 145 150 139
2.17371 -3.36820 0.05051 142 145 135
2.16340 -3.37842 0.05825 142 138 126
2.15308 -3.38865 0.06599 142 139 123
2.14277 -3.39887 0.07373 131 135 124
2.13246 -3.40910 0.08147 129 136 127
2.12214 -3.41932 0.08921 141 144 132
2.11183 -3.42954 0.09695 143 142 134
2.10152 -3.43977 0.10469 144 146 138
2.09120 -3.45000 0.11244 146 145 141
2.08089 -3.46022 0.12018 156 153 137
2.07057 -3.47045 0.12792 142 141 129
2.06025 -3.48067 0.13566 135 138 131
2.04994 -3.49090 0.14340 145 144 129
2.03962 -3.50113 0.15115 142 144 137
2.02930 -3.51136 0.15889 133 134 135
2.01899 -3.52158 0.16663 140 140 141
2.00867 -3.53181 0.17437 137 137 135
1.99835 -3.54204 0.18212 134 134 127
1.98803 -3.55227 0.18986 138 135 128
1.97771 -3.56250 0.19761 136 135 129
2.27876 -3.23740 -0.05230 137 139 128
2.26849 -3.24758 -0.04460 147 144 133
2.25823 -3.25776 -0.03689 146 145 139
2.24796 -3.26794 -0.02918 145 135 128
2.23769 -3.27812 -0.02148 148 148 144
2.22742 -3.28830 -0.01377 154 155 149
2.21715 -3.29848 -0.00606 151 152 141
2.20688 -3.30866 0.00165 145 141 123
2.19660 -3.31884 0.00935 144 145 134
2.18633 -3.32902 0.01706 150 144 138
2.17606 -3.33921 0.02477 152 147 142
2.16579 -3.34939 0.03248 152 150 144
2.15552 -3.35957 0.04019 142 142 135
2.14524 -3.36975 0.04790 140 140 128
2.13497 -3.37994 0.05561 151 149 129
2.12470 -3.39012 0.06332 141 143 125
2.11442 -3.40031 0.07103 138 142 122
2.10415 -3.41049 0.07874 148 149 128
2.09387 -3.42068 0.08645 142 138 135
2.08360 -3.43086 0.09416 145 144 142
2.07332 -3.44105 0.10187 147 147 140
2.06305 -3.45123 0.10958 152 153 140
2.05277 -3.46142 0.11729 145 146 136
2.04250 -3.47161 0.12500 139 146 135
2.03222 -3.48180 0.13272 146 144 126
2.02194 -3.49198 0.14043 144 147 140
2.01167 -3.50217 0.14814 134 136 136
2.00139 -3.51236 0.15585 138 136 140
1.99111 -3.52255 0.16357 125 127 125
1.98083 -3.53274 0.17128 128 128 127
1.97055 -3.54293 0.17899 141 139 129
1.96027 -3.55312 0.18671 136 134 122
0.83771 -4.66591 1.02913 99 96 73
0.82739 -4.67614 1.03687 96 95 76
0.81707 -4.68637 1.04461 97 98 80
0.80675 -4.69660 1.05236 100 103 89
2.26024 -3.22931 -0.06219 133 137 134
2.25001 -3.23945 -0.05451 150 147 138
2.23978 -3.24959 -0.04684 150 151 145
2.22955 -3.25973 -0.03916 145 134 128
2.21932 -3.26987 -0.03148 150 157 144
2.20909 -3.28001 -0.02381 151 157 149
2.19886 -3.29015 -0.01613 147 148 137
2.18863 -3.30029 -0.00845 145 143 119
2.17840 -3.31044 -0.00077 141 141 137
2.16816 -3.32058 0.00690 146 142 141
2.15793 -3.33072 0.01458 151 148 144
2.14770 -3.34086 0.02226 151 144 138
2.13747 -3.35101 0.02994 138 133 126
2.12723 -3.36115 0.03762 140 141 128
2.11700 -3.37130 0.04530 153 153 135
2.10676 -3.38144 0.05298 145 144 130
2.09653 -3.39159 0.06066 145 143 132
2.08629 -3.40173 0.06834 152 148 138
2.07606 -3.41188 0.07602 141 139 137
2.06582 -3.42202 0.08370 146 150 142
2.05559 -3.43217 0.09138 147 152 140
2.04535 -3.44232 0.09906 146 150 137
2.03511 -3.45246 0.10675 147 148 134
2.02488 -3.46261 0.11443 142 150 140
2.01464 -3.47276 0.12211 140 137 125
2.00440 -3.48291 0.12979 144 144 135
1.99416 -3.49306 0.13748 139 140 136
1.98392 -3.50321 0.14516 144 145 131
1.97369 -3.51335 0.15284 122 119 113
1.96345 -3.52350 0.16052 133 134 130
1.95321 -3.53365 0.16821 150 150 133
1.94297 -3.54380 0.17589 142 136 115
0.83498 -4.64210 1.00733 93 91 77
0.82470 -4.65229 1.01504 96 90 78
0.81442 -4.66248 1.02275 94 88 71
2.23167 -3.23138 -0.06436 157 150 139
2.22148 -3.24148 -0.05671 150 150 141
2.21129 -3.25158 -0.04906 131 132 118
2.20110 -3.26168 -0.04142 144 151 127
2.19090 -3.27178 -0.03377 141 145 133
2.18071 -3.28189 -0.02612 132 138 122
2.17052 -3.29199 -0.01847 138 147 125
2.16033 -3.30209 -0.01082 136 137 137
2.15013 -3.31220 -0.00317 136 136 139
2.13994 -3.32230 0.00447 141 142 142
2.12975 -3.33241 0.01212 144 141 136
2.11955 -3.34251 0.01977 142 139 126
2.10936 -3.35261 0.02742 143 144 128
2.09916 -3.36272 0.03507 143 145 135
2.08897 -3.37283 0.04272 142 145 139
2.07877 -3.38293 0.05037 152 153 147
2.06858 -3.39304 0.05802 156 155 148
2.05838 -3.40314 0.06567 145 146 136
2.04818 -3.41325 0.07333 144 147 138
2.03799 -3.42336 0.08098 145 149 139
2.02779 -3.43347 0.08863 144 147 133
2.01759 -3.44358 0.09628 142 142 121
2.00739 -3.45368 0.10393 136 137 136
1.99719 -3.46379 0.11159 141 141 130
1.98699 -3.47390 0.11924 146 150 131
1.97680 -3.48401 0.12689 140 134 134
1.96660 -3.49412 0.13455 143 141 122
1.95640 -3.50423 0.14220 133 132 123
1.94620 -3.51434 0.14985 143 144 133
1.93600 -3.52445 0.15751 151 148 137
1.92579 -3.53456 0.16516 151 145 135
0.82204 -4.62862 0.99338 98 93 80
0.81180 -4.63877 1.00106 100 95 81
2.23377 -3.20325 -0.08936 137 143 128
2.22362 -3.21331 -0.08174 149 151 128
2.21347 -3.22337 -0.07412 157 147 138
2.20332 -3.23343 -0.06651 146 147 137
2.19316 -3.24350 -0.05889 124 133 106
2.18301 -3.25356 -0.05127 142 146 118
2.17286 -3.26362 -0.04365 141 143 128
2.16270 -3.27369 -0.03603 125 133 120
2.15255 -3.28375 -0.02842 131 144 135
2.14240 -3.29382 -0.02080 133 139 137
2.13224 -3.30388 -0.01318 133 133 131
2.12209 -3.31395 -0.00556 134 137 128
2.11193 -3.32401 0.00206 135 139 131
2.10178 -3.33408 0.00968 140 143 131
2.09162 -3.34414 0.01730 146 146 130
2.08146 -3.35421 0.02492 143 144 131
2.07131 -3.36428 0.03254 143 148 135
2.06115 -3.37434 0.04016 147 151 141
2.05099 -3.38441 0.04779 149 151 141
2.04083 -3.39448 0.05541 145 144 138
2.03068 -3.40455 0.06303 136 133 138
2.02052 -3.41462 0.07065 139 144 141
2.01036 -3.42469 0.07827 141 146 141
2.00020 -3.43475 0.08590 139 141 132
1.99004 -3.44482 0.09352 139 140 136
1.97988 -3.45489 0.10114 149 149 131
1.96972 -3.46496 0.10877 148 152 130
1.95956 -3.47504 0.11639 141 135 130
1.94940 -3.48511 0.12401 139 133 121
1.93924 -3.49518 0.13164 141 147 128
1.92908 -3.50525 0.13926 142 142 130
1.91892 -3.51532 0.14689 139 135 136
1.90875 -3.52539 0.15451 147 142 145
1.89859 -3.53547 0.16214 140 130 131
0.83979 -4.58492 0.95658 96 99 88
0.82959 -4.59503 0.96423 102 102 86
0.81939 -4.60513 0.97189 101 99 86
0.80919 -4.61524 0.97954 100 99 92
0.79899 -4.62535 0.98719 101 101 89
2.21563 -3.19538 -0.09899 139 141 119
2.20552 -3.20540 -0.09140 145 146 127
2.19541 -3.21543 -0.08382 151 146 136
2.18529 -3.22545 -0.07623 145 146 139
2.17518 -3.23547 -0.06864 136 139 120
2.16506 -3.24550 -0.06105 149 150 136
2.15495 -3.25552 -0.05346 149 149 141
2.14483 -3.26555 -0.04587 131 132 132
2.13472 -3.27557 -0.03828 126 129 131
2.12460 -3.28560 -0.03069 129 130 131
2.11449 -3.29563 -0.02310 139 139 125
2.10437 -3.30565 -0.01551 142 146 120
2.09425 -3.31568 -0.00792 134 141 124
2.08413 -3.32571 -0.00033 136 142 134
2.07402 -3.33574 0.00726 150 153 135
2.06390 -3.34576 0.01485 152 152 133
2.05378 -3.35579 0.02244 145 144 133
2.04366 -3.36582 0.03003 139 140 129
2.03354 -3.37585 0.03763 137 137 133
2.02342 -3.38588 0.04522 141 141 139
2.01330 -3.39591 0.05281 137 135 131
2.00318 -3.40594 0.06040 138 143 132
1.99306 -3.41597 0.06800 142 144 136
1.98294 -3.42600 0.07559 142 138 135
1.97282 -3.43603 0.08318 150 153 136
1.96270 -3.44606 0.09078 156 154 130
1.95258 -3.45610 0.09837 149 150 128
1.94246 -3.46613 0.10597 142 138 129
1.93233 -3.47616 0.11356 141 138 131
1.92221 -3.48619 0.12116 155 166 130
1.91209 -3.49623 0.12875 150 152 133
1.90196 -3.50626 0.13635 131 133 133
1.89184 -3.51629 0.14394 138 138 137
1.88172 -3.52633 0.15154 143 141 134
0.83708 -4.56169 0.93531 92 94 82
0.82692 -4.57176 0.94294 105 109 97
0.81676 -4.58183 0.95056 112 110 92
2.19763 -3.18757 -0.10855 136 135 119
2.18756 -3.19755 -0.10099 142 141 124
2.17748 -3.20754 -0.09344 148 139 133
2.16740 -3.21753 -0.08588 147 150 142
2.15733 -3.22751 -0.07832 137 133 120
2.14725 -3.23750 -0.07076 143 142 135
2.13717 -3.24748 -0.06320 146 145 134
2.12710 -3.25747 -0.05564 131 129 122
2.11702 -3.26746 -0.04808 120 118 116
2.10694 -3.27745 -0.04052 124 123 123
2.09686 -3.28744 -0.03295 141 141 127
2.08679 -3.29742 -0.02539 146 147 121
2.07671 -3.30741 -0.01783 139 140 120
2.06663 -3.31740 -0.01027 142 147 136
2.05655 -3.32739 -0.00271 156 160 144
2.04647 -3.33738 0.00486 155 154 139
2.03639 -3.34737 0.01242 146 144 137
2.02631 -3.35736 0.01998 136 135 137
2.01623 -3.36735 0.02754 127 129 135
2.00615 -3.37735 0.03511 133 140 133
1.99606 -3.38734 0.04267 136 140 125
1.98598 -3.39733 0.05024 137 138 125
1.97590 -3.40732 0.05780 147 142 133
1.96582 -3.41731 0.06536 147 145 135
1.95573 -3.42731 0.07293 155 157 136
1.94565 -3.43730 0.08049 151 151 130
1.93557 -3.44729 0.08806 146 148 132
1.92548 -3.45729 0.09562 145 146 136
1.91540 -3.46728 0.10319 141 142 141
1.90531 -3.47728 0.11076 158 165 132
1.89523 -3.48727 0.11832 155 158 140
1.88514 -3.49727 0.12589 141 140 134
1.87506 -3.50726 0.13346 153 153 143
1.86497 -3.51726 0.14102 153 157 147
1.85489 -3.52726 0.14859 150 150 137
1.80445 -3.57724 0.18643 150 147 134
1.79436 -3.58724 0.19400 149 146 140
1.78427 -3.59724 0.20157 154 152 136
0.85464 -4.51858 0.89902 99 99 92
0.84452 -4.52861 0.90661 101 102 91
0.83440 -4.53864 0.91421 97 98 80
0.82428 -4.54867 0.92180 95 97 85
0.81416 -4.55870 0.92939 102 103 97
2.18980 -3.16987 -0.12557 133 135 127
2.17976 -3.17982 -0.11804 137 137 126
2.16973 -3.18977 -0.11051 143 141 119
2.15969 -3.19971 -0.10298 131 120 121
2.14965 -3.20966 -0.09545 140 141 138
2.13961 -3.21961 -0.08792 130 130 124
2.12957 -3.22956 -0.08039 130 132 126
2.11954 -3.23951 -0.07286 134 139 123
2.10950 -3.24946 -0.06533 130 134 122
2.09946 -3.25941 -0.05779 132 141 134
2.08942 -3.26936 -0.05026 138 144 135
2.07938 -3.27931 -0.04273 141 143 135
2.06933 -3.28926 -0.03520 137 143 133
2.05929 -3.29921 -0.02766 142 144 130
2.04925 -3.30916 -0.02013 150 149 140
2.03921 -3.31911 -0.01260 158 158 151
2.02917 -3.32906 -0.00506 158 159 145
2.01913 -3.33902 0.00247 153 155 136
2.00908 -3.34897 0.01000 147 149 135
1.99904 -3.35892 0.01754 141 141 133
1.98900 -3.36888 0.02507 143 144 132
1.97895 -3.37883 0.03261 138 143 129
1.96891 -3.38878 0.04014 133 144 131
1.95886 -3.39874 0.04768 148 149 143
1.94882 -3.40869 0.05521 148 146 138
1.93877 -3.41865 0.06275 154 156 138
1.92873 -3.42860 0.07029 147 144 127
1.91868 -3.43856 0.07782 145 146 133
1.90864 -3.44852 0.08536 143 143 135
1.89859 -3.45847 0.09290 140 141 141
1.88854 -3.46843 0.10043 144 148 133
1.87850 -3.47839 0.10797 143 145 133
1.86845 -3.48834 0.11551 142 141 134
1.85840 -3.49830 0.12305 143 141 135
1.84835 -3.50826 0.13058 142 141 145
1.83830 -3.51822 0.13812 144 146 147
1.78806 -3.56801 0.17582 151 151 136
1.77801 -3.57798 0.18336 144 146 134
1.76795 -3.58794 0.19090 148 146 134
0.85190 -4.49578 0.87813 99 99 90
0.84182 -4.50577 0.88569 103 105 100
0.83173 -4.51576 0.89326 101 104 96
0.82165 -4.52576 0.90082 98 100 85
0.81157 -4.53575 0.90839 97 98 86
2.18203 -3.15231 -0.14246 136 137 129
2.17203 -3.16222 -0.13496 135 137 127
2.16203 -3.17213 -0.12746 148 150 140
2.15203 -3.18204 -0.11996 145 143 125
2.14203 -3.19195 -0.11246 126 120 119
2.13203 -3.20186 -0.10496 135 132 123
2.12203 -3.21177 -0.09745 138 138 124
2.11203 -3.22168 -0.08995 140 134 123
2.10203 -3.23159 -0.08245 131 132 120
2.09203 -3.24150 -0.07494 123 127 123
2.08202 -3.25141 -0.06744 130 138 141
2.07202 -3.26133 -0.05994 143 149 139
2.06202 -3.27124 -0.05243 148 146 136
2.05202 -3.28115 -0.04493 139 144 138
2.04201 -3.29107 -0.03742 142 146 131
2.03201 -3.30098 -0.02992 144 145 133
2.02200 -3.31089 -0.02242 148 149 145
2.01200 -3.32081 -0.01491 153 154 148
2.00199 -3.33072 -0.00740 152 153 138
1.99199 -3.34064 0.00010 147 148 128
1.98198 -3.35055 0.00761 143 145 129
1.97198 -3.36047 0.01511 147 146 132
1.96197 -3.37039 0.02262 141 142 120
1.95196 -3.38030 0.03013 137 145 120
1.94196 -3.39022 0.03763 146 153 139
1.93195 -3.40014 0.04514 144 146 136
1.92194 -3.41005 0.05265 146 148 139
1.91193 -3.41997 0.06016 144 144 132
1.90193 -3.42989 0.06766 144 142 133
1.89192 -3.43981 0.07517 138 137 121
1.88191 -3.44973 0.08268 142 142 135
1.87190 -3.45965 0.09019 148 147 131
1.86189 -3.46957 0.09770 125 126 128
1.85188 -3.47949 0.10521 127 127 129
1.84187 -3.48941 0.11272 127 131 127
1.83186 -3.49933 0.12023 134 134 134
1.82185 -3.50925 0.12774 138 135 133
1.78180 -3.54893 0.15778 149 148 134
1.77179 -3.55886 0.16529 147 143 130
1.76178 -3.56878 0.17280 144 141 124
0.84918 -4.47316 0.85740 105 99 84
0.83914 -4.48311 0.86494 101 104 91
0.82909 -4.49306 0.87247 103 107 94
0.81905 -4.50302 0.88001 105 106 90
0.80900 -4.51297 0.88754 106 103 87
2.17432 -3.13488 -0.15923 145 141 127
2.16436 -3.14475 -0.15175 136 130 136
2.15440 -3.15462 -0.14428 131 131 129
2.14443 -3.16449 -0.13681 145 146 136
2.13447 -3.17436 -0.12933 137 136 126
2.12451 -3.18424 -0.12186 142 142 127
2.11455 -3.19411 -0.11439 143 141 121
2.10458 -3.20398 -0.10691 140 135 128
2.09462 -3.21386 -0.09944 147 148 133
2.08465 -3.22373 -0.09196 133 135 132
2.07469 -3.23361 -0.08449 129 136 128
2.06472 -3.24348 -0.07701 130 135 136
2.05476 -3.25336 -0.06954 140 138 138
2.04479 -3.26323 -0.06206 146 143 136
2.03483 -3.27311 -0.05459 143 145 133
2.02486 -3.28298 -0.04711 138 139 128
2.01489 -3.29286 -0.03964 126 128 121
2.00493 -3.30274 -0.03216 133 137 131
1.99496 -3.31261 -0.02468 148 151 142
1.98499 -3.32249 -0.01720 148 146 127
1.97502 -3.33237 -0.00973 142 138 115
1.96505 -3.34225 -0.00225 138 143 127
1.95509 -3.35213 0.00523 145 147 137
1.94512 -3.36201 0.01271 145 142 129
1.93515 -3.37188 0.02018 150 159 134
1.92518 -3.38176 0.02766 148 149 132
1.91521 -3.39164 0.03514 144 145 127
1.90524 -3.40152 0.04262 150 155 136
1.89527 -3.41140 0.05010 143 142 135
1.88530 -3.42129 0.05758 146 145 142
1.87532 -3.43117 0.06506 138 134 130
1.86535 -3.44105 0.07254 147 149 132
1.85538 -3.45093 0.08002 156 151 130
1.84541 -3.46081 0.08750 126 119 117
1.83544 -3.47069 0.09498 136 142 119
1.82546 -3.48058 0.10246 132 134 131
1.81549 -3.49046 0.10994 143 142 140
1.77559 -3.53000 0.13987 142 136 139
1.76562 -3.53988 0.14735 142 138 132
1.75564 -3.54977 0.15484 147 147 131
1.74567 -3.55965 0.16232 150 152 133
1.61595 -3.68819 0.25962 157 145 132
1.60597 -3.69808 0.26711 150 139 132
1.59599 -3.70797 0.27460 155 156 145
1.58601 -3.71786 0.28208 152 153 138
0.84648 -4.45070 0.83683 109 105 86
0.83647 -4.46062 0.84433 112 104 91
0.82647 -4.47053 0.85184 113 112 97
0.81646 -4.48045 0.85935 115 114 95
0.80645 -4.49037 0.86685 114 112 89
2.17659 -3.10774 -0.18331 124 123 110
2.15674 -3.12741 -0.16842 141 138 111
2.14682 -3.13724 -0.16098 134 118 117
2.13689 -3.14708 -0.15353 130 121 122
2.12697 -3.15691 -0.14609 133 131 111
2.11704 -3.16675 -0.13864 134 132 125
2.10712 -3.17659 -0.13119 144 149 142
2.09719 -3.18642 -0.12375 142 143 127
2.08726 -3.19626 -0.11630 138 137 127
2.07734 -3.20610 -0.10886 141 144 129
2.06741 -3.21593 -0.10141 129 138 134
2.05748 -3.22577 -0.09396 130 137 127
2.04755 -3.23561 -0.08652 123 130 123
2.03762 -3.24545 -0.07907 125 126 128
2.02769 -3.25528 -0.07162 137 139 135
2.01777 -3.26512 -0.06417 142 149 133
2.00784 -3.27496 -0.05673 145 152 128
1.99791 -3.28480 -0.04928 135 132 120
1.98798 -3.29464 -0.04183 133 128 121
1.97805 -3.30448 -0.03438 141 137 125
1.96811 -3.31432 -0.02693 143 137 124
1.95818 -3.32416 -0.01948 143 140 126
1.94825 -3.33400 -0.01203 141 142 128
1.93832 -3.34385 -0.00458 148 145 133
1.92839 -3.35369 0.00287 145 140 139
1.91846 -3.36353 0.01032 147 155 144
1.90852 -3.37337 0.01777 146 149 142
1.89859 -3.38321 0.02522 146 151 140
1.88866 -3.39306 0.03267 152 157 145
1.87872 -3.40290 0.04012 142 140 137
1.86879 -3.41275 0.04757 151 153 129
1.85885 -3.42259 0.05502 146 146 133
1.84892 -3.43243 0.06248 138 143 131
1.83898 -3.44228 0.06993 141 144 132
1.82905 -3.45212 0.07738 136 138 131
1.81911 -3.46197 0.08483 153 147 130
1.80918 -3.47181 0.09229 158 155 135
1.75949 -3.52105 0.12956 146 139 135
1.74955 -3.53090 0.13701 151 140 123
1.73962 -3.54074 0.14446 152 152 134
1.72968 -3.55059 0.15192 153 155 142
1.71974 -3.56044 0.15937 157 159 140
1.65016 -3.62939 0.21157 155 155 139
1.64021 -3.63924 0.21903 148 139 132
1.61039 -3.66880 0.24140 154 155 141
1.60044 -3.67865 0.24886 164 159 141
1.59050 -3.68850 0.25631 152 150 138
1.58056 -3.69836 0.26377 164 163 146
1.57061 -3.70821 0.27123 161 157 142
0.84380 -4.42842 0.81641 104 106 88
0.83383 -4.43829 0.82389 105 104 92
0.82386 -4.44817 0.83136 110 104 97
0.81389 -4.45805 0.83884 114 111 100
0.80393 -4.46793 0.84632 114 113 96
2.16896 -3.09061 -0.19979 124 121 114
2.15907 -3.10040 -0.19238 128 125 113
2.13930 -3.12000 -0.17754 138 133 113
2.12941 -3.12980 -0.17013 133 128 114
2.11952 -3.13959 -0.16271 128 129 118
2.10963 -3.14939 -0.15529 132 127 109
2.09974 -3.15919 -0.14788 127 126 120
2.08985 -3.16899 -0.14046 134 137 136
2.07996 -3.17879 -0.13304 136 135 133
2.07007 -3.18859 -0.12562 135 135 125
2.06018 -3.19839 -0.11820 135 130 118
2.05029 -3.20819 -0.11079 129 131 125
2.04040 -3.21799 -0.10337 135 134 123
2.03051 -3.22779 -0.09595 134 136 114
2.02062 -3.23759 -0.08853 130 124 113
2.01072 -3.24740 -0.08111 132 132 124
2.00083 -3.25720 -0.07369 138 141 128
1.99094 -3.26700 -0.06627 149 150 126
1.98105 -3.27680 -0.05885 148 147 125
1.97115 -3.28661 -0.05143 144 143 127
1.96126 -3.29641 -0.04401 139 139 125
1.95136 -3.30621 -0.03659 134 132 127
1.94147 -3.31602 -0.02916 139 137 133
1.93158 -3.32582 -0.02174 140 137 129
1.92168 -3.33563 -0.01432 140 136 129
1.91178 -3.34543 -0.00690 139 140 134
1.90189 -3.35524 0.00052 141 142 136
1.89199 -3.36504 0.00795 141 141 140
1.88210 -3.37485 0.01537 141 147 134
1.87220 -3.38466 0.02279 145 147 124
1.86230 -3.39446 0.03022 144 148 134
1.85241 -3.40427 0.03764 145 137 120
1.84251 -3.41408 0.04506 145 147 132
1.83261 -3.42388 0.05249 131 134 133
1.82271 -3.43369 0.05991 135 146 132
1.81281 -3.44350 0.06734 134 140 126
1.80291 -3.45331 0.07476 130 137 133
1.79301 -3.46312 0.08219 148 153 140
1.75341 -3.50236 0.11189 145 144 138
1.74351 -3.51217 0.11931 148 151 136
1.73361 -3.52198 0.12674 157 156 135
1.72371 -3.53179 0.13417 154 151 138
1.71381 -3.54160 0.14160 154 151 136
1.70391 -3.55141 0.14902 159 157 133
1.69400 -3.56123 0.15645 154 155 134
1.68410 -3.57104 0.16388 148 151 140
1.67420 -3.58085 0.17131 147 150 142
1.66429 -3.59066 0.17873 144 148 133
1.65439 -3.60048 0.18616 150 153 133
1.64448 -3.61029 0.19359 147 149 142
1.63458 -3.62011 0.20102 154 150 137
1.62468 -3.62992 0.20845 148 139 127
1.61477 -3.63973 0.21588 139 138 120
1.60486 -3.64955 0.22331 140 139 113
1.58505 -3.66918 0.23817 156 159 152
1.57515 -3.67900 0.24560 144 141 133
1.56524 -3.68881 0.25303 154 157 140
1.55533 -3.69863 0.26046 159 158 139
1.54542 -3.70845 0.26789 162 159 136
0.86100 -4.38662 0.78125 105 106 91
0.85107 -4.39646 0.78869 103 102 90
0.84114 -4.40630 0.79614 103 104 86
0.83121 -4.41614 0.80359 99 104 85
0.82128 -4.42598 0.81104 102 104 92
0.81135 -4.43582 0.81849 108 105 96
0.80142 -4.44566 0.82594 107 105 95
2.16138 -3.07360 -0.21616 123 123 111
2.15153 -3.08336 -0.20877 123 120 108
2.14168 -3.09312 -0.20138 125 113 119
2.12198 -3.11264 -0.18660 142 137 124
2.11213 -3.12240 -0.17921 136 132 124
2.10227 -3.13217 -0.17182 126 130 121
2.09242 -3.14193 -0.16443 132 125 112
2.08257 -3.15169 -0.15704 126 121 111
2.07272 -3.16145 -0.14965 131 128 132
2.06286 -3.17122 -0.14226 143 141 137
2.05301 -3.18098 -0.13487 140 136 125
2.04315 -3.19074 -0.12748 136 132 121
2.03330 -3.20051 -0.12009 127 129 125
2.02344 -3.21027 -0.11270 132 135 118
2.01359 -3.22004 -0.10531 134 136 112
2.00373 -3.22980 -0.09792 133 133 117
1.99388 -3.23957 -0.09053 135 132 122
1.98402 -3.24933 -0.08313 139 136 125
1.97417 -3.25910 -0.07574 140 137 126
1.96431 -3.26886 -0.06835 140 136 132
1.95445 -3.27863 -0.06095 145 145 140
1.94460 -3.28840 -0.05356 147 145 131
1.93474 -3.29817 -0.04617 145 142 130
1.92488 -3.30793 -0.03877 147 148 137
1.91502 -3.31770 -0.03138 147 142 122
1.90516 -3.32747 -0.02399 140 134 119
1.89530 -3.33724 -0.01659 132 132 123
1.88544 -3.34701 -0.00920 141 137 128
1.87558 -3.35678 -0.00180 147 148 147
1.86572 -3.36654 0.00559 155 153 150
1.85586 -3.37631 0.01299 150 147 134
1.84600 -3.38608 0.02038 151 157 140
1.83614 -3.39586 0.02778 146 154 135
1.82628 -3.40563 0.03518 152 159 132
1.81642 -3.41540 0.04257 139 136 122
1.80656 -3.42517 0.04997 146 148 137
1.79670 -3.43494 0.05737 151 153 134
1.78683 -3.44471 0.06476 140 142 131
1.77697 -3.45448 0.07216 137 137 129
1.76711 -3.46426 0.07956 142 145 135
1.75724 -3.47403 0.08696 140 148 136
1.74738 -3.48380 0.09435 151 150 136
1.73752 -3.49358 0.10175 140 140 135
1.72765 -3.50335 0.10915 141 146 136
1.71779 -3.51313 0.11655 149 155 143
1.70792 -3.52290 0.12395 157 158 141
1.69806 -3.53268 0.13135 161 158 137
1.68819 -3.54245 0.13875 159 162 140
1.67832 -3.55223 0.14615 154 157 141
1.66846 -3.56200 0.15355 148 146 140
1.65859 -3.57178 0.16095 145 143 144
1.64872 -3.58156 0.16835 148 150 140
1.63886 -3.59133 0.17575 159 161 135
1.62899 -3.60111 0.18315 158 161 141
1.61912 -3.61089 0.19055 165 161 145
1.60925 -3.62067 0.19795 151 151 137
1.59938 -3.63044 0.20535 131 138 115
1.58951 -3.64022 0.21276 132 144 114
1.57964 -3.65000 0.22016 126 138 113
1.55990 -3.66956 0.23496 141 144 133
1.55003 -3.67934 0.24237 152 155 138
1.54016 -3.68912 0.24977 158 157 143
1.53029 -3.69890 0.25717 165 165 137
0.85829 -4.36474 0.76119 111 109 93
0.84840 -4.37454 0.76861 111 109 97
0.83850 -4.38434 0.77603 107 105 97
0.82861 -4.39415 0.78345 105 104 91
0.81871 -4.40395 0.79087 103 104 89
0.80882 -4.41376 0.79829 106 105 97
0.79892 -4.42356 0.80571 109 105 92
0.78903 -4.43336 0.81314 101 99 82
2.15386 -3.05672 -0.23240 129 127 114
2.14405 -3.06644 -0.22504 123 127 118
2.13423 -3.07617 -0.21768 111 112 109
2.12442 -3.08589 -0.21031 117 112 122
2.10479 -3.10534 -0.19559 136 142 134
2.09497 -3.11507 -0.18823 130 126 129
2.08516 -3.12479 -0.18087 116 125 122
2.07534 -3.13452 -0.17351 129 131 119
2.06552 -3.14424 -0.16614 128 131 125
2.05571 -3.15397 -0.15878 121 122 127
2.04589 -3.16370 -0.15142 127 128 128
2.03607 -3.17342 -0.14406 140 128 121
2.02625 -3.18315 -0.13669 142 136 128
2.01643 -3.19288 -0.12933 140 143 133
2.00662 -3.20261 -0.12197 133 132 122
1.99680 -3.21234 -0.11460 129 128 109
1.98698 -3.22207 -0.10724 139 140 124
1.97716 -3.23179 -0.09987 143 147 138
1.96734 -3.24152 -0.09251 145 147 129
1.95752 -3.25125 -0.08514 143 143 116
1.94770 -3.26098 -0.07778 138 136 119
1.93788 -3.27071 -0.07041 137 136 127
1.92806 -3.28044 -0.06305 141 143 126
1.91823 -3.29018 -0.05568 145 148 133
1.90841 -3.29991 -0.04831 148 151 139
1.89859 -3.30964 -0.04095 156 155 130
1.88877 -3.31937 -0.03358 150 145 126
1.87894 -3.32910 -0.02621 134 130 133
1.86912 -3.33884 -0.01885 150 151 130
1.85930 -3.34857 -0.01148 148 150 133
1.84947 -3.35830 -0.00411 141 141 138
1.83965 -3.36804 0.00326 146 146 132
1.82983 -3.37777 0.01062 156 170 151
1.82000 -3.38750 0.01799 145 159 153
1.81018 -3.39724 0.02536 152 157 137
1.80035 -3.40697 0.03273 150 145 134
1.79052 -3.41671 0.04010 156 156 132
1.78070 -3.42644 0.04747 150 146 136
1.77087 -3.43618 0.05484 142 142 126
1.76105 -3.44592 0.06221 139 139 112
1.75122 -3.45565 0.06958 143 143 127
1.74139 -3.46539 0.07695 141 145 133
1.73156 -3.47513 0.08432 141 132 134
1.72174 -3.48486 0.09169 140 137 131
1.71191 -3.49460 0.09906 141 146 131
1.70208 -3.50434 0.10643 136 142 129
1.69225 -3.51408 0.11380 151 151 132
1.68242 -3.52382 0.12118 158 152 138
1.67259 -3.53356 0.12855 149 153 140
1.66276 -3.54330 0.13592 144 154 139
1.65293 -3.55304 0.14329 146 149 138
1.64310 -3.56278 0.15067 150 150 141
1.63327 -3.57252 0.15804 148 149 141
1.62344 -3.58226 0.16541 146 151 134
1.61361 -3.59200 0.17279 151 157 133
1.60377 -3.60174 0.18016 152 159 134
1.59394 -3.61148 0.18753 150 153 133
1.58411 -3.62122 0.19491 145 145 126
1.57428 -3.63096 0.20228 138 139 126
1.56444 -3.64071 0.20966 148 146 125
1.54478 -3.66019 0.22441 146 144 137
1.53494 -3.66994 0.23178 158 163 143
1.52511 -3.67968 0.23916 160 158 151
1.51527 -3.68942 0.24653 159 168 149
0.86546 -4.33326 0.73389 116 117 101
0.85560 -4.34302 0.74128 118 115 97
0.84574 -4.35279 0.74867 117 113 94
0.83588 -4.36255 0.75606 117 113 98
0.82603 -4.37232 0.76346 114 112 106
0.81617 -4.38209 0.77085 111 107 101
0.80631 -4.39185 0.77824 110 109 93
0.79645 -4.40162 0.78564 107 103 87
0.78659 -4.41139 0.79303 107 104 85
0.77673 -4.42116 0.80043 106 106 85
0.76687 -4.43093 0.80782 107 108 91
0.75701 -4.44070 0.81521 113 113 90
0.74715 -4.45047 0.82261 112 110 90
0.73729 -4.46024 0.83000 109 106 98
0.72743 -4.47001 0.83740 113 108 98
0.71757 -4.47978 0.84480 116 112 98
0.70771 -4.48955 0.85219 113 111 99
0.69785 -4.49932 0.85959 102 100 88
0.68799 -4.50909 0.86698 99 97 89
0.67812 -4.51886 0.87438 111 106 97
0.66826 -4.52863 0.88178 113 105 90
0.65840 -4.53840 0.88917 110 104 85
0.64853 -4.54818 0.89657 113 107 86
0.63867 -4.55795 0.90397 112 105 87
0.62881 -4.56772 0.91137 108 106 94
0.61894 -4.57750 0.91877 109 111 101
2.14640 -3.03996 -0.24852 123 133 118
2.13662 -3.04965 -0.24118 133 135 111
2.12684 -3.05934 -0.23385 127 128 109
2.11706 -3.06903 -0.22652 117 110 109
2.10728 -3.07872 -0.21918 128 129 118
2.09750 -3.08840 -0.21185 134 135 126
2.08772 -3.09809 -0.20452 143 141 129
2.07794 -3.10778 -0.19718 133 126 124
2.06816 -3.11747 -0.18985 120 126 120
2.05838 -3.12716 -0.18251 141 139 122
2.04860 -3.13685 -0.17518 137 134 121
2.03882 -3.14654 -0.16784 130 125 115
2.02904 -3.15623 -0.16051 129 128 127
2.01926 -3.16593 -0.15317 144 135 139
2.00948 -3.17562 -0.14583 140 133 138
1.99969 -3.18531 -0.13850 142 139 135
1.98991 -3.19500 -0.13116 141 134 127
1.98013 -3.20469 -0.12382 134 130 120
1.97034 -3.21439 -0.11649 132 131 128
1.96056 -3.22408 -0.10915 136 136 136
1.95078 -3.23377 -0.10181 145 143 131
1.94099 -3.24347 -0.09448 149 142 122
1.93121 -3.25316 -0.08714 141 140 121
1.92142 -3.26286 -0.07980 137 137 126
1.91164 -3.27255 -0.07246 144 142 133
1.90185 -3.28225 -0.06512 144 146 142
1.89207 -3.29194 -0.05778 140 141 143
1.88228 -3.30164 -0.05044 149 151 141
1.87249 -3.31133 -0.04310 154 149 139
1.86271 -3.32103 -0.03576 143 133 139
1.85292 -3.33073 -0.02842 145 145 138
1.84313 -3.34042 -0.02108 144 146 141
1.83334 -3.35012 -0.01374 151 156 152
1.82356 -3.35982 -0.00640 149 155 144
1.81377 -3.36952 0.00094 152 158 144
1.80398 -3.37921 0.00828 136 146 129
1.79419 -3.38891 0.01562 146 148 125
1.78440 -3.39861 0.02296 149 157 142
1.77461 -3.40831 0.03030 144 125 100
1.76482 -3.41801 0.03765 150 145 138
1.75503 -3.42771 0.04499 155 152 146
1.74524 -3.43741 0.05233 143 138 120
1.73545 -3.44711 0.05967 139 140 123
1.72566 -3.45681 0.06702 137 137 126
1.71586 -3.46651 0.07436 142 145 129
1.70607 -3.47621 0.08170 145 153 131
1.69628 -3.48592 0.08905 141 153 135
1.68649 -3.49562 0.09639 130 139 127
1.67669 -3.50532 0.10373 143 143 131
1.66690 -3.51502 0.11108 156 151 136
1.65711 -3.52473 0.11842 152 143 131
1.64731 -3.53443 0.12577 145 136 123
1.63752 -3.54413 0.13311 148 145 128
1.62772 -3.55384 0.14046 159 160 143
1.61793 -3.56354 0.14781 156 151 142
1.60813 -3.57325 0.15515 140 138 135
1.59834 -3.58295 0.16250 135 140 134
1.58854 -3.59266 0.16984 132 131 133
1.57875 -3.60236 0.17719 135 144 137
1.56895 -3.61207 0.18454 145 152 143
1.55915 -3.62177 0.19188 135 138 135
1.54935 -3.63148 0.19923 143 147 130
1.53956 -3.64119 0.20658 140 134 130
1.51996 -3.66060 0.22128 153 161 141
1.51016 -3.67031 0.22862 153 141 146
1.50036 -3.68002 0.23597 151 159 136
0.93148 -4.24364 0.66261 134 135 121
0.92166 -4.25337 0.66997 141 140 120
0.91184 -4.26309 0.67733 137 135 113
0.86275 -4.31174 0.71415 121 120 103
0.85293 -4.32147 0.72152 120 119 105
0.84311 -4.33119 0.72888 118 116 101
0.82346 -4.35066 0.74361 122 115 96
0.81364 -4.36039 0.75098 120 116 108
0.80382 -4.37012 0.75834 115 109 107
0.79400 -4.37985 0.76571 115 110 99
0.78418 -4.38958 0.77307 118 115 97
0.77435 -4.39931 0.78044 118 118 97
0.76453 -4.40904 0.78781 114 115 98
0.75471 -4.41878 0.79518 112 111 97
0.74488 -4.42851 0.80254 115 113 91
0.73506 -4.43824 0.80991 120 114 98
0.72523 -4.44798 0.81728 118 108 100
0.71541 -4.45771 0.82465 111 106 97
0.70558 -4.46744 0.83201 113 113 103
0.69576 -4.47718 0.83938 120 121 107
0.68593 -4.48691 0.84675 109 107 92
0.67611 -4.49665 0.85412 105 102 87
0.66628 -4.50638 0.86149 116 112 96
0.65645 -4.51612 0.86886 119 111 92
0.64663 -4.52585 0.87623 121 112 88
0.63680 -4.53559 0.88360 124 113 91
2.12925 -3.03298 -0.25721 113 123 125
2.11950 -3.04263 -0.24991 123 124 112
2.10976 -3.05229 -0.24260 122 120 97
2.10002 -3.06194 -0.23530 112 102 92
2.09027 -3.07159 -0.22799 134 131 117
2.08053 -3.08124 -0.22068 136 131 118
2.07079 -3.09090 -0.21338 145 145 135
2.06104 -3.10055 -0.20607 145 138 122
2.05130 -3.11021 -0.19876 128 129 122
2.04155 -3.11986 -0.19145 137 138 123
2.03181 -3.12951 -0.18414 138 131 114
2.02206 -3.13917 -0.17684 137 130 116
2.01232 -3.14883 -0.16953 137 136 123
2.00257 -3.15848 -0.16222 137 137 135
1.99282 -3.16814 -0.15491 136 136 138
1.98308 -3.17779 -0.14760 143 144 135
1.97333 -3.18745 -0.14029 146 147 129
1.96358 -3.19711 -0.13298 143 144 129
1.95383 -3.20676 -0.12567 140 139 131
1.94409 -3.21642 -0.11836 139 137 129
1.93434 -3.22608 -0.11105 138 138 125
1.92459 -3.23574 -0.10374 137 133 122
1.91484 -3.24540 -0.09643 132 131 127
1.90509 -3.25505 -0.08912 137 141 132
1.89534 -3.26471 -0.08181 141 135 124
1.88559 -3.27437 -0.07449 133 125 125
1.87584 -3.28403 -0.06718 132 131 137
1.86609 -3.29369 -0.05987 135 131 142
1.85634 -3.30335 -0.05256 146 147 151
1.84659 -3.31301 -0.04525 149 151 147
1.83684 -3.32268 -0.03793 146 145 111
1.82708 -3.33234 -0.03062 138 141 101
1.81733 -3.34200 -0.02331 149 145 127
1.80758 -3.35166 -0.01599 141 137 134
1.79783 -3.36132 -0.00868 157 168 148
1.78807 -3.37098 -0.00137 144 153 135
1.77832 -3.38065 0.00595 149 151 124
1.76856 -3.39031 0.01326 151 146 131
1.75881 -3.39997 0.02058 150 151 117
1.74906 -3.40964 0.02789 145 150 136
1.73930 -3.41930 0.03521 148 147 139
1.72955 -3.42897 0.04252 145 144 125
1.71979 -3.43863 0.04984 144 145 136
1.71003 -3.44830 0.05716 150 158 144
1.70028 -3.45796 0.06447 144 152 138
1.69052 -3.46763 0.07179 138 142 132
1.68077 -3.47729 0.07911 135 139 123
1.67101 -3.48696 0.08642 127 128 107
1.66125 -3.49663 0.09374 141 142 122
1.65149 -3.50629 0.10106 155 157 138
1.64174 -3.51596 0.10837 155 157 143
1.63198 -3.52563 0.11569 156 158 138
1.62222 -3.53530 0.12301 158 163 140
1.61246 -3.54497 0.13033 159 163 148
1.60270 -3.55463 0.13765 154 153 138
1.59294 -3.56430 0.14497 139 143 136
1.58318 -3.57397 0.15229 137 130 131
1.57342 -3.58364 0.15960 145 141 129
1.56366 -3.59331 0.16692 150 154 137
1.55390 -3.60298 0.17424 149 147 139
1.54414 -3.61265 0.18156 140 140 128
1.53438 -3.62232 0.18888 130 127 120
1.52461 -3.63199 0.19620 135 127 123
1.51485 -3.64167 0.20353 143 145 121
0.95788 -4.19346 0.62121 137 142 122
0.94810 -4.20315 0.62854 126 133 109
0.93832 -4.21284 0.63587 134 138 119
0.92854 -4.22253 0.64321 140 140 124
0.91875 -4.23222 0.65055 144 142 123
0.90897 -4.24192 0.65788 149 146 121
0.89919 -4.25161 0.66522 147 148 118
0.88941 -4.26130 0.67255 134 131 115
0.87962 -4.27099 0.67989 125 122 118
0.86984 -4.28068 0.68723 135 138 116
0.86006 -4.29038 0.69456 134 133 114
0.77199 -4.37762 0.76061 126 120 104
0.76220 -4.38732 0.76794 127 119 104
0.75242 -4.39702 0.77528 118 112 98
0.74263 -4.40671 0.78262 115 112 96
0.44885 -4.69776 1.00293 110 106 98
2.12193 -3.01644 -0.27313 125 126 112
2.11222 -3.02605 -0.26585 128 123 121
2.10251 -3.03567 -0.25857 131 132 125
2.09280 -3.04529 -0.25129 126 126 118
2.08310 -3.05490 -0.24401 115 113 111
2.07339 -3.06452 -0.23673 127 127 120
2.06368 -3.07414 -0.22945 125 120 113
2.05397 -3.08376 -0.22217 129 137 133
2.04426 -3.09337 -0.21489 141 139 125
2.03455 -3.10299 -0.20761 142 134 129
2.02484 -3.11261 -0.20033 148 151 139
2.01513 -3.12223 -0.19305 144 134 110
2.00542 -3.13185 -0.18576 132 127 112
1.99571 -3.14147 -0.17848 134 133 117
1.98600 -3.15109 -0.17120 138 134 125
1.97629 -3.16071 -0.16392 140 131 129
1.96658 -3.17033 -0.15664 137 129 130
1.95687 -3.17995 -0.14935 141 133 135
1.94716 -3.18958 -0.14207 145 146 135
1.93744 -3.19920 -0.13479 143 139 125
1.92773 -3.20882 -0.12750 139 138 126
1.91802 -3.21844 -0.12022 140 141 131
1.90830 -3.22806 -0.11294 143 143 130
1.89859 -3.23769 -0.10565 141 144 131
1.88888 -3.24731 -0.09837 136 137 140
1.87916 -3.25693 -0.09108 135 141 145
1.86945 -3.26656 -0.08380 140 152 135
1.85973 -3.27618 -0.07651 142 141 125
1.85002 -3.28581 -0.06923 141 128 133
1.84030 -3.29543 -0.06194 146 146 147
1.83059 -3.30506 -0.05466 149 152 140
1.82087 -3.31468 -0.04737 154 153 126
1.81115 -3.32431 -0.04009 146 150 123
1.80144 -3.33394 -0.03280 147 145 136
1.79172 -3.34356 -0.02551 145 145 140
1.78200 -3.35319 -0.01823 156 156 141
1.77228 -3.36282 -0.01094 138 141 125
1.76256 -3.37244 -0.00365 136 139 122
1.75285 -3.38207 0.00364 148 146 129
1.74313 -3.39170 0.01092 156 150 135
1.73341 -3.40133 0.01821 146 140 136
1.72369 -3.41096 0.02550 147 142 132
1.71397 -3.42059 0.03279 144 134 122
1.70425 -3.43021 0.04008 144 148 139
1.69453 -3.43984 0.04737 148 150 134
1.68481 -3.44947 0.05466 142 134 122
1.67509 -3.45910 0.06195 153 150 128
1.66537 -3.46873 0.06924 150 142 133
1.65564 -3.47837 0.07653 142 137 131
1.64592 -3.48800 0.08382 141 142 135
1.63620 -3.49763 0.09111 139 143 142
1.62648 -3.50726 0.09840 142 148 143
1.61675 -3.51689 0.10569 147 148 133
1.60703 -3.52653 0.11298 145 137 123
1.59731 -3.53616 0.12027 146 139 126
1.58758 -3.54579 0.12756 148 143 130
1.57786 -3.55542 0.13486 138 131 130
1.56813 -3.56506 0.14215 128 128 122
1.55841 -3.57469 0.14944 124 119 114
1.54868 -3.58433 0.15673 129 121 115
1.53896 -3.59396 0.16403 152 144 132
1.52923 -3.60360 0.17132 151 145 130
1.51951 -3.61323 0.17861 135 140 121
1.50978 -3.62287 0.18591 138 124 108
1.50005 -3.63250 0.19320 152 146 127
1.00357 -4.12435 0.56550 130 128 111
0.99383 -4.13401 0.57281 130 130 105
0.98408 -4.14366 0.58011 130 129 105
0.97434 -4.15331 0.58742 137 136 112
0.96459 -4.16296 0.59473 130 127 109
0.95485 -4.17262 0.60203 127 129 122
0.94510 -4.18227 0.60934 133 142 130
0.93536 -4.19193 0.61665 128 141 117
0.92561 -4.20158 0.62396 137 145 122
0.91587 -4.21124 0.63126 141 142 126
0.90612 -4.22089 0.63857 141 137 123
0.89638 -4.23055 0.64588 143 138 125
0.88663 -4.24020 0.65319 145 145 127
0.87688 -4.24986 0.66050 139 137 121
0.86713 -4.25952 0.66781 129 125 119
0.85739 -4.26917 0.67512 136 137 121
0.75014 -4.37542 0.75554 134 124 102
0.74039 -4.38508 0.76285 125 116 101
0.44769 -4.67504 0.98234 111 106 100
0.43793 -4.68471 0.98966 112 105 98
0.42817 -4.69438 0.99698 102 97 97
2.10499 -3.00959 -0.28167 119 127 119
2.09532 -3.01917 -0.27442 125 130 124
2.08564 -3.02875 -0.26717 127 134 132
2.07597 -3.03834 -0.25991 129 128 129
2.06630 -3.04792 -0.25266 135 137 122
2.05663 -3.05750 -0.24541 136 132 121
2.04695 -3.06708 -0.23815 134 123 124
2.03728 -3.07667 -0.23090 135 136 140
2.02761 -3.08625 -0.22365 145 141 127
2.01793 -3.09583 -0.21639 139 133 123
2.00826 -3.10542 -0.20914 137 143 130
1.99858 -3.11500 -0.20188 140 138 115
1.98891 -3.12459 -0.19463 121 115 109
1.97923 -3.13417 -0.18737 124 122 123
1.96956 -3.14376 -0.18012 134 132 124
1.95988 -3.15334 -0.17286 138 141 131
1.95020 -3.16293 -0.16561 153 154 143
1.94053 -3.17251 -0.15835 157 157 143
1.93085 -3.18210 -0.15109 153 155 144
1.92117 -3.19169 -0.14384 145 139 130
1.91149 -3.20127 -0.13658 137 134 128
1.90182 -3.21086 -0.12932 142 145 138
1.89214 -3.22045 -0.12207 150 157 143
1.88246 -3.23004 -0.11481 146 144 137
1.87278 -3.23962 -0.10755 137 129 127
1.86310 -3.24921 -0.10029 133 132 120
1.85342 -3.25880 -0.09304 139 143 122
1.84374 -3.26839 -0.08578 149 154 133
1.83406 -3.27798 -0.07852 151 151 134
1.82438 -3.28757 -0.07126 146 140 133
1.81470 -3.29716 -0.06400 133 130 136
1.80502 -3.30675 -0.05674 133 137 133
1.79534 -3.31634 -0.04948 138 143 129
1.78566 -3.32593 -0.04222 164 168 154
1.77597 -3.33552 -0.03496 168 163 154
1.76629 -3.34511 -0.02770 164 158 134
1.75661 -3.35471 -0.02044 140 136 117
1.74693 -3.36430 -0.01318 119 124 112
1.73724 -3.37389 -0.00592 146 151 150
1.72756 -3.38348 0.00134 165 165 151
1.71787 -3.39308 0.00860 157 154 143
1.70819 -3.40267 0.01586 152 148 141
1.69851 -3.41226 0.02313 154 156 140
1.68882 -3.42186 0.03039 153 152 141
1.67914 -3.43145 0.03765 132 131 129
1.66945 -3.44105 0.04491 126 129 126
1.65976 -3.45064 0.05218 141 145 132
1.65008 -3.46024 0.05944 150 156 144
1.64039 -3.46983 0.06670 150 154 142
1.63070 -3.47943 0.07397 146 147 135
1.62102 -3.48903 0.08123 144 144 134
1.61133 -3.49862 0.08849 148 146 136
1.60164 -3.50822 0.09576 151 149 136
1.59195 -3.51782 0.10302 142 142 133
1.58227 -3.52742 0.11029 137 140 128
1.57258 -3.53701 0.11755 145 144 128
1.56289 -3.54661 0.12482 149 138 128
1.55320 -3.55621 0.13208 152 145 119
1.54351 -3.56581 0.13935 136 135 117
1.53382 -3.57541 0.14661 133 142 124
1.52413 -3.58501 0.15388 150 153 137
1.51444 -3.59461 0.16115 144 144 139
1.50475 -3.60421 0.16841 142 139 130
1.49506 -3.61381 0.17568 141 147 146
1.03921 -4.06538 0.51749 138 144 124
1.02951 -4.07499 0.52477 136 134 127
1.01980 -4.08461 0.53205 133 139 120
1.01009 -4.09422 0.53933 140 140 123
1.00038 -4.10384 0.54660 145 137 122
0.99068 -4.11346 0.55388 146 141 118
0.98097 -4.12308 0.56116 148 144 118
0.97126 -4.13269 0.56844 132 122 112
0.96155 -4.14231 0.57572 135 136 113
0.95184 -4.15193 0.58300 136 131 107
0.94213 -4.16155 0.59028 130 125 117
0.93242 -4.17116 0.59756 130 130 120
0.92271 -4.18078 0.60484 135 138 122
0.91300 -4.19040 0.61213 134 138 123
0.90329 -4.20002 0.61941 136 133 117
0.89358 -4.20964 0.62669 139 133 118
0.72845 -4.37323 0.75051 132 131 112
0.43682 -4.66212 0.96919 115 109 108
0.42709 -4.67176 0.97648 117 114 108
0.41737 -4.68139 0.98377 109 105 93
0.40764 -4.69103 0.99107 107 105 96
0.39791 -4.70067 0.99836 109 109 98
2.08817 -3.00280 -0.29015 114 123 115
2.07854 -3.01234 -0.28293 127 125 103
2.06890 -3.02189 -0.27570 122 110 102
2.05926 -3.03144 -0.26847 127 130 136
2.04962 -3.04098 -0.26125 134 142 138
2.03999 -3.05053 -0.25402 125 128 123
2.03035 -3.06008 -0.24679 130 127 123
2.02071 -3.06963 -0.23957 138 129 133
2.01107 -3.07918 -0.23234 140 128 118
2.00143 -3.08872 -0.22511 123 115 107
1.99179 -3.09827 -0.21788 127 117 125
1.98215 -3.10782 -0.21065 140 145 136
1.97251 -3.11737 -0.20343 149 148 137
1.96287 -3.12692 -0.19620 137 132 127
1.95323 -3.13647 -0.18897 132 136 128
1.94359 -3.14602 -0.18174 129 128 129
1.93395 -3.15557 -0.17451 141 132 123
1.92430 -3.16512 -0.16728 150 150 140
1.91466 -3.17468 -0.16005 150 145 139
1.90502 -3.18423 -0.15282 148 143 125
1.89538 -3.19378 -0.14559 145 139 122
1.88573 -3.20333 -0.13836 140 140 127
1.87609 -3.21289 -0.13113 139 134 119
1.86645 -3.22244 -0.12390 141 134 126
1.85680 -3.23199 -0.11667 146 143 135
1.84716 -3.24155 -0.10944 155 152 126
1.83751 -3.25110 -0.10220 156 154 129
1.82787 -3.26065 -0.09497 149 146 140
1.81822 -3.27021 -0.08774 147 146 143
1.80858 -3.27976 -0.08051 153 150 143
1.79893 -3.28932 -0.07328 160 155 144
1.78928 -3.29887 -0.06604 144 146 134
1.77964 -3.30843 -0.05881 129 130 132
1.76999 -3.31799 -0.05158 153 149 153
1.76034 -3.32754 -0.04434 159 163 161
1.75070 -3.33710 -0.03711 156 159 144
1.74105 -3.34666 -0.02988 155 149 122
1.73140 -3.35621 -0.02264 130 123 117
1.72175 -3.36577 -0.01541 149 139 141
1.71210 -3.37533 -0.00817 153 161 149
1.70245 -3.38489 -0.00094 154 155 144
1.69280 -3.39445 0.00630 156 155 145
1.68315 -3.40400 0.01353 167 166 159
1.67350 -3.41356 0.02077 159 160 147
1.66385 -3.42312 0.02800 151 145 137
1.65420 -3.43268 0.03524 143 139 130
1.64455 -3.44224 0.04248 146 148 123
1.63490 -3.45180 0.04971 150 150 119
1.62525 -3.46136 0.05695 153 154 134
1.61560 -3.47093 0.06419 146 138 137
1.60594 -3.48049 0.07142 142 137 133
1.59629 -3.49005 0.07866 147 154 141
1.58664 -3.49961 0.08590 146 151 136
1.57699 -3.50917 0.09314 148 148 134
1.56733 -3.51874 0.10038 155 155 138
1.55768 -3.52830 0.10761 150 148 130
1.54803 -3.53786 0.11485 147 140 131
1.53837 -3.54743 0.12209 150 143 130
1.52872 -3.55699 0.12933 144 145 133
1.51906 -3.56655 0.13657 132 134 123
1.50941 -3.57612 0.14381 131 123 118
1.49975 -3.58568 0.15105 133 125 127
1.49009 -3.59525 0.15829 126 123 121
1.48044 -3.60481 0.16553 130 129 127
1.47078 -3.61438 0.17277 137 146 143
1.10360 -3.97811 0.44809 141 141 127
1.09393 -3.98768 0.45534 148 146 127
1.08426 -3.99726 0.46259 143 143 127
1.07459 -4.00684 0.46984 139 145 125
1.03591 -4.04516 0.49884 138 137 114
1.02624 -4.05474 0.50609 137 138 120
1.01657 -4.06432 0.51334 137 133 120
1.00690 -4.07390 0.52059 136 138 125
0.99722 -4.08348 0.52785 148 151 134
0.98755 -4.09306 0.53510 159 155 136
0.97788 -4.10264 0.54235 150 151 130
0.96821 -4.11222 0.54960 146 147 133
0.95853 -4.12180 0.55686 143 141 129
0.94886 -4.13139 0.56411 139 140 117
0.93918 -4.14097 0.57136 136 134 111
0.92951 -4.15055 0.57862 132 125 111
0.91984 -4.16014 0.58587 127 124 106
0.41633 -4.65890 0.96340 112 110 105
0.40664 -4.66850 0.97067 110 104 89
0.39695 -4.67810 0.97793 106 99 86
0.38726 -4.68770 0.98520 103 99 85
2.09068 -2.97703 -0.31297 123 126 110
2.08108 -2.98654 -0.30577 120 120 113
2.07148 -2.99605 -0.29857 113 120 112
2.06188 -3.00556 -0.29137 135 137 98
2.05228 -3.01508 -0.28417 119 114 111
2.04267 -3.02459 -0.27697 123 125 129
2.03307 -3.03410 -0.26977 137 131 129
2.02347 -3.04361 -0.26257 136 138 129
2.01386 -3.05313 -0.25537 134 136 132
2.00426 -3.06264 -0.24817 146 146 140
1.99465 -3.07215 -0.24097 150 167 153
1.98505 -3.08167 -0.23377 117 107 111
1.97544 -3.09118 -0.22657 124 125 132
1.96584 -3.10070 -0.21936 136 141 131
1.95623 -3.11021 -0.21216 142 142 128
1.94663 -3.11973 -0.20496 140 135 119
1.93702 -3.12924 -0.19776 133 128 127
1.92741 -3.13876 -0.19055 133 138 138
1.91780 -3.14827 -0.18335 138 132 129
1.90820 -3.15779 -0.17615 139 142 145
1.89859 -3.16731 -0.16894 142 142 148
1.88898 -3.17682 -0.16174 146 144 146
1.87937 -3.18634 -0.15454 152 146 137
1.86977 -3.19586 -0.14733 146 145 130
1.86016 -3.20538 -0.14013 139 145 128
1.85055 -3.21490 -0.13292 148 151 147
1.84094 -3.22442 -0.12572 154 155 157
1.83133 -3.23393 -0.11851 145 142 136
1.82172 -3.24345 -0.11131 140 135 131
1.81211 -3.25297 -0.10410 142 142 138
1.80250 -3.26249 -0.09690 141 141 135
1.79289 -3.27201 -0.08969 146 145 134
1.78327 -3.28153 -0.08248 150 154 138
1.77366 -3.29105 -0.07528 135 136 129
1.76405 -3.30058 -0.06807 128 136 135
1.75444 -3.31010 -0.06086 153 163 149
1.74483 -3.31962 -0.05366 159 157 152
1.73521 -3.32914 -0.04645 148 150 144
1.72560 -3.33866 -0.03924 141 142 141
1.71599 -3.34819 -0.03203 148 153 151
1.70637 -3.35771 -0.02483 158 164 146
1.69676 -3.36723 -0.01762 141 148 146
1.68714 -3.37676 -0.01041 151 149 138
1.67753 -3.38628 -0.00320 155 160 138
1.66791 -3.39580 0.00401 152 151 140
1.65830 -3.40533 0.01122 151 156 138
1.64868 -3.41485 0.01843 147 154 127
1.63907 -3.42438 0.02564 136 134 133
1.62945 -3.43390 0.03285 142 141 122
1.61983 -3.44343 0.04006 148 143 97
1.61022 -3.45296 0.04727 156 150 120
1.60060 -3.46248 0.05448 152 148 131
1.59098 -3.47201 0.06169 145 141 121
1.58136 -3.48154 0.06890 146 147 132
1.57175 -3.49106 0.07611 146 147 135
1.56213 -3.50059 0.08332 144 144 131
1.55251 -3.51012 0.09054 146 145 134
1.54289 -3.51965 0.09775 145 141 132
1.53327 -3.52918 0.10496 145 141 128
1.52365 -3.53870 0.11217 153 146 134
1.51403 -3.54823 0.11939 151 149 145
1.50441 -3.55776 0.12660 135 137 122
1.49479 -3.56729 0.13381 134 139 123
1.48517 -3.57682 0.14103 137 138 132
1.47555 -3.58635 0.14824 122 127 125
1.46592 -3.59588 0.15545 127 130 121
1.45630 -3.60541 0.16267 135 135 129
1.44668 -3.61495 0.16988 129 132 129
1.16750 -3.89149 0.37920 148 158 142
1.15787 -3.90103 0.38642 154 167 145
1.14824 -3.91057 0.39365 151 153 147
1.13860 -3.92011 0.40087 156 159 152
1.11934 -3.93919 0.41531 143 140 122
1.10971 -3.94873 0.42253 135 133 123
1.10007 -3.95828 0.42976 135 134 121
1.09044 -3.96782 0.43698 142 146 130
1.08081 -3.97736 0.44420 149 150 141
1.07117 -3.98691 0.45143 152 159 143
1.06154 -3.99645 0.45865 142 140 128
1.05190 -4.00599 0.46588 134 135 125
1.03263 -4.02508 0.48032 132 134 115
1.02299 -4.03463 0.48755 132 128 116
1.01336 -4.04417 0.49477 130 131 112
1.00372 -4.05372 0.50200 138 131 108
0.99408 -4.06326 0.50922 135 129 121
0.98445 -4.07281 0.51645 138 143 134
0.97481 -4.08236 0.52368 152 147 131
0.96517 -4.09190 0.53090 147 138 120
0.95553 -4.10145 0.53813 135 129 111
0.94590 -4.11100 0.54535 131 134 116
0.39599 -4.65570 0.95766 113 104 89
0.38633 -4.66527 0.96490 108 98 82
0.37668 -4.67483 0.97214 95 91 82
0.36702 -4.68440 0.97938 101 99 92
2.08361 -2.96092 -0.32845 131 128 118
2.07404 -2.97040 -0.32128 130 124 115
2.06447 -2.97988 -0.31410 132 131 130
2.05491 -2.98935 -0.30693 123 128 116
2.04534 -2.99883 -0.29976 139 143 111
2.03577 -3.00831 -0.29258 125 114 119
2.02620 -3.01779 -0.28541 123 127 124
