ply
format ascii 1.0
element face 0
property list uchar int vertex_indices
element vertex 1303
property float x
property float y
property float z
property uchar diffuse_red
property uchar diffuse_green
property uchar diffuse_blue
end_header
-0.10654 -4.82033 1.62135 142 125 108
-0.12502 -4.80261 1.62617 140 124 109
-0.14330 -4.78508 1.63093 142 125 108
-0.16137 -4.76775 1.63563 141 126 106
-0.17923 -4.75061 1.64029 140 126 103
-0.19691 -4.73366 1.64489 139 124 105
-0.21439 -4.71689 1.64945 141 126 112
-0.23167 -4.70031 1.65395 142 126 107
-0.24878 -4.68390 1.65841 140 125 109
-0.26569 -4.66768 1.66281 143 126 109
-0.28243 -4.65162 1.66717 142 124 107
-0.29899 -4.63574 1.67149 142 128 111
-0.31537 -4.62003 1.67575 144 131 108
-0.33158 -4.60448 1.67998 141 130 105
-0.34762 -4.58909 1.68415 144 129 110
-0.36349 -4.57387 1.68829 144 126 115
-0.37920 -4.55880 1.69238 146 127 109
-0.39474 -4.54389 1.69643 143 126 97
-0.41013 -4.52913 1.70044 142 126 109
-0.42536 -4.51452 1.70441 143 127 114
-0.44043 -4.50006 1.70833 143 126 117
-0.45535 -4.48575 1.71222 143 126 112
-0.47012 -4.47158 1.71607 144 125 117
-0.48475 -4.45756 1.71988 143 126 114
0.14878 -5.07935 1.53739 136 118 94
0.12727 -5.05863 1.54310 135 120 94
0.10602 -5.03817 1.54874 135 122 100
0.08503 -5.01795 1.55431 137 121 102
0.06429 -4.99797 1.55982 138 122 104
0.04379 -4.97823 1.56526 139 122 103
0.02354 -4.95872 1.57063 139 124 101
0.00352 -4.93944 1.57595 139 125 99
-0.01626 -4.92038 1.58120 140 124 99
-0.03582 -4.90155 1.58639 142 124 105
-0.05515 -4.88293 1.59152 142 125 107
-0.07425 -4.86453 1.59659 138 127 111
-0.09314 -4.84633 1.60160 140 128 117
-0.11182 -4.82834 1.60656 141 127 111
-0.13028 -4.81056 1.61146 139 125 104
-0.14854 -4.79297 1.61631 140 126 98
-0.16660 -4.77558 1.62110 139 125 105
-0.18445 -4.75838 1.62584 140 125 106
-0.20211 -4.74138 1.63053 142 124 107
-0.21958 -4.72455 1.63516 144 124 111
-0.23685 -4.70791 1.63975 143 124 106
-0.25394 -4.69146 1.64429 143 126 107
-0.27084 -4.67517 1.64877 145 126 115
-0.28756 -4.65907 1.65321 140 125 107
-0.30411 -4.64313 1.65760 140 127 110
-0.32047 -4.62737 1.66195 143 130 114
-0.33667 -4.61177 1.66625 144 129 122
-0.35270 -4.59633 1.67050 148 128 113
-0.36855 -4.58106 1.67471 146 127 114
-0.38425 -4.56594 1.67887 148 127 107
-0.39978 -4.55098 1.68300 146 125 107
-0.41515 -4.53618 1.68708 143 127 111
-0.43036 -4.52152 1.69112 144 124 112
-0.44542 -4.50702 1.69511 143 126 113
-0.46033 -4.49266 1.69907 143 125 115
-0.47509 -4.47844 1.70299 144 125 124
-0.48970 -4.46437 1.70686 143 124 118
0.12182 -5.06745 1.52714 136 119 97
0.10059 -5.04692 1.53288 137 121 100
0.07961 -5.02663 1.53856 138 122 102
0.05888 -5.00658 1.54416 138 122 106
0.03840 -4.98677 1.54970 139 123 105
0.01816 -4.96719 1.55517 139 123 100
-0.00185 -4.94784 1.56058 139 124 103
-0.02162 -4.92872 1.56593 140 124 103
-0.04116 -4.90982 1.57121 141 124 104
-0.06047 -4.89114 1.57643 142 124 102
-0.07956 -4.87268 1.58160 142 125 106
-0.09844 -4.85442 1.58670 143 127 110
-0.11710 -4.83637 1.59174 144 128 108
-0.13555 -4.81852 1.59673 143 128 111
-0.15380 -4.80088 1.60167 140 127 112
-0.17184 -4.78343 1.60654 137 125 113
-0.18968 -4.76617 1.61137 140 126 113
-0.20732 -4.74911 1.61614 143 125 107
-0.22477 -4.73223 1.62086 145 124 104
-0.24203 -4.71554 1.62553 142 124 107
-0.25911 -4.69902 1.63014 141 125 109
-0.27600 -4.68269 1.63471 143 124 113
-0.29270 -4.66653 1.63923 142 125 111
-0.30923 -4.65054 1.64370 141 127 111
-0.32559 -4.63472 1.64812 140 127 114
-0.34177 -4.61907 1.65249 142 125 116
-0.35778 -4.60359 1.65682 144 127 114
-0.37362 -4.58826 1.66111 146 126 113
-0.38930 -4.57310 1.66535 144 125 108
-0.40482 -4.55809 1.66954 145 127 117
-0.42018 -4.54323 1.67369 142 129 111
-0.43538 -4.52853 1.67780 143 126 109
-0.45042 -4.51398 1.68187 142 125 108
-0.46532 -4.49958 1.68590 145 123 107
-0.48006 -4.48532 1.68989 144 124 118
-0.49466 -4.47120 1.69383 143 126 114
0.11636 -5.07629 1.51116 135 121 100
0.09514 -5.05568 1.51700 137 120 99
0.07418 -5.03532 1.52277 139 121 98
0.05346 -5.01520 1.52848 139 122 101
0.03299 -4.99532 1.53411 140 123 103
0.01277 -4.97568 1.53968 140 122 101
-0.00722 -4.95626 1.54519 139 122 101
-0.02698 -4.93708 1.55063 139 123 101
-0.04650 -4.91811 1.55601 139 124 104
-0.06580 -4.89937 1.56132 141 123 99
-0.08488 -4.88084 1.56657 143 124 104
-0.10374 -4.86252 1.57177 144 124 101
-0.12239 -4.84441 1.57690 146 125 100
-0.14083 -4.82650 1.58198 144 127 110
-0.15906 -4.80880 1.58700 142 127 114
-0.17709 -4.79129 1.59196 140 125 115
-0.19491 -4.77398 1.59687 140 124 114
-0.21254 -4.75685 1.60173 141 124 112
-0.22998 -4.73992 1.60653 141 124 113
-0.24722 -4.72317 1.61128 138 125 108
-0.26428 -4.70660 1.61598 141 125 107
-0.28116 -4.69021 1.62062 144 125 107
-0.29785 -4.67400 1.62522 143 126 118
-0.31437 -4.65796 1.62977 139 125 114
-0.33071 -4.64209 1.63427 141 126 112
-0.34687 -4.62639 1.63872 142 126 114
-0.36287 -4.61085 1.64312 142 127 117
-0.37870 -4.59548 1.64748 148 126 122
-0.39437 -4.58026 1.65180 144 126 113
-0.40987 -4.56520 1.65607 146 127 116
-0.42521 -4.55030 1.66029 143 127 111
-0.44040 -4.53555 1.66447 143 126 107
-0.45543 -4.52095 1.66861 142 124 119
-0.47031 -4.50650 1.67271 143 123 115
-0.48504 -4.49220 1.67676 144 125 118
0.08969 -5.06446 1.50109 138 120 105
0.06873 -5.04403 1.50696 137 120 95
0.04803 -5.02384 1.51277 136 121 97
0.02758 -5.00389 1.51850 139 122 103
0.00737 -4.98418 1.52417 142 121 104
-0.01261 -4.96470 1.52977 140 122 105
-0.03235 -4.94545 1.53530 138 123 102
-0.05186 -4.92642 1.54077 137 123 105
-0.07115 -4.90761 1.54618 138 122 103
-0.09021 -4.88902 1.55153 139 123 104
-0.10906 -4.87064 1.55681 140 124 103
-0.12769 -4.85246 1.56204 141 125 104
-0.14611 -4.83450 1.56720 143 126 110
-0.16433 -4.81673 1.57231 143 128 114
-0.18234 -4.79916 1.57736 142 126 118
-0.20016 -4.78179 1.58235 142 123 110
-0.21777 -4.76461 1.58729 143 124 102
-0.23519 -4.74762 1.59218 141 125 99
-0.25242 -4.73081 1.59701 142 125 104
-0.26947 -4.71419 1.60179 142 124 106
-0.28633 -4.69775 1.60651 140 125 106
-0.30301 -4.68148 1.61119 140 127 111
-0.31951 -4.66539 1.61582 138 126 111
-0.33584 -4.64947 1.62039 141 126 112
-0.35199 -4.63371 1.62492 145 125 118
-0.36797 -4.61812 1.62940 140 125 110
-0.38379 -4.60270 1.63384 143 127 116
-0.39944 -4.58744 1.63823 144 128 113
-0.41493 -4.57233 1.64257 144 128 117
-0.43026 -4.55738 1.64687 143 126 115
-0.44543 -4.54258 1.65112 145 125 109
-0.46045 -4.52794 1.65533 144 124 115
-0.47531 -4.51344 1.65950 142 124 111
0.06328 -5.05276 1.49112 136 120 100
0.04260 -5.03250 1.49703 136 121 101
0.02216 -5.01248 1.50286 138 122 103
0.00196 -4.99270 1.50863 140 122 102
-0.01800 -4.97315 1.51432 139 123 99
-0.03773 -4.95383 1.51995 139 123 97
-0.05723 -4.93474 1.52552 140 123 102
-0.07650 -4.91586 1.53102 140 123 103
-0.09555 -4.89721 1.53645 138 124 100
-0.11438 -4.87876 1.54183 139 124 100
-0.13300 -4.86053 1.54714 140 126 111
-0.15141 -4.84250 1.55240 142 126 116
-0.16961 -4.82468 1.55759 141 128 109
-0.18761 -4.80705 1.56273 141 127 115
-0.20541 -4.78962 1.56781 143 125 112
-0.22301 -4.77238 1.57283 144 123 105
-0.24042 -4.75533 1.57780 140 124 99
-0.25763 -4.73847 1.58271 143 125 104
-0.27466 -4.72179 1.58757 144 125 106
-0.29151 -4.70530 1.59238 144 124 108
-0.30817 -4.68898 1.59714 142 125 106
-0.32466 -4.67283 1.60184 142 125 106
-0.34097 -4.65686 1.60650 142 125 105
-0.35711 -4.64105 1.61110 142 125 113
-0.37308 -4.62541 1.61566 142 126 111
-0.38888 -4.60994 1.62017 144 127 113
-0.40452 -4.59462 1.62463 144 128 117
-0.41999 -4.57947 1.62905 144 129 123
-0.43531 -4.56447 1.63342 143 129 116
-0.45047 -4.54962 1.63775 142 126 112
-0.46547 -4.53493 1.64203 143 126 112
-0.48032 -4.52039 1.64627 144 125 107
0.03715 -5.04117 1.48126 136 122 100
0.01672 -5.02108 1.48719 138 121 101
-0.00346 -5.00123 1.49305 141 122 105
-0.02341 -4.98162 1.49885 139 123 103
-0.04312 -4.96223 1.50457 138 123 100
-0.06260 -4.94307 1.51023 140 123 104
-0.08186 -4.92413 1.51583 141 123 105
-0.10090 -4.90541 1.52135 140 125 105
-0.11972 -4.88691 1.52682 139 123 107
-0.13832 -4.86861 1.53222 141 125 106
-0.15671 -4.85052 1.53757 143 126 108
-0.17490 -4.83264 1.54285 141 126 108
-0.19288 -4.81495 1.54807 142 127 115
-0.21067 -4.79746 1.55324 145 126 117
-0.22826 -4.78017 1.55835 144 126 110
-0.24565 -4.76306 1.56340 141 127 107
-0.26285 -4.74614 1.56840 141 128 106
-0.27987 -4.72941 1.57334 142 125 109
-0.29670 -4.71286 1.57823 142 124 115
-0.31335 -4.69648 1.58306 142 124 111
-0.32982 -4.68028 1.58785 143 124 112
-0.34612 -4.66426 1.59258 143 125 104
-0.36224 -4.64840 1.59726 140 126 109
-0.37820 -4.63271 1.60190 144 125 112
-0.39398 -4.61718 1.60648 143 126 110
-0.40961 -4.60182 1.61102 143 126 109
-0.42507 -4.58662 1.61551 142 128 116
-0.44037 -4.57157 1.61996 142 130 114
-0.45551 -4.55668 1.62435 142 128 109
-0.47050 -4.54194 1.62871 143 127 111
0.01128 -5.02970 1.47149 137 121 99
-0.00889 -5.00978 1.47746 138 122 99
-0.02882 -4.99010 1.48335 138 123 94
-0.04852 -4.97065 1.48917 138 123 93
-0.06799 -4.95142 1.49492 140 122 104
-0.08723 -4.93242 1.50061 142 121 107
-0.10625 -4.91363 1.50623 140 122 104
-0.12506 -4.89506 1.51179 140 123 106
-0.14365 -4.87670 1.51728 139 124 104
-0.16203 -4.85855 1.52271 140 125 104
-0.18020 -4.84061 1.52808 138 125 107
-0.19817 -4.82286 1.53339 142 125 108
-0.21594 -4.80532 1.53864 146 125 104
-0.23351 -4.78796 1.54384 145 127 110
-0.25089 -4.77080 1.54897 143 128 115
-0.26808 -4.75383 1.55405 140 127 109
-0.28508 -4.73704 1.55908 141 125 109
-0.30190 -4.72043 1.56405 141 124 114
-0.31853 -4.70400 1.56896 142 125 107
-0.33499 -4.68775 1.57383 141 123 105
-0.35127 -4.67167 1.57864 142 125 105
-0.36738 -4.65576 1.58340 140 125 109
-0.38332 -4.64002 1.58811 147 124 112
-0.39909 -4.62444 1.59277 145 125 112
-0.41470 -4.60903 1.59739 142 124 109
-0.43015 -4.59378 1.60195 140 125 116
-0.44543 -4.57868 1.60647 141 127 121
-0.46056 -4.56374 1.61094 143 128 112
-0.47554 -4.54895 1.61537 144 127 114
-0.01433 -5.01835 1.46183 137 121 100
-0.03425 -4.99859 1.46782 137 123 96
-0.05393 -4.97907 1.47373 138 122 94
-0.07338 -4.95978 1.47958 140 121 100
-0.09261 -4.94071 1.48536 141 122 97
-0.11162 -4.92187 1.49108 139 121 95
-0.13041 -4.90323 1.49673 140 122 105
-0.14899 -4.88481 1.50231 138 123 106
-0.16735 -4.86660 1.50783 138 124 102
-0.18551 -4.84859 1.51329 139 123 105
-0.20346 -4.83079 1.51869 141 125 106
-0.22122 -4.81318 1.52403 142 126 102
-0.23877 -4.79577 1.52931 143 128 107
-0.25614 -4.77855 1.53453 144 129 110
-0.27331 -4.76152 1.53969 144 126 101
-0.29030 -4.74468 1.54480 142 125 95
-0.30710 -4.72802 1.54985 139 127 109
-0.32372 -4.71153 1.55484 142 126 108
-0.34017 -4.69523 1.55979 140 123 104
-0.35643 -4.67910 1.56468 142 124 106
-0.37253 -4.66313 1.56952 142 124 112
-0.38845 -4.64734 1.57430 142 126 118
-0.40421 -4.63172 1.57904 143 126 111
-0.41980 -4.61625 1.58373 141 127 106
-0.43524 -4.60095 1.58837 139 126 108
-0.45051 -4.58580 1.59296 141 126 116
-0.46562 -4.57082 1.59751 144 128 117
-0.03968 -5.00711 1.45226 138 121 106
-0.05935 -4.98752 1.45827 137 121 103
-0.07879 -4.96816 1.46422 137 121 106
-0.09800 -4.94903 1.47009 138 123 97
-0.11700 -4.93011 1.47590 137 125 96
-0.13577 -4.91142 1.48164 137 125 103
-0.15433 -4.89293 1.48732 136 125 105
-0.17268 -4.87466 1.49293 138 125 98
-0.19082 -4.85660 1.49847 140 124 98
-0.20876 -4.83873 1.50396 141 124 102
-0.22650 -4.82106 1.50938 141 126 104
-0.24405 -4.80360 1.51475 141 126 108
-0.26140 -4.78632 1.52005 142 126 112
-0.27855 -4.76923 1.52530 145 126 110
-0.29553 -4.75233 1.53049 143 125 108
-0.31231 -4.73561 1.53562 142 127 109
-0.32892 -4.71908 1.54070 141 127 108
-0.34535 -4.70272 1.54572 141 125 97
-0.36160 -4.68653 1.55069 145 125 104
-0.37768 -4.67052 1.55561 142 125 106
-0.39359 -4.65468 1.56048 140 126 104
-0.40934 -4.63900 1.56529 141 127 106
-0.42492 -4.62348 1.57005 143 126 108
-0.44033 -4.60813 1.57477 142 125 110
-0.45559 -4.59294 1.57943 142 126 117
-0.47069 -4.57790 1.58405 142 125 114
-0.04512 -5.01563 1.43668 138 120 99
-0.06478 -4.99598 1.44279 135 120 95
-0.08420 -4.97655 1.44883 136 121 102
-0.10340 -4.95735 1.45480 138 121 96
-0.12238 -4.93838 1.46070 136 124 94
-0.14114 -4.91962 1.46653 136 125 100
-0.15969 -4.90107 1.47230 137 124 103
-0.17802 -4.88274 1.47800 139 124 102
-0.19615 -4.86461 1.48363 140 123 99
-0.21407 -4.84668 1.48921 141 123 99
-0.23180 -4.82896 1.49472 140 124 102
-0.24933 -4.81143 1.50017 141 124 106
-0.26666 -4.79410 1.50556 142 126 108
-0.28381 -4.77695 1.51089 142 127 110
-0.30076 -4.76000 1.51616 143 127 112
-0.31754 -4.74322 1.52138 144 125 109
-0.33413 -4.72663 1.52653 140 126 110
-0.35054 -4.71022 1.53164 141 127 101
-0.36678 -4.69398 1.53669 141 126 101
-0.38285 -4.67792 1.54168 140 124 106
-0.39874 -4.66202 1.54662 137 125 105
-0.41447 -4.64629 1.55151 141 125 105
-0.43004 -4.63073 1.55635 144 123 107
-0.44544 -4.61533 1.56114 144 125 108
-0.46068 -4.60008 1.56588 144 127 108
-0.07022 -5.00445 1.42727 137 120 98
-0.08963 -4.98496 1.43341 137 120 101
-0.10881 -4.96569 1.43947 137 121 98
-0.12777 -4.94665 1.44547 135 124 96
-0.14652 -4.92783 1.45139 136 125 97
-0.16505 -4.90922 1.45725 138 124 100
-0.18337 -4.89082 1.46304 139 122 105
-0.20148 -4.87264 1.46877 141 123 99
-0.21939 -4.85465 1.47443 141 123 93
-0.23710 -4.83687 1.48003 141 121 94
-0.25462 -4.81928 1.48556 141 122 104
-0.27194 -4.80189 1.49104 144 124 103
-0.28907 -4.78469 1.49645 143 125 102
-0.30601 -4.76767 1.50181 144 125 109
-0.32277 -4.75085 1.50710 146 124 109
-0.33935 -4.73420 1.51234 143 125 111
-0.35574 -4.71773 1.51753 141 126 108
-0.37197 -4.70144 1.52266 141 125 104
-0.38802 -4.68532 1.52773 141 124 109
-0.40390 -4.66938 1.53275 141 123 109
-0.41961 -4.65360 1.53772 141 124 106
-0.43516 -4.63798 1.54263 141 125 104
-0.45055 -4.62253 1.54750 141 125 106
-0.46578 -4.60724 1.55231 145 125 105
-0.09506 -4.99338 1.41796 138 119 105
-0.11423 -4.97405 1.42412 138 120 103
-0.13318 -4.95494 1.43021 137 122 98
-0.15191 -4.93606 1.43623 137 123 101
-0.17042 -4.91739 1.44218 138 123 108
-0.18873 -4.89893 1.44806 138 124 115
-0.20683 -4.88068 1.45387 139 123 102
-0.22472 -4.86263 1.45962 139 123 96
-0.24242 -4.84479 1.46531 139 123 101
-0.25992 -4.82714 1.47093 138 122 109
-0.27722 -4.80969 1.47649 143 123 106
-0.29434 -4.79244 1.48199 141 123 107
-0.31126 -4.77537 1.48743 142 124 111
-0.32801 -4.75848 1.49281 142 127 111
-0.34457 -4.74178 1.49813 142 127 111
-0.36095 -4.72526 1.50340 142 125 106
-0.37716 -4.70892 1.50861 139 123 98
-0.39320 -4.69274 1.51376 139 124 111
-0.40907 -4.67674 1.51886 140 123 116
-0.42476 -4.66091 1.52390 141 124 115
-0.44030 -4.64525 1.52889 139 124 104
-0.45567 -4.62975 1.53383 140 124 103
-0.11966 -4.98242 1.40874 138 120 98
-0.13859 -4.96325 1.41493 136 121 96
-0.15731 -4.94430 1.42104 137 122 103
-0.17581 -4.92556 1.42708 138 122 106
-0.19410 -4.90704 1.43305 139 123 107
-0.21218 -4.88873 1.43896 139 124 106
-0.23006 -4.87062 1.44480 138 123 102
-0.24774 -4.85272 1.45057 139 123 104
-0.26522 -4.83502 1.45628 139 124 103
-0.28251 -4.81751 1.46192 139 122 98
-0.29961 -4.80020 1.46751 137 123 108
-0.31653 -4.78307 1.47303 142 125 113
-0.33326 -4.76613 1.47849 142 125 114
-0.34980 -4.74937 1.48390 144 126 114
-0.36617 -4.73280 1.48924 143 127 106
-0.38237 -4.71640 1.49453 142 124 103
-0.39839 -4.70018 1.49976 141 123 112
-0.41424 -4.68413 1.50494 140 123 112
-0.42992 -4.66824 1.51006 141 123 107
-0.44544 -4.65253 1.51513 141 124 104
-0.14401 -4.97157 1.39962 134 121 100
-0.16271 -4.95255 1.40582 136 122 104
-0.18120 -4.93376 1.41195 137 122 104
-0.19947 -4.91517 1.41802 138 122 107
-0.21754 -4.89680 1.42401 139 122 110
-0.23541 -4.87863 1.42994 140 121 105
-0.25307 -4.86067 1.43580 139 122 104
-0.27054 -4.84291 1.44160 139 123 101
-0.28782 -4.82534 1.44733 140 124 96
-0.30490 -4.80797 1.45300 139 124 104
-0.32180 -4.79078 1.45861 140 123 108
-0.33851 -4.77379 1.46415 141 124 108
-0.35504 -4.75698 1.46964 142 124 107
-0.37140 -4.74035 1.47506 142 125 109
-0.38758 -4.72390 1.48043 144 124 111
-0.40358 -4.70762 1.48574 142 123 115
-0.41942 -4.69152 1.49100 140 121 115
-0.43509 -4.67558 1.49620 141 122 109
-0.45060 -4.65982 1.50134 143 123 107
-0.16813 -4.96082 1.39058 136 121 101
-0.18660 -4.94196 1.39680 138 122 99
-0.20486 -4.92332 1.40296 137 121 101
-0.22291 -4.90488 1.40905 138 123 103
-0.24076 -4.88665 1.41506 139 124 105
-0.25841 -4.86863 1.42101 137 124 103
-0.27587 -4.85081 1.42690 138 124 97
-0.29313 -4.83318 1.43271 140 125 92
-0.31020 -4.81575 1.43847 141 123 106
-0.32708 -4.79851 1.44416 141 122 107
-0.34378 -4.78146 1.44979 143 124 107
-0.36029 -4.76460 1.45536 142 124 107
-0.37663 -4.74791 1.46086 142 124 113
-0.39280 -4.73141 1.46631 146 124 117
-0.40879 -4.71508 1.47170 144 125 115
-0.42461 -4.69892 1.47704 141 122 118
-0.44027 -4.68293 1.48231 141 122 114
-0.17356 -4.96911 1.37531 138 121 102
-0.19201 -4.95018 1.38163 140 121 101
-0.21026 -4.93147 1.38787 138 121 102
-0.22829 -4.91298 1.39405 138 122 104
-0.24613 -4.89469 1.40016 137 123 108
-0.26376 -4.87660 1.40620 138 125 104
-0.28120 -4.85872 1.41217 138 125 98
-0.29845 -4.84104 1.41807 140 124 98
-0.31550 -4.82355 1.42391 143 123 104
-0.33237 -4.80626 1.42969 141 123 105
-0.34905 -4.78915 1.43540 141 123 106
-0.36555 -4.77223 1.44105 140 123 105
-0.38188 -4.75549 1.44664 142 124 107
-0.39803 -4.73893 1.45217 143 124 106
-0.41400 -4.72254 1.45764 142 125 113
-0.42981 -4.70634 1.46305 144 124 117
-0.44545 -4.69030 1.46841 143 123 108
-0.19743 -4.95842 1.36642 139 120 103
-0.21566 -4.93964 1.37276 137 121 103
-0.23368 -4.92109 1.37903 137 123 104
-0.25150 -4.90274 1.38523 136 123 106
-0.26912 -4.88459 1.39136 138 123 102
-0.28655 -4.86665 1.39742 138 123 101
-0.30377 -4.84891 1.40341 140 123 109
-0.32081 -4.83136 1.40933 139 122 104
-0.33767 -4.81401 1.41519 139 124 101
-0.35433 -4.79685 1.42099 140 124 106
-0.37082 -4.77987 1.42672 139 124 109
-0.38713 -4.76307 1.43239 143 123 103
-0.40326 -4.74646 1.43800 141 125 101
-0.41922 -4.73002 1.44356 140 126 107
-0.43502 -4.71376 1.44905 143 127 109
-0.22108 -4.94783 1.35763 138 120 102
-0.23908 -4.92921 1.36399 138 121 100
-0.25689 -4.91080 1.37027 138 121 102
-0.27449 -4.89259 1.37649 140 121 101
-0.29190 -4.87459 1.38264 141 121 102
-0.30911 -4.85679 1.38872 143 121 109
-0.32614 -4.83919 1.39473 137 122 105
-0.34297 -4.82178 1.40067 137 123 103
-0.35962 -4.80456 1.40655 138 124 106
-0.37610 -4.78752 1.41237 140 124 110
-0.39239 -4.77067 1.41812 141 122 108
-0.40851 -4.75401 1.42382 139 123 109
-0.42445 -4.73752 1.42945 139 124 112
-0.44023 -4.72120 1.43502 141 125 113
-0.24449 -4.93735 1.34892 139 119 94
-0.26228 -4.91887 1.35529 140 119 96
-0.27987 -4.90061 1.36160 139 120 99
-0.29726 -4.88255 1.36784 140 122 100
-0.31446 -4.86469 1.37400 141 123 103
-0.33147 -4.84702 1.38010 140 123 106
-0.34829 -4.82956 1.38613 139 122 107
-0.36492 -4.81228 1.39210 139 122 107
-0.38138 -4.79519 1.39800 141 123 109
-0.39766 -4.77829 1.40383 140 122 109
-0.41376 -4.76156 1.40960 137 122 107
-0.42969 -4.74502 1.41532 138 123 111
-0.44545 -4.72865 1.42097 139 125 113
-0.26768 -4.92696 1.34029 138 120 92
-0.28525 -4.90864 1.34668 138 121 98
-0.30263 -4.89052 1.35301 139 123 99
-0.31981 -4.87260 1.35926 138 123 102
-0.33681 -4.85488 1.36545 139 123 109
-0.35361 -4.83735 1.37156 139 123 114
-0.37023 -4.82002 1.37761 140 122 106
-0.38667 -4.80287 1.38360 137 123 105
-0.40294 -4.78591 1.38952 139 123 108
-0.41902 -4.76913 1.39537 140 122 107
-0.43494 -4.75254 1.40116 139 122 109
-0.29065 -4.91668 1.33174 137 121 98
-0.30801 -4.89850 1.33816 139 122 96
-0.32518 -4.88052 1.34450 135 122 100
-0.34215 -4.86274 1.35077 137 123 106
-0.35894 -4.84515 1.35697 139 122 109
-0.37555 -4.82776 1.36311 141 121 101
-0.39198 -4.81056 1.36917 140 122 98
-0.40822 -4.79355 1.37518 139 121 108
-0.42429 -4.77672 1.38111 142 121 112
-0.31340 -4.90649 1.32328 140 121 98
-0.33055 -4.88845 1.32971 137 122 103
-0.34751 -4.87062 1.33607 136 122 108
-0.36429 -4.85297 1.34236 138 121 99
-0.38088 -4.83553 1.34858 140 121 104
-0.39729 -4.81827 1.35473 141 121 104
-0.41352 -4.80120 1.36081 141 119 107
-0.42957 -4.78431 1.36683 141 119 111
-0.31880 -4.91450 1.30838 139 120 106
-0.33593 -4.89640 1.31490 138 121 109
-0.35288 -4.87851 1.32134 136 122 109
-0.36964 -4.86081 1.32772 137 122 98
-0.38621 -4.84330 1.33402 138 120 104
-0.40260 -4.82599 1.34026 141 121 107
-0.41882 -4.80886 1.34643 145 119 102
-0.34132 -4.90436 1.30006 137 120 113
-0.35825 -4.88641 1.30659 139 119 107
-0.37500 -4.86865 1.31305 139 120 99
-0.39155 -4.85109 1.31944 139 120 98
-0.40793 -4.83372 1.32576 140 121 107
-0.42413 -4.81653 1.33202 141 121 110
-0.36364 -4.89432 1.29182 140 118 104
-0.38036 -4.87651 1.29836 140 120 99
-0.39691 -4.85889 1.30484 141 120 97
-0.41327 -4.84146 1.31125 139 121 107
-0.36903 -4.90225 1.27702 140 118 100
-0.38574 -4.88438 1.28365 140 120 100
-0.40227 -4.86670 1.29021 140 120 101
-0.41861 -4.84921 1.29671 137 122 105
-0.39113 -4.89226 1.26891 141 120 101
-0.40764 -4.87453 1.27556 138 121 107
0.62993 -5.31593 1.54250 92 97 93
0.61649 -5.32800 1.55118 94 96 92
0.60304 -5.34007 1.55986 93 91 85
0.62696 -5.28459 1.51440 89 92 87
0.61358 -5.29660 1.52303 91 96 93
0.60019 -5.30862 1.53167 94 96 93
0.58681 -5.32063 1.54031 93 92 88
2.58311 -3.49519 0.22226 137 144 138
0.70393 -5.18181 1.43497 87 86 79
0.69061 -5.19376 1.44357 85 85 76
0.67729 -5.20571 1.45216 88 89 78
0.66398 -5.21767 1.46075 93 90 81
0.65066 -5.22962 1.46935 92 87 81
0.63734 -5.24158 1.47795 88 86 84
0.62402 -5.25353 1.48654 88 89 86
0.61069 -5.26549 1.49514 89 90 86
0.59737 -5.27745 1.50374 92 91 90
0.58404 -5.28941 1.51234 95 94 93
0.57072 -5.30137 1.52094 95 95 88
2.55852 -3.48407 0.20882 133 137 134
0.68740 -5.16325 1.41615 91 90 92
0.67414 -5.17514 1.42471 92 92 88
0.66088 -5.18704 1.43326 95 93 88
0.64762 -5.19894 1.44182 100 95 88
0.63436 -5.21084 1.45038 99 93 86
0.62110 -5.22275 1.45893 93 90 87
0.60783 -5.23465 1.46749 89 90 88
0.59457 -5.24655 1.47605 90 92 88
0.58130 -5.25846 1.48461 93 93 89
0.56803 -5.27036 1.49317 93 94 90
0.55477 -5.28227 1.50173 93 95 84
2.54719 -3.46134 0.18709 132 131 122
2.53415 -3.47304 0.19550 130 130 132
0.64461 -5.16853 1.41453 104 102 96
0.63141 -5.18038 1.42305 105 101 93
0.61821 -5.19223 1.43157 100 101 92
0.60500 -5.20408 1.44009 97 98 93
0.59179 -5.21593 1.44861 96 97 95
0.57858 -5.22778 1.45713 98 99 94
0.56538 -5.23963 1.46565 101 98 91
0.55217 -5.25149 1.47417 99 94 90
0.53895 -5.26334 1.48270 96 92 85
2.53595 -3.43881 0.16555 134 130 129
2.52296 -3.45046 0.17392 135 135 126
2.50998 -3.46211 0.18230 133 138 130
0.66792 -5.11481 1.37053 95 99 90
0.64163 -5.13839 1.38748 102 106 107
0.62849 -5.15019 1.39596 109 107 109
0.61534 -5.16198 1.40444 108 107 102
0.60219 -5.17378 1.41292 103 105 98
0.58904 -5.18558 1.42141 101 102 100
0.57589 -5.19737 1.42989 100 101 104
0.56274 -5.20917 1.43837 99 101 104
0.54959 -5.22097 1.44686 103 102 103
0.53643 -5.23278 1.45534 101 96 97
0.52328 -5.24458 1.46383 90 89 87
2.52481 -3.41648 0.14419 136 137 131
2.51188 -3.42807 0.15253 139 134 130
2.49895 -3.43967 0.16087 140 138 128
2.48602 -3.45127 0.16921 136 138 132
0.69102 -5.06156 1.32691 105 113 105
0.67793 -5.07329 1.33535 96 103 95
0.66485 -5.08503 1.34379 99 102 89
0.65176 -5.09677 1.35223 102 106 92
0.63868 -5.10851 1.36067 104 109 97
0.62559 -5.12026 1.36911 105 111 100
0.61250 -5.13200 1.37755 102 105 103
0.59941 -5.14374 1.38600 99 101 98
0.58631 -5.15549 1.39444 97 101 94
0.57322 -5.16723 1.40288 98 101 94
0.56013 -5.17898 1.41133 98 100 98
0.54703 -5.19073 1.41978 96 98 99
0.53394 -5.20248 1.42822 97 99 98
0.52084 -5.21423 1.43667 95 95 95
0.50774 -5.22598 1.44512 83 87 87
2.51376 -3.39433 0.12302 143 141 132
2.50089 -3.40588 0.13132 134 132 125
2.48801 -3.41743 0.13962 133 134 129
2.47514 -3.42898 0.14792 134 136 129
2.46226 -3.44053 0.15623 135 140 131
2.44938 -3.45208 0.16453 142 147 136
0.66181 -5.05552 1.31728 91 99 91
0.64878 -5.06721 1.32569 92 99 91
0.63574 -5.07889 1.33409 98 100 95
0.62271 -5.09058 1.34249 105 106 95
0.60968 -5.10227 1.35090 107 110 98
0.59665 -5.11397 1.35930 101 100 100
0.58361 -5.12566 1.36771 94 93 93
0.57057 -5.13735 1.37612 92 94 91
0.55754 -5.14905 1.38452 90 95 91
0.54450 -5.16074 1.39293 92 97 92
0.53146 -5.17244 1.40134 96 97 94
0.51842 -5.18413 1.40975 99 98 96
0.50538 -5.19583 1.41816 96 94 91
0.49233 -5.20753 1.42657 86 85 79
2.48999 -3.38388 0.11029 144 144 130
2.47717 -3.39537 0.11856 138 138 135
2.46435 -3.40687 0.12682 138 143 143
2.45153 -3.41837 0.13509 142 146 140
2.43871 -3.42987 0.14336 142 144 137
2.42588 -3.44137 0.15163 143 143 138
2.41306 -3.45288 0.15990 145 146 134
2.40023 -3.46438 0.16817 155 157 133
2.38740 -3.47588 0.17644 165 159 133
0.64581 -5.03789 1.29937 99 102 94
0.63284 -5.04953 1.30774 101 102 101
0.61986 -5.06117 1.31610 99 97 100
0.60689 -5.07281 1.32447 96 95 94
0.59391 -5.08445 1.33284 98 97 97
0.58093 -5.09609 1.34121 100 101 98
0.56795 -5.10773 1.34958 93 96 86
0.55497 -5.11937 1.35795 92 93 88
0.54199 -5.13101 1.36632 97 96 95
0.52900 -5.14266 1.37469 100 98 95
0.51602 -5.15430 1.38306 100 98 90
0.50303 -5.16595 1.39143 99 98 89
0.49005 -5.17760 1.39981 95 94 85
0.47706 -5.18925 1.40818 88 87 75
0.46407 -5.20090 1.41656 86 83 69
0.45108 -5.21255 1.42493 88 84 73
0.43809 -5.22420 1.43331 91 87 77
0.42510 -5.23585 1.44169 91 84 71
2.54300 -3.30484 0.04831 156 158 144
2.53024 -3.31628 0.05653 155 153 137
2.51748 -3.32772 0.06476 153 149 131
2.50472 -3.33917 0.07299 149 150 125
2.49195 -3.35061 0.08122 147 145 119
2.47919 -3.36206 0.08944 146 143 128
2.46642 -3.37351 0.09767 152 151 135
2.45366 -3.38496 0.10590 144 142 141
2.44089 -3.39641 0.11413 140 139 143
2.42812 -3.40786 0.12237 144 144 143
2.41535 -3.41931 0.13060 145 145 147
2.40258 -3.43076 0.13883 145 143 142
2.38981 -3.44221 0.14706 143 139 136
2.37704 -3.45367 0.15530 142 139 142
2.36426 -3.46512 0.16353 144 144 146
2.35149 -3.47658 0.17177 152 152 140
2.33871 -3.48804 0.18001 157 154 134
2.32594 -3.49950 0.18824 156 157 142
2.31316 -3.51095 0.19648 152 153 141
2.30038 -3.52241 0.20472 146 144 141
2.28760 -3.53388 0.21296 147 152 147
2.27482 -3.54534 0.22120 153 150 144
0.64288 -5.00883 1.27328 95 101 98
0.62996 -5.02042 1.28161 97 105 97
0.61704 -5.03200 1.28994 102 104 96
0.60412 -5.04359 1.29827 99 98 91
0.59120 -5.05518 1.30660 92 92 89
0.57827 -5.06677 1.31494 93 93 97
0.56535 -5.07836 1.32327 101 106 103
0.55242 -5.08995 1.33160 96 98 90
0.53950 -5.10154 1.33993 94 95 84
0.52657 -5.11314 1.34827 100 101 95
0.51364 -5.12473 1.35660 103 101 103
0.50071 -5.13633 1.36494 102 101 96
0.48778 -5.14792 1.37328 100 98 88
0.47485 -5.15952 1.38161 96 96 81
0.46191 -5.17112 1.38995 87 89 74
0.44898 -5.18272 1.39829 88 87 74
0.43604 -5.19432 1.40663 95 90 81
0.42311 -5.20592 1.41497 99 95 85
0.41017 -5.21752 1.42331 98 93 80
0.39723 -5.22912 1.43165 89 86 76
0.38429 -5.24073 1.43999 85 83 73
0.37135 -5.25233 1.44833 84 81 68
0.35841 -5.26394 1.45668 84 81 67
0.34547 -5.27555 1.46502 83 82 72
0.33252 -5.28715 1.47337 81 84 69
2.53202 -3.28346 0.02782 150 146 140
2.51931 -3.29485 0.03601 149 147 144
2.50661 -3.30624 0.04420 148 144 136
2.49390 -3.31764 0.05239 147 144 135
2.48119 -3.32904 0.06058 146 145 138
2.46848 -3.34043 0.06877 149 148 143
2.45577 -3.35183 0.07697 148 151 139
2.44305 -3.36323 0.08516 143 142 130
2.43034 -3.37463 0.09336 136 130 118
2.41763 -3.38603 0.10155 130 128 126
2.40491 -3.39743 0.10975 132 136 140
2.39219 -3.40883 0.11795 135 139 145
2.37948 -3.42024 0.12614 137 141 142
2.36676 -3.43164 0.13434 144 145 138
2.35404 -3.44305 0.14254 144 143 139
2.34132 -3.45445 0.15074 140 139 136
2.32860 -3.46586 0.15894 145 144 135
2.31587 -3.47727 0.16714 148 151 145
2.30315 -3.48868 0.17534 151 154 156
2.29042 -3.50009 0.18355 153 155 155
2.27770 -3.51150 0.19175 148 146 143
2.26497 -3.52291 0.19995 146 148 149
2.25224 -3.53433 0.20816 148 145 147
0.62710 -4.99156 1.25571 97 103 95
0.61424 -5.00309 1.26401 94 100 94
0.60137 -5.01463 1.27230 94 98 92
0.58851 -5.02617 1.28059 90 92 84
0.57564 -5.03770 1.28889 89 90 87
0.56277 -5.04924 1.29718 95 94 100
0.54990 -5.06079 1.30548 108 108 109
0.53703 -5.07233 1.31378 93 88 87
0.52416 -5.08387 1.32207 82 81 80
0.51128 -5.09541 1.33037 95 97 95
0.49841 -5.10696 1.33867 101 100 99
0.48553 -5.11850 1.34697 102 98 97
0.47266 -5.13005 1.35527 101 98 90
0.45978 -5.14160 1.36357 95 94 79
0.44690 -5.15314 1.37187 84 81 67
0.43402 -5.16469 1.38017 86 81 73
0.42114 -5.17624 1.38848 97 89 85
0.40826 -5.18779 1.39678 97 90 86
0.39537 -5.19935 1.40509 91 87 82
0.38249 -5.21090 1.41339 88 83 80
0.36960 -5.22245 1.42170 89 85 80
0.35672 -5.23401 1.43000 87 85 76
0.34383 -5.24556 1.43831 87 87 73
0.33094 -5.25712 1.44662 84 86 73
0.31805 -5.26868 1.45493 78 81 69
0.30516 -5.28024 1.46324 75 74 60
0.29227 -5.29180 1.47155 78 72 61
0.27938 -5.30336 1.47986 83 77 67
2.50848 -3.27360 0.01565 150 143 145
2.49583 -3.28495 0.02381 142 140 139
2.48317 -3.29629 0.03196 141 138 135
2.47052 -3.30764 0.04012 146 144 132
2.45786 -3.31899 0.04828 147 139 133
2.44520 -3.33033 0.05644 147 138 140
2.43254 -3.34168 0.06460 144 140 137
2.41988 -3.35303 0.07275 141 135 130
2.40722 -3.36439 0.08091 140 133 125
2.39456 -3.37574 0.08908 137 139 131
2.38190 -3.38709 0.09724 140 147 138
2.36923 -3.39845 0.10540 137 139 133
2.35657 -3.40980 0.11356 131 133 134
2.34390 -3.42116 0.12173 140 144 140
2.33123 -3.43252 0.12989 147 153 137
2.31856 -3.44387 0.13805 146 154 135
2.30590 -3.45523 0.14622 146 148 139
2.29322 -3.46659 0.15439 147 150 144
2.28055 -3.47795 0.16255 151 153 146
2.26788 -3.48932 0.17072 151 146 144
2.25521 -3.50068 0.17889 146 145 137
2.24253 -3.51204 0.18706 148 153 149
2.22986 -3.52341 0.19523 149 153 150
2.21718 -3.53477 0.20340 147 143 139
2.20450 -3.54614 0.21157 144 141 140
2.12841 -3.61436 0.26061 133 130 125
0.62427 -4.96294 1.23003 100 102 94
0.61146 -4.97443 1.23829 96 96 82
0.59865 -4.98591 1.24655 92 93 86
0.58584 -4.99740 1.25480 92 95 97
0.57303 -5.00889 1.26306 97 98 94
0.56021 -5.02038 1.27132 96 99 92
0.54740 -5.03187 1.27958 97 99 99
0.53458 -5.04336 1.28784 106 106 108
0.52176 -5.05485 1.29610 96 83 90
0.50894 -5.06634 1.30436 89 85 84
0.49612 -5.07784 1.31263 101 104 94
0.48330 -5.08933 1.32089 103 103 93
0.47048 -5.10083 1.32915 102 103 99
0.45766 -5.11232 1.33742 101 98 100
0.44483 -5.12382 1.34568 96 91 87
0.43201 -5.13532 1.35395 95 94 80
0.41918 -5.14682 1.36221 97 96 81
0.40636 -5.15832 1.37048 96 93 88
0.39353 -5.16982 1.37875 96 94 91
0.38070 -5.18132 1.38702 89 86 84
0.36787 -5.19283 1.39529 89 82 83
0.35504 -5.20433 1.40356 95 86 81
0.34220 -5.21584 1.41183 89 85 67
0.32937 -5.22734 1.42010 88 84 62
0.31654 -5.23885 1.42837 81 80 60
0.30370 -5.25036 1.43664 72 76 59
0.29086 -5.26187 1.44492 71 74 64
0.27803 -5.27338 1.45319 73 72 69
0.26519 -5.28489 1.46147 78 73 74
0.25235 -5.29640 1.46974 79 77 71
0.22666 -5.31943 1.48629 68 65 66
2.44733 -3.29772 0.02796 145 149 128
2.43472 -3.30902 0.03608 152 147 131
2.42212 -3.32032 0.04420 147 138 137
2.40951 -3.33162 0.05233 139 137 137
2.39690 -3.34293 0.06045 139 140 130
2.38429 -3.35423 0.06858 138 136 131
2.37168 -3.36553 0.07670 135 136 137
2.35907 -3.37684 0.08483 140 146 137
2.34646 -3.38815 0.09296 143 150 129
2.33385 -3.39945 0.10109 138 145 124
2.32123 -3.41076 0.10921 132 134 123
2.30862 -3.42207 0.11734 133 132 130
2.29600 -3.43338 0.12547 143 145 144
2.28338 -3.44469 0.13360 147 151 146
2.27077 -3.45601 0.14174 146 149 145
2.25815 -3.46732 0.14987 147 149 149
2.24553 -3.47863 0.15800 147 147 146
2.23290 -3.48995 0.16613 141 141 139
2.22028 -3.50126 0.17427 148 150 137
2.20766 -3.51258 0.18240 150 146 139
2.19503 -3.52390 0.19054 152 148 147
2.18241 -3.53522 0.19868 156 157 151
2.14453 -3.56918 0.22309 145 145 141
2.10663 -3.60315 0.24751 135 136 124
0.72348 -4.84312 1.13884 103 105 97
0.62147 -4.93457 1.20457 101 97 96
0.60871 -4.94600 1.21279 92 91 93
0.59595 -4.95744 1.22101 94 93 85
0.58320 -4.96888 1.22923 99 96 90
0.57044 -4.98031 1.23746 100 99 98
0.55768 -4.99175 1.24568 101 104 94
0.54492 -5.00319 1.25390 95 99 88
0.53215 -5.01464 1.26213 96 96 96
0.51939 -5.02608 1.27035 107 109 101
0.50663 -5.03752 1.27858 101 96 82
0.49386 -5.04896 1.28680 94 93 82
0.48109 -5.06041 1.29503 105 104 95
0.46833 -5.07185 1.30326 105 102 94
0.45556 -5.08330 1.31149 98 100 96
0.44279 -5.09475 1.31971 96 98 95
0.43002 -5.10620 1.32794 95 96 91
0.41725 -5.11765 1.33617 99 95 91
0.40447 -5.12910 1.34441 99 96 92
0.39170 -5.14055 1.35264 94 95 91
0.37892 -5.15200 1.36087 91 93 86
0.36615 -5.16346 1.36910 91 87 77
0.35337 -5.17491 1.37734 90 83 78
0.34059 -5.18636 1.38557 89 85 80
0.32781 -5.19782 1.39381 86 86 71
0.31503 -5.20928 1.40204 86 86 71
0.30225 -5.22074 1.41028 85 84 76
0.28947 -5.23219 1.41851 81 81 78
0.27669 -5.24366 1.42675 79 82 79
0.26390 -5.25512 1.43499 79 82 77
0.25112 -5.26658 1.44323 80 77 73
0.23833 -5.27804 1.45147 82 77 74
0.22554 -5.28951 1.45971 80 77 76
0.19996 -5.31244 1.47619 65 58 60
2.42433 -3.28789 0.01589 148 144 141
2.41178 -3.29914 0.02398 157 152 149
2.39923 -3.31039 0.03207 155 146 142
2.38667 -3.32165 0.04016 151 149 134
2.37412 -3.33290 0.04825 148 150 132
2.36156 -3.34416 0.05634 141 140 135
2.34900 -3.35542 0.06443 143 142 143
2.33644 -3.36667 0.07253 151 150 139
2.32388 -3.37793 0.08062 146 142 131
2.31132 -3.38919 0.08871 135 136 130
2.29875 -3.40045 0.09681 135 138 130
2.28619 -3.41172 0.10490 139 140 134
2.27363 -3.42298 0.11300 145 149 141
2.26106 -3.43424 0.12109 147 149 137
2.24849 -3.44551 0.12919 141 143 137
2.23593 -3.45677 0.13729 134 143 147
2.22336 -3.46804 0.14539 139 142 149
2.21079 -3.47931 0.15349 141 142 146
2.19822 -3.49057 0.16159 151 150 142
2.18564 -3.50184 0.16969 150 148 137
2.17307 -3.51311 0.17779 149 151 146
2.16050 -3.52438 0.18589 153 153 150
2.14792 -3.53566 0.19399 146 144 141
2.13535 -3.54693 0.20210 138 140 138
2.12277 -3.55820 0.21020 140 139 135
2.11019 -3.56948 0.21830 137 134 136
2.09761 -3.58075 0.22641 132 134 130
2.08503 -3.59203 0.23451 120 128 121
0.80909 -4.73576 1.05664 101 102 95
0.79640 -4.74713 1.06482 98 104 97
0.78371 -4.75850 1.07299 102 105 102
0.77103 -4.76988 1.08117 109 102 103
0.75834 -4.78125 1.08934 105 100 96
0.74565 -4.79263 1.09752 104 103 94
0.73295 -4.80400 1.10570 104 106 94
0.72026 -4.81538 1.11388 106 107 94
0.61868 -4.90643 1.17932 100 96 94
0.60598 -4.91782 1.18751 92 86 86
0.59328 -4.92921 1.19569 93 93 91
0.58057 -4.94060 1.20388 104 101 100
0.56787 -4.95198 1.21207 107 104 101
0.55516 -4.96337 1.22025 109 105 102
0.54246 -4.97476 1.22844 106 105 97
0.52975 -4.98616 1.23663 102 103 91
0.51704 -4.99755 1.24482 103 100 94
0.50433 -5.00894 1.25301 110 110 104
0.49162 -5.02034 1.26120 105 98 89
0.47890 -5.03173 1.26939 97 91 87
0.46619 -5.04313 1.27758 101 100 96
0.45348 -5.05452 1.28577 104 102 96
0.44076 -5.06592 1.29397 101 100 90
0.42804 -5.07732 1.30216 96 95 77
0.41533 -5.08872 1.31035 94 93 80
0.40261 -5.10012 1.31855 99 94 86
0.38989 -5.11152 1.32675 98 91 80
0.37717 -5.12293 1.33494 93 91 80
0.36444 -5.13433 1.34314 93 95 85
0.35172 -5.14573 1.35134 96 94 84
0.33900 -5.15714 1.35954 96 92 83
0.32627 -5.16855 1.36773 92 90 85
0.31355 -5.17995 1.37593 91 90 80
0.30082 -5.19136 1.38413 92 89 75
0.28809 -5.20277 1.39234 88 85 78
0.27536 -5.21418 1.40054 81 81 79
0.26263 -5.22559 1.40874 76 80 75
0.24990 -5.23701 1.41694 76 80 73
0.23717 -5.24842 1.42515 79 79 70
0.22443 -5.25983 1.43335 81 80 71
0.21170 -5.27125 1.44156 79 78 74
2.38903 -3.28934 0.01198 150 146 144
2.37653 -3.30054 0.02004 152 150 138
2.36402 -3.31175 0.02809 150 155 138
2.35152 -3.32296 0.03615 146 149 136
2.33901 -3.33417 0.04421 143 143 134
2.32650 -3.34538 0.05227 141 143 136
2.31399 -3.35659 0.06032 150 148 136
2.30149 -3.36780 0.06838 155 150 138
2.28897 -3.37902 0.07644 146 147 138
2.27646 -3.39023 0.08450 139 146 137
2.26395 -3.40144 0.09256 144 150 142
2.25144 -3.41266 0.10063 149 153 144
2.23892 -3.42388 0.10869 152 151 142
2.22641 -3.43509 0.11675 155 154 143
2.21389 -3.44631 0.12482 149 149 143
2.20137 -3.45753 0.13288 139 138 139
2.18885 -3.46875 0.14094 139 144 142
2.17633 -3.47997 0.14901 145 144 143
2.16381 -3.49119 0.15708 149 151 139
2.15129 -3.50242 0.16514 147 150 146
2.13877 -3.51364 0.17321 152 154 147
2.12625 -3.52487 0.18128 148 146 139
2.11372 -3.53609 0.18935 141 144 135
2.10120 -3.54732 0.19742 137 142 136
2.08867 -3.55855 0.20549 143 147 141
2.07614 -3.56977 0.21356 135 137 133
2.06361 -3.58100 0.22163 129 135 126
0.83079 -4.68596 1.01586 94 91 92
0.81816 -4.69728 1.02400 103 97 88
0.80553 -4.70860 1.03214 100 100 90
0.79290 -4.71992 1.04028 103 103 93
0.78026 -4.73125 1.04842 104 105 96
0.76763 -4.74257 1.05656 106 105 99
0.75499 -4.75390 1.06470 106 106 93
0.74235 -4.76522 1.07284 100 101 84
0.72971 -4.77655 1.08098 104 105 99
0.71708 -4.78788 1.08913 106 108 99
0.70444 -4.79921 1.09727 105 108 95
0.57797 -4.91255 1.17874 97 103 94
0.56532 -4.92389 1.18689 103 107 100
0.55267 -4.93523 1.19504 105 103 98
0.54002 -4.94657 1.20319 113 106 104
0.52736 -4.95792 1.21135 107 103 98
0.51471 -4.96926 1.21950 99 101 95
0.50205 -4.98060 1.22765 102 103 103
0.48939 -4.99195 1.23581 111 114 113
0.47673 -5.00329 1.24396 110 106 105
0.46407 -5.01464 1.25212 106 105 102
0.45141 -5.02599 1.26028 107 113 102
0.43875 -5.03734 1.26844 107 110 97
0.42608 -5.04869 1.27659 102 97 96
0.41342 -5.06004 1.28475 103 96 85
0.40076 -5.07139 1.29291 105 98 85
0.38809 -5.08274 1.30107 100 95 90
0.37542 -5.09410 1.30923 94 93 85
0.36275 -5.10545 1.31739 91 93 85
0.35008 -5.11681 1.32556 92 98 88
0.33741 -5.12816 1.33372 96 98 87
0.32474 -5.13952 1.34188 96 92 84
0.31207 -5.15088 1.35005 91 85 80
0.29940 -5.16224 1.35821 90 84 79
0.28672 -5.17360 1.36638 91 85 78
0.27404 -5.18496 1.37454 88 83 76
0.26137 -5.19632 1.38271 85 80 72
0.24869 -5.20768 1.39088 81 78 66
0.23601 -5.21905 1.39905 80 81 68
0.22333 -5.23041 1.40722 83 84 72
0.21065 -5.24178 1.41539 82 84 73
0.19797 -5.25314 1.42356 78 81 74
2.36646 -3.27962 0.00009 148 146 144
2.35401 -3.29078 0.00811 147 146 142
2.34156 -3.30194 0.01613 141 148 140
2.32910 -3.31310 0.02415 144 144 138
2.31665 -3.32426 0.03217 143 143 131
2.30419 -3.33543 0.04020 140 139 131
2.29173 -3.34659 0.04822 144 141 137
2.27928 -3.35776 0.05625 150 152 141
2.26682 -3.36892 0.06427 140 143 142
2.25436 -3.38009 0.07230 132 138 139
2.24189 -3.39126 0.08033 142 149 142
2.22943 -3.40243 0.08836 152 154 152
2.21697 -3.41360 0.09638 157 157 153
2.20450 -3.42477 0.10441 152 149 143
2.19204 -3.43594 0.11244 146 145 137
2.17957 -3.44711 0.12047 139 137 134
2.16710 -3.45828 0.12851 137 136 132
2.15463 -3.46946 0.13654 141 138 126
2.14216 -3.48063 0.14457 149 149 128
2.12969 -3.49181 0.15260 144 140 133
2.11722 -3.50299 0.16064 146 150 145
2.10475 -3.51417 0.16867 145 144 137
2.09227 -3.52534 0.17671 140 148 127
2.07980 -3.53652 0.18474 129 133 129
2.06732 -3.54770 0.19278 135 136 140
2.05485 -3.55889 0.20082 133 134 132
2.04237 -3.57007 0.20885 132 134 128
2.02989 -3.58125 0.21689 135 132 125
0.82716 -4.65912 0.99164 98 106 84
0.81458 -4.67039 0.99974 96 99 86
0.80200 -4.68167 1.00784 98 95 80
0.78942 -4.69294 1.01595 93 92 78
0.77684 -4.70422 1.02405 103 103 95
0.76426 -4.71549 1.03216 106 107 101
0.75167 -4.72677 1.04026 107 107 96
0.73909 -4.73805 1.04837 106 106 89
0.72650 -4.74933 1.05648 104 104 84
0.71392 -4.76061 1.06458 108 107 96
0.70133 -4.77189 1.07269 105 105 97
0.68874 -4.78317 1.08080 95 95 99
0.67615 -4.79445 1.08891 95 92 98
0.56280 -4.89603 1.16193 105 106 94
0.55020 -4.90733 1.17004 106 107 96
0.53760 -4.91862 1.17816 107 106 94
0.52500 -4.92991 1.18628 108 107 96
0.51239 -4.94121 1.19440 106 106 94
0.49979 -4.95250 1.20251 103 104 94
0.48718 -4.96380 1.21063 103 102 100
0.47458 -4.97510 1.21875 113 113 100
0.46197 -4.98639 1.22687 110 108 90
0.44936 -4.99769 1.23500 104 102 94
0.43675 -5.00899 1.24312 106 105 98
0.42414 -5.02030 1.25124 110 105 101
0.41153 -5.03160 1.25936 105 102 101
0.39892 -5.04290 1.26749 100 99 92
0.38631 -5.05420 1.27561 101 99 89
0.37369 -5.06551 1.28374 100 99 90
0.36108 -5.07681 1.29187 100 96 86
0.34846 -5.08812 1.29999 97 92 77
0.33584 -5.09943 1.30812 95 95 79
0.32322 -5.11074 1.31625 105 103 93
0.31060 -5.12205 1.32438 106 98 92
0.29798 -5.13336 1.33251 96 86 85
0.28536 -5.14467 1.34064 90 82 82
0.27274 -5.15598 1.34877 85 83 79
0.26012 -5.16729 1.35690 84 85 81
0.24749 -5.17861 1.36503 87 85 80
0.23487 -5.18992 1.37316 83 81 75
0.22224 -5.20124 1.38130 81 82 73
0.20961 -5.21255 1.38943 85 83 68
0.19698 -5.22387 1.39757 91 86 66
0.18435 -5.23519 1.40570 94 85 66
0.17172 -5.24651 1.41384 87 79 66
2.33168 -3.28109 -0.00373 148 143 143
2.31928 -3.29221 0.00426 143 142 141
2.30688 -3.30332 0.01225 146 148 141
2.29447 -3.31444 0.02024 145 140 131
2.28206 -3.32556 0.02823 140 134 136
2.26966 -3.33667 0.03622 139 136 137
2.25725 -3.34779 0.04421 141 141 127
2.24484 -3.35891 0.05221 135 133 128
2.23243 -3.37003 0.06020 133 129 132
2.22002 -3.38116 0.06819 142 146 140
2.20761 -3.39228 0.07619 148 153 147
2.19519 -3.40340 0.08418 150 150 146
2.18278 -3.41453 0.09218 140 140 139
2.17036 -3.42565 0.10017 131 132 137
2.15795 -3.43678 0.10817 133 130 133
2.14553 -3.44790 0.11617 137 133 127
2.13311 -3.45903 0.12417 143 139 122
2.12069 -3.47016 0.13217 148 145 129
2.10827 -3.48129 0.14017 139 142 131
2.09585 -3.49242 0.14817 140 142 140
2.08343 -3.50355 0.15617 140 141 132
2.07100 -3.51468 0.16417 139 136 127
2.05858 -3.52582 0.17217 132 135 133
2.04615 -3.53695 0.18017 135 140 145
2.03373 -3.54809 0.18818 133 134 131
2.02130 -3.55922 0.19618 131 134 127
2.00887 -3.57036 0.20419 133 135 125
0.83608 -4.62129 0.95955 100 100 83
0.82355 -4.63251 0.96761 99 100 89
0.81103 -4.64373 0.97568 101 103 88
0.79850 -4.65496 0.98375 107 107 92
0.78597 -4.66618 0.99182 103 104 84
0.77344 -4.67741 0.99989 101 98 84
0.76091 -4.68864 1.00796 102 99 94
0.74838 -4.69987 1.01603 102 105 97
0.73585 -4.71110 1.02410 102 105 96
0.72332 -4.72233 1.03217 102 102 86
0.71078 -4.73356 1.04025 104 100 76
0.69825 -4.74479 1.04832 112 111 86
0.68571 -4.75603 1.05639 106 106 93
0.67317 -4.76726 1.06447 102 102 95
0.66064 -4.77850 1.07254 103 98 96
0.57284 -4.85717 1.12909 109 110 92
0.56029 -4.86841 1.13717 109 107 93
0.54775 -4.87965 1.14525 106 108 99
0.53520 -4.89090 1.15333 109 109 103
0.52265 -4.90214 1.16142 109 108 99
0.51010 -4.91339 1.16950 109 108 98
0.49755 -4.92464 1.17758 108 104 95
0.48499 -4.93589 1.18567 102 101 90
0.47244 -4.94713 1.19375 100 100 94
0.45989 -4.95838 1.20184 109 111 95
0.44733 -4.96964 1.20993 112 110 94
0.43477 -4.98089 1.21801 109 106 101
0.42222 -4.99214 1.22610 105 105 100
0.40966 -5.00339 1.23419 105 103 98
0.39710 -5.01465 1.24228 103 99 95
0.38454 -5.02590 1.25037 100 97 88
0.37198 -5.03716 1.25846 100 98 84
0.35941 -5.04842 1.26655 98 99 79
0.34685 -5.05967 1.27464 104 103 79
0.33429 -5.07093 1.28274 101 98 81
0.32172 -5.08219 1.29083 94 95 83
0.30915 -5.09345 1.29892 101 104 91
0.29658 -5.10472 1.30702 105 104 92
0.28402 -5.11598 1.31511 101 96 87
0.27145 -5.12724 1.32321 98 91 75
0.25888 -5.13851 1.33130 87 86 61
0.24630 -5.14977 1.33940 81 87 64
0.23373 -5.16104 1.34750 87 88 70
0.22116 -5.17231 1.35560 91 89 69
0.20858 -5.18358 1.36370 91 88 77
0.19601 -5.19484 1.37180 90 86 78
0.18343 -5.20611 1.37990 90 90 75
0.17085 -5.21739 1.38800 90 88 76
0.15827 -5.22866 1.39610 87 84 77
0.14569 -5.23993 1.40420 86 85 76
2.30954 -3.27149 -0.01546 147 140 140
2.29718 -3.28256 -0.00751 141 137 141
2.28483 -3.29363 0.00045 139 145 140
2.27248 -3.30470 0.00840 140 143 134
2.26012 -3.31577 0.01636 142 137 137
2.24776 -3.32684 0.02432 140 136 134
2.23540 -3.33791 0.03228 135 135 126
2.22304 -3.34899 0.04024 132 131 129
2.21068 -3.36006 0.04820 131 131 133
2.19832 -3.37114 0.05616 137 140 138
2.18596 -3.38221 0.06412 138 142 136
2.17360 -3.39329 0.07208 139 140 131
2.16123 -3.40437 0.08004 134 133 131
2.14887 -3.41545 0.08801 124 127 133
2.13650 -3.42653 0.09597 133 133 136
2.12413 -3.43761 0.10393 139 139 131
2.11176 -3.44869 0.11190 144 144 134
2.09940 -3.45977 0.11986 147 143 141
2.08703 -3.47086 0.12783 141 146 142
2.07465 -3.48194 0.13580 140 138 138
2.06228 -3.49303 0.14377 139 141 137
2.04991 -3.50411 0.15173 142 144 138
2.03753 -3.51520 0.15970 135 135 129
2.02516 -3.52629 0.16767 137 137 140
2.01278 -3.53738 0.17564 131 135 128
2.00040 -3.54847 0.18361 130 133 125
1.98803 -3.55956 0.19158 133 133 128
1.97565 -3.57065 0.19956 134 134 127
0.83245 -4.59494 0.93576 109 117 99
0.81998 -4.60612 0.94379 106 107 89
0.80750 -4.61729 0.95182 99 101 88
0.79503 -4.62847 0.95986 101 101 90
0.78255 -4.63965 0.96789 104 101 94
0.77008 -4.65083 0.97593 98 97 90
0.75760 -4.66201 0.98396 104 104 87
0.74512 -4.67319 0.99200 102 101 93
0.73264 -4.68437 1.00003 100 101 95
0.72016 -4.69556 1.00807 98 102 96
0.70768 -4.70674 1.01611 101 100 93
0.69519 -4.71792 1.02415 105 100 94
0.68271 -4.72911 1.03219 107 110 104
0.67022 -4.74030 1.04023 99 104 102
0.65774 -4.75148 1.04827 105 110 103
0.57031 -4.82982 1.10457 110 113 99
0.55781 -4.84102 1.11262 109 108 93
0.54532 -4.85221 1.12067 107 104 86
0.53282 -4.86341 1.12871 103 104 94
0.52032 -4.87461 1.13676 107 107 102
0.50782 -4.88580 1.14481 109 109 103
0.49532 -4.89700 1.15286 111 110 110
0.48282 -4.90820 1.16091 110 109 103
0.47032 -4.91940 1.16896 102 104 94
0.45782 -4.93061 1.17701 98 101 99
0.44532 -4.94181 1.18506 110 111 97
0.43281 -4.95301 1.19312 115 111 96
0.42031 -4.96422 1.20117 112 105 99
0.40780 -4.97542 1.20922 104 101 97
0.39529 -4.98663 1.21728 103 102 98
0.38279 -4.99784 1.22533 107 102 92
0.37028 -5.00905 1.23339 104 98 85
0.35777 -5.02026 1.24145 103 100 85
0.34525 -5.03147 1.24950 104 103 86
0.33274 -5.04268 1.25756 106 103 87
0.32023 -5.05389 1.26562 104 103 86
0.30771 -5.06510 1.27368 100 99 89
0.29520 -5.07631 1.28174 101 104 97
0.28268 -5.08753 1.28980 105 107 98
0.27016 -5.09875 1.29786 108 102 97
0.25764 -5.10996 1.30592 108 102 87
0.24513 -5.12118 1.31398 102 96 74
0.23260 -5.13240 1.32205 96 93 76
0.22008 -5.14362 1.33011 95 96 77
0.20756 -5.15484 1.33818 95 96 78
0.19504 -5.16606 1.34624 97 96 91
0.18251 -5.17728 1.35431 95 94 92
0.16999 -5.18850 1.36237 91 92 80
0.15746 -5.19973 1.37044 89 90 77
0.14493 -5.21095 1.37851 89 87 77
0.13240 -5.22218 1.38658 88 84 75
2.28757 -3.26196 -0.02711 142 138 133
2.27527 -3.27298 -0.01918 139 134 130
2.26296 -3.28401 -0.01126 138 140 134
2.25066 -3.29503 -0.00334 140 142 136
2.23835 -3.30606 0.00459 141 140 135
2.22604 -3.31708 0.01251 140 137 134
2.21374 -3.32811 0.02044 137 136 132
2.20143 -3.33914 0.02836 136 138 135
2.18911 -3.35017 0.03629 139 142 138
2.17680 -3.36120 0.04422 143 148 141
2.16449 -3.37223 0.05215 138 143 134
2.15218 -3.38326 0.06008 137 140 123
2.13986 -3.39429 0.06801 137 140 126
2.12755 -3.40533 0.07594 132 134 131
2.11523 -3.41636 0.08387 148 144 135
2.10291 -3.42740 0.09180 142 139 135
2.09059 -3.43843 0.09973 144 143 140
2.07827 -3.44947 0.10766 146 146 140
2.06595 -3.46051 0.11560 144 147 143
2.05363 -3.47155 0.12353 143 145 136
2.04131 -3.48259 0.13146 138 141 138
2.02898 -3.49363 0.13940 147 146 139
2.01666 -3.50467 0.14734 137 136 125
2.00433 -3.51571 0.15527 137 136 127
1.99201 -3.52676 0.16321 123 124 119
1.97968 -3.53780 0.17115 130 129 127
1.96735 -3.54884 0.17909 137 137 124
1.95502 -3.55989 0.18702 136 132 118
0.82885 -4.56882 0.91216 99 99 95
0.81643 -4.57995 0.92016 105 105 93
0.80401 -4.59108 0.92816 103 102 89
0.79159 -4.60221 0.93616 97 100 86
0.77916 -4.61334 0.94416 98 102 95
0.76674 -4.62447 0.95216 104 104 100
0.75431 -4.63560 0.96016 97 94 95
0.74188 -4.64673 0.96816 107 106 96
0.72945 -4.65787 0.97617 108 110 104
0.71702 -4.66900 0.98417 107 104 88
0.70459 -4.68014 0.99217 106 104 91
0.69216 -4.69128 1.00018 107 104 92
0.67973 -4.70242 1.00818 110 105 98
0.66730 -4.71356 1.01619 109 104 94
0.65486 -4.72470 1.02420 105 102 94
0.64243 -4.73584 1.03220 116 121 104
0.62999 -4.74698 1.04021 117 119 106
0.58023 -4.79156 1.07225 115 115 96
0.56779 -4.80270 1.08026 112 111 102
0.55535 -4.81385 1.08827 116 117 106
0.54291 -4.82500 1.09629 110 112 102
0.53046 -4.83615 1.10430 108 113 103
0.51801 -4.84730 1.11231 108 111 103
0.50557 -4.85845 1.12033 108 110 100
0.49312 -4.86960 1.12834 105 105 102
0.48067 -4.88075 1.13636 105 107 106
0.46822 -4.89190 1.14437 108 112 100
