ply
format ascii 1.0
element face 0
property list uchar int vertex_indices
element vertex 1289
property float x
property float y
property float z
property uchar diffuse_red
property uchar diffuse_green
property uchar diffuse_blue
end_header
-1.38472 -3.37730 1.97912 190 182 191
-1.39512 -3.37944 1.98013 189 184 191
-1.40550 -3.38156 1.98115 188 185 186
-1.41586 -3.38369 1.98216 190 184 193
-1.42621 -3.38581 1.98317 189 184 193
-1.43654 -3.38793 1.98418 190 184 194
-1.44686 -3.39005 1.98519 189 185 196
-1.45717 -3.39216 1.98619 188 185 192
-1.46746 -3.39427 1.98720 189 185 193
-1.47773 -3.39638 1.98820 191 186 194
-1.48799 -3.39848 1.98920 190 183 195
-1.49824 -3.40058 1.99021 191 185 194
-1.50847 -3.40268 1.99120 189 186 190
-1.51869 -3.40477 1.99220 189 184 190
-1.52889 -3.40687 1.99320 189 183 191
-1.53908 -3.40896 1.99419 187 181 190
-1.34280 -3.35265 1.96207 188 183 183
-1.35320 -3.35480 1.96310 189 186 185
-1.36359 -3.35694 1.96412 192 186 181
-1.37396 -3.35907 1.96514 189 184 181
-1.38432 -3.36121 1.96616 188 184 186
-1.39466 -3.36334 1.96718 187 185 189
-1.40498 -3.36547 1.96820 188 186 190
-1.41530 -3.36760 1.96922 188 186 192
-1.42559 -3.36972 1.97023 188 184 192
-1.43588 -3.37184 1.97124 191 183 192
-1.44615 -3.37396 1.97226 191 184 193
-1.45640 -3.37607 1.97327 188 186 194
-1.46664 -3.37818 1.97428 189 186 197
-1.47686 -3.38029 1.97528 190 185 201
-1.48707 -3.38239 1.97629 190 186 194
-1.49727 -3.38450 1.97730 189 186 192
-1.50745 -3.38659 1.97830 190 188 191
-1.51762 -3.38869 1.97930 187 190 195
-1.52777 -3.39078 1.98030 188 187 190
-1.53791 -3.39287 1.98130 190 185 190
-1.36329 -3.34100 1.95129 190 185 183
-1.37361 -3.34314 1.95231 190 185 186
-1.38391 -3.34528 1.95334 189 186 187
-1.39420 -3.34741 1.95436 189 188 188
-1.40448 -3.34954 1.95538 190 184 190
-1.41474 -3.35166 1.95640 190 183 192
-1.42499 -3.35379 1.95742 189 183 192
-1.43522 -3.35591 1.95844 188 183 187
-1.44544 -3.35803 1.95945 189 187 185
-1.45564 -3.36014 1.96047 188 185 192
-1.46583 -3.36225 1.96148 189 184 192
-1.47600 -3.36436 1.96249 189 186 190
-1.48616 -3.36647 1.96350 190 187 192
-1.49631 -3.36857 1.96451 189 187 190
-1.50644 -3.37067 1.96552 191 187 188
-1.51656 -3.37277 1.96653 190 188 193
-1.52666 -3.37486 1.96753 189 190 191
-1.53675 -3.37695 1.96854 188 187 193
-1.38351 -3.32950 1.94064 189 185 189
-1.39375 -3.33163 1.94167 189 186 192
-1.40398 -3.33376 1.94269 193 184 190
-1.41419 -3.33589 1.94372 192 183 193
-1.42438 -3.33801 1.94474 191 183 191
-1.43457 -3.34014 1.94576 188 184 191
-1.44473 -3.34225 1.94678 188 185 193
-1.45489 -3.34437 1.94780 188 184 192
-1.46503 -3.34648 1.94882 189 184 190
-1.47515 -3.34859 1.94983 187 187 191
-1.48526 -3.35070 1.95085 190 188 193
-1.49536 -3.35280 1.95186 191 187 194
-1.50544 -3.35490 1.95287 190 186 192
-1.51551 -3.35700 1.95388 190 186 191
-1.52557 -3.35909 1.95489 190 186 191
-1.53561 -3.36118 1.95590 188 185 193
-1.40348 -3.31814 1.93013 189 187 190
-1.41364 -3.32027 1.93115 191 185 197
-1.42379 -3.32240 1.93218 190 185 192
-1.43392 -3.32452 1.93321 192 186 192
-1.44404 -3.32664 1.93423 191 187 192
-1.45414 -3.32875 1.93525 190 187 191
-1.46423 -3.33087 1.93627 190 187 192
-1.47431 -3.33297 1.93729 191 187 192
-1.48437 -3.33508 1.93831 191 187 191
-1.49442 -3.33719 1.93933 189 186 195
-1.50445 -3.33929 1.94034 190 186 196
-1.51447 -3.34138 1.94136 191 187 196
-1.52448 -3.34348 1.94237 190 187 196
-1.53447 -3.34557 1.94338 190 185 200
-1.43328 -3.30905 1.92077 192 186 189
-1.44335 -3.31117 1.92180 192 190 190
-1.45340 -3.31329 1.92283 191 190 190
-1.46345 -3.31540 1.92385 192 189 193
-1.47347 -3.31751 1.92488 192 189 194
-1.48349 -3.31962 1.92590 192 188 195
-1.49349 -3.32172 1.92692 192 187 198
-1.50347 -3.32383 1.92794 191 187 196
-1.51344 -3.32592 1.92895 192 186 195
-1.52340 -3.32802 1.92997 191 186 193
-1.53335 -3.33011 1.93098 190 184 193
-1.44267 -3.29586 1.90950 191 189 201
-1.45267 -3.29798 1.91053 194 189 192
-1.46267 -3.30009 1.91155 193 188 194
-1.47265 -3.30220 1.91258 192 189 194
-1.48261 -3.30431 1.91360 193 188 193
-1.49256 -3.30641 1.91463 193 189 200
-1.50250 -3.30851 1.91565 191 187 189
-1.51242 -3.31061 1.91667 191 188 194
-1.47183 -3.28704 1.90040 192 188 193
-1.48174 -3.28914 1.90143 191 187 195
-1.49165 -3.29125 1.90246 192 190 200
-1.50154 -3.29335 1.90348 193 190 191
-1.49074 -3.27623 1.89041 192 189 204
0.72347 -4.02555 2.36021 129 119 114
0.75795 -3.94369 2.32699 132 122 119
0.74995 -3.96616 2.33127 134 121 118
0.74189 -3.98881 2.33558 133 122 118
0.73377 -4.01163 2.33992 131 121 121
0.72559 -4.03463 2.34430 130 121 116
0.96175 -3.38427 2.20473 145 128 129
0.94202 -3.43986 2.21515 137 121 112
0.92188 -3.49662 2.22579 139 126 120
0.76803 -3.93015 2.30705 131 121 119
0.76009 -3.95252 2.31124 132 122 120
0.75209 -3.97507 2.31547 132 123 118
0.74403 -3.99779 2.31973 132 121 119
0.73591 -4.02068 2.32402 131 120 122
0.72772 -4.04375 2.32834 130 119 119
0.97047 -3.37314 2.18692 144 129 127
0.96398 -3.39147 2.19031 139 122 130
0.95745 -3.40992 2.19371 139 127 133
0.95087 -3.42851 2.19714 138 124 127
0.94425 -3.44722 2.20059 136 123 119
0.93758 -3.46606 2.20407 137 125 119
0.92410 -3.50414 2.21109 138 126 122
0.91729 -3.52338 2.21464 137 126 121
0.91043 -3.54276 2.21822 136 126 122
0.80137 -3.85085 2.27506 133 123 118
0.79366 -3.87263 2.27907 129 121 116
0.78590 -3.89456 2.28312 130 120 112
0.77807 -3.91667 2.28720 131 121 112
0.77019 -3.93894 2.29131 131 121 118
0.76224 -3.96138 2.29545 132 121 118
0.75424 -3.98400 2.29962 133 122 116
0.74617 -4.00679 2.30383 134 121 117
0.73804 -4.02975 2.30806 132 120 116
0.72985 -4.05289 2.31233 130 118 116
0.98555 -3.34394 2.16590 144 131 128
0.97915 -3.36207 2.16920 144 130 130
0.97270 -3.38032 2.17251 143 127 126
0.96621 -3.39869 2.17584 138 124 128
0.95968 -3.41720 2.17920 138 127 130
0.95310 -3.43583 2.18259 137 126 127
0.94648 -3.45460 2.18599 134 125 120
0.93981 -3.47349 2.18942 135 125 120
0.93309 -3.49252 2.19288 137 127 123
0.91951 -3.53097 2.19986 138 127 124
0.91265 -3.55041 2.20339 137 126 124
0.90574 -3.56998 2.20694 136 126 124
0.81880 -3.81621 2.25164 135 120 120
0.81120 -3.83773 2.25554 135 123 119
0.80355 -3.85940 2.25948 133 122 115
0.79584 -3.88124 2.26344 131 120 114
0.78807 -3.90325 2.26744 130 120 113
0.78024 -3.92542 2.27146 131 121 113
0.77235 -3.94776 2.27552 129 122 116
0.76440 -3.97027 2.27961 132 122 115
0.75639 -3.99296 2.28372 134 123 115
0.74832 -4.01582 2.28787 133 123 115
0.74019 -4.03885 2.29206 132 121 111
0.73199 -4.06207 2.29627 130 117 108
0.99415 -3.33298 2.14831 144 132 135
0.98779 -3.35103 2.15154 144 130 128
0.98139 -3.36921 2.15478 144 131 129
0.97495 -3.38751 2.15805 142 129 122
0.96846 -3.40594 2.16134 138 125 117
0.96192 -3.42449 2.16466 137 126 127
0.95534 -3.44318 2.16799 138 125 128
0.94871 -3.46200 2.17135 136 122 117
0.94204 -3.48094 2.17474 136 123 118
0.93532 -3.50002 2.17814 137 126 120
0.92855 -3.51924 2.18158 137 129 125
0.91487 -3.55808 2.18851 137 126 124
0.90796 -3.57771 2.19202 137 126 124
0.90100 -3.59748 2.19555 136 127 118
0.89399 -3.61739 2.19910 136 126 114
0.88693 -3.63744 2.20268 136 126 120
0.87981 -3.65764 2.20629 136 125 123
0.87265 -3.67799 2.20992 136 124 122
0.86543 -3.69848 2.21358 133 123 124
0.85816 -3.71913 2.21727 132 120 124
0.85083 -3.73992 2.22099 133 118 121
0.84345 -3.76087 2.22473 134 119 117
0.83602 -3.78198 2.22850 132 120 121
0.82853 -3.80324 2.23229 132 120 124
0.82099 -3.82466 2.23612 134 121 120
0.81339 -3.84624 2.23997 136 124 117
0.80573 -3.86798 2.24385 134 122 110
0.79802 -3.88989 2.24777 132 121 109
0.79025 -3.91196 2.25171 130 119 111
0.78241 -3.93420 2.25568 132 120 117
0.77452 -3.95661 2.25968 131 121 117
0.76657 -3.97919 2.26371 132 121 116
0.75855 -4.00195 2.26778 135 122 118
0.75048 -4.02488 2.27187 134 122 115
0.74234 -4.04798 2.27600 131 121 111
0.73414 -4.07127 2.28016 130 118 103
1.01522 -3.28647 2.12454 144 137 129
1.00899 -3.30421 2.12766 145 135 126
1.00272 -3.32206 2.13079 146 134 134
0.99640 -3.34004 2.13395 145 134 131
0.99005 -3.35815 2.13713 144 132 127
0.98364 -3.37637 2.14033 142 132 130
0.97720 -3.39472 2.14355 142 130 126
0.97070 -3.41320 2.14680 139 125 119
0.96417 -3.43181 2.15007 138 125 127
0.95759 -3.45055 2.15336 140 123 128
0.95096 -3.46942 2.15667 138 121 120
0.94428 -3.48842 2.16001 137 122 120
0.93756 -3.50755 2.16337 137 125 121
0.93079 -3.52682 2.16675 136 127 125
0.92397 -3.54623 2.17016 134 128 121
0.91019 -3.58546 2.17705 138 126 122
0.90323 -3.60528 2.18053 137 125 119
0.89622 -3.62525 2.18404 136 125 117
0.88915 -3.64536 2.18757 136 126 120
0.88203 -3.66562 2.19113 136 125 120
0.87487 -3.68603 2.19471 136 124 119
0.86764 -3.70658 2.19832 134 123 122
0.86037 -3.72729 2.20196 132 121 124
0.85304 -3.74815 2.20562 132 119 121
0.84566 -3.76916 2.20931 133 120 116
0.83823 -3.79033 2.21303 131 120 118
0.83074 -3.81165 2.21678 131 120 122
0.82319 -3.83314 2.22055 133 122 119
0.81559 -3.85478 2.22435 138 124 116
0.80793 -3.87659 2.22818 134 122 110
0.80021 -3.89856 2.23204 131 121 109
0.79243 -3.92070 2.23593 129 120 112
0.78459 -3.94301 2.23984 133 121 120
0.77670 -3.96549 2.24379 132 120 121
0.76874 -3.98814 2.24777 131 121 115
0.76072 -4.01096 2.25178 134 122 111
0.75264 -4.03396 2.25582 134 121 112
0.74450 -4.05714 2.25989 131 119 112
0.73629 -4.08050 2.26399 129 117 104
1.02982 -3.25820 2.10419 143 132 131
1.02368 -3.27574 2.10722 143 135 132
1.01749 -3.29341 2.11027 145 136 128
1.01125 -3.31119 2.11334 147 135 127
1.00498 -3.32910 2.11644 147 135 136
0.99866 -3.34713 2.11955 147 134 129
0.99230 -3.36528 2.12268 144 133 127
0.98590 -3.38356 2.12584 142 132 130
0.97945 -3.40196 2.12902 141 130 126
0.97296 -3.42049 2.13222 141 126 123
0.96642 -3.43915 2.13544 139 123 125
0.95984 -3.45794 2.13868 139 122 127
0.95321 -3.47686 2.14195 138 122 123
0.94653 -3.49591 2.14524 136 123 122
0.93981 -3.51510 2.14855 137 126 122
0.93304 -3.53443 2.15189 137 127 125
0.92622 -3.55389 2.15525 135 128 122
0.91935 -3.57349 2.15863 136 127 120
0.90547 -3.61311 2.16547 137 126 120
0.89845 -3.63314 2.16893 136 125 122
0.89138 -3.65331 2.17242 136 125 122
0.88426 -3.67363 2.17592 136 125 118
0.87709 -3.69409 2.17946 136 125 118
0.86987 -3.71471 2.18302 134 124 122
0.86259 -3.73548 2.18660 132 122 123
0.85526 -3.75640 2.19021 131 120 118
0.84788 -3.77747 2.19385 133 121 114
0.84044 -3.79870 2.19752 132 120 113
0.83295 -3.82009 2.20121 132 120 116
0.82539 -3.84164 2.20493 133 121 119
0.81779 -3.86335 2.20868 136 124 119
0.81012 -3.88522 2.21246 135 122 114
0.80240 -3.90726 2.21626 132 121 114
0.79462 -3.92947 2.22010 131 120 113
0.78678 -3.95184 2.22396 133 122 120
0.77888 -3.97439 2.22785 131 121 121
0.77092 -3.99711 2.23178 132 121 114
0.76290 -4.02001 2.23573 133 122 110
0.75481 -4.04308 2.23971 134 122 112
0.74667 -4.06633 2.24373 132 120 111
0.73846 -4.08976 2.24777 130 116 104
1.04427 -3.23023 2.08406 144 130 124
1.03820 -3.24758 2.08701 141 128 121
1.03209 -3.26506 2.08997 142 131 129
1.02595 -3.28265 2.09296 145 134 132
1.01976 -3.30036 2.09596 147 135 129
1.01352 -3.31820 2.09899 147 135 128
1.00725 -3.33615 2.10204 146 135 135
1.00093 -3.35423 2.10510 144 134 128
0.99457 -3.37243 2.10819 143 133 128
0.98816 -3.39076 2.11130 142 132 129
0.98171 -3.40921 2.11444 139 129 125
0.97522 -3.42779 2.11759 139 127 125
0.96868 -3.44651 2.12076 137 124 122
0.96210 -3.46535 2.12396 137 122 126
0.95546 -3.48432 2.12718 137 123 121
0.94879 -3.50343 2.13043 136 123 120
0.94206 -3.52267 2.13369 137 125 122
0.93529 -3.54205 2.13698 137 127 124
0.92847 -3.56157 2.14029 137 128 119
0.92160 -3.58123 2.14363 137 127 112
0.91468 -3.60103 2.14699 137 128 113
0.90069 -3.64105 2.15378 136 126 123
0.89362 -3.66128 2.15721 137 124 123
0.88650 -3.68166 2.16067 137 125 120
0.87932 -3.70218 2.16415 136 126 117
0.87210 -3.72286 2.16766 134 124 116
0.86482 -3.74369 2.17120 133 123 117
0.85749 -3.76467 2.17476 132 121 116
0.85010 -3.78580 2.17835 133 121 113
0.84266 -3.80710 2.18196 132 121 108
0.83516 -3.82855 2.18560 132 120 107
0.82761 -3.85016 2.18927 133 120 118
0.82000 -3.87194 2.19296 134 123 120
0.81233 -3.89388 2.19669 135 122 115
0.80460 -3.91599 2.20044 133 121 114
0.79682 -3.93826 2.20422 131 120 112
0.78897 -3.96071 2.20803 132 123 120
0.78107 -3.98332 2.21187 130 122 118
0.77311 -4.00611 2.21573 132 122 117
0.76508 -4.02908 2.21963 132 122 117
0.75699 -4.05222 2.22356 133 122 113
0.74884 -4.07555 2.22752 132 121 111
0.74062 -4.09905 2.23151 130 117 109
1.06451 -3.18549 2.06130 150 136 130
1.05856 -3.20255 2.06414 145 132 129
1.05257 -3.21972 2.06700 144 130 125
1.04655 -3.23701 2.06989 144 130 123
1.04048 -3.25442 2.07279 143 130 121
1.03437 -3.27194 2.07571 144 132 128
1.02822 -3.28958 2.07865 147 133 131
1.02203 -3.30734 2.08161 147 134 131
1.01580 -3.32522 2.08460 146 135 130
1.00952 -3.34323 2.08760 145 134 129
1.00320 -3.36135 2.09062 143 134 127
0.99684 -3.37960 2.09366 144 133 127
0.99043 -3.39798 2.09673 142 131 127
0.98398 -3.41649 2.09981 141 129 122
0.97749 -3.43512 2.10292 139 126 122
0.97095 -3.45389 2.10605 137 125 114
0.96436 -3.47278 2.10920 135 124 123
0.95773 -3.49181 2.11237 134 123 119
0.95105 -3.51097 2.11557 135 123 119
0.94432 -3.53027 2.11879 136 125 121
0.93755 -3.54970 2.12203 136 127 124
0.93072 -3.56928 2.12529 137 128 122
0.92385 -3.58899 2.12858 137 127 113
0.91693 -3.60884 2.13189 136 127 116
0.90996 -3.62884 2.13522 136 127 121
0.90294 -3.64899 2.13858 135 125 123
0.89586 -3.66927 2.14197 136 124 122
0.88874 -3.68971 2.14537 136 125 119
0.88156 -3.71030 2.14881 135 125 115
0.87434 -3.73103 2.15226 134 124 112
0.86705 -3.75192 2.15575 133 123 114
0.85972 -3.77297 2.15926 132 122 116
0.85233 -3.79417 2.16279 132 121 113
0.84488 -3.81552 2.16635 132 121 108
0.83738 -3.83704 2.16994 133 121 107
0.82983 -3.85872 2.17356 133 120 116
0.82221 -3.88056 2.17720 134 122 115
0.81454 -3.90257 2.18087 135 122 115
0.80681 -3.92474 2.18456 133 122 112
0.79902 -3.94708 2.18829 129 121 111
0.79117 -3.96960 2.19204 132 122 117
0.78327 -3.99228 2.19583 131 121 114
0.77530 -4.01514 2.19964 131 121 116
0.76727 -4.03818 2.20348 132 121 119
0.75917 -4.06140 2.20735 132 121 116
0.75102 -4.08480 2.21125 131 121 115
0.74280 -4.10838 2.21518 129 117 110
0.73451 -4.13214 2.21915 123 111 111
0.72616 -4.15609 2.22314 115 112 123
1.07857 -3.15828 2.04167 153 139 129
1.07270 -3.17516 2.04443 148 134 128
1.06679 -3.19216 2.04721 146 131 126
1.06085 -3.20926 2.05001 146 132 127
1.05486 -3.22648 2.05284 146 132 126
1.04883 -3.24382 2.05567 145 131 126
1.04276 -3.26127 2.05853 144 131 124
1.03666 -3.27884 2.06141 144 131 128
1.03050 -3.29653 2.06431 147 132 131
1.02431 -3.31434 2.06722 148 134 131
1.01808 -3.33227 2.07016 145 134 128
1.01180 -3.35032 2.07312 145 133 125
1.00548 -3.36850 2.07610 145 133 128
0.99912 -3.38680 2.07909 145 132 128
0.99271 -3.40523 2.08211 142 131 125
0.98626 -3.42378 2.08515 142 130 120
0.97976 -3.44247 2.08821 140 127 119
0.97322 -3.46129 2.09129 137 125 112
0.96663 -3.48023 2.09440 134 125 120
0.96000 -3.49932 2.09752 133 124 119
0.95332 -3.51853 2.10067 135 123 118
0.94659 -3.53788 2.10384 136 124 120
0.93981 -3.55738 2.10703 137 126 124
0.93298 -3.57700 2.11025 138 127 125
0.92611 -3.59677 2.11349 137 127 120
0.91919 -3.61669 2.11675 135 126 120
0.91221 -3.63674 2.12003 135 124 121
0.90519 -3.65694 2.12334 135 124 122
0.89812 -3.67729 2.12667 136 124 121
0.89099 -3.69779 2.13003 135 124 117
0.88381 -3.71843 2.13341 135 125 114
0.87658 -3.73923 2.13682 135 124 113
0.86930 -3.76018 2.14025 134 123 116
0.86196 -3.78129 2.14371 132 122 117
0.85456 -3.80255 2.14719 132 122 114
0.84712 -3.82397 2.15070 132 122 113
0.83961 -3.84555 2.15423 132 121 114
0.83205 -3.86730 2.15779 131 121 116
0.82443 -3.88921 2.16138 133 123 112
0.81676 -3.91128 2.16500 134 123 114
0.80903 -3.93352 2.16864 132 122 114
0.80123 -3.95593 2.17231 130 121 113
0.79338 -3.97852 2.17601 134 121 115
0.78547 -4.00127 2.17974 131 121 111
0.77750 -4.02420 2.18349 131 121 114
0.76946 -4.04731 2.18728 132 121 119
0.76136 -4.07060 2.19109 132 120 115
0.75320 -4.09407 2.19494 131 119 112
0.74498 -4.11773 2.19881 127 116 105
0.73669 -4.14157 2.20272 122 110 100
0.72834 -4.16560 2.20665 112 101 95
1.08670 -3.14806 2.02493 151 136 135
1.08086 -3.16488 2.02763 148 134 131
1.07500 -3.18180 2.03035 147 134 125
1.06909 -3.19884 2.03309 148 134 123
1.06314 -3.21599 2.03585 147 134 126
1.05715 -3.23326 2.03863 146 133 127
1.05112 -3.25064 2.04142 145 132 126
1.04505 -3.26814 2.04424 143 131 123
1.03895 -3.28576 2.04707 144 131 126
1.03279 -3.30349 2.04992 147 132 130
1.02660 -3.32135 2.05280 149 133 129
1.02037 -3.33933 2.05569 147 133 126
1.01409 -3.35743 2.05860 146 133 125
1.00777 -3.37566 2.06153 144 133 128
1.00140 -3.39401 2.06448 143 132 129
0.99499 -3.41249 2.06745 140 131 125
0.98854 -3.43110 2.07045 141 130 122
0.98204 -3.44984 2.07346 140 127 121
0.97550 -3.46871 2.07649 136 125 115
0.96891 -3.48771 2.07955 134 125 117
0.96227 -3.50684 2.08263 134 125 116
0.95559 -3.52612 2.08573 134 122 114
0.94886 -3.54552 2.08885 135 122 118
0.94208 -3.56507 2.09199 137 124 121
0.93525 -3.58475 2.09516 138 126 122
0.92838 -3.60458 2.09835 137 126 120
0.92145 -3.62455 2.10156 135 125 118
0.91448 -3.64467 2.10479 135 125 120
0.90745 -3.66492 2.10805 136 124 122
0.90037 -3.68533 2.11133 136 124 121
0.89325 -3.70589 2.11464 135 124 118
0.88606 -3.72659 2.11797 136 124 116
0.87883 -3.74745 2.12133 136 123 114
0.87154 -3.76847 2.12471 134 123 115
0.86420 -3.78964 2.12811 132 122 115
0.85681 -3.81096 2.13154 132 122 115
0.84936 -3.83245 2.13500 132 121 116
0.84185 -3.85410 2.13848 131 121 116
0.83428 -3.87590 2.14198 131 121 113
0.82666 -3.89788 2.14552 133 123 110
0.81899 -3.92002 2.14908 134 123 112
0.81125 -3.94233 2.15267 132 123 119
0.80345 -3.96481 2.15628 132 121 114
0.79560 -3.98746 2.15993 134 120 114
0.78768 -4.01029 2.16360 132 120 108
0.77970 -4.03329 2.16730 131 121 108
0.77166 -4.05647 2.17103 132 121 117
0.76356 -4.07983 2.17478 131 120 112
0.75540 -4.10338 2.17857 130 119 106
0.74717 -4.12711 2.18239 127 116 99
0.73887 -4.15102 2.18623 122 110 95
0.73052 -4.17513 2.19011 115 104 88
1.10054 -3.12125 2.00562 150 138 131
1.09479 -3.13788 2.00825 149 136 133
1.08900 -3.15463 2.01090 149 136 136
1.08316 -3.17149 2.01356 147 135 131
1.07729 -3.18846 2.01624 146 135 127
1.07139 -3.20554 2.01893 147 135 126
1.06544 -3.22274 2.02165 146 134 126
1.05945 -3.24005 2.02438 145 134 124
1.05342 -3.25748 2.02713 145 134 122
1.04735 -3.27503 2.02990 144 133 119
1.04124 -3.29269 2.03269 144 132 121
1.03509 -3.31048 2.03550 146 133 127
1.02890 -3.32838 2.03833 148 133 128
1.02266 -3.34641 2.04117 147 133 127
1.01638 -3.36456 2.04404 146 133 128
1.01006 -3.38284 2.04692 142 134 129
1.00369 -3.40125 2.04983 141 132 128
0.99728 -3.41978 2.05275 141 130 125
0.99083 -3.43844 2.05570 140 130 123
0.98433 -3.45723 2.05867 139 127 122
0.97778 -3.47615 2.06165 136 125 116
0.97119 -3.49521 2.06466 135 124 115
0.96456 -3.51440 2.06769 135 124 117
0.95787 -3.53372 2.07074 133 123 113
0.95114 -3.55318 2.07381 133 123 116
0.94436 -3.57279 2.07691 135 124 119
0.93753 -3.59253 2.08003 136 126 119
0.93065 -3.61241 2.08317 136 126 120
0.92372 -3.63244 2.08633 136 126 119
0.91675 -3.65261 2.08951 135 126 120
0.90972 -3.67293 2.09272 135 125 122
0.90264 -3.69340 2.09595 136 124 119
0.89551 -3.71401 2.09921 135 123 114
0.88832 -3.73478 2.10248 135 123 113
0.88109 -3.75570 2.10579 135 123 114
0.87380 -3.77678 2.10911 133 122 113
0.86645 -3.79801 2.11247 132 121 113
0.85906 -3.81940 2.11584 132 122 116
0.85160 -3.84095 2.11925 131 121 120
0.84409 -3.86266 2.12267 130 121 119
0.83652 -3.88454 2.12613 131 120 112
0.82890 -3.90658 2.12961 133 122 110
0.82122 -3.92879 2.13311 133 123 111
0.81348 -3.95117 2.13664 132 123 118
0.80568 -3.97371 2.14020 131 121 110
0.79782 -3.99644 2.14379 132 120 110
0.78990 -4.01933 2.14741 132 119 106
0.78192 -4.04241 2.15105 131 120 106
0.77387 -4.06566 2.15472 131 121 115
0.76577 -4.08910 2.15842 130 120 111
0.75760 -4.11272 2.16215 129 118 106
0.74936 -4.13652 2.16591 126 114 100
0.74107 -4.16051 2.16969 122 110 96
0.73270 -4.18469 2.17351 116 105 91
1.10857 -3.11117 1.98907 150 138 134
1.10285 -3.12774 1.99164 150 138 132
1.09710 -3.14443 1.99423 150 137 133
1.09130 -3.16122 1.99683 149 136 133
1.08547 -3.17812 1.99944 147 136 130
1.07960 -3.19514 2.00208 146 136 130
1.07369 -3.21226 2.00473 148 135 129
1.06774 -3.22951 2.00741 148 134 127
1.06175 -3.24687 2.01009 146 134 123
1.05573 -3.26434 2.01280 146 134 120
1.04966 -3.28194 2.01553 145 133 116
1.04354 -3.29965 2.01827 145 133 117
1.03739 -3.31748 2.02103 145 134 124
1.03120 -3.33544 2.02382 145 133 126
1.02496 -3.35352 2.02662 146 134 129
1.01868 -3.37172 2.02944 145 133 131
1.01236 -3.39005 2.03227 142 133 133
1.00599 -3.40850 2.03513 142 133 131
0.99958 -3.42708 2.03801 142 130 124
0.99312 -3.44580 2.04091 140 130 123
0.98662 -3.46464 2.04383 139 128 121
0.98008 -3.48361 2.04677 134 126 118
0.97348 -3.50272 2.04973 136 124 119
0.96684 -3.52197 2.05271 136 124 122
0.96016 -3.54135 2.05571 134 124 117
0.95342 -3.56087 2.05874 134 124 117
0.94664 -3.58053 2.06178 134 124 119
0.93981 -3.60032 2.06485 135 125 121
0.93293 -3.62027 2.06794 136 126 123
0.92600 -3.64035 2.07105 136 126 122
0.91902 -3.66058 2.07418 134 125 121
0.91199 -3.68096 2.07734 134 124 121
0.90491 -3.70149 2.08052 135 124 117
0.89778 -3.72216 2.08372 135 124 111
0.89059 -3.74299 2.08695 134 125 110
0.88335 -3.76398 2.09020 134 124 114
0.87606 -3.78511 2.09348 134 122 114
0.86871 -3.80641 2.09677 133 121 113
0.86131 -3.82786 2.10010 133 121 117
0.85385 -3.84948 2.10345 131 121 123
0.84634 -3.87126 2.10682 129 120 123
0.83877 -3.89320 2.11022 131 119 115
0.83114 -3.91531 2.11364 133 122 112
0.82346 -3.93758 2.11709 132 124 113
0.81571 -3.96003 2.12057 132 123 113
0.80791 -3.98265 2.12408 132 121 106
0.80005 -4.00544 2.12761 132 120 106
0.79212 -4.02841 2.13116 131 119 105
0.78414 -4.05155 2.13475 130 120 109
0.77609 -4.07488 2.13836 132 120 114
0.76798 -4.09839 2.14200 130 119 111
0.75981 -4.12208 2.14568 128 116 107
0.75157 -4.14596 2.14937 125 113 103
0.74326 -4.17003 2.15310 122 110 98
0.73489 -4.19429 2.15686 118 106 91
1.12221 -3.08474 1.97009 153 141 139
1.11656 -3.10114 1.97259 150 138 133
1.11088 -3.11764 1.97510 149 138 128
1.10516 -3.13426 1.97762 149 138 128
1.09941 -3.15099 1.98016 150 138 131
1.09362 -3.16782 1.98272 150 137 129
1.08778 -3.18477 1.98529 149 136 128
1.08191 -3.20183 1.98789 148 135 129
1.07600 -3.21900 1.99050 149 135 130
1.07005 -3.23629 1.99312 149 134 129
1.06407 -3.25370 1.99577 148 134 126
1.05804 -3.27122 1.99843 148 134 123
1.05197 -3.28886 2.00111 145 133 120
1.04585 -3.30662 2.00381 144 132 121
1.03970 -3.32451 2.00653 144 133 125
1.03350 -3.34251 2.00926 145 133 127
1.02727 -3.36064 2.01202 146 133 129
1.02099 -3.37889 2.01479 146 132 132
1.01466 -3.39727 2.01758 143 132 134
1.00829 -3.41578 2.02040 143 132 132
1.00188 -3.43441 2.02323 142 129 120
0.99543 -3.45318 2.02608 140 130 122
0.98892 -3.47207 2.02895 139 128 121
0.98238 -3.49110 2.03184 135 125 117
0.97578 -3.51026 2.03475 136 124 121
0.96914 -3.52956 2.03769 136 123 124
0.96245 -3.54900 2.04064 135 124 118
0.95572 -3.56857 2.04361 135 123 116
0.94893 -3.58829 2.04661 136 124 118
0.94210 -3.60814 2.04963 136 125 121
0.93522 -3.62814 2.05267 137 127 125
0.92829 -3.64829 2.05573 137 126 123
0.92131 -3.66858 2.05881 134 125 121
0.91427 -3.68901 2.06192 135 124 121
0.90719 -3.70960 2.06504 135 124 121
0.90005 -3.73034 2.06819 134 125 116
0.89286 -3.75123 2.07137 134 125 112
0.88562 -3.77227 2.07457 134 124 112
0.87833 -3.79348 2.07779 134 123 111
0.87098 -3.81483 2.08103 133 122 111
0.86357 -3.83635 2.08430 132 122 114
0.85611 -3.85803 2.08760 132 121 119
0.84860 -3.87988 2.09092 132 121 120
0.84102 -3.90189 2.09426 132 119 115
0.83339 -3.92406 2.09763 133 122 114
0.82571 -3.94640 2.10103 133 123 115
0.81796 -3.96892 2.10445 133 122 115
0.81015 -3.99161 2.10790 134 121 107
0.80228 -4.01447 2.11137 132 120 104
0.79436 -4.03751 2.11487 129 119 104
0.78637 -4.06073 2.11840 127 119 108
0.77831 -4.08413 2.12195 130 119 109
0.77020 -4.10771 2.12554 129 117 108
0.76202 -4.13148 2.12915 127 115 106
0.75378 -4.15543 2.13279 125 113 103
0.74547 -4.17958 2.13646 123 111 98
0.73710 -4.20392 2.14016 121 108 90
1.12452 -3.09114 1.95616 154 142 134
1.11888 -3.10758 1.95861 150 138 130
1.11320 -3.12413 1.96108 148 139 126
1.10748 -3.14079 1.96356 148 139 128
1.10173 -3.15756 1.96606 150 139 132
1.09593 -3.17444 1.96857 151 138 131
1.09010 -3.19144 1.97111 150 137 127
1.08423 -3.20854 1.97365 149 135 128
1.07832 -3.22576 1.97622 148 134 128
1.07237 -3.24310 1.97880 147 135 128
1.06638 -3.26055 1.98140 147 134 128
1.06035 -3.27812 1.98402 147 134 127
1.05428 -3.29581 1.98666 144 132 125
1.04817 -3.31362 1.98931 142 130 125
1.04202 -3.33155 1.99198 143 131 130
1.03582 -3.34960 1.99467 145 132 131
1.02958 -3.36778 1.99738 145 133 128
1.02330 -3.38608 2.00011 145 132 129
1.01697 -3.40451 2.00285 144 131 130
1.01060 -3.42307 2.00562 143 131 126
1.00419 -3.44176 2.00840 142 130 117
0.99773 -3.46058 2.01121 141 131 124
0.99123 -3.47953 2.01403 142 127 124
0.98468 -3.49861 2.01687 137 124 120
0.97809 -3.51783 2.01974 136 123 121
0.97144 -3.53718 2.02262 135 124 120
0.96475 -3.55667 2.02552 135 124 116
0.95802 -3.57630 2.02845 135 123 114
0.95123 -3.59607 2.03139 134 124 117
0.94440 -3.61599 2.03436 136 126 122
0.93751 -3.63604 2.03735 138 127 126
0.93058 -3.65624 2.04036 137 126 123
0.92360 -3.67659 2.04339 135 125 121
0.91656 -3.69709 2.04644 135 125 121
0.90947 -3.71774 2.04952 135 124 124
0.90234 -3.73854 2.05262 134 124 121
0.89515 -3.75949 2.05574 134 124 114
0.88790 -3.78060 2.05889 134 124 111
0.88060 -3.80186 2.06205 134 123 108
0.87325 -3.82328 2.06525 132 123 108
0.86584 -3.84487 2.06846 131 122 112
0.85838 -3.86661 2.07170 132 122 116
0.85086 -3.88852 2.07497 134 121 117
0.84328 -3.91060 2.07826 132 121 114
0.83565 -3.93284 2.08157 131 123 115
0.82796 -3.95525 2.08491 132 123 115
0.82021 -3.97784 2.08827 132 122 118
0.81240 -4.00060 2.09166 132 120 109
0.80453 -4.02353 2.09508 131 120 102
0.79659 -4.04664 2.09852 128 119 104
0.78860 -4.06993 2.10199 128 117 107
0.78055 -4.09341 2.10549 129 117 107
0.77243 -4.11706 2.10902 127 116 105
0.76424 -4.14091 2.11257 127 114 104
0.75600 -4.16494 2.11615 127 113 102
0.74768 -4.18916 2.11976 124 110 100
0.73930 -4.21357 2.12340 123 109 92
1.12121 -3.11405 1.94460 152 139 133
1.11553 -3.13064 1.94702 150 138 130
1.10981 -3.14734 1.94946 149 138 130
1.10405 -3.16416 1.95192 151 138 135
1.09826 -3.18108 1.95439 152 139 135
1.09243 -3.19812 1.95688 151 138 130
1.08656 -3.21527 1.95938 150 136 128
1.08065 -3.23254 1.96191 148 134 127
1.07470 -3.24992 1.96444 147 135 127
1.06871 -3.26742 1.96700 146 134 129
1.06268 -3.28504 1.96957 145 132 129
1.05660 -3.30278 1.97216 143 131 128
1.05049 -3.32063 1.97477 142 129 126
1.04434 -3.33861 1.97740 143 129 128
1.03814 -3.35672 1.98004 144 132 131
1.03190 -3.37494 1.98270 144 134 127
1.02562 -3.39330 1.98538 145 133 127
1.01929 -3.41178 1.98808 145 132 129
1.01292 -3.43039 1.99080 143 132 123
1.00651 -3.44913 1.99353 141 131 119
1.00005 -3.46800 1.99629 141 131 127
0.99354 -3.48700 1.99906 142 129 125
0.98699 -3.50614 2.00186 138 124 124
0.98040 -3.52541 2.00467 135 124 119
0.97375 -3.54482 2.00751 136 125 116
0.96706 -3.56436 2.01036 135 125 116
0.96032 -3.58405 2.01324 135 124 115
0.95354 -3.60388 2.01613 135 124 113
0.94670 -3.62385 2.01905 136 125 118
0.93981 -3.64397 2.02199 138 127 122
0.93288 -3.66423 2.02494 137 126 122
0.92589 -3.68463 2.02792 136 126 123
0.91886 -3.70519 2.03093 135 125 122
0.91177 -3.72590 2.03395 135 124 122
0.90463 -3.74676 2.03700 135 123 120
0.89743 -3.76778 2.04007 134 124 114
0.89019 -3.78895 2.04316 135 124 111
0.88289 -3.81027 2.04627 135 123 110
0.87553 -3.83176 2.04941 133 121 109
0.86812 -3.85341 2.05257 132 121 112
0.86065 -3.87522 2.05576 132 121 115
0.85313 -3.89720 2.05897 133 121 117
0.84555 -3.91934 2.06220 131 121 113
0.83792 -3.94165 2.06546 130 122 113
0.83022 -3.96413 2.06874 132 122 109
0.82247 -3.98679 2.07205 131 121 117
0.81465 -4.00961 2.07538 131 119 106
0.80678 -4.03262 2.07874 130 117 99
0.79884 -4.05580 2.08213 128 115 103
0.79084 -4.07917 2.08554 130 114 105
0.78278 -4.10271 2.08898 130 115 107
0.77466 -4.12644 2.09244 127 115 105
0.76647 -4.15036 2.09594 126 113 102
0.75822 -4.17447 2.09946 127 111 98
0.74990 -4.19877 2.10300 125 110 96
0.74152 -4.22326 2.10658 126 109 90
1.12354 -3.12053 1.93055 152 138 133
1.11786 -3.13716 1.93293 151 137 132
1.11214 -3.15391 1.93533 150 136 128
1.10639 -3.17077 1.93774 151 137 131
1.10059 -3.18774 1.94017 151 138 134
1.09476 -3.20482 1.94261 151 138 132
1.08889 -3.22202 1.94507 150 136 128
1.08298 -3.23933 1.94755 148 135 123
1.07703 -3.25676 1.95004 147 134 122
1.07104 -3.27431 1.95255 147 133 126
1.06501 -3.29198 1.95508 145 132 126
1.05893 -3.30976 1.95763 144 130 126
1.05282 -3.32767 1.96019 143 129 124
1.04666 -3.34570 1.96277 143 129 126
1.04047 -3.36385 1.96536 144 132 127
1.03423 -3.38213 1.96798 144 133 127
1.02794 -3.40053 1.97061 146 133 128
1.02162 -3.41907 1.97326 145 133 131
1.01525 -3.43773 1.97593 142 133 122
1.00883 -3.45652 1.97862 140 131 117
1.00237 -3.47544 1.98133 140 130 126
0.99586 -3.49450 1.98406 139 130 125
0.98931 -3.51369 1.98680 137 125 120
0.98271 -3.53302 1.98957 136 123 116
0.97607 -3.55248 1.99235 137 123 112
0.96938 -3.57208 1.99516 136 124 118
0.96264 -3.59183 1.99798 134 123 119
0.95585 -3.61171 2.00083 135 124 113
0.94901 -3.63174 2.00369 137 124 116
0.94212 -3.65191 2.00658 136 126 121
0.93518 -3.67223 2.00948 135 126 123
0.92820 -3.69270 2.01241 135 125 120
0.92116 -3.71332 2.01536 135 124 117
0.91407 -3.73409 2.01833 135 124 119
0.90692 -3.75501 2.02133 135 124 119
0.89973 -3.77609 2.02434 134 125 116
0.89248 -3.79732 2.02738 134 124 115
0.88518 -3.81871 2.03044 133 122 117
0.87782 -3.84026 2.03352 133 120 116
0.87040 -3.86198 2.03663 134 120 113
0.86294 -3.88385 2.03976 132 121 117
0.85541 -3.90590 2.04292 132 122 119
0.84783 -3.92811 2.04609 132 122 110
0.84019 -3.95049 2.04929 132 121 105
0.83249 -3.97304 2.05252 132 121 105
0.82473 -3.99576 2.05577 131 120 117
0.81691 -4.01866 2.05905 129 117 104
0.80903 -4.04174 2.06235 128 114 97
0.80109 -4.06499 2.06568 127 113 104
0.79309 -4.08843 2.06903 128 113 103
0.78503 -4.11205 2.07241 128 114 104
0.77690 -4.13586 2.07582 127 113 102
0.76871 -4.15985 2.07925 126 112 99
0.76045 -4.18404 2.08271 126 111 95
0.75213 -4.20841 2.08620 125 110 94
0.74374 -4.23298 2.08971 126 109 84
1.12588 -3.12702 1.91647 149 137 128
1.12020 -3.14370 1.91880 151 138 131
1.11448 -3.16050 1.92116 151 137 129
1.10872 -3.17740 1.92352 150 138 129
1.10293 -3.19442 1.92591 150 138 133
1.09710 -3.21154 1.92831 150 138 134
1.09123 -3.22879 1.93072 149 137 130
1.08532 -3.24615 1.93316 147 135 125
1.07936 -3.26362 1.93560 147 133 125
1.07337 -3.28122 1.93807 147 133 127
1.06734 -3.29893 1.94055 145 132 128
1.06127 -3.31677 1.94305 144 131 126
1.05516 -3.33472 1.94557 142 129 125
1.04900 -3.35280 1.94810 141 129 125
1.04280 -3.37100 1.95065 142 132 122
1.03656 -3.38933 1.95322 144 134 126
1.03028 -3.40779 1.95580 146 133 126
1.02395 -3.42637 1.95841 145 132 128
1.01758 -3.44509 1.96103 142 133 123
1.01116 -3.46393 1.96367 139 133 121
1.00470 -3.48291 1.96633 140 131 126
0.99819 -3.50202 1.96900 140 130 130
0.99164 -3.52126 1.97170 138 125 122
0.98504 -3.54064 1.97442 137 122 119
0.97839 -3.56016 1.97715 138 121 116
0.97170 -3.57982 1.97991 136 123 122
0.96495 -3.59962 1.98268 133 124 123
0.95816 -3.61956 1.98547 133 124 118
0.95132 -3.63965 1.98829 135 123 119
0.94444 -3.65988 1.99112 136 124 122
0.93750 -3.68026 1.99398 135 126 123
0.93051 -3.70079 1.99685 135 125 115
0.92347 -3.72147 1.99975 135 123 111
0.91637 -3.74230 2.00267 134 123 117
0.90923 -3.76328 2.00561 134 124 119
0.90203 -3.78442 2.00857 134 124 118
0.89478 -3.80572 2.01156 134 123 117
0.88747 -3.82718 2.01456 133 121 113
0.88011 -3.84879 2.01759 132 121 110
0.87269 -3.87057 2.02064 132 120 110
0.86522 -3.89252 2.02372 133 121 112
0.85769 -3.91462 2.02681 133 121 115
0.85011 -3.93690 2.02994 132 120 109
0.84246 -3.95935 2.03308 131 118 104
0.83476 -3.98197 2.03625 131 120 106
0.82700 -4.00477 2.03944 130 119 111
0.81918 -4.02774 2.04266 128 117 104
0.81130 -4.05088 2.04591 127 115 98
0.80335 -4.07421 2.04917 125 114 100
0.79535 -4.09772 2.05247 127 114 101
0.78728 -4.12142 2.05579 127 112 103
0.77915 -4.14530 2.05913 126 112 101
0.77095 -4.16937 2.06251 126 112 98
0.76269 -4.19363 2.06591 126 111 95
0.75436 -4.21809 2.06933 124 110 98
0.74597 -4.24274 2.07279 127 113 85
1.13947 -3.10041 1.89780 145 133 124
1.13387 -3.11692 1.90006 145 132 122
1.12822 -3.13354 1.90234 148 136 128
1.12254 -3.15026 1.90463 151 138 131
1.11682 -3.16710 1.90694 151 136 129
1.11107 -3.18405 1.90927 150 137 127
1.10527 -3.20111 1.91161 149 138 131
1.09944 -3.21828 1.91396 149 137 134
1.09357 -3.23557 1.91633 148 136 129
1.08766 -3.25298 1.91872 147 134 126
1.08171 -3.27050 1.92113 146 133 127
1.07572 -3.28815 1.92354 146 133 131
1.06968 -3.30591 1.92598 145 132 132
1.06361 -3.32379 1.92843 145 131 129
1.05750 -3.34180 1.93090 143 129 130
1.05134 -3.35992 1.93339 141 129 128
1.04514 -3.37818 1.93589 141 129 120
1.03890 -3.39656 1.93841 144 133 125
1.03261 -3.41506 1.94095 145 135 123
1.02629 -3.43370 1.94351 145 133 125
1.01991 -3.45246 1.94608 143 132 126
1.01349 -3.47136 1.94867 140 132 123
1.00703 -3.49039 1.95128 141 131 121
1.00052 -3.50956 1.95391 140 129 126
0.99397 -3.52886 1.95656 140 126 122
0.98737 -3.54829 1.95922 137 124 118
0.98072 -3.56787 1.96191 137 123 119
0.97402 -3.58758 1.96461 136 123 120
0.96728 -3.60744 1.96733 133 123 118
0.96049 -3.62744 1.97008 134 123 114
0.95365 -3.64759 1.97284 135 123 113
0.94676 -3.66788 1.97562 138 124 117
0.93982 -3.68832 1.97843 137 125 116
0.93282 -3.70890 1.98125 136 124 112
0.92578 -3.72964 1.98409 135 123 112
0.91869 -3.75054 1.98696 135 123 114
0.91154 -3.77158 1.98985 135 123 112
0.90434 -3.79278 1.99275 135 123 112
0.89708 -3.81415 1.99568 135 122 114
0.88977 -3.83567 1.99863 134 121 113
0.88241 -3.85735 2.00161 132 121 112
0.87499 -3.87919 2.00460 133 121 113
0.86752 -3.90120 2.00762 134 121 113
0.85999 -3.92338 2.01066 132 121 114
0.85240 -3.94573 2.01373 130 120 110
0.84475 -3.96824 2.01682 129 118 107
0.83704 -3.99093 2.01993 130 119 106
0.82928 -4.01380 2.02306 130 118 106
0.82145 -4.03684 2.02622 128 116 103
0.81357 -4.06006 2.02941 127 115 100
0.80562 -4.08346 2.03262 126 113 101
0.79761 -4.10705 2.03585 126 112 100
0.78954 -4.13082 2.03911 127 111 102
0.78140 -4.15477 2.04240 126 110 99
0.77320 -4.17892 2.04571 125 110 96
0.76494 -4.20326 2.04905 125 110 94
0.75661 -4.22779 2.05241 123 110 105
0.74821 -4.25252 2.05580 126 113 93
1.15293 -3.07408 1.87932 145 132 130
1.14739 -3.09042 1.88152 146 133 125
1.14182 -3.10686 1.88372 146 132 122
1.13622 -3.12341 1.88594 146 132 120
1.13057 -3.14007 1.88818 149 136 125
1.12489 -3.15684 1.89043 151 139 130
1.11918 -3.17372 1.89269 151 138 132
1.11342 -3.19072 1.89497 151 137 133
1.10763 -3.20782 1.89727 150 137 134
1.10179 -3.22504 1.89958 149 137 131
1.09592 -3.24238 1.90191 148 136 123
1.09001 -3.25983 1.90425 147 133 122
1.08406 -3.27740 1.90661 146 133 125
1.07807 -3.29509 1.90898 146 133 127
1.07203 -3.31290 1.91137 145 133 128
1.06596 -3.33083 1.91378 145 131 126
1.05984 -3.34889 1.91620 143 130 126
1.05369 -3.36707 1.91864 143 128 126
1.04749 -3.38537 1.92109 140 128 123
1.04125 -3.40380 1.92357 142 132 126
1.03496 -3.42236 1.92606 144 134 126
1.02863 -3.44105 1.92856 145 134 126
1.02226 -3.45987 1.93109 144 132 128
1.01584 -3.47882 1.93363 145 130 125
1.00937 -3.49790 1.93619 143 130 122
1.00286 -3.51712 1.93877 141 129 122
0.99631 -3.53647 1.94137 142 127 116
0.98971 -3.55597 1.94398 138 125 113
0.98306 -3.57560 1.94662 138 124 117
0.97636 -3.59537 1.94927 137 123 118
0.96961 -3.61528 1.95194 134 122 113
0.96282 -3.63534 1.95464 134 123 112
0.95598 -3.65554 1.95735 135 124 111
0.94909 -3.67589 1.96008 137 124 118
0.94214 -3.69639 1.96283 137 125 117
0.93515 -3.71704 1.96560 134 125 112
0.92810 -3.73784 1.96839 133 125 110
0.92101 -3.75880 1.97120 134 125 113
0.91386 -3.77991 1.97403 135 125 115
0.90665 -3.80117 1.97689 135 125 112
0.89940 -3.82260 1.97976 133 124 110
0.89209 -3.84418 1.98266 131 123 112
0.88472 -3.86593 1.98558 131 122 115
0.87730 -3.88784 1.98852 133 123 117
0.86982 -3.90992 1.99148 134 122 117
0.86229 -3.93216 1.99446 132 120 117
0.85469 -3.95458 1.99747 130 119 112
0.84704 -3.97716 2.00050 129 118 107
0.83933 -3.99992 2.00356 129 119 104
0.83157 -4.02286 2.00663 129 118 105
0.82374 -4.04597 2.00974 129 115 102
0.81585 -4.06926 2.01286 128 114 103
0.80790 -4.09274 2.01601 125 113 105
0.79988 -4.11640 2.01919 125 112 102
0.79181 -4.14024 2.02238 127 113 103
0.78367 -4.16428 2.02561 126 112 99
0.77546 -4.18850 2.02886 124 112 95
0.76719 -4.21292 2.03214 125 111 97
0.75885 -4.23753 2.03544 123 109 103
0.75045 -4.26234 2.03877 126 111 93
1.16624 -3.04801 1.86104 146 133 131
1.16078 -3.06418 1.86316 148 133 130
1.15528 -3.08046 1.86529 148 133 128
1.14975 -3.09684 1.86744 146 132 126
1.14418 -3.11332 1.86961 145 132 125
1.13857 -3.12992 1.87178 144 132 124
1.13293 -3.14662 1.87398 144 134 128
1.12725 -3.16344 1.87618 148 137 131
1.12153 -3.18036 1.87840 151 138 132
1.11578 -3.19740 1.88064 151 137 132
1.10998 -3.21455 1.88289 149 136 131
1.10415 -3.23182 1.88516 148 136 129
1.09828 -3.24920 1.88744 147 135 125
1.09237 -3.26670 1.88973 147 133 125
1.08641 -3.28432 1.89205 146 133 124
1.08042 -3.30206 1.89437 145 133 121
1.07439 -3.31992 1.89672 146 132 123
1.06832 -3.33790 1.89908 145 130 121
1.06220 -3.35600 1.90145 143 129 120
1.05604 -3.37423 1.90384 144 128 121
1.04984 -3.39259 1.90625 140 128 122
1.04360 -3.41107 1.90868 142 132 131
1.03731 -3.42968 1.91112 144 134 133
1.03098 -3.44842 1.91358 143 134 126
1.02461 -3.46729 1.91605 143 133 125
1.01819 -3.48629 1.91855 143 132 125
1.01172 -3.50543 1.92106 141 132 123
1.00521 -3.52470 1.92359 141 132 122
0.99865 -3.54411 1.92614 140 128 118
0.99205 -3.56366 1.92870 138 125 116
0.98540 -3.58335 1.93128 137 124 116
0.97870 -3.60318 1.93389 135 123 117
0.97195 -3.62315 1.93651 133 123 114
0.96516 -3.64327 1.93915 134 123 116
0.95831 -3.66353 1.94181 134 123 115
0.95142 -3.68394 1.94448 135 124 120
0.94448 -3.70450 1.94718 134 125 118
0.93748 -3.72521 1.94990 133 126 114
0.93043 -3.74607 1.95264 133 126 113
0.92333 -3.76708 1.95539 134 125 112
0.91618 -3.78825 1.95817 135 126 112
0.90898 -3.80958 1.96097 134 125 110
0.90172 -3.83107 1.96379 133 123 110
0.89440 -3.85272 1.96663 131 123 112
0.88703 -3.87454 1.96949 130 123 114
0.87961 -3.89651 1.97238 131 123 114
0.87213 -3.91866 1.97528 131 122 112
0.86459 -3.94097 1.97821 130 122 111
0.85700 -3.96345 1.98116 131 119 110
0.84934 -3.98611 1.98414 132 117 105
0.84163 -4.00894 1.98713 131 118 103
0.83386 -4.03195 1.99015 129 117 110
0.82603 -4.05513 1.99319 128 113 105
0.81813 -4.07850 1.99626 127 112 101
0.81018 -4.10205 1.99935 124 111 100
0.80216 -4.12578 2.00246 123 109 102
0.79408 -4.14970 2.00560 126 111 110
0.78594 -4.17381 2.00877 125 111 99
0.77773 -4.19811 2.01195 124 113 93
0.76945 -4.22261 2.01517 125 111 98
0.76111 -4.24730 2.01841 124 109 102
0.75270 -4.27219 2.02168 127 111 93
1.17403 -3.03822 1.84499 148 135 130
1.16860 -3.05432 1.84706 147 134 126
1.16314 -3.07054 1.84914 149 134 126
1.15764 -3.08685 1.85123 148 134 125
1.15211 -3.10327 1.85334 145 133 122
1.14654 -3.11980 1.85546 144 132 122
1.14094 -3.13644 1.85759 143 132 124
1.13529 -3.15319 1.85974 143 134 126
1.12961 -3.17005 1.86190 147 137 130
1.12390 -3.18702 1.86408 149 138 132
1.11814 -3.20410 1.86627 148 138 129
1.11235 -3.22130 1.86847 146 136 126
1.10651 -3.23861 1.87069 145 135 126
1.10064 -3.25604 1.87293 145 134 127
1.09473 -3.27359 1.87518 146 134 126
1.08878 -3.29126 1.87745 146 133 123
1.08279 -3.30904 1.87973 146 133 122
1.07675 -3.32695 1.88202 145 133 124
1.07068 -3.34498 1.88434 144 133 122
1.06456 -3.36314 1.88666 143 131 123
1.05840 -3.38141 1.88901 142 130 125
1.05220 -3.39982 1.89137 141 129 124
1.04596 -3.41835 1.89375 141 132 128
1.03967 -3.43702 1.89614 143 134 129
1.03334 -3.45581 1.89855 145 135 126
1.02696 -3.47473 1.90098 144 135 129
1.02054 -3.49379 1.90342 144 133 124
1.01408 -3.51298 1.90588 140 133 121
1.00757 -3.53231 1.90836 141 133 125
1.00101 -3.55177 1.91086 141 129 121
0.99440 -3.57138 1.91337 138 124 118
0.98775 -3.59112 1.91591 136 123 117
0.98105 -3.61101 1.91846 135 123 119
0.97430 -3.63104 1.92103 133 124 118
0.96751 -3.65121 1.92361 133 123 119
0.96066 -3.67153 1.92622 136 121 116
0.95376 -3.69200 1.92884 135 123 120
0.94682 -3.71262 1.93149 134 125 118
0.93982 -3.73339 1.93415 133 126 113
0.93277 -3.75432 1.93684 134 126 113
0.92567 -3.77539 1.93954 135 124 113
0.91851 -3.79663 1.94226 134 122 113
0.91130 -3.81802 1.94501 133 122 112
0.90404 -3.83958 1.94777 132 122 110
0.89673 -3.86129 1.95056 132 121 110
0.88936 -3.88317 1.95336 133 122 112
0.88193 -3.90521 1.95619 132 123 111
0.87445 -3.92743 1.95904 132 122 106
0.86691 -3.94981 1.96191 131 121 102
0.85931 -3.97236 1.96480 131 119 106
0.85165 -3.99509 1.96772 131 117 106
0.84394 -4.01799 1.97065 130 115 108
0.83616 -4.04107 1.97361 127 115 110
0.82832 -4.06432 1.97660 125 110 104
0.82043 -4.08776 1.97960 124 109 103
0.81247 -4.11139 1.98263 123 108 95
0.80445 -4.13519 1.98569 123 107 92
0.79636 -4.15919 1.98877 124 110 101
0.78821 -4.18338 1.99187 124 110 99
0.78000 -4.20776 1.99499 124 111 95
0.77172 -4.23233 1.99815 125 110 96
0.76337 -4.25710 2.00132 124 108 98
0.75496 -4.28207 2.00453 126 111 95
1.18714 -3.01252 1.82701 149 135 131
1.18179 -3.02846 1.82901 149 136 129
1.17640 -3.04450 1.83102 149 135 127
1.17097 -3.06065 1.83304 150 134 124
1.16551 -3.07690 1.83508 150 134 123
1.16001 -3.09326 1.83713 148 135 120
1.15448 -3.10973 1.83919 145 134 115
1.14891 -3.12630 1.84126 144 133 117
1.14331 -3.14298 1.84336 145 131 118
1.13766 -3.15978 1.84546 144 132 117
1.13198 -3.17668 1.84758 147 136 125
1.12627 -3.19369 1.84971 148 138 134
1.12051 -3.21082 1.85186 146 137 134
1.09710 -3.28050 1.86059 143 134 128
1.09115 -3.29821 1.86280 146 133 117
1.08515 -3.31605 1.86504 146 132 118
1.07912 -3.33401 1.86729 146 132 125
1.07305 -3.35209 1.86955 145 132 122
1.06693 -3.37029 1.87184 144 130 119
1.06077 -3.38862 1.87413 143 129 120
1.05457 -3.40708 1.87644 141 129 120
1.04832 -3.42566 1.87877 141 132 126
1.04204 -3.44437 1.88112 144 134 129
1.03570 -3.46322 1.88348 146 134 126
1.02933 -3.48220 1.88586 145 134 125
1.02291 -3.50131 1.88825 142 134 122
1.01644 -3.52055 1.89066 141 132 123
1.00993 -3.53994 1.89309 143 130 125
1.00337 -3.55946 1.89554 142 127 123
0.99676 -3.57912 1.89800 140 124 120
0.99011 -3.59892 1.90048 137 123 117
0.98341 -3.61886 1.90298 135 124 118
0.97666 -3.63895 1.90550 136 124 115
0.96986 -3.65918 1.90803 134 123 113
0.96301 -3.67956 1.91059 134 122 113
0.95611 -3.70009 1.91316 134 123 117
0.94916 -3.72077 1.91575 134 124 119
0.94216 -3.74160 1.91836 135 126 122
0.93511 -3.76259 1.92099 135 124 120
0.92801 -3.78373 1.92364 135 122 116
0.92085 -3.80503 1.92631 134 121 115
0.91364 -3.82649 1.92899 133 121 114
0.90638 -3.84811 1.93170 132 121 110
0.89906 -3.86989 1.93443 132 122 109
0.89169 -3.89183 1.93718 133 122 115
0.88426 -3.91394 1.93995 133 122 118
0.87677 -3.93622 1.94274 133 121 113
0.86923 -3.95867 1.94556 132 120 111
0.86162 -3.98129 1.94839 131 120 106
0.85397 -4.00409 1.95125 130 117 104
0.84625 -4.02706 1.95413 129 113 108
0.83847 -4.05021 1.95703 126 112 104
0.83063 -4.07354 1.95995 124 110 101
0.82273 -4.09706 1.96290 123 110 107
0.81476 -4.12075 1.96586 121 108 98
0.80674 -4.14464 1.96886 124 107 94
0.79865 -4.16871 1.97187 124 109 100
0.79050 -4.19297 1.97491 124 110 105
0.78228 -4.21743 1.97798 123 110 101
0.77400 -4.24208 1.98107 124 108 98
0.76565 -4.26694 1.98418 123 107 95
0.75723 -4.29199 1.98732 126 109 92
1.20013 -2.98708 1.80921 149 133 127
1.19484 -3.00286 1.81114 151 134 130
1.18952 -3.01874 1.81308 148 135 129
1.18416 -3.03472 1.81504 147 134 128
1.17877 -3.05081 1.81700 146 134 126
1.17335 -3.06699 1.81898 149 133 124
1.16789 -3.08329 1.82098 150 133 121
1.16239 -3.09969 1.82298 149 134 120
1.15686 -3.11620 1.82500 148 134 120
1.15129 -3.13282 1.82704 147 132 122
1.14568 -3.14954 1.82908 147 131 122
1.14004 -3.16638 1.83114 144 131 122
1.13436 -3.18333 1.83322 146 134 125
1.12864 -3.20039 1.83530 148 137 129
1.09352 -3.30519 1.84812 143 132 127
1.08753 -3.32307 1.85031 145 131 128
1.08150 -3.34108 1.85251 147 131 124
1.07542 -3.35921 1.85473 146 130 120
1.06930 -3.37746 1.85696 145 130 116
1.06314 -3.39584 1.85921 145 129 116
1.05694 -3.41435 1.86148 144 128 115
1.05070 -3.43299 1.86376 143 130 125
1.04441 -3.45175 1.86605 144 133 128
1.03808 -3.47065 1.86836 143 135 124
1.03170 -3.48968 1.87069 143 136 119
1.02528 -3.50885 1.87304 142 136 117
1.01881 -3.52815 1.87540 142 133 122
1.01229 -3.54759 1.87778 142 132 123
1.00573 -3.56716 1.88017 141 130 122
0.99913 -3.58688 1.88258 138 126 121
0.99247 -3.60674 1.88501 137 124 116
0.98577 -3.62674 1.88746 134 123 113
0.97902 -3.64689 1.88992 135 124 112
0.97222 -3.66718 1.89241 133 124 111
0.96537 -3.68762 1.89491 133 123 114
0.95847 -3.70821 1.89742 134 124 120
0.95152 -3.72895 1.89996 135 125 118
0.94452 -3.74984 1.90252 134 125 115
0.93746 -3.77089 1.90509 134 125 117
0.93036 -3.79209 1.90769 133 124 116
0.92320 -3.81346 1.91030 132 123 112
0.91599 -3.83498 1.91293 132 122 114
0.90872 -3.85666 1.91559 132 121 120
0.90140 -3.87851 1.91826 132 121 119
0.89402 -3.90052 1.92095 132 120 116
0.88659 -3.92270 1.92366 133 120 114
0.87910 -3.94505 1.92640 131 120 113
0.87155 -3.96757 1.92915 128 121 113
0.86395 -3.99026 1.93193 129 120 110
0.85629 -4.01312 1.93473 129 116 106
0.84856 -4.03617 1.93754 128 113 107
0.84078 -4.05939 1.94039 126 110 104
0.83294 -4.08279 1.94325 123 109 101
0.82504 -4.10638 1.94613 123 109 104
0.81707 -4.13015 1.94904 123 107 101
0.80904 -4.15411 1.95197 124 108 98
0.80095 -4.17826 1.95493 124 110 101
0.79279 -4.20260 1.95790 121 110 103
0.78457 -4.22714 1.96091 122 109 101
0.77628 -4.25187 1.96393 124 109 102
0.76792 -4.27680 1.96698 123 108 95
0.75950 -4.30194 1.97006 124 109 90
1.19722 -3.00905 1.79722 151 133 127
1.19190 -3.02497 1.79912 149 137 127
1.18654 -3.04100 1.80103 147 137 126
1.18115 -3.05712 1.80295 146 135 125
1.17573 -3.07336 1.80489 146 134 126
1.17027 -3.08969 1.80684 148 135 123
1.16477 -3.10614 1.80880 148 134 123
1.15924 -3.12269 1.81078 147 134 125
1.15367 -3.13935 1.81277 148 133 126
1.14807 -3.15612 1.81477 148 132 126
1.14242 -3.17300 1.81679 146 131 124
1.13674 -3.18999 1.81881 145 133 123
1.13103 -3.20710 1.82086 145 135 126
1.08991 -3.33012 1.83554 142 130 126
1.08388 -3.34817 1.83770 145 131 127
1.07780 -3.36635 1.83987 146 132 130
1.07169 -3.38466 1.84205 145 133 130
1.06553 -3.40309 1.84425 144 132 124
1.05932 -3.42165 1.84647 142 131 123
1.05308 -3.44034 1.84870 143 131 128
1.04679 -3.45916 1.85094 145 133 132
1.04045 -3.47811 1.85321 146 136 126
1.03408 -3.49719 1.85548 146 137 124
1.02765 -3.51641 1.85778 144 135 128
1.02118 -3.53577 1.86009 144 133 126
1.01467 -3.55526 1.86242 143 132 126
1.00811 -3.57489 1.86476 141 131 127
1.00150 -3.59467 1.86712 139 129 122
0.99484 -3.61458 1.86950 139 126 117
0.98814 -3.63464 1.87189 135 125 114
0.98139 -3.65484 1.87430 136 123 115
0.97458 -3.67520 1.87673 134 122 113
0.96773 -3.69570 1.87918 133 123 112
0.96083 -3.71635 1.88164 134 123 117
0.95388 -3.73715 1.88413 134 123 118
0.94688 -3.75810 1.88663 133 124 117
0.93982 -3.77921 1.88915 133 124 118
0.93271 -3.80048 1.89169 135 123 116
0.92555 -3.82191 1.89424 134 122 108
0.91834 -3.84349 1.89682 133 121 109
0.91107 -3.86524 1.89942 132 120 113
0.90374 -3.88716 1.90203 130 120 112
0.89637 -3.90923 1.90467 131 120 112
0.88893 -3.93148 1.90732 133 119 109
0.88144 -3.95390 1.91000 131 120 105
0.87389 -3.97649 1.91270 130 119 113
0.86628 -3.99925 1.91541 131 118 120
0.85862 -4.02218 1.91815 129 115 106
0.85089 -4.04530 1.92091 127 113 104
0.84311 -4.06859 1.92369 124 110 104
0.83526 -4.09207 1.92649 123 107 101
0.82735 -4.11573 1.92932 124 107 102
0.81938 -4.13958 1.93216 123 107 102
0.81135 -4.16362 1.93503 123 108 99
