ply
format ascii 1.0
element face 0
property list uchar int vertex_indices
element vertex 1264
property float x
property float y
property float z
property uchar diffuse_red
property uchar diffuse_green
property uchar diffuse_blue
end_header
-0.38917 -3.94119 0.09400 168 160 154
-0.40910 -3.94556 0.09428 169 168 169
-0.42900 -3.94992 0.09456 172 174 179
-0.46872 -3.95863 0.09512 177 174 183
-0.48853 -3.96297 0.09540 163 160 165
-0.50831 -3.96731 0.09567 165 163 175
-0.52807 -3.97164 0.09595 174 169 173
-0.54780 -3.97597 0.09623 176 178 177
-0.56749 -3.98028 0.09650 165 165 173
-0.58716 -3.98460 0.09678 169 175 175
-0.60680 -3.98890 0.09705 169 173 170
-0.62641 -3.99320 0.09733 176 176 169
-0.64600 -3.99750 0.09760 175 177 180
-0.66555 -4.00178 0.09788 173 177 177
-0.68507 -4.00606 0.09815 180 180 185
-0.70457 -4.01034 0.09842 182 185 179
-0.72404 -4.01461 0.09870 178 180 180
-0.74348 -4.01887 0.09897 172 178 180
-0.76289 -4.02313 0.09924 169 165 178
-0.78228 -4.02738 0.09951 174 169 174
-0.80163 -4.03162 0.09978 183 178 173
-0.82096 -4.03586 0.10005 168 176 172
-0.84026 -4.04009 0.10032 162 174 174
-0.85953 -4.04431 0.10059 153 162 170
-0.87877 -4.04853 0.10086 155 165 159
-0.89799 -4.05275 0.10113 164 162 152
-0.91718 -4.05695 0.10140 165 163 163
-0.93634 -4.06115 0.10167 164 167 170
-0.95547 -4.06535 0.10194 168 182 170
-0.97457 -4.06954 0.10220 165 180 174
-0.99365 -4.07372 0.10247 168 178 169
-1.01270 -4.07790 0.10274 165 172 161
-1.03172 -4.08207 0.10301 169 175 154
-1.05072 -4.08623 0.10327 170 171 158
-1.06969 -4.09039 0.10354 163 165 162
-1.08863 -4.09454 0.10380 164 163 165
-1.10754 -4.09869 0.10407 158 158 165
-1.12643 -4.10283 0.10433 149 155 161
-1.14528 -4.10697 0.10460 158 167 168
-1.16412 -4.11109 0.10486 162 162 169
-1.18292 -4.11522 0.10512 161 163 165
-1.20170 -4.11934 0.10539 164 170 167
-1.22045 -4.12345 0.10565 169 170 170
-1.23918 -4.12755 0.10591 167 167 164
-1.25787 -4.13165 0.10617 154 156 152
-1.27654 -4.13575 0.10643 156 159 154
-1.29519 -4.13983 0.10670 157 159 158
-1.31381 -4.14391 0.10696 149 151 158
-1.33240 -4.14799 0.10722 145 153 156
-1.35096 -4.15206 0.10748 139 148 147
-1.36950 -4.15613 0.10774 147 157 159
-1.38801 -4.16019 0.10800 162 169 157
-1.40650 -4.16424 0.10826 155 162 155
-1.42496 -4.16829 0.10851 154 161 162
-1.44339 -4.17233 0.10877 149 156 161
-1.46180 -4.17636 0.10903 151 157 160
-1.48018 -4.18039 0.10929 161 160 157
-1.49854 -4.18442 0.10954 148 152 156
-1.51687 -4.18844 0.10980 155 157 156
-1.53517 -4.19245 0.11006 154 158 164
-1.55345 -4.19646 0.11031 147 152 158
-1.57170 -4.20046 0.11057 146 151 152
-1.58993 -4.20446 0.11082 142 148 149
-1.60813 -4.20845 0.11108 143 151 152
-1.62631 -4.21243 0.11133 152 161 157
-1.64445 -4.21641 0.11159 150 148 145
-1.66258 -4.22038 0.11184 156 149 150
-1.68068 -4.22435 0.11210 152 153 157
-1.69875 -4.22831 0.11235 153 157 164
-1.71680 -4.23227 0.11260 146 150 162
-1.73482 -4.23622 0.11285 148 154 160
-1.75282 -4.24017 0.11311 157 165 163
-1.77079 -4.24411 0.11336 149 152 156
-1.78874 -4.24804 0.11361 148 152 145
-1.80666 -4.25197 0.11386 147 149 124
-1.82456 -4.25590 0.11411 143 144 127
-1.84243 -4.25982 0.11436 141 144 136
-1.86027 -4.26373 0.11461 141 146 135
-1.87810 -4.26764 0.11486 147 153 145
-1.89589 -4.27154 0.11511 151 158 154
-1.91367 -4.27544 0.11536 150 156 152
-1.93141 -4.27933 0.11561 145 151 144
-1.94914 -4.28321 0.11586 140 145 137
-1.96684 -4.28709 0.11610 144 148 137
-1.98451 -4.29097 0.11635 146 150 151
-2.00216 -4.29484 0.11660 142 148 152
-2.01979 -4.29870 0.11685 149 153 145
-2.03739 -4.30256 0.11709 150 149 144
-2.05496 -4.30642 0.11734 153 154 147
-2.07251 -4.31026 0.11758 144 154 140
-2.09004 -4.31411 0.11783 136 143 126
-2.10755 -4.31794 0.11808 141 149 138
-2.12502 -4.32178 0.11832 150 158 137
-2.14248 -4.32560 0.11856 151 149 143
-2.15991 -4.32943 0.11881 141 138 141
-2.17732 -4.33324 0.11905 125 137 137
-2.19470 -4.33705 0.11930 144 145 138
-2.21206 -4.34086 0.11954 138 142 135
-2.22940 -4.34466 0.11978 138 139 123
-2.24671 -4.34846 0.12003 135 127 117
-2.26400 -4.35225 0.12027 140 139 131
-2.28126 -4.35603 0.12051 139 136 132
-2.29850 -4.35981 0.12075 144 146 132
-2.31572 -4.36359 0.12099 145 150 137
-2.33291 -4.36736 0.12123 142 144 135
-2.35008 -4.37112 0.12147 132 135 132
-2.36723 -4.37488 0.12171 132 140 128
-2.38435 -4.37863 0.12195 137 146 132
-2.40145 -4.38238 0.12219 141 143 140
-2.41853 -4.38613 0.12243 141 140 138
-2.43558 -4.38987 0.12267 137 136 128
-2.45261 -4.39360 0.12291 139 145 142
-2.46961 -4.39733 0.12315 144 154 146
-2.48660 -4.40105 0.12339 149 155 137
1.60497 -3.48588 0.04916 199 205 192
1.58208 -3.49092 0.04949 197 194 195
1.55921 -3.49594 0.04982 205 202 201
1.53639 -3.50096 0.05016 199 197 189
1.51360 -3.50597 0.05049 192 193 197
1.49084 -3.51098 0.05082 203 203 203
1.46812 -3.51597 0.05115 209 208 203
1.44544 -3.52096 0.05148 205 202 200
1.42279 -3.52594 0.05181 205 202 192
1.40018 -3.53091 0.05214 206 203 195
1.37761 -3.53587 0.05247 212 209 205
1.35507 -3.54083 0.05280 211 207 200
1.33256 -3.54578 0.05313 205 198 197
1.31009 -3.55072 0.05346 202 200 199
1.28765 -3.55565 0.05379 204 206 202
1.26525 -3.56058 0.05411 200 207 207
1.24289 -3.56550 0.05444 197 203 203
1.22056 -3.57041 0.05477 202 199 205
1.19826 -3.57531 0.05509 209 205 213
1.17600 -3.58020 0.05542 212 212 209
1.15377 -3.58509 0.05574 204 202 200
1.13158 -3.58997 0.05606 200 201 201
1.10942 -3.59484 0.05639 205 209 207
1.08730 -3.59971 0.05671 205 203 208
1.06521 -3.60456 0.05703 203 204 202
1.04315 -3.60941 0.05735 201 205 194
1.02113 -3.61425 0.05767 198 197 196
0.99914 -3.61909 0.05800 195 193 204
0.97719 -3.62391 0.05832 204 204 203
0.95527 -3.62873 0.05864 213 214 200
0.93339 -3.63355 0.05896 203 203 195
0.91153 -3.63835 0.05927 195 194 191
0.88972 -3.64315 0.05959 194 196 192
0.86793 -3.64794 0.05991 185 191 188
0.84618 -3.65272 0.06023 183 187 186
0.82446 -3.65750 0.06054 190 190 191
0.80278 -3.66226 0.06086 191 195 200
0.78113 -3.66702 0.06118 197 199 211
0.75951 -3.67178 0.06149 191 190 205
0.73792 -3.67652 0.06181 195 195 200
0.71637 -3.68126 0.06212 202 199 199
0.69485 -3.68599 0.06244 206 209 206
0.67337 -3.69072 0.06275 190 193 193
0.65191 -3.69544 0.06306 179 182 189
0.63049 -3.70015 0.06337 187 191 193
0.60911 -3.70485 0.06369 190 196 199
0.58775 -3.70954 0.06400 190 197 194
0.56643 -3.71423 0.06431 189 186 197
0.54514 -3.71891 0.06462 191 192 204
0.52388 -3.72359 0.06493 187 188 199
0.50265 -3.72825 0.06524 183 186 192
0.48146 -3.73291 0.06555 184 185 185
0.46030 -3.73757 0.06586 181 176 182
0.43917 -3.74221 0.06617 172 169 183
0.41807 -3.74685 0.06647 186 188 189
0.39701 -3.75148 0.06678 188 183 187
0.37597 -3.75611 0.06709 195 199 188
0.35497 -3.76073 0.06739 195 193 187
0.33400 -3.76534 0.06770 183 198 192
0.31306 -3.76994 0.06801 175 192 186
0.29215 -3.77454 0.06831 190 199 188
0.27128 -3.77913 0.06862 194 198 185
0.25043 -3.78371 0.06892 186 184 183
0.22962 -3.78829 0.06922 187 190 191
0.20884 -3.79286 0.06953 186 190 201
0.18809 -3.79742 0.06983 188 199 203
0.16737 -3.80197 0.07013 187 192 189
0.14668 -3.80652 0.07043 187 183 181
0.12602 -3.81107 0.07074 194 200 187
0.10540 -3.81560 0.07104 187 195 182
0.08480 -3.82013 0.07134 184 179 160
0.06424 -3.82465 0.07164 190 190 177
0.04370 -3.82917 0.07194 196 199 189
0.02320 -3.83367 0.07224 195 186 187
0.00273 -3.83817 0.07253 191 186 181
-0.01771 -3.84267 0.07283 185 191 185
-0.03813 -3.84716 0.07313 179 187 181
-0.05851 -3.85164 0.07343 167 176 170
-0.07886 -3.85611 0.07372 164 168 170
-0.09918 -3.86058 0.07402 175 176 175
-0.11947 -3.86504 0.07432 181 191 181
-0.13973 -3.86950 0.07461 184 190 186
-0.15996 -3.87395 0.07491 186 185 190
-0.18016 -3.87839 0.07520 185 184 190
-0.20033 -3.88282 0.07550 185 184 187
-0.22047 -3.88725 0.07579 190 184 184
-0.24058 -3.89167 0.07608 193 187 182
-0.26067 -3.89609 0.07638 188 182 184
-0.28072 -3.90050 0.07667 174 167 182
-0.30074 -3.90490 0.07696 169 168 182
-0.32073 -3.90930 0.07725 174 173 183
-0.34070 -3.91369 0.07754 172 167 181
-0.36063 -3.91807 0.07784 171 172 179
-0.38053 -3.92245 0.07813 168 165 167
-0.40041 -3.92682 0.07842 164 158 158
-0.42026 -3.93118 0.07871 170 173 171
-0.49935 -3.94857 0.07986 169 162 169
-0.51905 -3.95290 0.08015 171 172 181
-0.53873 -3.95723 0.08043 179 181 172
-0.55837 -3.96155 0.08072 178 181 176
-0.57798 -3.96586 0.08101 174 173 181
-0.59757 -3.97017 0.08129 179 181 185
-0.61713 -3.97447 0.08158 177 181 176
-0.63666 -3.97876 0.08186 180 182 179
-0.65616 -3.98305 0.08215 177 174 180
-0.67563 -3.98733 0.08243 173 179 177
-0.69508 -3.99160 0.08272 174 175 177
-0.71449 -3.99587 0.08300 181 179 175
-0.73388 -4.00014 0.08328 170 171 179
-0.75324 -4.00439 0.08356 168 173 189
-0.77257 -4.00864 0.08385 172 177 183
-0.79188 -4.01289 0.08413 169 169 173
-0.81115 -4.01713 0.08441 169 171 175
-0.83040 -4.02136 0.08469 165 171 170
-0.84962 -4.02559 0.08497 160 161 168
-0.86881 -4.02981 0.08525 157 159 172
-0.88798 -4.03402 0.08553 152 158 163
-0.90711 -4.03823 0.08581 168 170 164
-0.92622 -4.04243 0.08609 172 173 173
-0.94531 -4.04662 0.08637 164 168 174
-0.96436 -4.05081 0.08664 165 172 168
-0.98339 -4.05500 0.08692 161 173 174
-1.00239 -4.05918 0.08720 161 172 170
-1.02136 -4.06335 0.08748 161 168 163
-1.04031 -4.06751 0.08775 167 172 156
-1.05922 -4.07167 0.08803 166 166 157
-1.07812 -4.07583 0.08830 161 162 163
-1.09698 -4.07997 0.08858 163 162 172
-1.11582 -4.08412 0.08885 159 162 175
-1.13463 -4.08825 0.08913 154 165 169
-1.15341 -4.09238 0.08940 162 169 164
-1.17217 -4.09651 0.08968 161 161 163
-1.19090 -4.10062 0.08995 157 159 161
-1.20960 -4.10474 0.09022 160 163 163
-1.22828 -4.10884 0.09050 163 161 167
-1.24693 -4.11294 0.09077 163 163 165
-1.26555 -4.11704 0.09104 153 159 156
-1.28415 -4.12113 0.09131 154 160 158
-1.30272 -4.12521 0.09158 159 160 161
-1.32126 -4.12929 0.09185 148 143 144
-1.33978 -4.13336 0.09212 151 151 147
-1.35827 -4.13743 0.09239 155 167 158
-1.37674 -4.14149 0.09266 154 156 159
-1.39518 -4.14554 0.09293 161 165 163
-1.41359 -4.14959 0.09320 158 171 162
-1.43198 -4.15363 0.09347 160 166 160
-1.45034 -4.15767 0.09374 155 155 160
-1.46867 -4.16170 0.09400 154 159 154
-1.48698 -4.16573 0.09427 154 157 156
-1.50527 -4.16975 0.09454 154 173 158
-1.52352 -4.17376 0.09480 150 162 153
-1.54176 -4.17777 0.09507 149 152 145
-1.55996 -4.18177 0.09533 159 163 156
-1.57814 -4.18577 0.09560 149 155 148
-1.59630 -4.18976 0.09586 136 143 145
-1.61443 -4.19375 0.09613 148 153 150
-1.63254 -4.19773 0.09639 156 163 155
-1.65061 -4.20170 0.09666 153 155 149
-1.66867 -4.20567 0.09692 148 147 148
-1.68670 -4.20964 0.09718 145 150 149
-1.70470 -4.21360 0.09745 146 149 151
-1.72268 -4.21755 0.09771 149 151 150
-1.74063 -4.22150 0.09797 150 148 148
-1.75856 -4.22544 0.09823 160 159 154
-1.77646 -4.22937 0.09849 157 154 153
-1.79434 -4.23331 0.09875 151 152 148
-1.81220 -4.23723 0.09901 146 145 133
-1.83002 -4.24115 0.09927 143 146 130
-1.84783 -4.24507 0.09953 144 149 130
-1.86561 -4.24898 0.09979 147 151 130
-1.88336 -4.25288 0.10005 153 161 145
-1.90109 -4.25678 0.10031 154 165 159
-1.91880 -4.26067 0.10057 152 161 151
-1.93648 -4.26456 0.10083 149 151 137
-1.95413 -4.26844 0.10109 141 143 133
-1.97176 -4.27232 0.10134 149 150 138
-1.98937 -4.27619 0.10160 155 153 153
-2.00695 -4.28005 0.10186 140 141 146
-2.02451 -4.28391 0.10211 144 143 141
-2.04205 -4.28777 0.10237 147 143 140
-2.05956 -4.29162 0.10262 151 153 144
-2.07704 -4.29546 0.10288 146 154 141
-2.09451 -4.29930 0.10313 136 138 125
-2.11194 -4.30314 0.10339 141 150 142
-2.12936 -4.30697 0.10364 149 153 138
-2.14675 -4.31079 0.10390 154 151 147
-2.16411 -4.31461 0.10415 138 137 141
-2.18146 -4.31842 0.10440 126 132 136
-2.19877 -4.32223 0.10466 143 144 139
-2.21607 -4.32603 0.10491 138 139 136
-2.23334 -4.32983 0.10516 144 147 129
-2.25059 -4.33362 0.10541 135 130 113
-2.26781 -4.33741 0.10566 137 138 126
-2.28501 -4.34119 0.10591 137 135 128
-2.30219 -4.34497 0.10616 147 149 135
-2.31934 -4.34874 0.10641 142 147 141
-2.33647 -4.35251 0.10666 137 139 136
-2.35358 -4.35627 0.10691 137 138 133
-2.37066 -4.36002 0.10716 138 142 133
-2.38772 -4.36378 0.10741 141 145 137
-2.48960 -4.38618 0.10890 143 151 138
1.58483 -3.47236 0.03266 201 202 195
1.56204 -3.47739 0.03301 198 198 195
1.53928 -3.48240 0.03335 209 210 198
1.51657 -3.48741 0.03370 202 201 193
1.49388 -3.49241 0.03404 193 190 195
1.47124 -3.49741 0.03439 201 201 200
1.44863 -3.50239 0.03473 200 200 194
1.42605 -3.50737 0.03507 202 204 189
1.40351 -3.51234 0.03541 205 208 201
1.38100 -3.51730 0.03575 205 204 203
1.35853 -3.52226 0.03610 204 201 209
1.33610 -3.52720 0.03644 202 201 206
1.31370 -3.53214 0.03678 204 203 198
1.29133 -3.53707 0.03711 205 203 193
1.26900 -3.54200 0.03745 207 206 201
1.24671 -3.54691 0.03779 200 202 201
1.22445 -3.55182 0.03813 196 197 191
1.20222 -3.55672 0.03847 202 198 191
1.18003 -3.56162 0.03880 209 205 203
1.15787 -3.56650 0.03914 211 211 206
1.13574 -3.57138 0.03948 205 207 193
1.11365 -3.57625 0.03981 206 210 201
1.09160 -3.58112 0.04014 211 218 216
1.06958 -3.58597 0.04048 205 213 218
1.04759 -3.59082 0.04081 195 196 207
1.02564 -3.59566 0.04115 196 194 195
1.00372 -3.60049 0.04148 200 197 199
0.98183 -3.60532 0.04181 197 193 201
0.95998 -3.61014 0.04214 201 199 200
0.93816 -3.61495 0.04247 212 207 205
0.91637 -3.61975 0.04280 211 203 207
0.89462 -3.62455 0.04313 202 192 200
0.87290 -3.62934 0.04346 197 198 198
0.85122 -3.63412 0.04379 194 204 196
0.82957 -3.63889 0.04412 194 205 197
0.80795 -3.64366 0.04445 199 206 201
0.78636 -3.64842 0.04477 205 209 204
0.76481 -3.65317 0.04510 206 208 210
0.74329 -3.65792 0.04543 201 200 205
0.72180 -3.66265 0.04575 197 206 206
0.70035 -3.66738 0.04608 201 206 204
0.67893 -3.67211 0.04640 200 204 207
0.65754 -3.67682 0.04673 187 188 195
0.63618 -3.68153 0.04705 185 184 199
0.61486 -3.68623 0.04738 197 200 206
0.59356 -3.69093 0.04770 193 194 201
0.57230 -3.69562 0.04802 190 184 184
0.55108 -3.70030 0.04834 185 183 189
0.52988 -3.70497 0.04867 189 189 205
0.50872 -3.70964 0.04899 191 190 201
0.48759 -3.71430 0.04931 188 189 196
0.46649 -3.71895 0.04963 189 186 193
0.44542 -3.72359 0.04995 190 191 187
0.42439 -3.72823 0.05027 185 178 187
0.40338 -3.73286 0.05058 181 177 197
0.38241 -3.73749 0.05090 181 180 185
0.36147 -3.74210 0.05122 195 193 193
0.34056 -3.74671 0.05154 201 196 197
0.31968 -3.75132 0.05185 203 207 201
0.29884 -3.75591 0.05217 183 190 189
0.27802 -3.76050 0.05249 180 187 188
0.25724 -3.76509 0.05280 186 189 184
0.23648 -3.76966 0.05312 182 177 174
0.21576 -3.77423 0.05343 192 193 185
0.19507 -3.77879 0.05374 191 197 194
0.17441 -3.78335 0.05406 199 205 198
0.15378 -3.78790 0.05437 196 196 194
0.13319 -3.79244 0.05468 197 188 190
0.11262 -3.79697 0.05499 196 192 185
0.09208 -3.80150 0.05531 190 193 189
0.07158 -3.80602 0.05562 189 191 185
0.05110 -3.81054 0.05593 192 200 195
0.03066 -3.81505 0.05624 190 196 188
0.01024 -3.81955 0.05655 193 189 186
-0.01014 -3.82404 0.05686 193 192 189
-0.03050 -3.82853 0.05717 188 192 181
-0.05082 -3.83301 0.05747 177 188 178
-0.07111 -3.83749 0.05778 175 187 181
-0.09138 -3.84195 0.05809 182 187 184
-0.11161 -3.84642 0.05840 190 193 187
-0.13182 -3.85087 0.05870 187 191 189
-0.15199 -3.85532 0.05901 185 188 192
-0.17213 -3.85976 0.05931 184 184 183
-0.19225 -3.86420 0.05962 181 179 179
-0.21233 -3.86862 0.05992 182 181 183
-0.23239 -3.87305 0.06023 192 191 187
-0.25241 -3.87746 0.06053 190 187 186
-0.27241 -3.88187 0.06084 184 181 186
-0.29238 -3.88627 0.06114 180 177 178
-0.31231 -3.89067 0.06144 170 165 168
-0.33222 -3.89506 0.06174 169 164 178
-0.35210 -3.89944 0.06204 175 173 185
-0.37195 -3.90382 0.06235 172 177 180
-0.39177 -3.90819 0.06265 163 169 166
-0.41156 -3.91255 0.06295 168 174 171
-0.51009 -3.93428 0.06444 166 167 172
-0.52971 -3.93860 0.06474 172 180 173
-0.54930 -3.94292 0.06504 169 179 169
-0.56886 -3.94724 0.06533 167 173 173
-0.58840 -3.95154 0.06563 178 181 185
-0.60790 -3.95584 0.06592 177 173 183
-0.62738 -3.96014 0.06622 169 169 168
-0.64683 -3.96443 0.06651 174 180 179
-0.66625 -3.96871 0.06681 178 170 176
-0.68564 -3.97298 0.06710 178 177 176
-0.70500 -3.97725 0.06740 164 160 168
-0.72434 -3.98152 0.06769 170 172 177
-0.74365 -3.98577 0.06798 167 174 181
-0.76293 -3.99003 0.06828 164 168 183
-0.78218 -3.99427 0.06857 174 184 175
-0.80141 -3.99851 0.06886 159 160 169
-0.82060 -4.00274 0.06915 156 159 164
-0.83977 -4.00697 0.06944 162 169 172
-0.85891 -4.01119 0.06973 161 162 165
-0.87803 -4.01541 0.07002 160 162 169
-0.89711 -4.01961 0.07031 155 161 163
-0.91617 -4.02382 0.07060 161 170 172
-0.93521 -4.02801 0.07089 171 178 181
-0.95421 -4.03220 0.07118 169 174 174
-0.97319 -4.03639 0.07147 165 167 168
-0.99214 -4.04057 0.07175 161 172 166
-1.01106 -4.04474 0.07204 163 170 164
-1.02996 -4.04890 0.07233 171 169 162
-1.04883 -4.05307 0.07261 171 168 166
-1.06767 -4.05722 0.07290 161 160 165
-1.08648 -4.06137 0.07318 157 163 169
-1.10527 -4.06551 0.07347 162 169 179
-1.12403 -4.06965 0.07375 160 167 180
-1.14277 -4.07378 0.07404 165 170 172
-1.16148 -4.07790 0.07432 171 172 163
-1.18016 -4.08202 0.07461 169 170 165
-1.19881 -4.08614 0.07489 164 165 159
-1.21744 -4.09024 0.07517 161 158 156
-1.23605 -4.09435 0.07545 160 156 161
-1.25462 -4.09844 0.07573 160 162 158
-1.27317 -4.10253 0.07602 156 161 154
-1.29169 -4.10662 0.07630 155 157 154
-1.31019 -4.11069 0.07658 161 165 159
-1.32866 -4.11477 0.07686 156 154 145
-1.34711 -4.11883 0.07714 156 156 150
-1.36553 -4.12290 0.07742 156 165 166
-1.38392 -4.12695 0.07770 153 152 161
-1.40229 -4.13100 0.07797 158 161 171
-1.42063 -4.13504 0.07825 162 168 174
-1.43894 -4.13908 0.07853 164 163 165
-1.45723 -4.14312 0.07881 156 151 161
-1.47549 -4.14714 0.07909 152 154 150
-1.49373 -4.15116 0.07936 152 162 161
-1.51195 -4.15518 0.07964 160 174 162
-1.53013 -4.15919 0.07991 149 164 156
-1.54829 -4.16319 0.08019 150 160 144
-1.56643 -4.16719 0.08046 162 169 154
-1.58454 -4.17119 0.08074 150 158 147
-1.60263 -4.17517 0.08101 140 149 149
-1.62069 -4.17916 0.08129 155 165 166
-1.63872 -4.18313 0.08156 158 167 157
-1.65673 -4.18710 0.08183 153 156 152
-1.67471 -4.19107 0.08211 147 151 143
-1.69267 -4.19503 0.08238 150 153 149
-1.71061 -4.19898 0.08265 149 153 145
-1.72852 -4.20293 0.08292 150 151 140
-1.74640 -4.20688 0.08319 148 148 135
-1.76426 -4.21081 0.08347 157 158 150
-1.78210 -4.21475 0.08374 158 162 164
-1.79991 -4.21867 0.08401 156 162 161
-1.81769 -4.22260 0.08428 151 154 149
-1.83545 -4.22651 0.08455 147 155 142
-1.85319 -4.23042 0.08481 148 157 140
-1.87090 -4.23433 0.08508 149 151 141
-1.88859 -4.23823 0.08535 149 155 155
-1.90625 -4.24212 0.08562 148 159 163
-1.92389 -4.24601 0.08589 151 159 151
-1.94150 -4.24989 0.08615 155 158 139
-1.95909 -4.25377 0.08642 144 149 133
-1.97665 -4.25765 0.08669 141 146 139
-1.99420 -4.26151 0.08695 146 149 149
-2.01171 -4.26538 0.08722 138 142 143
-2.02921 -4.26923 0.08748 147 151 142
-2.04667 -4.27308 0.08775 143 147 134
-2.06412 -4.27693 0.08801 141 148 144
-2.08154 -4.28077 0.08828 145 153 148
-2.09894 -4.28461 0.08854 135 135 131
-2.11631 -4.28844 0.08881 139 146 140
-2.13366 -4.29226 0.08907 146 148 138
-2.15098 -4.29608 0.08933 148 151 144
-2.16829 -4.29990 0.08959 134 136 136
-2.18556 -4.30371 0.08986 143 135 133
-2.20282 -4.30751 0.09012 141 142 141
-2.22005 -4.31131 0.09038 143 145 142
-2.23726 -4.31511 0.09064 154 153 133
-2.25444 -4.31890 0.09090 140 134 110
-2.27160 -4.32268 0.09116 138 136 128
-2.28874 -4.32646 0.09142 137 139 139
-2.30585 -4.33023 0.09168 144 144 142
-2.32294 -4.33400 0.09194 134 138 139
-2.34001 -4.33776 0.09220 132 130 128
-2.35705 -4.34152 0.09246 137 135 133
-2.37407 -4.34527 0.09272 141 144 147
-2.49258 -4.37140 0.09451 141 147 141
1.56484 -3.45895 0.01630 216 218 217
1.54216 -3.46397 0.01666 209 217 216
1.51952 -3.46897 0.01702 206 209 203
1.49691 -3.47397 0.01737 200 201 203
1.47433 -3.47897 0.01773 198 203 198
1.45179 -3.48395 0.01808 204 209 191
1.42929 -3.48892 0.01844 200 199 181
1.40682 -3.49389 0.01879 202 202 178
1.38438 -3.49885 0.01914 201 203 191
1.36198 -3.50381 0.01950 206 205 201
1.33962 -3.50875 0.01985 211 215 215
1.31729 -3.51369 0.02020 207 207 207
1.29499 -3.51862 0.02055 204 202 198
1.27273 -3.52354 0.02090 202 204 195
1.25050 -3.52846 0.02125 203 204 200
1.22831 -3.53336 0.02160 206 210 204
1.20615 -3.53826 0.02195 205 209 200
1.18403 -3.54315 0.02230 203 203 192
1.16194 -3.54804 0.02265 203 199 192
1.13988 -3.55291 0.02299 208 208 202
1.11786 -3.55778 0.02334 205 206 194
1.09587 -3.56264 0.02369 202 206 194
1.07392 -3.56750 0.02403 201 209 199
1.05200 -3.57235 0.02438 198 202 195
1.03011 -3.57718 0.02472 192 198 188
1.00826 -3.58202 0.02507 195 194 189
0.98644 -3.58684 0.02541 205 201 205
0.96466 -3.59166 0.02575 206 205 207
0.94290 -3.59647 0.02609 199 198 195
0.92118 -3.60127 0.02644 199 201 203
0.89950 -3.60606 0.02678 203 201 208
0.87785 -3.61085 0.02712 198 194 200
0.85623 -3.61563 0.02746 202 207 203
0.83464 -3.62041 0.02780 201 203 205
0.81309 -3.62517 0.02814 192 192 201
0.79157 -3.62993 0.02848 194 197 199
0.77008 -3.63468 0.02882 201 204 199
0.74862 -3.63943 0.02915 199 205 199
0.72720 -3.64416 0.02949 202 206 209
0.70581 -3.64889 0.02983 189 193 211
0.68445 -3.65361 0.03016 194 199 202
0.66312 -3.65833 0.03050 194 196 202
0.64183 -3.66304 0.03083 193 201 194
0.62057 -3.66774 0.03117 195 195 193
0.59934 -3.67243 0.03150 201 199 203
0.57815 -3.67712 0.03184 194 188 201
0.55698 -3.68180 0.03217 197 191 190
0.53585 -3.68647 0.03250 192 197 189
0.51475 -3.69114 0.03284 191 182 198
0.49368 -3.69580 0.03317 199 196 195
0.47264 -3.70045 0.03350 197 191 196
0.45164 -3.70509 0.03383 202 194 199
0.43066 -3.70973 0.03416 201 197 198
0.40972 -3.71436 0.03449 185 174 188
0.38881 -3.71898 0.03482 182 179 185
0.36793 -3.72360 0.03515 186 191 181
0.34708 -3.72821 0.03548 194 193 192
0.32626 -3.73281 0.03580 199 199 200
0.30548 -3.73741 0.03613 199 199 201
0.28472 -3.74200 0.03646 181 187 185
0.26400 -3.74658 0.03678 171 176 173
0.24331 -3.75115 0.03711 190 192 187
0.22264 -3.75572 0.03743 191 191 181
0.20201 -3.76028 0.03776 190 189 186
0.18141 -3.76484 0.03808 185 185 193
0.16084 -3.76939 0.03841 193 198 191
0.14030 -3.77393 0.03873 193 187 182
0.11979 -3.77846 0.03905 196 186 188
0.09932 -3.78299 0.03938 194 190 188
0.07887 -3.78751 0.03970 190 186 193
0.05845 -3.79203 0.04002 194 202 206
0.03806 -3.79654 0.04034 194 202 207
0.01771 -3.80104 0.04066 184 187 184
-0.00262 -3.80553 0.04098 192 189 179
-0.02292 -3.81002 0.04130 187 185 181
-0.04318 -3.81450 0.04162 183 182 174
-0.06342 -3.81897 0.04194 188 196 179
-0.08363 -3.82344 0.04226 181 190 186
-0.10380 -3.82790 0.04257 183 191 187
-0.12395 -3.83236 0.04289 188 192 187
-0.14407 -3.83681 0.04321 180 178 186
-0.16416 -3.84125 0.04352 176 176 180
-0.18421 -3.84568 0.04384 170 174 168
-0.20424 -3.85011 0.04416 165 166 162
-0.22424 -3.85453 0.04447 174 175 171
-0.24421 -3.85895 0.04478 191 193 184
-0.26415 -3.86336 0.04510 186 187 187
-0.28407 -3.86776 0.04541 180 180 186
-0.30395 -3.87216 0.04572 187 187 181
-0.32380 -3.87655 0.04604 176 174 167
-0.34363 -3.88093 0.04635 171 169 173
-0.36342 -3.88531 0.04666 182 178 185
-0.38319 -3.88968 0.04697 181 179 183
-0.52075 -3.92009 0.04914 161 175 168
-0.54029 -3.92441 0.04945 166 176 164
-0.55980 -3.92873 0.04975 167 172 163
-0.57928 -3.93303 0.05006 168 174 165
-0.59873 -3.93733 0.05037 178 182 175
-0.61815 -3.94163 0.05067 174 170 173
-0.63755 -3.94592 0.05098 170 169 163
-0.65692 -3.95020 0.05128 173 177 176
-0.67626 -3.95448 0.05159 176 173 174
-0.69557 -3.95875 0.05189 179 174 174
-0.71486 -3.96301 0.05219 158 158 165
-0.73411 -3.96727 0.05250 165 176 176
-0.75334 -3.97152 0.05280 168 182 187
-0.77254 -3.97577 0.05310 166 177 170
-0.79172 -3.98001 0.05340 170 170 162
-0.81086 -3.98424 0.05371 161 167 164
-0.82998 -3.98847 0.05401 161 163 156
-0.84907 -3.99269 0.05431 165 173 176
-0.86814 -3.99690 0.05461 168 174 172
-0.88717 -4.00111 0.05491 167 174 173
-0.90618 -4.00532 0.05521 167 174 162
-0.92517 -4.00951 0.05550 162 167 164
-0.94412 -4.01370 0.05580 168 176 177
-0.96305 -4.01789 0.05610 174 176 171
-0.98195 -4.02207 0.05640 167 170 169
-1.00082 -4.02624 0.05670 163 172 164
-1.01967 -4.03041 0.05699 158 164 160
-1.03849 -4.03457 0.05729 164 164 163
-1.05728 -4.03872 0.05758 169 171 172
-1.07605 -4.04287 0.05788 163 167 168
-1.09479 -4.04702 0.05818 160 167 169
-1.11350 -4.05116 0.05847 162 170 173
-1.13219 -4.05529 0.05876 156 161 173
-1.15085 -4.05941 0.05906 161 163 169
-1.16949 -4.06353 0.05935 168 171 168
-1.18809 -4.06765 0.05964 169 175 173
-1.20667 -4.07176 0.05994 168 174 170
-1.22523 -4.07586 0.06023 164 166 163
-1.24376 -4.07996 0.06052 163 160 156
-1.26226 -4.08405 0.06081 165 164 153
-1.28074 -4.08813 0.06110 165 166 158
-1.29919 -4.09221 0.06139 162 165 160
-1.31761 -4.09628 0.06168 166 172 162
-1.33601 -4.10035 0.06197 163 163 157
-1.35438 -4.10442 0.06226 154 153 159
-1.37273 -4.10847 0.06255 154 157 163
-1.39105 -4.11252 0.06284 161 159 156
-1.40934 -4.11657 0.06313 158 162 166
-1.42761 -4.12061 0.06342 150 156 171
-1.44586 -4.12464 0.06370 158 163 165
-1.46407 -4.12867 0.06399 154 158 160
-1.48227 -4.13269 0.06428 143 143 143
-1.50043 -4.13671 0.06456 145 151 160
-1.51858 -4.14072 0.06485 161 160 161
-1.53669 -4.14473 0.06513 158 161 159
-1.55478 -4.14873 0.06542 162 169 165
-1.57285 -4.15272 0.06570 162 167 162
-1.59089 -4.15671 0.06599 150 153 153
-1.60890 -4.16069 0.06627 152 152 156
-1.62690 -4.16467 0.06655 159 166 174
-1.64486 -4.16864 0.06684 157 164 159
-1.66280 -4.17261 0.06712 150 155 150
-1.68072 -4.17657 0.06740 147 152 141
-1.69861 -4.18053 0.06768 149 153 156
-1.71647 -4.18448 0.06796 143 151 147
-1.73431 -4.18842 0.06824 143 149 141
-1.75213 -4.19236 0.06852 145 148 139
-1.76992 -4.19629 0.06880 148 150 149
-1.78769 -4.20022 0.06908 151 161 163
-1.80543 -4.20415 0.06936 154 163 162
-1.82315 -4.20806 0.06964 152 160 152
-1.84084 -4.21198 0.06992 151 162 145
-1.85851 -4.21588 0.07020 150 158 145
-1.87615 -4.21978 0.07048 147 152 148
-1.89377 -4.22368 0.07075 146 154 153
-1.91137 -4.22757 0.07103 146 158 158
-1.92894 -4.23146 0.07131 148 155 151
-1.94649 -4.23534 0.07158 151 155 139
-1.96401 -4.23921 0.07186 146 150 137
-1.98151 -4.24308 0.07214 139 145 142
-1.99899 -4.24694 0.07241 141 152 148
-2.01644 -4.25080 0.07269 142 153 148
-2.03387 -4.25465 0.07296 155 162 151
-2.05127 -4.25850 0.07323 143 151 134
-2.06865 -4.26235 0.07351 139 145 141
-2.08600 -4.26618 0.07378 139 146 139
-2.10334 -4.27002 0.07405 133 137 138
-2.12064 -4.27384 0.07433 142 149 142
-2.13793 -4.27766 0.07460 145 148 141
-2.15519 -4.28148 0.07487 143 142 133
-2.17243 -4.28529 0.07514 131 135 127
-2.18964 -4.28910 0.07541 145 141 134
-2.20683 -4.29290 0.07568 133 137 137
-2.22400 -4.29670 0.07595 143 146 148
-2.24114 -4.30049 0.07622 147 144 126
-2.25827 -4.30427 0.07649 143 144 123
-2.27536 -4.30805 0.07676 146 145 140
-2.29244 -4.31183 0.07703 146 150 155
-2.30949 -4.31560 0.07730 144 145 147
-2.32652 -4.31936 0.07757 135 137 143
-2.34352 -4.32312 0.07783 133 130 129
-2.36050 -4.32688 0.07810 133 133 140
1.54502 -3.44565 0.00008 214 210 200
1.52245 -3.45066 0.00044 207 213 206
1.49991 -3.45565 0.00081 205 206 208
1.47740 -3.46064 0.00118 211 214 210
1.45493 -3.46562 0.00155 215 215 210
1.43250 -3.47060 0.00191 209 212 201
1.41010 -3.47556 0.00228 197 199 183
1.38774 -3.48052 0.00264 201 204 184
1.36541 -3.48547 0.00301 204 203 197
1.34311 -3.49042 0.00337 206 205 203
1.32085 -3.49535 0.00373 209 212 209
1.29862 -3.50028 0.00410 209 211 208
1.27643 -3.50520 0.00446 206 210 206
1.25427 -3.51011 0.00482 207 212 200
1.23215 -3.51502 0.00518 209 211 201
1.21006 -3.51992 0.00554 209 210 206
1.18801 -3.52481 0.00590 205 206 205
1.16598 -3.52969 0.00626 200 201 201
1.14400 -3.53456 0.00662 200 201 198
1.12204 -3.53943 0.00698 206 210 197
1.10012 -3.54429 0.00733 205 206 193
1.07824 -3.54915 0.00769 203 205 195
1.05638 -3.55399 0.00805 206 216 204
1.03456 -3.55883 0.00840 212 218 203
1.01278 -3.56366 0.00876 213 215 199
0.99102 -3.56848 0.00911 209 208 198
0.96930 -3.57330 0.00947 211 212 208
0.94762 -3.57811 0.00982 209 214 210
0.92596 -3.58291 0.01018 200 203 197
0.90434 -3.58770 0.01053 199 207 205
0.88276 -3.59249 0.01088 200 206 209
0.86120 -3.59727 0.01123 195 197 200
0.83968 -3.60204 0.01158 197 198 200
0.81819 -3.60680 0.01193 201 197 201
0.79673 -3.61156 0.01228 198 194 200
0.77531 -3.61631 0.01263 195 193 199
0.75392 -3.62105 0.01298 197 197 198
0.73256 -3.62579 0.01333 192 197 196
0.71123 -3.63052 0.01368 189 192 207
0.68994 -3.63524 0.01403 186 181 208
0.66868 -3.63995 0.01437 193 194 200
0.64745 -3.64466 0.01472 189 188 198
0.62625 -3.64936 0.01507 192 198 193
0.60508 -3.65405 0.01541 193 202 190
0.58395 -3.65874 0.01576 200 200 201
0.56285 -3.66342 0.01610 199 205 205
0.54178 -3.66809 0.01644 199 203 203
0.52074 -3.67275 0.01679 195 200 201
0.49973 -3.67741 0.01713 193 188 197
0.47875 -3.68206 0.01747 211 208 206
0.45781 -3.68671 0.01781 199 186 196
0.43690 -3.69134 0.01815 206 206 215
0.41602 -3.69597 0.01849 198 207 204
0.39517 -3.70059 0.01884 174 176 165
0.37435 -3.70521 0.01917 172 181 172
0.35356 -3.70982 0.01951 193 200 179
0.33280 -3.71442 0.01985 187 187 188
0.31208 -3.71902 0.02019 195 192 184
0.29138 -3.72361 0.02053 203 196 200
0.27072 -3.72819 0.02087 194 192 192
0.25008 -3.73276 0.02120 194 200 193
0.22948 -3.73733 0.02154 199 196 192
0.20891 -3.74189 0.02187 200 200 196
0.18837 -3.74645 0.02221 194 194 197
0.16786 -3.75099 0.02254 181 177 181
0.14738 -3.75553 0.02288 185 186 186
0.12692 -3.76007 0.02321 195 196 190
0.10651 -3.76460 0.02354 192 185 188
0.08612 -3.76912 0.02388 188 194 195
0.06576 -3.77363 0.02421 187 185 190
0.04543 -3.77814 0.02454 192 193 200
0.02513 -3.78264 0.02487 192 198 203
0.00486 -3.78713 0.02520 187 192 194
-0.01538 -3.79162 0.02553 191 192 187
-0.03559 -3.79610 0.02586 189 185 172
-0.05577 -3.80058 0.02619 187 180 172
-0.07592 -3.80504 0.02652 191 191 182
-0.09604 -3.80950 0.02685 190 189 187
-0.11613 -3.81396 0.02718 188 180 181
-0.13619 -3.81841 0.02750 183 178 180
-0.15623 -3.82285 0.02783 172 173 181
-0.17623 -3.82728 0.02816 174 177 172
-0.19620 -3.83171 0.02848 171 171 166
-0.21615 -3.83613 0.02881 169 169 165
-0.23606 -3.84055 0.02913 180 180 168
-0.25595 -3.84496 0.02946 183 186 178
-0.27580 -3.84936 0.02978 180 183 183
-0.29563 -3.85376 0.03010 184 184 186
-0.31543 -3.85815 0.03043 191 192 186
-0.33520 -3.86253 0.03075 187 188 183
-0.35494 -3.86691 0.03107 183 180 183
-0.37465 -3.87128 0.03139 185 177 184
-0.39434 -3.87564 0.03172 183 182 190
-0.41399 -3.88000 0.03204 183 188 189
-0.45322 -3.88870 0.03268 156 155 171
-0.47279 -3.89304 0.03300 168 175 170
-0.49233 -3.89737 0.03331 174 178 166
-0.51184 -3.90169 0.03363 176 177 174
-0.53133 -3.90601 0.03395 173 180 174
-0.55078 -3.91033 0.03427 171 174 169
-0.57021 -3.91464 0.03458 172 172 165
-0.58961 -3.91894 0.03490 172 174 163
-0.60898 -3.92323 0.03522 169 180 169
-0.62833 -3.92752 0.03553 165 170 172
-0.64765 -3.93180 0.03585 172 178 171
-0.66693 -3.93608 0.03616 172 182 181
-0.68620 -3.94035 0.03648 167 173 171
-0.70543 -3.94462 0.03679 175 174 173
-0.72463 -3.94887 0.03710 163 170 163
-0.74381 -3.95313 0.03742 163 162 169
-0.76296 -3.95737 0.03773 167 172 181
-0.78209 -3.96161 0.03804 169 178 168
-0.80118 -3.96585 0.03835 168 163 165
-0.82025 -3.97007 0.03866 163 170 171
-0.83929 -3.97430 0.03897 166 177 173
-0.85831 -3.97851 0.03928 168 176 177
-0.87729 -3.98272 0.03959 168 171 177
-0.89625 -3.98692 0.03990 167 172 177
-0.91519 -3.99112 0.04021 174 183 169
-0.93409 -3.99531 0.04052 171 174 164
-0.95297 -3.99950 0.04083 167 175 178
-0.97182 -4.00368 0.04114 174 176 174
-0.99065 -4.00785 0.04144 169 174 174
-1.00944 -4.01202 0.04175 164 171 169
-1.02822 -4.01618 0.04206 154 158 165
-1.04696 -4.02034 0.04236 154 163 170
-1.06568 -4.02449 0.04267 167 175 175
-1.08437 -4.02863 0.04297 170 174 169
-1.10304 -4.03277 0.04328 167 171 162
-1.12168 -4.03691 0.04358 160 163 160
-1.14029 -4.04103 0.04388 150 157 161
-1.15887 -4.04515 0.04419 158 163 167
-1.17743 -4.04927 0.04449 166 171 172
-1.19597 -4.05338 0.04479 167 173 174
-1.21448 -4.05748 0.04510 166 172 171
-1.23296 -4.06158 0.04540 163 165 166
-1.25141 -4.06567 0.04570 161 159 164
-1.26984 -4.06976 0.04600 162 163 167
-1.28825 -4.07384 0.04630 165 170 173
-1.30662 -4.07791 0.04660 161 169 167
-1.32498 -4.08198 0.04690 161 169 163
-1.34330 -4.08604 0.04720 164 163 167
-1.36160 -4.09010 0.04750 154 155 169
-1.37988 -4.09415 0.04779 154 162 167
-1.39813 -4.09820 0.04809 162 165 161
-1.41635 -4.10224 0.04839 157 162 166
-1.43455 -4.10628 0.04869 146 153 166
-1.45272 -4.11030 0.04898 162 166 164
-1.47087 -4.11433 0.04928 162 167 169
-1.48899 -4.11835 0.04957 152 157 148
-1.50709 -4.12236 0.04987 150 154 151
-1.52516 -4.12636 0.05016 165 164 161
-1.54320 -4.13037 0.05046 157 154 160
-1.56123 -4.13436 0.05075 164 165 168
-1.57922 -4.13835 0.05105 162 165 168
-1.59719 -4.14234 0.05134 152 153 155
-1.61514 -4.14632 0.05163 152 151 154
-1.63306 -4.15029 0.05192 153 155 158
-1.65096 -4.15426 0.05222 153 157 154
-1.66883 -4.15822 0.05251 148 153 152
-1.68667 -4.16218 0.05280 149 159 147
-1.70450 -4.16613 0.05309 148 150 146
-1.72229 -4.17007 0.05338 139 146 140
-1.74007 -4.17401 0.05367 141 148 140
-1.75782 -4.17795 0.05396 147 148 141
-1.77554 -4.18188 0.05425 149 151 146
-1.79324 -4.18580 0.05454 145 151 148
-1.81091 -4.18972 0.05483 147 156 150
-1.82857 -4.19364 0.05511 151 158 144
-1.84619 -4.19754 0.05540 155 158 143
-1.86379 -4.20145 0.05569 151 155 149
-1.88137 -4.20534 0.05597 144 153 145
-1.89893 -4.20924 0.05626 144 152 139
-1.91645 -4.21312 0.05655 148 154 149
-1.93396 -4.21700 0.05683 152 157 153
-1.95144 -4.22088 0.05712 154 159 141
-1.96890 -4.22475 0.05740 153 155 136
-1.98633 -4.22862 0.05769 150 149 142
-2.00374 -4.23248 0.05797 147 156 150
-2.02113 -4.23633 0.05826 145 157 151
-2.03849 -4.24018 0.05854 153 163 155
-2.05583 -4.24402 0.05882 140 150 139
-2.07315 -4.24786 0.05910 140 148 135
-2.09044 -4.25170 0.05939 142 144 134
-2.10771 -4.25553 0.05967 146 155 145
-2.12495 -4.25935 0.05995 153 156 144
-2.14217 -4.26317 0.06023 149 154 144
-2.15937 -4.26698 0.06051 146 143 126
-2.17654 -4.27079 0.06079 127 132 118
-2.19369 -4.27459 0.06107 131 137 131
-2.21082 -4.27839 0.06135 127 134 129
-2.22792 -4.28218 0.06163 143 144 139
-2.24501 -4.28597 0.06191 136 136 121
-2.26206 -4.28975 0.06219 144 152 138
-2.27910 -4.29353 0.06246 151 155 148
-2.29611 -4.29730 0.06274 147 153 156
-2.31310 -4.30107 0.06302 145 146 149
-2.33007 -4.30483 0.06329 143 146 146
-2.34701 -4.30858 0.06357 143 141 137
1.52536 -3.43246 -0.01602 201 208 190
1.50289 -3.43745 -0.01564 197 197 193
1.48045 -3.44244 -0.01526 202 193 194
1.45806 -3.44742 -0.01488 211 206 202
1.43569 -3.45239 -0.01451 214 212 197
1.41336 -3.45736 -0.01413 211 211 197
1.39107 -3.46231 -0.01375 214 216 207
1.36881 -3.46726 -0.01338 209 210 206
1.34658 -3.47220 -0.01300 208 210 205
1.32439 -3.47714 -0.01263 211 212 206
1.30223 -3.48206 -0.01225 212 214 211
1.28011 -3.48698 -0.01188 210 212 210
1.25802 -3.49189 -0.01151 205 209 205
1.23597 -3.49680 -0.01114 205 212 205
1.21394 -3.50169 -0.01076 209 216 209
1.19196 -3.50658 -0.01039 210 218 209
1.17000 -3.51146 -0.01002 204 209 202
1.14808 -3.51633 -0.00965 199 196 196
1.12620 -3.52120 -0.00928 201 203 196
1.10434 -3.52606 -0.00891 202 207 197
1.08252 -3.53091 -0.00855 199 196 193
1.06074 -3.53575 -0.00818 203 199 191
1.03898 -3.54059 -0.00781 206 204 196
1.01726 -3.54542 -0.00744 214 211 206
0.99558 -3.55024 -0.00708 216 220 214
0.97392 -3.55505 -0.00671 212 220 201
0.95230 -3.55986 -0.00635 213 221 199
0.93071 -3.56466 -0.00598 207 211 204
0.90916 -3.56945 -0.00562 202 201 196
0.88764 -3.57424 -0.00526 208 210 209
0.86615 -3.57902 -0.00489 207 212 210
0.84469 -3.58379 -0.00453 194 200 199
0.82326 -3.58855 -0.00417 189 195 193
0.80187 -3.59330 -0.00381 197 197 194
0.78051 -3.59805 -0.00345 196 196 202
0.75918 -3.60280 -0.00309 185 193 201
0.73789 -3.60753 -0.00273 187 196 196
0.71663 -3.61226 -0.00237 188 193 196
0.69539 -3.61698 -0.00201 182 190 203
0.67419 -3.62169 -0.00165 188 191 207
0.65303 -3.62640 -0.00129 189 192 199
0.63189 -3.63110 -0.00094 180 186 188
0.61079 -3.63579 -0.00058 192 202 196
0.58972 -3.64047 -0.00023 198 210 201
0.56868 -3.64515 0.00013 201 208 204
0.54767 -3.64982 0.00048 197 203 210
0.52669 -3.65448 0.00084 198 202 209
0.50574 -3.65914 0.00119 199 202 205
0.48483 -3.66379 0.00154 197 194 201
0.46395 -3.66843 0.00190 209 210 209
0.44309 -3.67307 0.00225 197 188 196
0.42227 -3.67770 0.00260 200 200 201
0.40148 -3.68232 0.00295 198 201 201
0.38072 -3.68694 0.00330 191 200 185
0.36000 -3.69154 0.00365 184 193 188
0.33930 -3.69615 0.00400 185 190 193
0.31863 -3.70074 0.00435 184 189 199
0.29800 -3.70533 0.00470 194 191 185
0.27739 -3.70991 0.00505 199 191 191
0.25682 -3.71448 0.00539 190 195 198
0.23627 -3.71905 0.00574 194 199 193
0.21576 -3.72361 0.00609 193 198 185
0.19528 -3.72817 0.00643 189 192 196
0.17483 -3.73271 0.00678 188 194 198
0.15440 -3.73725 0.00712 178 178 182
0.13401 -3.74179 0.00747 180 187 187
0.11365 -3.74631 0.00781 199 208 202
0.09332 -3.75083 0.00815 193 192 185
0.07302 -3.75535 0.00850 185 189 182
0.05274 -3.75985 0.00884 185 186 178
0.03250 -3.76435 0.00918 187 182 184
0.01229 -3.76885 0.00952 189 189 194
-0.00789 -3.77334 0.00986 191 197 196
-0.02805 -3.77782 0.01020 193 196 195
-0.04817 -3.78229 0.01054 189 189 183
-0.06826 -3.78676 0.01088 185 182 181
-0.08833 -3.79122 0.01122 186 187 182
-0.10836 -3.79567 0.01156 189 191 185
-0.12837 -3.80012 0.01190 181 173 170
-0.14835 -3.80456 0.01223 180 170 172
-0.16829 -3.80900 0.01257 181 179 181
-0.18821 -3.81342 0.01291 189 190 183
-0.20810 -3.81785 0.01324 183 180 186
-0.22796 -3.82226 0.01358 177 176 182
-0.24779 -3.82667 0.01391 184 188 173
-0.26759 -3.83107 0.01425 175 183 171
-0.28737 -3.83547 0.01458 169 179 175
-0.30711 -3.83986 0.01491 183 188 185
-0.32683 -3.84424 0.01525 192 192 189
-0.34651 -3.84862 0.01558 192 191 188
-0.36617 -3.85299 0.01591 189 186 190
-0.38580 -3.85735 0.01624 184 178 186
-0.40540 -3.86171 0.01657 180 183 191
-0.46404 -3.87475 0.01756 156 157 159
-0.48353 -3.87908 0.01789 160 160 166
-0.50299 -3.88341 0.01822 164 170 165
-0.52242 -3.88773 0.01855 168 177 174
-0.54183 -3.89204 0.01888 167 174 178
-0.56120 -3.89635 0.01920 170 171 176
-0.58055 -3.90065 0.01953 171 174 171
-0.59987 -3.90495 0.01986 170 169 167
-0.61916 -3.90924 0.02018 161 168 173
-0.63843 -3.91352 0.02051 158 168 178
-0.65767 -3.91780 0.02083 173 183 177
-0.67688 -3.92207 0.02116 172 174 181
-0.69606 -3.92633 0.02148 165 166 161
-0.71521 -3.93059 0.02180 174 182 177
-0.73434 -3.93484 0.02213 174 182 171
-0.75344 -3.93909 0.02245 164 163 177
-0.77251 -3.94333 0.02277 173 172 179
-0.79156 -3.94756 0.02309 173 174 167
-0.81058 -3.95179 0.02341 174 180 179
-0.82957 -3.95601 0.02373 164 173 178
-0.84853 -3.96023 0.02405 170 179 180
-0.86747 -3.96444 0.02437 171 176 176
-0.88638 -3.96864 0.02469 164 166 176
-0.90526 -3.97284 0.02501 163 166 169
-0.92412 -3.97703 0.02533 170 175 169
-0.94295 -3.98122 0.02565 171 178 179
-0.96175 -3.98540 0.02596 168 174 181
-0.98053 -3.98958 0.02628 173 175 173
-0.99928 -3.99374 0.02660 170 176 172
-1.01800 -3.99791 0.02691 169 175 171
-1.03670 -4.00206 0.02723 159 159 171
-1.05537 -4.00621 0.02754 153 159 172
-1.07401 -4.01036 0.02786 160 167 171
-1.09263 -4.01450 0.02817 158 163 161
-1.11122 -4.01863 0.02849 160 168 160
-1.12979 -4.02276 0.02880 163 168 158
-1.14833 -4.02688 0.02911 150 156 154
-1.16684 -4.03100 0.02943 153 161 165
-1.18532 -4.03511 0.02974 163 168 167
-1.20379 -4.03921 0.03005 166 174 168
-1.22222 -4.04331 0.03036 168 178 170
-1.24063 -4.04740 0.03067 164 169 166
-1.25901 -4.05149 0.03098 156 159 163
-1.27737 -4.05557 0.03129 154 158 165
-1.29570 -4.05965 0.03160 161 167 173
-1.31401 -4.06372 0.03191 162 168 167
-1.33229 -4.06778 0.03222 162 166 162
-1.35054 -4.07184 0.03253 163 163 166
-1.36877 -4.07589 0.03284 156 157 165
-1.38697 -4.07994 0.03314 154 158 162
-1.40515 -4.08398 0.03345 157 161 158
-1.42330 -4.08802 0.03376 152 164 164
-1.44143 -4.09205 0.03406 143 151 158
-1.45953 -4.09607 0.03437 166 170 165
-1.47761 -4.10009 0.03467 170 173 173
-1.49566 -4.10410 0.03498 164 170 152
-1.51369 -4.10811 0.03528 159 169 150
-1.53169 -4.11211 0.03559 153 157 156
-1.54967 -4.11611 0.03589 154 151 149
-1.56762 -4.12010 0.03619 162 152 151
-1.58555 -4.12409 0.03649 158 156 158
-1.60345 -4.12807 0.03680 163 161 157
-1.62133 -4.13204 0.03710 160 156 156
-1.63918 -4.13601 0.03740 154 155 154
-1.65701 -4.13997 0.03770 153 151 148
-1.67481 -4.14393 0.03800 154 157 154
-1.69259 -4.14788 0.03830 153 163 155
-1.71035 -4.15183 0.03860 151 154 140
-1.72808 -4.15577 0.03890 143 153 141
-1.74578 -4.15971 0.03920 146 157 147
-1.76346 -4.16364 0.03950 154 158 147
-1.78112 -4.16757 0.03980 154 158 153
-1.79875 -4.17149 0.04009 148 158 152
-1.81636 -4.17540 0.04039 149 158 149
-1.83394 -4.17931 0.04069 148 155 146
-1.85150 -4.18321 0.04098 151 153 148
-1.86904 -4.18711 0.04128 154 159 153
-1.88655 -4.19101 0.04158 151 156 147
-1.90404 -4.19489 0.04187 147 152 141
-1.92150 -4.19878 0.04217 147 152 148
-1.93894 -4.20265 0.04246 149 156 151
-1.95636 -4.20653 0.04275 152 160 143
-1.97375 -4.21039 0.04305 152 156 137
-1.99112 -4.21426 0.04334 151 156 139
-2.00847 -4.21811 0.04363 143 150 141
-2.02579 -4.22196 0.04393 140 149 146
-2.04309 -4.22581 0.04422 151 163 153
-2.06036 -4.22965 0.04451 140 151 137
-2.07761 -4.23348 0.04480 147 152 135
-2.09484 -4.23731 0.04509 150 146 141
-2.11204 -4.24114 0.04538 151 158 143
-2.12922 -4.24496 0.04567 154 159 141
-2.14638 -4.24877 0.04596 147 155 147
-2.16352 -4.25258 0.04625 143 144 132
-2.18063 -4.25639 0.04654 131 136 123
-2.19771 -4.26019 0.04683 121 132 131
-2.21478 -4.26398 0.04712 139 149 135
-2.23182 -4.26777 0.04740 139 136 129
-2.24884 -4.27155 0.04769 138 145 141
-2.26584 -4.27533 0.04798 144 152 140
-2.28281 -4.27910 0.04827 143 148 139
-2.29976 -4.28287 0.04855 135 144 139
-2.31669 -4.28664 0.04884 146 148 155
-2.33359 -4.29039 0.04912 144 149 146
1.50585 -3.41937 -0.03199 206 199 190
1.48349 -3.42435 -0.03160 206 199 194
1.46116 -3.42933 -0.03121 214 212 201
1.43887 -3.43430 -0.03082 216 213 209
1.41661 -3.43926 -0.03043 219 224 216
1.39438 -3.44422 -0.03004 203 212 214
1.37219 -3.44917 -0.02966 209 208 212
1.35003 -3.45410 -0.02927 203 203 200
1.32791 -3.45904 -0.02888 204 201 196
1.30582 -3.46396 -0.02850 206 207 203
1.28377 -3.46888 -0.02811 197 200 195
1.26174 -3.47379 -0.02773 193 191 192
1.23976 -3.47869 -0.02735 201 204 202
1.21780 -3.48358 -0.02696 208 216 209
1.19588 -3.48847 -0.02658 212 218 209
1.17400 -3.49335 -0.02620 210 216 206
1.15214 -3.49822 -0.02582 198 195 192
1.13032 -3.50308 -0.02544 194 192 195
1.10854 -3.50794 -0.02506 198 205 207
1.08678 -3.51279 -0.02468 198 202 203
1.06506 -3.51763 -0.02430 192 196 197
1.04338 -3.52247 -0.02392 199 204 197
1.02172 -3.52729 -0.02354 207 207 185
1.00010 -3.53211 -0.02317 208 205 186
0.97851 -3.53693 -0.02279 203 203 198
0.95696 -3.54173 -0.02241 200 205 191
0.93543 -3.54653 -0.02204 201 207 194
0.91394 -3.55132 -0.02166 193 198 194
0.89248 -3.55610 -0.02129 194 193 195
0.87106 -3.56088 -0.02091 207 207 209
0.84967 -3.56565 -0.02054 206 207 209
0.82830 -3.57041 -0.02017 200 202 205
0.80698 -3.57517 -0.01980 197 206 200
0.78568 -3.57991 -0.01943 192 197 196
0.76441 -3.58465 -0.01905 192 191 195
0.74318 -3.58939 -0.01868 188 189 196
0.72198 -3.59411 -0.01831 190 196 198
0.70081 -3.59883 -0.01795 194 197 199
0.67968 -3.60354 -0.01758 197 202 199
0.65857 -3.60825 -0.01721 198 202 198
0.63750 -3.61295 -0.01684 192 195 192
0.61646 -3.61764 -0.01647 187 194 185
0.59545 -3.62232 -0.01611 196 201 199
0.57447 -3.62700 -0.01574 201 205 206
0.55352 -3.63167 -0.01538 203 201 204
0.53260 -3.63633 -0.01501 197 200 211
0.51172 -3.64099 -0.01465 199 203 210
0.49087 -3.64564 -0.01428 205 203 206
0.47004 -3.65028 -0.01392 205 202 206
0.44925 -3.65491 -0.01356 204 204 204
0.42849 -3.65954 -0.01319 190 190 194
0.40776 -3.66416 -0.01283 186 184 190
0.38706 -3.66878 -0.01247 194 195 203
0.36639 -3.67338 -0.01211 196 196 205
0.34576 -3.67798 -0.01175 196 211 205
0.32515 -3.68258 -0.01139 187 186 186
0.30457 -3.68716 -0.01103 187 183 188
0.28403 -3.69174 -0.01067 194 193 191
0.26351 -3.69632 -0.01032 195 187 190
0.24303 -3.70089 -0.00996 201 208 209
0.22257 -3.70545 -0.00960 194 190 196
0.20215 -3.71000 -0.00925 196 188 185
0.18175 -3.71454 -0.00889 193 192 191
0.16139 -3.71908 -0.00854 187 184 184
0.14105 -3.72362 -0.00818 182 184 179
0.12075 -3.72814 -0.00783 176 186 187
0.10048 -3.73266 -0.00747 190 197 199
0.08023 -3.73718 -0.00712 190 193 186
0.06002 -3.74168 -0.00677 188 188 178
0.03983 -3.74618 -0.00641 188 188 177
0.01967 -3.75068 -0.00606 180 184 181
-0.00045 -3.75516 -0.00571 183 192 186
-0.02055 -3.75964 -0.00536 188 191 186
-0.04062 -3.76412 -0.00501 183 180 173
-0.06065 -3.76858 -0.00466 175 175 174
-0.08066 -3.77304 -0.00431 168 172 174
-0.10064 -3.77750 -0.00396 175 179 172
-0.12059 -3.78195 -0.00362 186 190 183
-0.14051 -3.78639 -0.00327 182 186 177
-0.16040 -3.79082 -0.00292 177 175 176
-0.18027 -3.79525 -0.00258 180 177 178
-0.20010 -3.79967 -0.00223 194 190 183
-0.21991 -3.80409 -0.00188 192 181 188
-0.23968 -3.80849 -0.00154 182 176 186
-0.25943 -3.81290 -0.00119 179 190 181
-0.27915 -3.81729 -0.00085 177 195 178
-0.29884 -3.82168 -0.00051 174 189 181
-0.31850 -3.82607 -0.00016 171 182 179
-0.33814 -3.83044 0.00018 174 181 178
-0.35774 -3.83481 0.00052 180 186 186
-0.37732 -3.83918 0.00086 188 191 190
-0.39687 -3.84353 0.00120 186 186 187
-0.47478 -3.86090 0.00256 163 166 162
-0.49419 -3.86523 0.00290 166 163 168
-0.51357 -3.86955 0.00324 164 164 162
-0.53292 -3.87386 0.00358 165 165 160
-0.55225 -3.87817 0.00391 168 170 175
-0.57154 -3.88247 0.00425 172 172 176
-0.59081 -3.88677 0.00459 166 172 174
-0.61005 -3.89106 0.00492 166 167 167
-0.62927 -3.89534 0.00526 160 168 177
-0.64845 -3.89962 0.00559 164 173 183
-0.66761 -3.90389 0.00593 174 177 176
-0.68675 -3.90816 0.00626 171 163 174
-0.70585 -3.91241 0.00659 171 167 162
-0.72493 -3.91667 0.00693 175 186 175
-0.74398 -3.92091 0.00726 185 184 175
-0.76300 -3.92515 0.00759 172 180 182
-0.78199 -3.92939 0.00792 171 174 176
-0.80096 -3.93362 0.00825 168 172 169
-0.81990 -3.93784 0.00858 171 182 185
-0.83882 -3.94206 0.00891 164 177 175
-0.85771 -3.94627 0.00924 174 169 162
-0.87657 -3.95047 0.00957 165 167 174
-0.89540 -3.95467 0.00990 162 169 176
-0.91421 -3.95886 0.01023 160 173 165
-0.93299 -3.96305 0.01056 162 168 161
-0.95174 -3.96723 0.01088 167 175 183
-0.97047 -3.97141 0.01121 169 177 179
-0.98917 -3.97557 0.01154 172 177 166
-1.00785 -3.97974 0.01186 166 176 162
-1.02650 -3.98390 0.01219 167 173 167
-1.04512 -3.98805 0.01251 164 162 167
-1.06372 -3.99219 0.01284 155 155 165
-1.08229 -3.99633 0.01316 152 159 160
-1.10083 -4.00047 0.01348 147 157 153
-1.11935 -4.00459 0.01381 153 163 162
-1.13784 -4.00872 0.01413 164 172 167
-1.15630 -4.01283 0.01445 154 160 160
-1.17474 -4.01694 0.01477 154 162 163
-1.19316 -4.02105 0.01509 162 172 160
-1.21155 -4.02515 0.01541 160 173 162
-1.22991 -4.02924 0.01573 164 176 169
-1.24825 -4.03333 0.01605 163 171 164
-1.26656 -4.03741 0.01637 151 160 156
-1.28484 -4.04149 0.01669 149 154 159
-1.30310 -4.04556 0.01701 160 166 174
-1.32134 -4.04962 0.01733 165 173 173
-1.33955 -4.05368 0.01765 159 166 160
-1.35773 -4.05774 0.01796 154 156 159
-1.37589 -4.06178 0.01828 156 161 161
-1.39402 -4.06583 0.01860 162 167 164
-1.41213 -4.06986 0.01891 169 169 157
-1.43021 -4.07389 0.01923 157 165 151
-1.44827 -4.07792 0.01954 142 151 146
-1.46630 -4.08194 0.01986 160 167 165
-1.48431 -4.08595 0.02017 164 165 164
-1.50229 -4.08996 0.02049 156 156 154
-1.52025 -4.09397 0.02080 159 164 159
-1.53818 -4.09796 0.02111 145 153 154
-1.55609 -4.10195 0.02142 157 166 159
-1.57397 -4.10594 0.02174 155 154 138
-1.59183 -4.10992 0.02205 149 156 145
-1.60966 -4.11390 0.02236 163 168 156
-1.62747 -4.11787 0.02267 161 163 164
-1.64526 -4.12183 0.02298 156 157 158
-1.66302 -4.12579 0.02329 159 160 156
-1.68075 -4.12975 0.02360 163 168 164
-1.69847 -4.13369 0.02391 159 162 165
