ply
format ascii 1.0
element face 0
property list uchar int vertex_indices
element vertex 1241
property float x
property float y
property float z
property uchar diffuse_red
property uchar diffuse_green
property uchar diffuse_blue
end_header
-0.12267 -0.36212 -0.80058 252 251 251
-0.11599 -0.36499 -0.79658 252 251 251
-0.10931 -0.36786 -0.79260 252 251 252
-0.10264 -0.37072 -0.78861 252 252 252
-0.09598 -0.37359 -0.78464 252 252 252
-0.08933 -0.37644 -0.78066 252 252 252
-0.08269 -0.37930 -0.77670 252 252 252
-0.07606 -0.38215 -0.77273 252 252 252
-0.06943 -0.38499 -0.76878 252 252 252
-0.06282 -0.38784 -0.76482 252 252 252
-0.05621 -0.39068 -0.76088 252 252 253
-0.04961 -0.39351 -0.75693 253 253 253
-0.04302 -0.39634 -0.75300 253 253 253
-0.03643 -0.39917 -0.74907 253 253 253
-0.02986 -0.40200 -0.74514 253 253 254
-0.02329 -0.40482 -0.74122 253 253 254
-0.01673 -0.40764 -0.73730 254 254 254
-0.01018 -0.41045 -0.73339 254 254 254
-0.00364 -0.41326 -0.72948 254 254 254
0.00289 -0.41607 -0.72558 254 254 254
0.00942 -0.41887 -0.72168 254 254 254
0.01593 -0.42167 -0.71778 254 254 254
0.02244 -0.42447 -0.71390 254 254 254
0.02894 -0.42726 -0.71001 254 254 254
0.03544 -0.43005 -0.70614 254 254 254
0.04192 -0.43284 -0.70226 254 254 254
0.04840 -0.43562 -0.69839 254 254 254
0.26384 -0.52819 -0.56971 254 254 254
0.27004 -0.53085 -0.56600 254 254 254
0.27623 -0.53351 -0.56230 254 254 254
0.28241 -0.53617 -0.55861 254 254 254
-0.15604 -0.35906 -0.80863 251 250 251
-0.14934 -0.36193 -0.80464 251 250 251
-0.14266 -0.36479 -0.80065 251 250 251
-0.13598 -0.36766 -0.79667 252 250 251
-0.12931 -0.37051 -0.79269 252 250 251
-0.12265 -0.37337 -0.78872 252 251 251
-0.11600 -0.37622 -0.78476 252 251 251
-0.10936 -0.37907 -0.78080 252 251 252
-0.10272 -0.38191 -0.77684 252 252 252
-0.09610 -0.38475 -0.77289 252 252 252
-0.08948 -0.38759 -0.76894 252 252 252
-0.08287 -0.39042 -0.76500 252 252 252
-0.07627 -0.39325 -0.76107 252 252 252
-0.06967 -0.39607 -0.75714 252 252 252
-0.06309 -0.39890 -0.75321 252 252 252
-0.05651 -0.40171 -0.74929 253 253 253
-0.04995 -0.40453 -0.74537 253 253 253
-0.04339 -0.40734 -0.74146 253 253 253
-0.03683 -0.41015 -0.73756 253 253 253
-0.03029 -0.41295 -0.73366 253 253 254
-0.02376 -0.41575 -0.72976 253 253 254
-0.01723 -0.41855 -0.72587 254 254 254
0.24965 -0.53293 -0.56675 254 254 254
0.25584 -0.53559 -0.56307 254 254 254
0.26202 -0.53823 -0.55938 254 254 254
0.26819 -0.54088 -0.55570 254 254 254
0.27436 -0.54352 -0.55203 254 254 254
0.28051 -0.54616 -0.54836 254 254 254
-0.22969 -0.33874 -0.84069 251 249 251
-0.22293 -0.34163 -0.83667 251 249 251
-0.21619 -0.34451 -0.83265 251 249 251
-0.20945 -0.34739 -0.82864 251 249 251
-0.20272 -0.35027 -0.82464 251 249 251
-0.19600 -0.35314 -0.82064 251 249 251
-0.18929 -0.35601 -0.81665 251 249 251
-0.18258 -0.35888 -0.81266 251 249 251
-0.17589 -0.36174 -0.80867 251 249 251
-0.16920 -0.36460 -0.80469 251 250 251
-0.16252 -0.36745 -0.80072 251 250 251
-0.15585 -0.37030 -0.79675 251 250 251
-0.14919 -0.37315 -0.79279 251 250 251
-0.14254 -0.37600 -0.78883 251 250 251
-0.13590 -0.37884 -0.78488 252 250 251
-0.12926 -0.38167 -0.78093 252 250 251
-0.12263 -0.38451 -0.77698 252 251 251
-0.11601 -0.38734 -0.77304 252 251 251
-0.10940 -0.39016 -0.76911 252 251 252
-0.10280 -0.39299 -0.76518 252 252 252
-0.09621 -0.39580 -0.76126 252 252 252
-0.08962 -0.39862 -0.75734 252 252 252
-0.08304 -0.40143 -0.75342 252 252 252
-0.07647 -0.40424 -0.74951 252 252 252
-0.06991 -0.40705 -0.74561 252 252 252
-0.06336 -0.40985 -0.74171 252 252 252
-0.05682 -0.41264 -0.73782 253 253 253
-0.05028 -0.41544 -0.73393 253 253 253
-0.04375 -0.41823 -0.73004 253 253 253
-0.03723 -0.42102 -0.72616 253 253 253
-0.03072 -0.42380 -0.72229 253 253 254
0.23557 -0.53765 -0.56382 254 254 254
0.24175 -0.54029 -0.56015 254 254 254
0.24791 -0.54292 -0.55648 254 254 254
0.25407 -0.54556 -0.55282 254 254 254
0.26022 -0.54819 -0.54915 254 254 254
0.26637 -0.55081 -0.54550 254 254 254
0.27250 -0.55344 -0.54185 254 254 254
-0.31048 -0.31542 -0.87694 250 249 250
-0.30365 -0.31833 -0.87289 250 249 250
-0.29683 -0.32124 -0.86884 250 249 250
-0.29003 -0.32414 -0.86479 250 249 251
-0.28323 -0.32704 -0.86075 250 249 251
-0.27644 -0.32994 -0.85672 250 249 251
-0.26965 -0.33283 -0.85269 250 249 251
-0.26288 -0.33572 -0.84867 250 249 251
-0.25612 -0.33860 -0.84465 250 249 251
-0.24936 -0.34148 -0.84064 250 249 251
-0.24261 -0.34436 -0.83663 250 249 251
-0.23587 -0.34724 -0.83263 250 249 251
-0.22914 -0.35011 -0.82863 250 249 251
-0.22242 -0.35297 -0.82464 251 249 251
-0.21571 -0.35583 -0.82065 251 249 251
-0.20900 -0.35869 -0.81667 251 249 251
-0.20231 -0.36155 -0.81269 251 249 251
-0.19562 -0.36440 -0.80872 251 249 251
-0.18894 -0.36725 -0.80475 251 249 251
-0.18227 -0.37010 -0.80079 251 249 251
-0.17561 -0.37294 -0.79683 251 249 251
-0.16896 -0.37577 -0.79288 251 250 251
-0.16231 -0.37861 -0.78894 251 250 251
-0.15567 -0.38144 -0.78499 251 250 251
-0.14905 -0.38427 -0.78106 251 250 251
-0.14242 -0.38709 -0.77712 251 250 251
-0.13581 -0.38991 -0.77320 252 250 251
-0.12921 -0.39272 -0.76927 252 250 251
-0.12261 -0.39554 -0.76536 252 251 251
-0.11603 -0.39835 -0.76145 252 251 251
-0.10945 -0.40115 -0.75754 252 251 251
-0.10288 -0.40395 -0.75364 252 251 252
-0.09632 -0.40675 -0.74974 252 252 252
-0.08976 -0.40955 -0.74584 252 252 252
-0.08322 -0.41234 -0.74196 252 252 252
-0.07668 -0.41513 -0.73807 252 252 252
-0.07015 -0.41791 -0.73420 252 252 252
-0.06363 -0.42069 -0.73032 252 252 253
-0.05712 -0.42347 -0.72645 253 253 253
-0.05061 -0.42624 -0.72259 253 253 253
-0.04412 -0.42901 -0.71873 253 253 253
0.22159 -0.54233 -0.56091 254 254 254
0.22775 -0.54496 -0.55725 254 254 254
0.23390 -0.54758 -0.55360 254 254 254
0.24005 -0.55020 -0.54995 254 254 254
0.24619 -0.55282 -0.54630 254 254 254
0.25232 -0.55543 -0.54266 254 254 254
0.25844 -0.55805 -0.53902 254 254 254
-0.31633 -0.32404 -0.86870 250 249 250
-0.30953 -0.32693 -0.86467 250 249 250
-0.30274 -0.32982 -0.86065 250 249 250
-0.29596 -0.33271 -0.85662 250 249 250
-0.28918 -0.33559 -0.85261 250 249 250
-0.28242 -0.33847 -0.84860 250 249 250
-0.27566 -0.34134 -0.84459 250 249 251
-0.26891 -0.34421 -0.84059 250 249 251
-0.26217 -0.34708 -0.83659 250 249 251
-0.25544 -0.34994 -0.83260 250 249 251
-0.24872 -0.35280 -0.82862 250 249 251
-0.24201 -0.35566 -0.82464 250 249 251
-0.23530 -0.35851 -0.82066 250 249 251
-0.22860 -0.36136 -0.81669 250 249 251
-0.22192 -0.36421 -0.81273 250 249 251
-0.21524 -0.36705 -0.80877 250 249 251
-0.20856 -0.36989 -0.80481 250 249 251
-0.20190 -0.37272 -0.80086 250 249 251
-0.19525 -0.37555 -0.79692 251 249 251
-0.18860 -0.37838 -0.79298 251 249 251
-0.18196 -0.38120 -0.78904 251 249 251
-0.17533 -0.38402 -0.78511 251 249 251
-0.16871 -0.38684 -0.78119 251 250 251
-0.16210 -0.38965 -0.77727 251 250 251
-0.15549 -0.39246 -0.77335 251 250 251
-0.14890 -0.39527 -0.76944 251 250 251
-0.14231 -0.39807 -0.76553 251 250 251
-0.13573 -0.40087 -0.76163 252 250 251
-0.12916 -0.40367 -0.75774 252 250 251
-0.12260 -0.40646 -0.75385 252 251 251
-0.11604 -0.40925 -0.74996 252 251 251
-0.10949 -0.41203 -0.74608 252 251 251
-0.10296 -0.41482 -0.74220 252 251 252
-0.09643 -0.41759 -0.73833 252 252 252
-0.08990 -0.42037 -0.73446 252 252 252
-0.08339 -0.42314 -0.73060 252 252 252
-0.07688 -0.42591 -0.72674 252 252 252
-0.07039 -0.42867 -0.72289 252 252 252
-0.06390 -0.43143 -0.71904 253 253 253
-0.05742 -0.43419 -0.71520 253 253 253
-0.32213 -0.33259 -0.86054 250 249 250
-0.31536 -0.33546 -0.85653 250 249 250
-0.30859 -0.33833 -0.85252 250 249 250
-0.30184 -0.34120 -0.84852 250 249 250
-0.29509 -0.34407 -0.84453 250 249 250
-0.28835 -0.34693 -0.84054 250 249 250
-0.28161 -0.34978 -0.83656 250 249 250
-0.27489 -0.35264 -0.83258 250 249 251
-0.26818 -0.35549 -0.82861 250 249 251
-0.26147 -0.35833 -0.82464 250 249 251
-0.25477 -0.36117 -0.82067 250 249 251
-0.24808 -0.36401 -0.81672 250 249 251
-0.24140 -0.36685 -0.81276 250 249 251
-0.23473 -0.36968 -0.80881 250 249 251
-0.22807 -0.37251 -0.80487 250 249 251
-0.22141 -0.37533 -0.80093 250 249 251
-0.21477 -0.37815 -0.79700 250 249 251
-0.20813 -0.38097 -0.79307 250 249 251
-0.20150 -0.38378 -0.78915 250 249 251
-0.19487 -0.38660 -0.78523 251 249 251
-0.18826 -0.38940 -0.78131 251 249 251
-0.18166 -0.39221 -0.77740 251 249 251
-0.17506 -0.39501 -0.77350 251 249 251
-0.16847 -0.39780 -0.76960 251 250 251
-0.16189 -0.40059 -0.76571 251 250 251
-0.15532 -0.40338 -0.76182 251 250 251
-0.14875 -0.40617 -0.75793 251 250 251
-0.14220 -0.40895 -0.75405 252 250 251
-0.13565 -0.41173 -0.75018 252 250 251
-0.12911 -0.41451 -0.74631 252 250 251
-0.12258 -0.41728 -0.74244 252 251 251
-0.11606 -0.42005 -0.73858 252 251 251
-0.10954 -0.42281 -0.73473 252 251 251
-0.10303 -0.42557 -0.73088 252 251 252
-0.09653 -0.42833 -0.72703 252 252 252
-0.09004 -0.43109 -0.72319 252 252 252
-0.08356 -0.43384 -0.71935 252 252 252
-0.07709 -0.43658 -0.71552 252 252 252
-0.07062 -0.43933 -0.71170 253 252 252
-0.32789 -0.34106 -0.85244 250 248 250
-0.32114 -0.34392 -0.84845 250 248 250
-0.31440 -0.34677 -0.84447 250 248 250
-0.30766 -0.34962 -0.84049 250 248 250
-0.30094 -0.35247 -0.83652 250 249 250
-0.29423 -0.35531 -0.83256 250 249 250
-0.28752 -0.35815 -0.82859 250 249 250
-0.28082 -0.36099 -0.82464 250 249 250
-0.27413 -0.36382 -0.82069 250 249 250
-0.26745 -0.36665 -0.81674 250 249 251
-0.26078 -0.36947 -0.81280 250 249 251
-0.25411 -0.37230 -0.80886 250 249 251
-0.24746 -0.37511 -0.80493 250 249 251
-0.24081 -0.37793 -0.80100 250 249 251
-0.23417 -0.38074 -0.79708 250 249 251
-0.22754 -0.38355 -0.79316 250 249 251
-0.22092 -0.38635 -0.78925 250 249 251
-0.21430 -0.38915 -0.78534 250 249 251
-0.20769 -0.39195 -0.78144 250 249 251
-0.20110 -0.39474 -0.77754 251 249 251
-0.19451 -0.39753 -0.77365 251 249 251
-0.18793 -0.40032 -0.76976 251 249 251
-0.18135 -0.40310 -0.76588 251 249 251
-0.17479 -0.40588 -0.76200 251 250 251
-0.16823 -0.40866 -0.75813 251 250 251
-0.16168 -0.41143 -0.75426 251 250 251
-0.15514 -0.41420 -0.75040 251 250 251
-0.14861 -0.41696 -0.74654 251 250 251
-0.14208 -0.41973 -0.74269 252 250 251
-0.13557 -0.42248 -0.73884 252 250 251
-0.12906 -0.42524 -0.73499 252 250 251
-0.12256 -0.42799 -0.73115 252 251 251
-0.11607 -0.43074 -0.72732 252 251 251
-0.10958 -0.43348 -0.72349 252 251 251
-0.10311 -0.43623 -0.71966 252 252 252
-0.09664 -0.43896 -0.71584 252 252 252
-0.09018 -0.44170 -0.71203 252 252 252
-0.08373 -0.44443 -0.70822 252 252 252
-0.33359 -0.34946 -0.84441 250 249 250
-0.32687 -0.35230 -0.84045 250 249 250
-0.32015 -0.35514 -0.83649 250 249 250
-0.31344 -0.35797 -0.83253 250 249 250
-0.30675 -0.36080 -0.82858 250 249 250
-0.30006 -0.36363 -0.82464 250 249 250
-0.29337 -0.36645 -0.82070 250 249 250
-0.28670 -0.36927 -0.81676 250 249 250
-0.28004 -0.37208 -0.81283 250 249 250
-0.27338 -0.37490 -0.80891 250 249 250
-0.26673 -0.37770 -0.80499 250 249 251
-0.26009 -0.38051 -0.80107 250 249 251
-0.25346 -0.38331 -0.79716 250 249 251
-0.24683 -0.38611 -0.79326 250 249 251
-0.24022 -0.38890 -0.78936 250 249 251
-0.23361 -0.39169 -0.78546 250 249 251
-0.22701 -0.39448 -0.78157 250 249 251
-0.22042 -0.39726 -0.77768 250 249 251
-0.21384 -0.40004 -0.77380 250 249 251
-0.20727 -0.40282 -0.76993 251 249 251
-0.20070 -0.40559 -0.76605 251 249 251
-0.19414 -0.40836 -0.76219 251 249 251
-0.18759 -0.41113 -0.75833 251 249 251
-0.18105 -0.41389 -0.75447 251 250 251
-0.17452 -0.41665 -0.75062 251 250 251
-0.16799 -0.41941 -0.74677 251 250 251
-0.16148 -0.42216 -0.74293 251 250 251
-0.15497 -0.42491 -0.73909 251 250 251
-0.14847 -0.42765 -0.73525 251 250 251
-0.14197 -0.43040 -0.73143 251 250 251
-0.13549 -0.43313 -0.72760 252 250 251
-0.12901 -0.43587 -0.72378 252 250 251
-0.12254 -0.43860 -0.71997 252 251 251
-0.11608 -0.44133 -0.71616 252 251 251
-0.10963 -0.44406 -0.71235 252 251 252
-0.10318 -0.44678 -0.70855 252 252 252
-0.33925 -0.35780 -0.83645 250 249 250
-0.33255 -0.36062 -0.83251 250 248 250
-0.32586 -0.36344 -0.82857 250 248 250
-0.31918 -0.36625 -0.82464 250 248 250
-0.31250 -0.36907 -0.82071 250 249 250
-0.30584 -0.37187 -0.81678 250 249 250
-0.29918 -0.37468 -0.81287 250 249 250
-0.29253 -0.37748 -0.80895 250 249 250
-0.28589 -0.38028 -0.80504 250 249 250
-0.27926 -0.38307 -0.80114 250 249 250
-0.27263 -0.38586 -0.79724 250 249 251
-0.26602 -0.38865 -0.79335 250 249 251
-0.25941 -0.39144 -0.78946 250 249 251
-0.25281 -0.39422 -0.78557 250 249 251
-0.24622 -0.39699 -0.78169 250 249 251
-0.23964 -0.39977 -0.77782 250 249 251
-0.23306 -0.40254 -0.77395 250 249 251
-0.22649 -0.40530 -0.77009 250 249 251
-0.21994 -0.40807 -0.76623 250 249 251
-0.21338 -0.41083 -0.76237 251 249 251
-0.20684 -0.41358 -0.75852 251 249 251
-0.20031 -0.41634 -0.75467 251 249 251
-0.19378 -0.41909 -0.75083 251 249 251
-0.18726 -0.42183 -0.74700 251 249 251
-0.18075 -0.42458 -0.74316 251 250 251
-0.17425 -0.42732 -0.73934 251 250 251
-0.16776 -0.43005 -0.73552 251 250 251
-0.16127 -0.43279 -0.73170 251 250 251
-0.15479 -0.43552 -0.72789 251 250 251
-0.14832 -0.43824 -0.72408 251 250 251
-0.14186 -0.44096 -0.72027 252 250 251
-0.13541 -0.44368 -0.71648 252 250 251
-0.12896 -0.44640 -0.71268 252 251 251
-0.12253 -0.44911 -0.70889 252 251 251
-0.11609 -0.45182 -0.70511 252 251 252
-0.33818 -0.36886 -0.82463 250 248 250
-0.33152 -0.37166 -0.82072 250 248 250
-0.32486 -0.37446 -0.81681 250 248 250
-0.31821 -0.37726 -0.81290 250 248 250
-0.31157 -0.38005 -0.80900 250 249 250
-0.30494 -0.38284 -0.80510 250 249 250
-0.29831 -0.38562 -0.80121 250 249 250
-0.29169 -0.38840 -0.79732 250 249 250
-0.28509 -0.39118 -0.79344 250 249 250
-0.27849 -0.39396 -0.78956 250 249 250
-0.27189 -0.39673 -0.78569 250 249 251
-0.26531 -0.39949 -0.78182 250 249 251
-0.25873 -0.40226 -0.77796 250 249 251
-0.25217 -0.40502 -0.77410 250 249 251
-0.24561 -0.40778 -0.77024 250 249 251
-0.23906 -0.41053 -0.76640 250 249 251
-0.23251 -0.41328 -0.76255 250 249 251
-0.22598 -0.41603 -0.75871 250 249 251
-0.21945 -0.41877 -0.75488 251 249 251
-0.21293 -0.42151 -0.75105 251 249 251
-0.20642 -0.42425 -0.74722 251 249 251
-0.19992 -0.42698 -0.74340 251 249 251
-0.19343 -0.42971 -0.73959 251 249 251
-0.18694 -0.43244 -0.73577 251 250 251
-0.18046 -0.43516 -0.73197 251 250 251
-0.17399 -0.43788 -0.72817 251 250 251
-0.16753 -0.44060 -0.72437 251 250 251
-0.16107 -0.44331 -0.72058 251 250 251
-0.15462 -0.44602 -0.71679 251 250 251
-0.14819 -0.44873 -0.71301 251 250 251
-0.14175 -0.45143 -0.70923 252 250 251
-0.13533 -0.45413 -0.70545 252 250 251
-0.34377 -0.37704 -0.81683 250 248 250
-0.33713 -0.37982 -0.81293 250 248 250
-0.33049 -0.38260 -0.80904 250 248 250
-0.32387 -0.38538 -0.80516 250 248 250
-0.31725 -0.38816 -0.80128 250 249 250
-0.31064 -0.39093 -0.79740 250 249 250
-0.30404 -0.39370 -0.79353 250 249 250
-0.29745 -0.39646 -0.78966 250 249 250
-0.29087 -0.39922 -0.78580 250 249 250
-0.28429 -0.40198 -0.78194 250 249 250
-0.27772 -0.40474 -0.77809 250 249 250
-0.27116 -0.40749 -0.77425 250 249 251
-0.26461 -0.41023 -0.77040 250 249 251
-0.25807 -0.41298 -0.76657 250 249 251
-0.25153 -0.41572 -0.76273 250 249 251
-0.24500 -0.41846 -0.75890 250 249 251
-0.23848 -0.42119 -0.75508 250 249 251
-0.23197 -0.42392 -0.75126 250 249 251
-0.22547 -0.42665 -0.74745 250 249 251
-0.21897 -0.42937 -0.74364 251 249 251
-0.21249 -0.43209 -0.73983 251 249 251
-0.20601 -0.43481 -0.73603 251 249 251
-0.19953 -0.43752 -0.73224 251 249 251
-0.19307 -0.44024 -0.72845 251 249 251
-0.18662 -0.44294 -0.72466 251 250 251
-0.18017 -0.44565 -0.72088 251 250 251
-0.17373 -0.44835 -0.71710 251 250 251
-0.16730 -0.45105 -0.71333 251 250 251
-0.16087 -0.45374 -0.70956 251 250 251
-0.15446 -0.45643 -0.70580 251 250 251
-0.34931 -0.38514 -0.80909 250 248 250
-0.34269 -0.38791 -0.80521 250 248 250
-0.33608 -0.39068 -0.80134 250 248 250
-0.32948 -0.39344 -0.79748 250 248 250
-0.32289 -0.39620 -0.79362 250 248 250
-0.31630 -0.39895 -0.78976 250 249 250
-0.30973 -0.40170 -0.78591 250 249 250
-0.30316 -0.40445 -0.78207 250 249 250
-0.29660 -0.40720 -0.77823 250 249 250
-0.29005 -0.40994 -0.77439 250 249 250
-0.28350 -0.41268 -0.77056 250 249 250
-0.27697 -0.41541 -0.76673 250 249 250
-0.27044 -0.41814 -0.76291 250 249 251
-0.26392 -0.42087 -0.75909 250 249 251
-0.25741 -0.42360 -0.75528 250 249 251
-0.25090 -0.42632 -0.75147 250 249 251
-0.24440 -0.42904 -0.74767 250 249 251
-0.23792 -0.43175 -0.74387 250 249 251
-0.23144 -0.43446 -0.74008 250 249 251
-0.22496 -0.43717 -0.73629 251 249 251
-0.21850 -0.43987 -0.73250 251 249 251
-0.21204 -0.44258 -0.72872 251 249 251
-0.20559 -0.44527 -0.72495 251 249 251
-0.19915 -0.44797 -0.72118 251 249 251
-0.19272 -0.45066 -0.71741 251 250 251
-0.18630 -0.45335 -0.71365 251 250 251
-0.17988 -0.45603 -0.70989 251 250 251
-0.35480 -0.39318 -0.80141 250 248 250
-0.34821 -0.39593 -0.79756 250 248 250
-0.34163 -0.39868 -0.79371 250 248 250
-0.33505 -0.40143 -0.78987 250 248 250
-0.32848 -0.40417 -0.78603 250 248 250
-0.32192 -0.40691 -0.78219 250 248 250
-0.31537 -0.40965 -0.77836 250 249 250
-0.30882 -0.41238 -0.77454 250 249 250
-0.30228 -0.41511 -0.77072 250 249 250
-0.29575 -0.41783 -0.76690 250 249 250
-0.28923 -0.42055 -0.76309 250 249 250
-0.28272 -0.42327 -0.75928 250 249 250
-0.27622 -0.42599 -0.75548 250 249 250
-0.26972 -0.42870 -0.75169 250 249 251
-0.26323 -0.43141 -0.74789 250 249 251
-0.25675 -0.43411 -0.74411 250 249 251
-0.25028 -0.43682 -0.74032 250 249 251
-0.24381 -0.43951 -0.73654 250 249 251
-0.23735 -0.44221 -0.73277 250 249 251
-0.23091 -0.44490 -0.72900 250 249 251
-0.22446 -0.44759 -0.72524 251 249 251
-0.21803 -0.45028 -0.72148 251 249 251
-0.21160 -0.45296 -0.71772 251 249 251
-0.20519 -0.45564 -0.71397 251 249 251
-0.19878 -0.45831 -0.71022 251 249 251
-0.36025 -0.40115 -0.79380 250 248 250
-0.35368 -0.40389 -0.78997 250 248 250
-0.34712 -0.40662 -0.78614 250 248 250
-0.34057 -0.40935 -0.78231 250 248 250
-0.33402 -0.41208 -0.77850 250 248 250
-0.32749 -0.41480 -0.77468 250 248 250
-0.32096 -0.41752 -0.77087 250 248 250
-0.31444 -0.42024 -0.76707 250 249 250
-0.30792 -0.42295 -0.76327 250 249 250
-0.30142 -0.42566 -0.75947 250 249 250
-0.29492 -0.42836 -0.75568 250 249 250
-0.28843 -0.43107 -0.75190 250 249 250
-0.28195 -0.43377 -0.74811 250 249 250
-0.27547 -0.43646 -0.74434 250 249 250
-0.26901 -0.43916 -0.74056 250 249 250
-0.26255 -0.44184 -0.73680 250 249 251
-0.25610 -0.44453 -0.73303 250 249 251
-0.24966 -0.44721 -0.72928 250 249 251
-0.24322 -0.44989 -0.72552 250 249 251
-0.23680 -0.45257 -0.72177 250 249 251
-0.23038 -0.45524 -0.71803 251 249 251
-0.22397 -0.45791 -0.71429 251 249 251
-0.36566 -0.40906 -0.78625 250 248 250
-0.35911 -0.41178 -0.78244 250 248 250
-0.35257 -0.41450 -0.77863 250 248 250
-0.34604 -0.41721 -0.77483 250 248 250
-0.33952 -0.41992 -0.77103 250 248 250
-0.33301 -0.42263 -0.76723 250 248 250
-0.32650 -0.42533 -0.76344 250 248 250
-0.32000 -0.42803 -0.75966 250 248 250
-0.31351 -0.43073 -0.75588 250 249 250
-0.30703 -0.43342 -0.75210 250 249 250
-0.30056 -0.43611 -0.74833 250 249 250
-0.29409 -0.43880 -0.74457 250 249 250
-0.28763 -0.44148 -0.74081 250 249 250
-0.28118 -0.44416 -0.73705 250 249 250
-0.27474 -0.44684 -0.73330 250 249 250
-0.26830 -0.44951 -0.72955 250 249 251
-0.26188 -0.45218 -0.72581 250 249 251
-0.25546 -0.45485 -0.72207 250 249 251
-0.24905 -0.45752 -0.71833 250 249 251
-0.24264 -0.46018 -0.71460 250 249 251
-0.23625 -0.46283 -0.71088 250 249 251
-0.37102 -0.41690 -0.77876 250 248 250
-0.36449 -0.41961 -0.77497 250 248 250
-0.35798 -0.42231 -0.77118 250 248 250
-0.35147 -0.42501 -0.76740 250 248 250
-0.34497 -0.42770 -0.76362 250 248 250
-0.33848 -0.43039 -0.75985 250 248 250
-0.33200 -0.43308 -0.75608 250 248 250
-0.32553 -0.43576 -0.75231 250 248 250
-0.31906 -0.43844 -0.74855 250 248 250
-0.31260 -0.44112 -0.74480 250 249 250
-0.39329 -0.43739 -0.76040 250 248 250
-0.39846 -0.44499 -0.75313 250 248 250
-0.41000 -0.44990 -0.74963 250 248 250
-0.40358 -0.45254 -0.74592 250 248 250
-0.42147 -0.45478 -0.74614 250 248 250
-0.41506 -0.45740 -0.74246 250 248 250
-0.40866 -0.46002 -0.73877 250 248 250
-0.43285 -0.45963 -0.74269 250 248 250
-0.42646 -0.46223 -0.73901 250 248 250
-0.42008 -0.46484 -0.73534 250 248 250
-0.41370 -0.46744 -0.73168 250 248 250
-0.44416 -0.46444 -0.73925 250 248 250
-0.43779 -0.46703 -0.73559 250 248 250
-0.43142 -0.46963 -0.73194 250 248 250
-0.42506 -0.47222 -0.72829 250 248 250
-0.41870 -0.47481 -0.72464 250 248 250
-0.45540 -0.46922 -0.73584 250 248 250
-0.44904 -0.47180 -0.73220 250 248 250
-0.44268 -0.47438 -0.72856 250 248 250
-0.43633 -0.47696 -0.72492 250 248 250
-0.43000 -0.47954 -0.72129 250 248 250
-0.42366 -0.48212 -0.71766 250 248 250
-0.41734 -0.48469 -0.71404 250 248 250
-0.46655 -0.47396 -0.73245 250 248 250
-0.46021 -0.47654 -0.72882 250 248 250
-0.45387 -0.47911 -0.72520 250 248 250
-0.44754 -0.48168 -0.72157 250 248 250
-0.44121 -0.48424 -0.71796 250 248 250
-0.43489 -0.48680 -0.71434 250 248 250
-0.42859 -0.48936 -0.71073 250 248 250
-0.42228 -0.49192 -0.70713 250 248 250
0.38026 -0.29514 -0.77106 254 254 254
0.38755 -0.29819 -0.76690 254 254 254
0.39482 -0.30124 -0.76275 254 254 254
0.40934 -0.30732 -0.75446 254 254 254
0.41658 -0.31035 -0.75032 254 254 254
0.42382 -0.31338 -0.74619 254 254 254
0.43104 -0.31641 -0.74206 254 254 254
0.43825 -0.31943 -0.73795 254 254 254
0.44546 -0.32244 -0.73383 254 254 254
0.45265 -0.32545 -0.72973 254 254 254
0.37205 -0.30530 -0.76243 254 254 254
0.37931 -0.30833 -0.75830 254 254 254
0.38656 -0.31136 -0.75417 254 254 254
0.39380 -0.31438 -0.75004 254 254 254
0.40103 -0.31740 -0.74592 254 254 254
0.40825 -0.32041 -0.74181 254 254 254
0.41546 -0.32342 -0.73770 254 254 254
0.43702 -0.33242 -0.72542 254 254 254
0.44419 -0.33541 -0.72134 254 254 254
0.45135 -0.33840 -0.71726 254 254 254
0.36392 -0.31538 -0.75388 254 254 254
0.37115 -0.31839 -0.74977 254 254 254
0.37838 -0.32139 -0.74566 254 254 254
0.38559 -0.32440 -0.74156 254 254 254
0.39280 -0.32739 -0.73747 254 254 254
0.39999 -0.33039 -0.73338 254 254 254
0.40717 -0.33338 -0.72929 254 254 254
0.41435 -0.33636 -0.72522 254 254 254
0.42866 -0.34232 -0.71708 254 254 254
0.43581 -0.34529 -0.71302 254 254 254
0.44294 -0.34826 -0.70896 254 254 254
0.34863 -0.32237 -0.74950 254 254 254
0.35585 -0.32537 -0.74540 254 254 254
0.36306 -0.32836 -0.74131 254 254 254
0.37026 -0.33134 -0.73723 254 254 254
0.37745 -0.33432 -0.73315 254 254 254
0.38463 -0.33730 -0.72908 254 254 254
0.39180 -0.34028 -0.72501 254 254 254
0.39896 -0.34324 -0.72095 254 254 254
0.40611 -0.34621 -0.71690 254 254 254
0.42037 -0.35213 -0.70881 254 254 254
0.42749 -0.35508 -0.70477 254 254 254
0.43460 -0.35803 -0.70074 254 254 254
0.34066 -0.33229 -0.74106 254 254 254
0.34785 -0.33527 -0.73699 254 254 254
0.35504 -0.33824 -0.73293 254 254 254
0.36221 -0.34121 -0.72887 254 254 254
0.36938 -0.34417 -0.72481 254 254 254
0.37653 -0.34713 -0.72076 254 254 254
0.38368 -0.35008 -0.71672 254 254 254
0.39081 -0.35303 -0.71268 254 254 254
0.39794 -0.35598 -0.70865 254 254 254
0.40505 -0.35892 -0.70463 254 254 254
0.32557 -0.33917 -0.73676 254 254 254
0.33275 -0.34213 -0.73270 254 254 254
0.33992 -0.34509 -0.72865 254 254 254
0.34708 -0.34804 -0.72461 254 254 254
0.35423 -0.35099 -0.72058 254 254 254
0.36137 -0.35393 -0.71654 254 254 254
0.36850 -0.35687 -0.71252 254 254 254
0.37562 -0.35980 -0.70850 254 254 254
0.38273 -0.36273 -0.70448 254 254 254
0.38983 -0.36566 -0.70047 254 254 254
0.39692 -0.36858 -0.69647 254 254 254
0.40400 -0.37150 -0.69247 254 254 254
0.31059 -0.34601 -0.73248 254 254 254
0.31776 -0.34895 -0.72844 254 254 254
0.32491 -0.35189 -0.72441 254 254 254
0.33206 -0.35483 -0.72039 254 254 254
0.33919 -0.35776 -0.71637 254 254 254
0.34632 -0.36069 -0.71235 254 254 254
0.35344 -0.36361 -0.70834 254 254 254
0.36054 -0.36653 -0.70434 254 254 254
0.36764 -0.36945 -0.70034 254 254 254
0.37472 -0.37236 -0.69635 254 254 254
0.38180 -0.37526 -0.69237 254 254 254
0.38887 -0.37817 -0.68839 254 254 254
0.39592 -0.38107 -0.68441 254 254 254
0.40297 -0.38396 -0.68044 254 254 254
0.28856 -0.34986 -0.73226 254 254 254
0.29572 -0.35279 -0.72823 254 254 254
0.30287 -0.35572 -0.72421 254 254 254
0.31001 -0.35864 -0.72020 254 254 254
0.31714 -0.36156 -0.71619 254 254 254
0.32426 -0.36448 -0.71219 254 254 254
0.33137 -0.36739 -0.70819 254 254 254
0.33847 -0.37030 -0.70420 254 254 254
0.34556 -0.37321 -0.70021 254 254 254
0.35265 -0.37611 -0.69623 254 254 254
0.35972 -0.37901 -0.69226 254 254 254
0.36678 -0.38190 -0.68829 254 254 254
0.37383 -0.38479 -0.68432 254 254 254
0.38087 -0.38767 -0.68037 254 254 254
0.38791 -0.39055 -0.67641 254 254 254
0.25948 -0.35076 -0.73606 254 254 254
0.26664 -0.35368 -0.73204 254 254 254
0.27380 -0.35661 -0.72803 254 254 254
0.28094 -0.35953 -0.72402 254 254 254
0.28808 -0.36244 -0.72002 254 254 254
0.29521 -0.36535 -0.71602 254 254 254
0.30232 -0.36826 -0.71203 254 254 254
0.30943 -0.37116 -0.70804 254 254 254
0.31653 -0.37406 -0.70406 254 254 254
0.32361 -0.37695 -0.70008 254 254 254
0.33069 -0.37984 -0.69612 254 254 254
0.33776 -0.38273 -0.69215 254 254 254
0.34482 -0.38561 -0.68819 254 254 254
0.35186 -0.38849 -0.68424 254 254 254
0.35890 -0.39136 -0.68029 254 254 254
0.36593 -0.39423 -0.67635 254 254 254
0.23052 -0.35166 -0.73984 254 254 254
0.23769 -0.35458 -0.73583 254 254 254
0.24485 -0.35749 -0.73182 254 254 254
0.25200 -0.36040 -0.72782 254 254 254
0.25914 -0.36331 -0.72382 254 254 254
0.26628 -0.36621 -0.71983 254 254 254
0.27340 -0.36911 -0.71584 254 254 254
0.28051 -0.37201 -0.71186 254 254 254
0.28761 -0.37490 -0.70789 254 254 254
0.29470 -0.37779 -0.70392 254 254 254
0.30179 -0.38067 -0.69996 254 254 254
0.30886 -0.38355 -0.69600 254 254 254
0.31592 -0.38643 -0.69204 254 254 254
0.32297 -0.38930 -0.68810 254 254 254
0.33002 -0.39217 -0.68416 254 254 254
0.33705 -0.39503 -0.68022 254 254 254
0.34408 -0.39789 -0.67629 254 254 254
0.35109 -0.40075 -0.67236 254 254 254
0.35809 -0.40360 -0.66844 254 254 254
0.36509 -0.40645 -0.66453 254 254 254
0.37905 -0.41213 -0.65671 254 254 254
0.38602 -0.41497 -0.65281 254 254 254
0.39297 -0.41780 -0.64892 254 254 254
0.39992 -0.42063 -0.64503 254 254 254
0.40686 -0.42345 -0.64115 254 254 254
0.42070 -0.42909 -0.63340 254 254 254
0.42761 -0.43190 -0.62953 254 254 254
0.43451 -0.43471 -0.62567 254 254 254
0.46887 -0.44870 -0.60644 254 254 254
0.20168 -0.35255 -0.74361 254 254 254
0.20886 -0.35546 -0.73960 254 254 254
0.21602 -0.35837 -0.73560 254 254 254
0.22318 -0.36128 -0.73161 254 254 254
0.23033 -0.36418 -0.72761 254 254 254
0.23746 -0.36708 -0.72363 254 254 254
0.24459 -0.36997 -0.71965 254 254 254
0.25171 -0.37286 -0.71567 254 254 254
0.25882 -0.37574 -0.71170 254 254 254
0.26591 -0.37862 -0.70774 254 254 254
0.27300 -0.38150 -0.70378 254 254 254
0.28008 -0.38437 -0.69983 254 254 254
0.28715 -0.38724 -0.69588 254 254 254
0.29421 -0.39011 -0.69194 254 254 254
0.30125 -0.39297 -0.68800 254 254 254
0.30829 -0.39583 -0.68407 254 254 254
0.31532 -0.39868 -0.68015 254 254 254
0.32234 -0.40153 -0.67623 254 254 254
0.32935 -0.40437 -0.67231 254 254 254
0.33635 -0.40722 -0.66840 254 254 254
0.34334 -0.41005 -0.66450 254 254 254
0.35032 -0.41289 -0.66060 254 254 254
0.35729 -0.41572 -0.65670 254 254 254
0.36426 -0.41854 -0.65282 254 254 254
0.37121 -0.42137 -0.64893 254 254 254
0.37815 -0.42418 -0.64506 254 254 254
0.38509 -0.42700 -0.64118 254 254 254
0.39201 -0.42981 -0.63732 254 254 254
0.39892 -0.43262 -0.63346 254 254 254
0.18014 -0.35635 -0.74336 254 254 254
0.18732 -0.35925 -0.73937 254 254 254
0.19448 -0.36215 -0.73537 254 254 254
0.20163 -0.36504 -0.73139 254 254 254
0.20877 -0.36793 -0.72741 254 254 254
0.21590 -0.37082 -0.72343 254 254 254
0.22303 -0.37370 -0.71947 254 254 254
0.23014 -0.37658 -0.71550 254 254 254
0.23724 -0.37945 -0.71154 254 254 254
0.24433 -0.38233 -0.70759 254 254 254
0.25142 -0.38519 -0.70364 254 254 254
0.25849 -0.38805 -0.69970 254 254 254
0.26555 -0.39091 -0.69576 254 254 254
0.27261 -0.39377 -0.69183 254 254 254
0.27965 -0.39662 -0.68791 254 254 254
0.28669 -0.39947 -0.68399 254 254 254
0.29371 -0.40231 -0.68007 254 254 254
0.30073 -0.40515 -0.67616 254 254 254
0.30773 -0.40798 -0.67226 254 254 254
0.31473 -0.41081 -0.66836 254 254 254
0.32171 -0.41364 -0.66447 254 254 254
0.32869 -0.41646 -0.66058 254 254 254
0.33566 -0.41928 -0.65670 254 254 254
0.34262 -0.42210 -0.65282 254 254 254
0.34956 -0.42491 -0.64895 254 254 254
0.35650 -0.42772 -0.64508 254 254 254
0.36343 -0.43052 -0.64122 254 254 254
0.37035 -0.43333 -0.63736 254 254 254
0.37726 -0.43612 -0.63351 254 254 254
0.38416 -0.43891 -0.62966 254 254 254
0.02065 -0.30441 -0.81990 254 254 254
0.02801 -0.30738 -0.81581 254 254 254
0.03536 -0.31034 -0.81172 254 254 254
0.04269 -0.31330 -0.80764 254 254 254
0.05002 -0.31626 -0.80357 254 254 254
0.05734 -0.31921 -0.79950 254 254 254
0.06465 -0.32216 -0.79543 254 254 254
0.07195 -0.32511 -0.79138 254 254 254
0.07923 -0.32805 -0.78732 254 254 254
0.08651 -0.33098 -0.78328 254 254 254
0.09378 -0.33392 -0.77923 254 254 254
0.10103 -0.33684 -0.77520 254 254 254
0.10828 -0.33977 -0.77117 254 254 254
0.11552 -0.34269 -0.76714 254 254 254
0.12274 -0.34560 -0.76313 254 254 254
0.12996 -0.34852 -0.75911 254 254 254
0.13717 -0.35142 -0.75510 254 254 254
0.14436 -0.35433 -0.75110 254 254 254
0.15155 -0.35723 -0.74711 254 254 254
0.15873 -0.36012 -0.74311 254 254 254
0.16589 -0.36302 -0.73913 254 254 254
0.17305 -0.36590 -0.73515 254 254 254
0.18020 -0.36879 -0.73117 254 254 254
0.18734 -0.37167 -0.72721 254 254 254
0.19446 -0.37454 -0.72324 254 254 254
0.20158 -0.37741 -0.71928 254 254 254
0.20869 -0.38028 -0.71533 254 254 254
0.21579 -0.38315 -0.71138 254 254 254
0.22287 -0.38601 -0.70744 254 254 254
0.22995 -0.38886 -0.70351 254 254 254
0.23702 -0.39172 -0.69957 254 254 254
0.24408 -0.39456 -0.69565 254 254 254
0.25113 -0.39741 -0.69173 254 254 254
0.25817 -0.40025 -0.68781 254 254 254
0.26520 -0.40308 -0.68390 254 254 254
0.27222 -0.40592 -0.68000 254 254 254
0.27923 -0.40875 -0.67610 254 254 254
0.28623 -0.41157 -0.67221 254 254 254
0.29322 -0.41439 -0.66832 254 254 254
0.30020 -0.41721 -0.66444 254 254 254
0.30718 -0.42002 -0.66056 254 254 254
0.31414 -0.42283 -0.65669 254 254 254
0.32109 -0.42564 -0.65282 254 254 254
0.32804 -0.42844 -0.64896 254 254 254
0.33497 -0.43124 -0.64510 254 254 254
0.34190 -0.43403 -0.64125 254 254 254
0.34881 -0.43682 -0.63741 254 254 254
0.35572 -0.43961 -0.63356 254 254 254
0.36261 -0.44239 -0.62973 254 254 254
0.36950 -0.44517 -0.62590 254 254 254
0.37638 -0.44795 -0.62207 254 254 254
0.01415 -0.31428 -0.81128 254 254 254
0.02148 -0.31723 -0.80721 254 254 254
0.02880 -0.32018 -0.80315 254 254 254
0.03612 -0.32312 -0.79909 254 254 254
0.04342 -0.32606 -0.79504 254 254 254
0.05071 -0.32899 -0.79099 254 254 254
0.05799 -0.33192 -0.78695 254 254 254
0.06526 -0.33485 -0.78292 254 254 254
0.07253 -0.33777 -0.77889 254 254 254
0.07978 -0.34069 -0.77486 254 254 254
0.08702 -0.34360 -0.77084 254 254 254
0.09425 -0.34651 -0.76683 254 254 254
0.10147 -0.34941 -0.76282 254 254 254
0.10868 -0.35231 -0.75882 254 254 254
0.11589 -0.35521 -0.75482 254 254 254
0.12308 -0.35810 -0.75083 254 254 254
0.13026 -0.36099 -0.74685 254 254 254
0.13743 -0.36388 -0.74287 254 254 254
0.14459 -0.36676 -0.73889 254 254 254
0.15174 -0.36964 -0.73492 254 254 254
0.15889 -0.37251 -0.73096 254 254 254
0.16602 -0.37538 -0.72700 254 254 254
0.17314 -0.37825 -0.72305 254 254 254
0.18025 -0.38111 -0.71910 254 254 254
0.18736 -0.38396 -0.71516 254 254 254
0.19445 -0.38682 -0.71123 254 254 254
0.20153 -0.38967 -0.70729 254 254 254
0.20860 -0.39251 -0.70337 254 254 254
0.21567 -0.39536 -0.69945 254 254 254
0.22272 -0.39819 -0.69553 254 254 254
0.22977 -0.40103 -0.69162 254 254 254
0.23680 -0.40386 -0.68772 254 254 254
0.24383 -0.40668 -0.68382 254 254 254
0.25084 -0.40951 -0.67993 254 254 254
0.25785 -0.41233 -0.67604 254 254 254
0.26485 -0.41514 -0.67216 254 254 254
0.27183 -0.41795 -0.66828 254 254 254
0.27881 -0.42076 -0.66441 254 254 254
0.28578 -0.42356 -0.66054 254 254 254
0.29274 -0.42636 -0.65668 254 254 254
0.29969 -0.42916 -0.65282 254 254 254
0.30663 -0.43195 -0.64897 254 254 254
0.31356 -0.43474 -0.64513 254 254 254
0.32048 -0.43752 -0.64129 254 254 254
0.32739 -0.44030 -0.63745 254 254 254
0.33429 -0.44308 -0.63362 254 254 254
0.34118 -0.44585 -0.62979 254 254 254
0.34807 -0.44862 -0.62597 254 254 254
0.35494 -0.45139 -0.62216 254 254 254
0.36181 -0.45415 -0.61835 254 254 254
0.36866 -0.45691 -0.61455 254 254 254
0.00771 -0.32407 -0.80273 254 254 254
0.01501 -0.32700 -0.79869 254 254 254
0.02231 -0.32993 -0.79465 254 254 254
0.02960 -0.33285 -0.79061 254 254 254
0.03687 -0.33577 -0.78658 254 254 254
0.04414 -0.33869 -0.78256 254 254 254
0.05139 -0.34160 -0.77854 254 254 254
0.05864 -0.34450 -0.77453 254 254 254
0.06588 -0.34741 -0.77052 254 254 254
0.07310 -0.35031 -0.76652 254 254 254
0.08032 -0.35320 -0.76252 254 254 254
0.08752 -0.35609 -0.75853 254 254 254
0.09472 -0.35898 -0.75454 254 254 254
0.10191 -0.36186 -0.75057 254 254 254
0.10908 -0.36474 -0.74659 254 254 254
0.11625 -0.36761 -0.74262 254 254 254
0.12341 -0.37048 -0.73866 254 254 254
0.13055 -0.37335 -0.73470 254 254 254
0.13769 -0.37621 -0.73075 254 254 254
0.14482 -0.37907 -0.72680 254 254 254
0.15193 -0.38193 -0.72286 254 254 254
0.15904 -0.38478 -0.71892 254 254 254
0.16614 -0.38763 -0.71499 254 254 254
0.17323 -0.39047 -0.71107 254 254 254
0.18031 -0.39331 -0.70715 254 254 254
0.18737 -0.39614 -0.70323 254 254 254
0.19443 -0.39898 -0.69932 254 254 254
0.20148 -0.40180 -0.69542 254 254 254
0.20852 -0.40463 -0.69152 254 254 254
0.21555 -0.40745 -0.68763 254 254 254
0.22257 -0.41026 -0.68374 254 254 254
0.22958 -0.41308 -0.67986 254 254 254
0.23659 -0.41589 -0.67598 254 254 254
0.24358 -0.41869 -0.67211 254 254 254
0.25056 -0.42149 -0.66824 254 254 254
0.25753 -0.42429 -0.66438 254 254 254
0.26450 -0.42708 -0.66052 254 254 254
0.27145 -0.42987 -0.65667 254 254 254
0.27840 -0.43266 -0.65283 254 254 254
0.30608 -0.44376 -0.63749 254 254 254
0.31298 -0.44653 -0.63367 254 254 254
0.31987 -0.44929 -0.62986 254 254 254
0.32675 -0.45205 -0.62605 254 254 254
0.33362 -0.45481 -0.62224 254 254 254
0.34048 -0.45756 -0.61844 254 254 254
0.34733 -0.46031 -0.61465 254 254 254
0.35417 -0.46305 -0.61086 254 254 254
0.36100 -0.46579 -0.60708 254 254 254
-0.00598 -0.33087 -0.79829 254 254 254
0.00131 -0.33378 -0.79426 254 254 254
0.00860 -0.33669 -0.79023 254 254 254
0.01587 -0.33960 -0.78621 254 254 254
0.02313 -0.34251 -0.78220 254 254 254
0.03038 -0.34541 -0.77819 254 254 254
0.03762 -0.34830 -0.77419 254 254 254
0.04485 -0.35120 -0.77020 254 254 254
0.05207 -0.35408 -0.76621 254 254 254
0.05928 -0.35697 -0.76222 254 254 254
0.06648 -0.35985 -0.75824 254 254 254
0.07367 -0.36272 -0.75427 254 254 254
0.08085 -0.36560 -0.75030 254 254 254
0.08802 -0.36846 -0.74634 254 254 254
0.09518 -0.37133 -0.74238 254 254 254
0.10234 -0.37419 -0.73843 254 254 254
0.10948 -0.37704 -0.73448 254 254 254
0.11661 -0.37990 -0.73054 254 254 254
0.12373 -0.38275 -0.72660 254 254 254
0.13084 -0.38559 -0.72267 254 254 254
0.13795 -0.38843 -0.71875 254 254 254
0.14504 -0.39127 -0.71483 254 254 254
0.15212 -0.39410 -0.71091 254 254 254
0.15920 -0.39693 -0.70700 254 254 254
0.16626 -0.39976 -0.70310 254 254 254
0.17331 -0.40258 -0.69920 254 254 254
0.18036 -0.40539 -0.69531 254 254 254
0.18739 -0.40821 -0.69142 254 254 254
0.19442 -0.41102 -0.68754 254 254 254
0.20144 -0.41382 -0.68366 254 254 254
0.20844 -0.41663 -0.67979 254 254 254
0.21544 -0.41943 -0.67592 254 254 254
0.22243 -0.42222 -0.67206 254 254 254
0.22940 -0.42501 -0.66820 254 254 254
0.23637 -0.42780 -0.66435 254 254 254
0.24333 -0.43058 -0.66050 254 254 254
0.25028 -0.43336 -0.65666 254 254 254
0.25722 -0.43614 -0.65283 254 254 254
0.30554 -0.45546 -0.62612 254 254 254
0.31241 -0.45821 -0.62233 254 254 254
0.31926 -0.46095 -0.61854 254 254 254
0.32611 -0.46369 -0.61476 254 254 254
0.33295 -0.46643 -0.61098 254 254 254
0.33978 -0.46916 -0.60720 254 254 254
0.34660 -0.47188 -0.60343 254 254 254
-0.01956 -0.33761 -0.79387 254 254 254
-0.01229 -0.34051 -0.78986 254 254 254
-0.00502 -0.34341 -0.78585 254 254 254
0.00223 -0.34631 -0.78185 254 254 254
0.00948 -0.34920 -0.77785 254 254 254
0.01671 -0.35208 -0.77386 254 254 254
0.02394 -0.35496 -0.76988 254 254 254
0.03115 -0.35784 -0.76590 254 254 254
0.03836 -0.36071 -0.76192 254 254 254
0.04555 -0.36358 -0.75795 254 254 254
0.05274 -0.36645 -0.75399 254 254 254
0.05991 -0.36931 -0.75003 254 254 254
0.06708 -0.37217 -0.74608 254 254 254
0.07424 -0.37502 -0.74214 254 254 254
0.08138 -0.37787 -0.73819 254 254 254
0.08852 -0.38072 -0.73426 254 254 254
0.09564 -0.38356 -0.73033 254 254 254
0.10276 -0.38640 -0.72640 254 254 254
0.10987 -0.38923 -0.72248 254 254 254
0.11697 -0.39206 -0.71857 254 254 254
0.12405 -0.39489 -0.71466 254 254 254
0.13113 -0.39771 -0.71075 254 254 254
0.13820 -0.40053 -0.70686 254 254 254
0.14526 -0.40335 -0.70296 254 254 254
0.15231 -0.40616 -0.69908 254 254 254
0.15935 -0.40897 -0.69519 254 254 254
0.16638 -0.41177 -0.69132 254 254 254
0.17340 -0.41457 -0.68744 254 254 254
0.18041 -0.41737 -0.68358 254 254 254
0.18741 -0.42016 -0.67972 254 254 254
0.19440 -0.42295 -0.67586 254 254 254
0.20139 -0.42573 -0.67201 254 254 254
0.20836 -0.42851 -0.66816 254 254 254
0.21532 -0.43129 -0.66432 254 254 254
0.22228 -0.43406 -0.66049 254 254 254
0.22922 -0.43683 -0.65665 254 254 254
0.23616 -0.43960 -0.65283 254 254 254
0.24309 -0.44236 -0.64901 254 254 254
0.29816 -0.46433 -0.61863 254 254 254
0.30501 -0.46706 -0.61486 254 254 254
0.31184 -0.46978 -0.61109 254 254 254
0.31866 -0.47250 -0.60733 254 254 254
0.32548 -0.47522 -0.60357 254 254 254
0.33229 -0.47794 -0.59981 254 254 254
-0.03306 -0.34431 -0.78948 254 254 254
-0.02580 -0.34720 -0.78548 254 254 254
-0.01855 -0.35008 -0.78149 254 254 254
-0.01131 -0.35296 -0.77751 254 254 254
-0.00408 -0.35584 -0.77353 254 254 254
0.00314 -0.35871 -0.76956 254 254 254
0.01035 -0.36158 -0.76559 254 254 254
0.01755 -0.36444 -0.76163 254 254 254
0.02474 -0.36730 -0.75767 254 254 254
0.03192 -0.37015 -0.75372 254 254 254
0.03909 -0.37300 -0.74977 254 254 254
0.04625 -0.37585 -0.74583 254 254 254
0.05340 -0.37870 -0.74189 254 254 254
0.06054 -0.38154 -0.73796 254 254 254
0.06767 -0.38437 -0.73404 254 254 254
0.07479 -0.38720 -0.73012 254 254 254
0.08191 -0.39003 -0.72620 254 254 254
0.08901 -0.39286 -0.72230 254 254 254
0.09610 -0.39568 -0.71839 254 254 254
0.10318 -0.39849 -0.71449 254 254 254
0.11026 -0.40130 -0.71060 254 254 254
0.11732 -0.40411 -0.70671 254 254 254
0.12437 -0.40692 -0.70283 254 254 254
0.13142 -0.40972 -0.69895 254 254 254
0.13845 -0.41252 -0.69508 254 254 254
0.14548 -0.41531 -0.69121 254 254 254
0.15249 -0.41810 -0.68735 254 254 254
0.15950 -0.42089 -0.68350 254 254 254
0.16650 -0.42367 -0.67964 254 254 254
0.17349 -0.42645 -0.67580 254 254 254
0.18046 -0.42922 -0.67196 254 254 254
0.18743 -0.43199 -0.66812 254 254 254
0.19439 -0.43476 -0.66429 254 254 254
0.20134 -0.43753 -0.66047 254 254 254
0.20828 -0.44029 -0.65665 254 254 254
0.21521 -0.44304 -0.65283 254 254 254
0.22213 -0.44579 -0.64902 254 254 254
0.22905 -0.44854 -0.64522 254 254 254
0.29084 -0.47312 -0.61120 254 254 254
0.29766 -0.47583 -0.60745 254 254 254
0.30448 -0.47854 -0.60370 254 254 254
0.31128 -0.48124 -0.59996 254 254 254
0.31807 -0.48395 -0.59622 254 254 254
-0.05371 -0.34809 -0.78911 253 253 253
-0.04646 -0.35097 -0.78512 253 253 253
-0.03921 -0.35384 -0.78114 253 253 254
-0.03198 -0.35671 -0.77717 254 254 254
-0.02476 -0.35957 -0.77320 254 254 254
-0.01754 -0.36243 -0.76924 254 254 254
-0.01034 -0.36529 -0.76528 254 254 254
-0.00314 -0.36814 -0.76133 254 254 254
0.00404 -0.37099 -0.75738 254 254 254
0.01121 -0.37384 -0.75344 254 254 254
0.01838 -0.37668 -0.74951 254 254 254
0.02553 -0.37952 -0.74558 254 254 254
0.03268 -0.38235 -0.74165 254 254 254
0.03982 -0.38518 -0.73773 254 254 254
0.04694 -0.38800 -0.73382 254 254 254
0.05406 -0.39083 -0.72991 254 254 254
0.06116 -0.39364 -0.72601 254 254 254
0.06826 -0.39646 -0.72211 254 254 254
0.07535 -0.39927 -0.71822 254 254 254
0.08243 -0.40207 -0.71433 254 254 254
0.08949 -0.40488 -0.71045 254 254 254
0.09655 -0.40768 -0.70657 254 254 254
0.10360 -0.41047 -0.70270 254 254 254
0.11064 -0.41326 -0.69883 254 254 254
0.11767 -0.41605 -0.69497 254 254 254
0.12469 -0.41883 -0.69111 254 254 254
0.13170 -0.42161 -0.68726 254 254 254
0.13870 -0.42439 -0.68342 254 254 254
0.14570 -0.42716 -0.67957 254 254 254
0.15268 -0.42993 -0.67574 254 254 254
0.15965 -0.43270 -0.67191 254 254 254
0.16661 -0.43546 -0.66808 254 254 254
0.17357 -0.43822 -0.66426 254 254 254
0.18051 -0.44097 -0.66045 254 254 254
0.18745 -0.44372 -0.65664 254 254 254
0.19438 -0.44647 -0.65283 254 254 254
0.20129 -0.44921 -0.64903 254 254 254
0.20820 -0.45195 -0.64524 254 254 254
0.21510 -0.45468 -0.64145 254 254 254
0.28358 -0.48184 -0.60383 254 254 254
0.29038 -0.48454 -0.60010 254 254 254
0.29717 -0.48723 -0.59637 254 254 254
0.30395 -0.48992 -0.59265 254 254 254
-0.08151 -0.34898 -0.79272 253 253 253
-0.07425 -0.35185 -0.78874 253 253 253
-0.06701 -0.35472 -0.78476 253 253 253
-0.05977 -0.35758 -0.78080 253 253 253
-0.05254 -0.36044 -0.77683 253 253 253
-0.04532 -0.36329 -0.77288 253 253 253
-0.03811 -0.36614 -0.76892 254 253 254
-0.03091 -0.36899 -0.76498 254 254 254
-0.02373 -0.37183 -0.76104 254 254 254
-0.01655 -0.37467 -0.75710 254 254 254
-0.00938 -0.37750 -0.75317 254 254 254
-0.00222 -0.38033 -0.74925 254 254 254
0.00493 -0.38316 -0.74533 254 254 254
0.01207 -0.38598 -0.74141 254 254 254
0.01920 -0.38880 -0.73751 254 254 254
0.02632 -0.39162 -0.73360 254 254 254
0.03343 -0.39443 -0.72970 254 254 254
0.04053 -0.39724 -0.72581 254 254 254
0.04763 -0.40004 -0.72192 254 254 254
0.05471 -0.40284 -0.71804 254 254 254
0.06178 -0.40564 -0.71416 254 254 254
0.06884 -0.40843 -0.71029 254 254 254
0.07590 -0.41122 -0.70643 254 254 254
0.08294 -0.41400 -0.70256 254 254 254
0.08997 -0.41679 -0.69871 254 254 254
0.09700 -0.41956 -0.69486 254 254 254
0.10401 -0.42234 -0.69101 254 254 254
0.11102 -0.42511 -0.68717 254 254 254
0.11802 -0.42787 -0.68334 254 254 254
0.12500 -0.43064 -0.67950 254 254 254
0.13198 -0.43340 -0.67568 254 254 254
0.13895 -0.43615 -0.67186 254 254 254
0.14591 -0.43890 -0.66804 254 254 254
0.15286 -0.44165 -0.66424 254 254 254
0.15980 -0.44440 -0.66043 254 254 254
0.16673 -0.44714 -0.65663 254 254 254
0.17365 -0.44987 -0.65284 254 254 254
0.18057 -0.45261 -0.64905 254 254 254
0.18747 -0.45534 -0.64526 254 254 254
0.19436 -0.45806 -0.64148 254 254 254
0.20125 -0.46078 -0.63771 254 254 254
0.26960 -0.48781 -0.60024 254 254 254
0.27638 -0.49049 -0.59652 254 254 254
-0.10193 -0.35273 -0.79234 252 252 252
-0.09468 -0.35559 -0.78837 252 252 253
-0.08744 -0.35844 -0.78441 253 253 253
-0.08021 -0.36129 -0.78045 253 253 253
-0.07299 -0.36414 -0.77650 253 253 253
-0.06577 -0.36699 -0.77255 253 253 253
-0.05857 -0.36983 -0.76861 253 253 253
-0.05138 -0.37266 -0.76468 253 253 253
-0.04420 -0.37549 -0.76075 253 253 253
-0.03702 -0.37832 -0.75682 253 253 253
-0.02986 -0.38115 -0.75290 253 253 254
-0.02270 -0.38397 -0.74899 254 254 254
-0.01556 -0.38678 -0.74508 254 254 254
-0.00843 -0.38960 -0.74118 254 254 254
-0.00130 -0.39241 -0.73728 254 254 254
0.00581 -0.39521 -0.73339 254 254 254
0.01292 -0.39801 -0.72950 254 254 254
0.02002 -0.40081 -0.72562 254 254 254
0.02710 -0.40361 -0.72174 254 254 254
0.03418 -0.40640 -0.71787 254 254 254
0.04125 -0.40918 -0.71400 254 254 254
0.04830 -0.41197 -0.71014 254 254 254
0.05535 -0.41474 -0.70628 254 254 254
0.06239 -0.41752 -0.70243 254 254 254
0.06942 -0.42029 -0.69859 254 254 254
0.07644 -0.42306 -0.69475 254 254 254
0.08345 -0.42582 -0.69091 254 254 254
0.09045 -0.42858 -0.68708 254 254 254
0.09744 -0.43134 -0.68326 254 254 254
0.10442 -0.43409 -0.67944 254 254 254
0.11140 -0.43684 -0.67562 254 254 254
0.11836 -0.43959 -0.67181 254 254 254
0.12532 -0.44233 -0.66801 254 254 254
0.13226 -0.44507 -0.66421 254 254 254
0.13920 -0.44780 -0.66041 254 254 254
0.14612 -0.45053 -0.65662 254 254 254
0.15304 -0.45326 -0.65284 254 254 254
0.15995 -0.45599 -0.64906 254 254 254
0.16685 -0.45871 -0.64528 254 254 254
0.17374 -0.46142 -0.64152 254 254 254
0.18062 -0.46413 -0.63775 254 254 254
0.18749 -0.46684 -0.63399 254 254 254
-0.12950 -0.35360 -0.79592 252 252 252
-0.12225 -0.35645 -0.79196 252 252 252
-0.11500 -0.35930 -0.78800 252 252 252
-0.10776 -0.36215 -0.78405 252 252 252
-0.10054 -0.36499 -0.78010 252 252 252
-0.09332 -0.36783 -0.77616 252 252 252
-0.08611 -0.37066 -0.77223 252 252 252
-0.07892 -0.37349 -0.76830 252 252 253
-0.07173 -0.37632 -0.76437 253 253 253
-0.06455 -0.37914 -0.76046 253 253 253
-0.05739 -0.38196 -0.75654 253 253 253
-0.05023 -0.38477 -0.75263 253 253 253
-0.04308 -0.38758 -0.74873 253 253 253
-0.03594 -0.39039 -0.74483 253 253 253
-0.02881 -0.39319 -0.74094 253 253 253
-0.02169 -0.39599 -0.73705 254 253 254
-0.01458 -0.39879 -0.73317 254 253 254
-0.00748 -0.40158 -0.72929 254 254 254
-0.00039 -0.40437 -0.72542 254 254 254
0.00669 -0.40715 -0.72156 254 254 254
0.01376 -0.40993 -0.71769 254 254 254
0.02082 -0.41271 -0.71384 254 254 254
0.02787 -0.41548 -0.70999 254 254 254
0.03492 -0.41825 -0.70614 254 254 254
0.04195 -0.42101 -0.70230 254 254 254
0.04898 -0.42378 -0.69847 254 254 254
0.05599 -0.42653 -0.69464 254 254 254
0.06299 -0.42929 -0.69081 254 254 254
0.06999 -0.43204 -0.68699 254 254 254
0.07698 -0.43479 -0.68318 254 254 254
0.08395 -0.43753 -0.67937 254 254 254
0.09092 -0.44027 -0.67556 254 254 254
0.09788 -0.44301 -0.67176 254 254 254
0.10483 -0.44574 -0.66797 254 254 254
0.11177 -0.44847 -0.66418 254 254 254
0.11870 -0.45119 -0.66039 254 254 254
0.12562 -0.45391 -0.65662 254 254 254
0.13254 -0.45663 -0.65284 254 254 254
0.13944 -0.45935 -0.64907 254 254 254
0.14633 -0.46206 -0.64531 254 254 254
0.15322 -0.46476 -0.64155 254 254 254
0.16009 -0.46747 -0.63779 254 254 254
0.16696 -0.47017 -0.63404 254 254 254
0.17382 -0.47286 -0.63030 254 254 254
-0.15696 -0.35447 -0.79949 252 252 252
-0.14970 -0.35732 -0.79553 252 252 252
-0.14245 -0.36016 -0.79158 252 252 252
-0.13521 -0.36300 -0.78764 252 252 252
-0.12798 -0.36583 -0.78370 252 252 252
-0.12076 -0.36867 -0.77976 252 252 252
-0.11355 -0.37149 -0.77583 252 252 252
-0.10635 -0.37432 -0.77191 252 252 252
-0.09915 -0.37714 -0.76799 252 252 252
-0.09197 -0.37995 -0.76408 252 252 252
-0.08480 -0.38276 -0.76017 252 252 252
-0.07764 -0.38557 -0.75626 253 252 253
-0.07049 -0.38838 -0.75237 253 253 253
-0.06335 -0.39118 -0.74847 253 253 253
-0.05621 -0.39397 -0.74459 253 253 253
-0.04909 -0.39677 -0.74070 253 253 253
-0.04197 -0.39956 -0.73683 253 253 253
-0.03487 -0.40234 -0.73296 253 253 253
-0.02778 -0.40512 -0.72909 253 253 253
-0.02069 -0.40790 -0.72523 253 253 253
-0.01362 -0.41068 -0.72137 253 253 253
-0.00655 -0.41345 -0.71752 253 253 254
0.00051 -0.41621 -0.71368 254 254 254
0.00755 -0.41898 -0.70984 254 254 254
0.01459 -0.42174 -0.70600 254 254 254
0.02162 -0.42449 -0.70217 254 254 254
0.02864 -0.42724 -0.69835 254 254 254
0.03565 -0.42999 -0.69453 254 254 254
0.04265 -0.43274 -0.69071 254 254 254
0.04964 -0.43548 -0.68690 254 254 254
0.05662 -0.43822 -0.68310 254 254 254
0.06359 -0.44095 -0.67930 254 254 254
0.07056 -0.44368 -0.67550 254 254 254
0.07751 -0.44641 -0.67171 254 254 254
0.08445 -0.44913 -0.66793 254 254 254
0.09139 -0.45185 -0.66415 254 254 254
0.09832 -0.45456 -0.66038 254 254 254
0.10523 -0.45728 -0.65661 254 254 254
0.11214 -0.45998 -0.65284 254 254 254
0.11904 -0.46269 -0.64908 254 254 254
0.12593 -0.46539 -0.64533 254 254 254
0.13281 -0.46809 -0.64158 254 254 254
0.13968 -0.47078 -0.63784 254 254 254
0.14654 -0.47347 -0.63410 254 254 254
0.15339 -0.47616 -0.63036 254 254 254
0.16024 -0.47884 -0.62663 254 254 254
-0.21345 -0.34394 -0.81890 252 251 251
-0.20615 -0.34679 -0.81493 252 251 251
-0.19886 -0.34965 -0.81096 252 251 251
-0.19157 -0.35249 -0.80700 252 251 251
-0.18430 -0.35534 -0.80304 252 251 251
-0.17704 -0.35818 -0.79909 252 251 251
-0.16978 -0.36101 -0.79515 252 251 252
-0.16254 -0.36385 -0.79121 252 251 252
-0.15531 -0.36668 -0.78727 252 251 252
-0.14808 -0.36950 -0.78334 252 252 252
-0.14087 -0.37232 -0.77942 252 252 252
-0.13366 -0.37514 -0.77550 252 252 252
