ply
format ascii 1.0
element face 0
property list uchar int vertex_indices
element vertex 1322
property float x
property float y
property float z
property uchar diffuse_red
property uchar diffuse_green
property uchar diffuse_blue
end_header
-1.33889 -5.46008 1.34577 73 63 74
-1.35487 -5.46585 1.34807 68 63 68
-1.37085 -5.47162 1.35036 69 73 75
-1.38682 -5.47739 1.35266 70 71 71
0.76151 -4.68391 1.02761 115 122 115
0.74488 -4.68991 1.03000 123 121 115
0.72826 -4.69591 1.03240 117 119 114
0.71164 -4.70191 1.03479 109 114 116
0.69503 -4.70791 1.03718 117 117 135
0.67843 -4.71391 1.03957 125 129 144
0.66183 -4.71990 1.04197 119 121 132
0.64523 -4.72590 1.04436 122 128 136
0.62864 -4.73189 1.04674 131 140 139
0.56234 -4.75583 1.05629 127 132 132
0.54578 -4.76181 1.05868 114 118 132
0.52922 -4.76779 1.06106 112 119 128
0.51267 -4.77377 1.06345 118 121 130
0.49613 -4.77974 1.06583 115 117 131
0.47959 -4.78571 1.06821 114 120 127
0.46306 -4.79168 1.07059 113 122 120
0.44653 -4.79765 1.07297 118 126 117
0.43001 -4.80362 1.07535 127 126 121
0.41349 -4.80958 1.07773 123 120 127
0.39698 -4.81555 1.08011 119 124 134
0.38047 -4.82151 1.08249 119 129 131
0.36397 -4.82747 1.08486 121 127 122
0.34748 -4.83342 1.08724 125 125 122
0.33099 -4.83938 1.08961 126 124 125
0.31451 -4.84533 1.09199 132 130 134
0.29803 -4.85128 1.09436 137 135 126
0.28156 -4.85723 1.09673 129 123 113
0.26509 -4.86317 1.09910 122 114 117
0.24863 -4.86912 1.10147 124 114 112
0.23217 -4.87506 1.10384 129 126 122
0.21572 -4.88100 1.10621 131 122 121
0.19928 -4.88694 1.10858 122 115 120
0.18284 -4.89288 1.11095 116 112 111
0.16640 -4.89881 1.11332 111 108 114
0.14998 -4.90474 1.11568 109 114 103
0.13355 -4.91068 1.11805 119 120 110
0.11714 -4.91660 1.12041 119 121 108
0.10072 -4.92253 1.12277 121 119 111
0.08432 -4.92846 1.12514 117 112 103
0.06792 -4.93438 1.12750 109 109 101
0.05152 -4.94030 1.12986 113 119 120
-0.01400 -4.96396 1.13930 117 121 120
-0.03037 -4.96987 1.14165 129 120 118
-0.04673 -4.97578 1.14401 119 113 113
-0.06309 -4.98169 1.14637 107 112 110
-0.07944 -4.98759 1.14872 109 101 107
-0.09579 -4.99350 1.15108 104 104 103
-0.11213 -4.99940 1.15343 99 105 96
-0.12846 -5.00529 1.15578 118 119 103
-0.14479 -5.01119 1.15813 104 100 98
-0.16111 -5.01709 1.16048 101 101 95
-0.17743 -5.02298 1.16283 105 105 99
-0.19374 -5.02887 1.16518 96 97 96
-0.21005 -5.03476 1.16753 100 94 97
-0.22635 -5.04065 1.16988 94 90 96
-0.24265 -5.04653 1.17223 97 92 96
-0.25894 -5.05241 1.17457 96 92 91
-0.27523 -5.05830 1.17692 93 92 91
-0.29151 -5.06417 1.17926 97 96 96
-0.30778 -5.07005 1.18161 96 94 94
-0.32405 -5.07593 1.18395 91 95 93
-0.34032 -5.08180 1.18629 91 96 96
-0.35657 -5.08767 1.18863 90 93 86
-0.37283 -5.09354 1.19097 80 83 78
-0.38907 -5.09941 1.19331 73 81 81
-0.55125 -5.15797 1.21667 93 91 85
-0.56744 -5.16382 1.21900 87 87 85
-0.58362 -5.16966 1.22133 84 84 84
-0.59980 -5.17551 1.22366 80 81 80
-0.61597 -5.18135 1.22599 84 80 77
-0.63214 -5.18718 1.22832 86 81 76
-0.64830 -5.19302 1.23065 84 84 76
-0.66446 -5.19885 1.23297 88 85 77
-0.68061 -5.20469 1.23530 85 84 77
-0.69675 -5.21052 1.23763 81 87 85
-0.71289 -5.21635 1.23995 90 90 90
-0.72902 -5.22217 1.24227 92 88 83
-0.74515 -5.22800 1.24460 86 85 80
-0.76128 -5.23382 1.24692 83 83 85
-0.77740 -5.23964 1.24924 87 83 87
-0.79351 -5.24546 1.25156 90 86 86
-0.80962 -5.25128 1.25388 92 87 83
-0.82572 -5.25709 1.25620 86 84 81
-0.84181 -5.26290 1.25852 81 81 83
-0.85791 -5.26871 1.26083 81 80 86
-0.87399 -5.27452 1.26315 84 82 85
-0.89007 -5.28033 1.26547 83 82 90
-0.90615 -5.28614 1.26778 85 81 89
-0.92222 -5.29194 1.27010 84 81 88
-0.93828 -5.29774 1.27241 82 84 88
-0.95434 -5.30354 1.27472 87 82 84
-0.97040 -5.30934 1.27703 82 81 86
-0.98644 -5.31513 1.27935 72 79 88
-1.00249 -5.32093 1.28166 81 81 91
-1.01853 -5.32672 1.28397 82 79 83
-1.03456 -5.33251 1.28628 78 78 83
-1.05059 -5.33830 1.28858 77 76 73
-1.06661 -5.34408 1.29089 74 74 77
-1.08262 -5.34987 1.29320 75 74 77
-1.09864 -5.35565 1.29550 80 79 89
-1.11464 -5.36143 1.29781 82 80 78
-1.13064 -5.36721 1.30011 83 79 74
-1.14664 -5.37298 1.30242 80 77 66
-1.16263 -5.37876 1.30472 75 72 73
-1.17861 -5.38453 1.30702 75 77 71
-1.19459 -5.39030 1.30932 82 78 80
-1.21057 -5.39607 1.31162 81 78 83
-1.22654 -5.40184 1.31392 78 76 72
-1.24250 -5.40760 1.31622 76 72 76
-1.25846 -5.41336 1.31852 72 76 81
-1.27441 -5.41913 1.32082 73 80 85
-1.29036 -5.42488 1.32312 73 72 78
-1.30630 -5.43064 1.32541 66 71 72
-1.32224 -5.43640 1.32771 67 68 64
-1.33817 -5.44215 1.33000 74 69 77
-1.35410 -5.44790 1.33230 70 66 76
-1.37002 -5.45365 1.33459 68 68 77
-1.38594 -5.45940 1.33688 63 67 65
0.75473 -4.66842 1.01270 114 111 115
0.73816 -4.67441 1.01509 120 119 114
0.72160 -4.68039 1.01747 115 117 114
0.70504 -4.68638 1.01986 106 113 117
0.68849 -4.69236 1.02225 115 118 129
0.67194 -4.69833 1.02463 128 117 138
0.65540 -4.70431 1.02702 122 113 127
0.63887 -4.71028 1.02940 118 113 123
0.55628 -4.74012 1.04131 123 128 125
0.53978 -4.74609 1.04369 119 118 130
0.52328 -4.75205 1.04607 114 116 131
0.50679 -4.75800 1.04844 123 126 130
0.49031 -4.76396 1.05082 118 115 117
0.47383 -4.76991 1.05320 117 114 119
0.45736 -4.77587 1.05557 121 123 120
0.44089 -4.78182 1.05795 121 123 115
0.42443 -4.78776 1.06032 120 118 116
0.40797 -4.79371 1.06269 114 111 120
0.39152 -4.79965 1.06506 110 110 124
0.37507 -4.80559 1.06744 111 112 119
0.35863 -4.81153 1.06981 112 116 115
0.34220 -4.81747 1.07217 116 121 121
0.32577 -4.82341 1.07454 119 118 126
0.30934 -4.82934 1.07691 129 129 131
0.29293 -4.83527 1.07928 131 135 132
0.27651 -4.84121 1.08165 126 130 125
0.26011 -4.84713 1.08401 117 116 127
0.24370 -4.85306 1.08638 125 129 126
0.22731 -4.85898 1.08874 125 130 132
0.21092 -4.86490 1.09110 115 117 122
0.19453 -4.87083 1.09347 116 117 117
0.17815 -4.87674 1.09583 118 122 116
0.16178 -4.88266 1.09819 124 122 123
0.14541 -4.88857 1.10055 126 121 114
0.12904 -4.89449 1.10291 127 126 122
0.11269 -4.90040 1.10527 115 115 113
0.09633 -4.90630 1.10762 120 120 113
0.07999 -4.91221 1.10998 115 110 102
0.06365 -4.91812 1.11234 109 105 102
0.04731 -4.92402 1.11469 117 114 107
-0.00167 -4.94171 1.12175 125 116 101
-0.01798 -4.94761 1.12411 117 116 120
-0.03429 -4.95350 1.12646 129 122 127
-0.05059 -4.95939 1.12881 117 110 119
-0.06689 -4.96528 1.13116 100 102 117
-0.08318 -4.97116 1.13351 108 106 108
-0.09947 -4.97705 1.13585 109 112 109
-0.11575 -4.98293 1.13820 110 110 111
-0.13203 -4.98881 1.14055 119 118 121
-0.14830 -4.99469 1.14289 104 97 108
-0.16456 -5.00057 1.14524 107 108 105
-0.18082 -5.00644 1.14758 113 113 111
-0.19708 -5.01232 1.14993 108 103 100
-0.21333 -5.01819 1.15227 107 96 95
-0.22957 -5.02406 1.15461 96 91 95
-0.24581 -5.02992 1.15695 94 97 97
-0.26204 -5.03579 1.15929 97 96 88
-0.27827 -5.04165 1.16163 95 89 88
-0.29449 -5.04751 1.16397 93 89 87
-0.31071 -5.05337 1.16631 92 89 91
-0.32692 -5.05923 1.16865 92 93 92
-0.34313 -5.06508 1.17098 93 96 103
-0.35933 -5.07094 1.17332 91 93 92
-0.37552 -5.07679 1.17566 81 84 88
-0.39171 -5.08264 1.17799 81 85 87
-0.40790 -5.08849 1.18032 84 84 81
-0.42407 -5.09433 1.18266 85 82 75
-0.53718 -5.13519 1.19896 92 93 85
-0.55331 -5.14103 1.20129 90 89 85
-0.56944 -5.14685 1.20361 86 85 81
-0.58557 -5.15268 1.20594 84 82 78
-0.60169 -5.15850 1.20826 80 79 74
-0.61780 -5.16433 1.21059 85 81 76
-0.63391 -5.17015 1.21291 90 84 84
-0.65002 -5.17596 1.21523 86 85 84
-0.66611 -5.18178 1.21755 86 84 78
-0.68221 -5.18760 1.21987 82 81 72
-0.69829 -5.19341 1.22219 78 85 78
-0.71438 -5.19922 1.22451 88 91 88
-0.73045 -5.20503 1.22683 93 89 83
-0.74653 -5.21083 1.22915 86 84 77
-0.76259 -5.21664 1.23146 82 82 81
-0.77865 -5.22244 1.23378 84 83 86
-0.79471 -5.22824 1.23609 87 85 89
-0.81076 -5.23404 1.23841 86 86 87
-0.82681 -5.23984 1.24072 81 81 76
-0.84285 -5.24564 1.24303 76 75 76
-0.85888 -5.25143 1.24535 76 75 87
-0.87491 -5.25722 1.24766 88 80 89
-0.89093 -5.26301 1.24997 85 81 89
-0.90695 -5.26880 1.25228 87 83 92
-0.92297 -5.27458 1.25459 87 85 92
-0.93897 -5.28037 1.25689 86 84 92
-0.95498 -5.28615 1.25920 89 79 83
-0.97097 -5.29193 1.26151 82 78 83
-0.98697 -5.29771 1.26381 72 76 85
-1.00295 -5.30348 1.26612 81 80 91
-1.01893 -5.30926 1.26842 83 80 81
-1.03491 -5.31503 1.27073 82 82 78
-1.05088 -5.32080 1.27303 80 81 73
-1.06685 -5.32657 1.27533 76 74 76
-1.08281 -5.33233 1.27763 70 72 72
-1.09876 -5.33810 1.27993 80 76 86
-1.11471 -5.34386 1.28223 82 76 85
-1.13066 -5.34962 1.28453 88 79 78
-1.14660 -5.35538 1.28683 84 75 62
-1.16253 -5.36114 1.28913 74 73 78
-1.17846 -5.36689 1.29142 77 77 81
-1.19438 -5.37265 1.29372 84 75 83
-1.21030 -5.37840 1.29601 83 76 81
-1.22621 -5.38415 1.29831 74 72 69
-1.24212 -5.38990 1.30060 73 70 77
-1.25803 -5.39564 1.30289 70 71 81
-1.27392 -5.40139 1.30519 72 79 91
-1.28982 -5.40713 1.30748 76 68 69
-1.30570 -5.41287 1.30977 66 67 74
-1.32158 -5.41861 1.31206 66 70 74
-1.33746 -5.42434 1.31435 77 73 82
-1.35333 -5.43008 1.31664 75 69 80
-1.36920 -5.43581 1.31892 75 68 75
-1.38506 -5.44154 1.32121 72 67 65
0.81408 -4.62916 0.98835 119 117 123
0.79755 -4.63514 0.99074 117 116 116
0.78102 -4.64111 0.99312 113 116 118
0.76450 -4.64708 0.99551 113 116 123
0.74799 -4.65305 0.99789 118 119 116
0.73148 -4.65902 1.00027 111 117 110
0.71498 -4.66498 1.00266 108 112 115
0.69848 -4.67095 1.00504 114 116 125
0.68199 -4.67691 1.00742 120 122 132
0.66551 -4.68287 1.00980 127 132 144
0.64903 -4.68883 1.01217 122 115 130
0.63255 -4.69478 1.01455 125 115 129
0.55026 -4.72453 1.02643 128 127 127
0.53382 -4.73047 1.02880 127 127 124
0.51739 -4.73641 1.03118 126 123 120
0.50095 -4.74235 1.03355 133 126 123
0.48453 -4.74829 1.03592 137 132 120
0.46811 -4.75422 1.03829 136 136 125
0.45170 -4.76016 1.04066 129 126 120
0.43529 -4.76609 1.04303 120 117 115
0.41889 -4.77202 1.04539 116 114 117
0.40249 -4.77795 1.04776 108 110 110
0.38610 -4.78387 1.05013 105 111 111
0.36971 -4.78980 1.05249 112 113 116
0.35333 -4.79572 1.05486 114 110 116
0.33695 -4.80164 1.05722 112 110 120
0.32058 -4.80755 1.05958 115 116 124
0.30422 -4.81347 1.06194 128 125 129
0.28786 -4.81938 1.06431 128 132 131
0.27150 -4.82529 1.06667 124 131 135
0.25516 -4.83120 1.06903 116 116 136
0.23881 -4.83711 1.07138 128 123 124
0.22248 -4.84302 1.07374 123 122 116
0.20614 -4.84892 1.07610 110 113 109
0.18982 -4.85482 1.07846 118 119 116
0.17350 -4.86072 1.08081 116 118 116
0.15718 -4.86662 1.08317 126 122 119
0.14087 -4.87252 1.08552 123 120 113
0.12457 -4.87841 1.08788 119 113 121
0.10827 -4.88430 1.09023 104 102 116
0.09197 -4.89019 1.09258 120 116 119
0.07569 -4.89608 1.09493 118 110 109
0.05940 -4.90197 1.09728 110 102 112
0.04312 -4.90785 1.09963 117 114 102
-0.00568 -4.92549 1.10667 127 120 109
-0.02193 -4.93137 1.10902 114 111 113
-0.03818 -4.93724 1.11137 113 109 122
-0.05443 -4.94312 1.11371 113 112 117
-0.07067 -4.94899 1.11606 116 120 127
-0.08690 -4.95485 1.11840 113 108 104
-0.10313 -4.96072 1.12074 110 100 94
-0.11935 -4.96658 1.12308 107 109 116
-0.13557 -4.97245 1.12542 122 121 118
-0.15178 -4.97831 1.12776 107 105 104
-0.16799 -4.98417 1.13010 113 106 107
-0.18419 -4.99002 1.13244 113 113 104
-0.20039 -4.99588 1.13478 106 102 98
-0.21658 -5.00173 1.13712 102 95 95
-0.23277 -5.00758 1.13945 100 95 98
-0.24895 -5.01343 1.14179 100 98 103
-0.26512 -5.01928 1.14412 101 102 104
-0.28129 -5.02512 1.14646 97 91 92
-0.29746 -5.03097 1.14879 87 87 83
-0.31362 -5.03681 1.15112 90 92 91
-0.32977 -5.04265 1.15345 100 96 90
-0.34592 -5.04849 1.15578 100 95 94
-0.36206 -5.05432 1.15811 94 90 91
-0.37820 -5.06015 1.16044 90 85 91
-0.39433 -5.06599 1.16277 91 89 92
-0.41046 -5.07182 1.16510 92 90 87
-0.42658 -5.07764 1.16743 90 86 79
-0.50711 -5.10675 1.17905 98 96 85
-0.52319 -5.11257 1.18137 99 97 91
-0.53928 -5.11838 1.18369 92 91 86
-0.55536 -5.12419 1.18602 88 85 86
-0.57143 -5.13001 1.18834 85 84 87
-0.58750 -5.13581 1.19065 83 84 84
-0.60356 -5.14162 1.19297 83 84 80
-0.61962 -5.14742 1.19529 85 84 83
-0.63567 -5.15323 1.19761 88 85 89
-0.65172 -5.15903 1.19992 87 86 85
-0.66776 -5.16483 1.20224 86 85 78
-0.68380 -5.17062 1.20455 84 83 75
-0.69983 -5.17642 1.20687 81 83 75
-0.71585 -5.18221 1.20918 82 88 82
-0.73187 -5.18800 1.21149 84 88 84
-0.74789 -5.19379 1.21380 82 85 81
-0.76390 -5.19958 1.21612 86 85 84
-0.77990 -5.20537 1.21843 88 86 89
-0.79590 -5.21115 1.22074 88 90 92
-0.81190 -5.21693 1.22304 83 86 93
-0.82789 -5.22271 1.22535 75 75 81
-0.84387 -5.22849 1.22766 74 73 81
-0.85985 -5.23426 1.22996 78 78 94
-0.87582 -5.24004 1.23227 92 84 94
-0.89179 -5.24581 1.23458 88 81 88
-0.90775 -5.25158 1.23688 85 83 89
-0.92371 -5.25735 1.23918 84 82 85
-0.93966 -5.26311 1.24148 83 79 87
-0.95561 -5.26888 1.24379 85 76 81
-0.97155 -5.27464 1.24609 79 72 76
-0.98748 -5.28040 1.24839 68 68 78
-1.00341 -5.28616 1.25069 75 75 88
-1.01934 -5.29192 1.25299 82 83 83
-1.03526 -5.29767 1.25528 86 83 81
-1.05117 -5.30343 1.25758 82 81 74
-1.06708 -5.30918 1.25988 77 78 76
-1.08299 -5.31493 1.26217 70 76 75
-1.09889 -5.32067 1.26447 81 76 84
-1.11478 -5.32642 1.26676 82 73 86
-1.13067 -5.33216 1.26906 86 80 87
-1.14656 -5.33790 1.27135 83 75 76
-1.16243 -5.34364 1.27364 78 77 80
-1.17831 -5.34938 1.27593 78 78 86
-1.19417 -5.35512 1.27822 83 76 87
-1.21004 -5.36085 1.28051 82 75 83
-1.22590 -5.36659 1.28280 72 74 80
-1.24175 -5.37232 1.28509 69 70 82
-1.25759 -5.37804 1.28738 74 74 84
-1.27344 -5.38377 1.28966 75 76 87
-1.28927 -5.38950 1.29195 74 72 76
-1.30511 -5.39522 1.29423 73 70 78
-1.32093 -5.40094 1.29652 68 71 81
-1.33675 -5.40666 1.29880 73 75 83
-1.35257 -5.41238 1.30108 77 73 78
-1.36838 -5.41809 1.30337 76 72 72
-1.38418 -5.42380 1.30565 74 70 64
0.82362 -4.60802 0.97129 115 119 123
0.80715 -4.61398 0.97367 114 118 124
0.79068 -4.61993 0.97605 112 118 123
0.77421 -4.62589 0.97843 105 114 127
0.75775 -4.63184 0.98081 109 109 128
0.74130 -4.63779 0.98319 120 124 129
0.72485 -4.64374 0.98557 122 129 126
0.70841 -4.64969 0.98794 112 112 115
0.69197 -4.65563 0.99032 128 123 135
0.67554 -4.66157 0.99269 128 123 136
0.65912 -4.66751 0.99507 130 129 142
0.64270 -4.67345 0.99744 126 124 136
0.62628 -4.67939 0.99981 132 133 137
0.60987 -4.68532 1.00218 131 135 140
0.56068 -4.70312 1.00929 128 129 134
0.54429 -4.70904 1.01166 128 122 121
0.52791 -4.71497 1.01402 124 123 129
0.51153 -4.72089 1.01639 126 131 139
0.49516 -4.72681 1.01876 131 136 133
0.47879 -4.73273 1.02112 131 138 124
0.46243 -4.73865 1.02349 124 129 126
0.44608 -4.74456 1.02585 115 116 120
0.42973 -4.75048 1.02821 112 112 117
0.41338 -4.75639 1.03057 119 114 123
0.39705 -4.76230 1.03293 123 118 127
0.38071 -4.76820 1.03529 119 119 122
0.36438 -4.77411 1.03765 116 120 112
0.34806 -4.78001 1.04001 115 118 112
0.33175 -4.78591 1.04237 119 121 120
0.31543 -4.79181 1.04473 123 125 125
0.29913 -4.79771 1.04708 124 121 125
0.28283 -4.80360 1.04944 126 128 128
0.26653 -4.80950 1.05179 127 131 137
0.25024 -4.81539 1.05415 130 133 137
0.23396 -4.82128 1.05650 126 126 122
0.21768 -4.82717 1.05885 121 122 119
0.20141 -4.83305 1.06120 126 125 118
0.18514 -4.83894 1.06355 127 121 120
0.16888 -4.84482 1.06590 113 108 110
0.15262 -4.85070 1.06825 126 121 121
0.13637 -4.85657 1.07060 114 117 118
0.12012 -4.86245 1.07295 113 114 120
0.10388 -4.86832 1.07530 106 107 109
0.08764 -4.87420 1.07764 121 112 116
-0.00966 -4.90939 1.09170 123 117 105
-0.02585 -4.91524 1.09404 119 114 119
-0.04205 -4.92110 1.09638 115 113 123
-0.05823 -4.92695 1.09872 104 98 99
-0.07442 -4.93281 1.10106 109 116 114
-0.09059 -4.93866 1.10340 114 116 103
-0.10676 -4.94451 1.10573 117 114 101
-0.12293 -4.95035 1.10807 102 105 117
-0.13909 -4.95620 1.11040 114 118 110
-0.15524 -4.96204 1.11274 106 100 87
-0.17139 -4.96788 1.11507 117 109 99
-0.18754 -4.97372 1.11741 114 103 99
-0.20368 -4.97956 1.11974 103 96 91
-0.21981 -4.98539 1.12207 102 97 89
-0.23594 -4.99122 1.12440 105 99 103
-0.25206 -4.99706 1.12673 103 100 102
-0.26818 -5.00289 1.12906 93 93 100
-0.28429 -5.00871 1.13139 94 94 97
-0.30040 -5.01454 1.13371 94 96 90
-0.31650 -5.02036 1.13604 98 97 95
-0.33260 -5.02618 1.13837 102 96 89
-0.34869 -5.03200 1.14069 101 96 89
-0.36477 -5.03782 1.14302 95 90 88
-0.38085 -5.04364 1.14534 93 91 91
-0.39693 -5.04945 1.14766 93 95 93
-0.41300 -5.05526 1.14998 95 94 93
-0.42906 -5.06107 1.15231 94 92 92
-0.46118 -5.07269 1.15695 89 89 84
-0.47723 -5.07849 1.15927 89 88 84
-0.49327 -5.08429 1.16158 89 88 86
-0.50931 -5.09009 1.16390 95 91 83
-0.52534 -5.09589 1.16622 95 89 81
-0.54137 -5.10169 1.16853 88 82 75
-0.55739 -5.10748 1.17085 88 84 78
-0.57341 -5.11328 1.17316 88 87 86
-0.58942 -5.11907 1.17548 85 87 87
-0.60542 -5.12485 1.17779 86 87 86
-0.62142 -5.13064 1.18010 86 87 85
-0.63742 -5.13643 1.18241 86 87 86
-0.65341 -5.14221 1.18472 88 86 84
-0.66940 -5.14799 1.18703 88 89 84
-0.68538 -5.15377 1.18934 87 89 84
-0.70135 -5.15955 1.19165 83 86 74
-0.71732 -5.16532 1.19396 82 85 79
-0.73328 -5.17110 1.19627 81 83 88
-0.74924 -5.17687 1.19857 80 83 85
-0.76520 -5.18264 1.20088 86 85 89
-0.78114 -5.18841 1.20318 90 86 91
-0.79709 -5.19417 1.20548 88 88 92
-0.81303 -5.19994 1.20779 82 86 92
-0.82896 -5.20570 1.21009 75 76 81
-0.84489 -5.21146 1.21239 78 77 79
-0.86081 -5.21722 1.21469 82 80 86
-0.87672 -5.22298 1.21699 84 83 84
-0.89264 -5.22873 1.21929 81 82 87
-0.90854 -5.23448 1.22159 75 80 82
-0.92444 -5.24023 1.22389 80 80 78
-0.94034 -5.24598 1.22618 85 80 82
-0.95623 -5.25173 1.22848 89 80 77
-0.97212 -5.25747 1.23078 83 71 73
-0.98800 -5.26322 1.23307 79 72 75
-1.00387 -5.26896 1.23536 79 71 80
-1.01974 -5.27470 1.23766 81 83 80
-1.03561 -5.28044 1.23995 83 82 79
-1.05147 -5.28617 1.24224 82 82 78
-1.06732 -5.29191 1.24453 77 82 77
-1.08317 -5.29764 1.24682 78 80 78
-1.09901 -5.30337 1.24911 80 77 77
-1.11485 -5.30910 1.25140 79 77 79
-1.13069 -5.31482 1.25369 79 76 77
-1.14651 -5.32055 1.25598 79 77 81
-1.16234 -5.32627 1.25826 78 77 78
-1.17816 -5.33199 1.26055 77 78 86
-1.19397 -5.33771 1.26283 81 79 90
-1.20978 -5.34343 1.26512 82 76 87
-1.22558 -5.34914 1.26740 77 81 80
-1.24137 -5.35486 1.26968 69 70 79
-1.25717 -5.36057 1.27197 74 74 83
-1.27295 -5.36628 1.27425 74 75 79
-1.28874 -5.37199 1.27653 64 71 76
-1.30451 -5.37769 1.27881 66 69 71
-1.32028 -5.38340 1.28109 65 70 84
-1.33605 -5.38910 1.28336 71 74 83
-1.35181 -5.39480 1.28564 75 74 74
-1.36757 -5.40050 1.28792 73 71 76
-1.38332 -5.40619 1.29019 75 72 73
0.81668 -4.59296 0.95673 119 123 130
0.80027 -4.59890 0.95910 108 111 127
0.78386 -4.60483 0.96148 109 113 120
0.76745 -4.61077 0.96385 110 115 115
0.75105 -4.61670 0.96622 109 114 114
0.73466 -4.62264 0.96859 102 107 111
0.71827 -4.62857 0.97096 116 124 128
0.70189 -4.63449 0.97333 113 114 122
0.68551 -4.64042 0.97570 123 126 135
0.66914 -4.64635 0.97807 126 122 134
0.65277 -4.65227 0.98044 130 128 135
0.63641 -4.65819 0.98281 127 132 136
0.62005 -4.66411 0.98517 123 122 142
0.60370 -4.67002 0.98754 124 130 145
0.58736 -4.67594 0.98990 122 122 130
0.57102 -4.68185 0.99226 123 126 131
0.55468 -4.68776 0.99463 130 130 133
0.53836 -4.69367 0.99699 130 125 122
0.52203 -4.69957 0.99935 130 127 124
0.50571 -4.70548 1.00171 129 129 128
0.48940 -4.71138 1.00407 126 118 116
0.47310 -4.71728 1.00643 122 115 110
0.45679 -4.72318 1.00879 119 111 107
0.44050 -4.72908 1.01115 113 109 113
0.42421 -4.73497 1.01350 115 116 122
0.40792 -4.74086 1.01586 128 122 116
0.39164 -4.74676 1.01821 126 118 108
0.37537 -4.75264 1.02057 115 115 111
0.35910 -4.75853 1.02292 111 113 107
0.34283 -4.76442 1.02527 111 110 106
0.32658 -4.77030 1.02762 121 115 115
0.31032 -4.77618 1.02998 123 108 110
0.29407 -4.78206 1.03233 114 105 112
0.27783 -4.78794 1.03468 119 123 125
0.26160 -4.79381 1.03702 124 125 132
0.24536 -4.79969 1.03937 128 127 130
0.22914 -4.80556 1.04172 120 122 123
0.21292 -4.81143 1.04407 108 113 124
0.19670 -4.81729 1.04641 115 112 122
0.18049 -4.82316 1.04876 119 108 119
0.16429 -4.82902 1.05110 120 117 110
0.14809 -4.83488 1.05344 122 120 116
0.13189 -4.84074 1.05579 114 114 115
0.11571 -4.84660 1.05813 116 113 119
0.09952 -4.85246 1.06047 105 106 117
0.08335 -4.85831 1.06281 123 122 120
-0.01361 -4.89339 1.07683 126 117 103
-0.02975 -4.89923 1.07917 107 103 116
-0.04588 -4.90507 1.08150 109 108 115
-0.06201 -4.91091 1.08384 107 101 100
-0.07814 -4.91674 1.08617 110 115 111
-0.09426 -4.92257 1.08850 115 117 114
-0.11037 -4.92841 1.09083 126 125 117
-0.12648 -4.93424 1.09316 113 106 114
-0.14258 -4.94006 1.09549 110 114 112
-0.15868 -4.94589 1.09782 115 107 103
-0.17477 -4.95171 1.10015 119 115 102
-0.19086 -4.95753 1.10248 113 107 103
-0.20694 -4.96335 1.10480 105 100 96
-0.22302 -4.96917 1.10713 107 110 93
-0.23909 -4.97498 1.10945 112 111 111
-0.25516 -4.98080 1.11178 108 107 100
-0.27122 -4.98661 1.11410 95 92 91
-0.28727 -4.99242 1.11642 95 98 101
-0.30332 -4.99822 1.11874 95 97 95
-0.31937 -5.00403 1.12106 100 101 99
-0.33541 -5.00983 1.12338 93 92 93
-0.35144 -5.01564 1.12570 93 90 94
-0.36747 -5.02144 1.12802 93 89 84
-0.38349 -5.02723 1.13034 93 92 89
-0.39951 -5.03303 1.13266 91 93 95
-0.41552 -5.03882 1.13497 97 93 100
-0.43153 -5.04462 1.13729 96 95 101
-0.44753 -5.05041 1.13961 96 93 92
-0.46353 -5.05620 1.14192 95 93 87
-0.47952 -5.06198 1.14423 92 92 83
-0.49551 -5.06777 1.14655 88 86 88
-0.51149 -5.07355 1.14886 89 87 86
-0.52747 -5.07933 1.15117 89 87 85
-0.54344 -5.08511 1.15348 89 86 87
-0.55941 -5.09089 1.15579 93 91 83
-0.57537 -5.09666 1.15810 90 89 82
-0.59132 -5.10244 1.16040 85 85 83
-0.60727 -5.10821 1.16271 86 86 87
-0.62322 -5.11398 1.16502 84 88 85
-0.63916 -5.11974 1.16732 84 86 86
-0.65509 -5.12551 1.16963 88 90 92
-0.67102 -5.13127 1.17193 91 94 93
-0.68694 -5.13704 1.17424 91 91 91
-0.70286 -5.14280 1.17654 90 88 87
-0.71878 -5.14855 1.17884 88 86 92
-0.73468 -5.15431 1.18114 87 83 95
-0.75059 -5.16006 1.18344 87 82 86
-0.76648 -5.16582 1.18574 89 83 85
-0.78238 -5.17157 1.18804 91 83 85
-0.79826 -5.17732 1.19034 86 83 90
-0.81415 -5.18306 1.19264 82 84 92
-0.83002 -5.18881 1.19493 82 83 83
-0.84589 -5.19455 1.19723 83 82 81
-0.86176 -5.20029 1.19953 85 82 77
-0.87762 -5.20603 1.20182 84 83 74
-0.89348 -5.21177 1.20411 80 82 87
-0.90933 -5.21750 1.20641 73 81 87
-0.92518 -5.22324 1.20870 82 85 87
-0.94102 -5.22897 1.21099 88 84 84
-0.95685 -5.23470 1.21328 91 84 80
-0.97268 -5.24043 1.21557 85 78 81
-0.98851 -5.24615 1.21786 88 83 79
-1.00433 -5.25188 1.22015 83 81 73
-1.02014 -5.25760 1.22244 79 78 69
-1.03595 -5.26332 1.22472 77 78 67
-1.05176 -5.26904 1.22701 79 83 79
-1.06755 -5.27476 1.22930 75 81 80
-1.08335 -5.28047 1.23158 79 81 79
-1.09914 -5.28619 1.23386 80 77 69
-1.11492 -5.29190 1.23615 80 81 76
-1.13070 -5.29761 1.23843 83 77 79
-1.14647 -5.30331 1.24071 80 78 82
-1.16224 -5.30902 1.24299 82 80 85
-1.17800 -5.31472 1.24527 72 76 83
-1.19376 -5.32043 1.24755 77 78 89
-1.20951 -5.32613 1.24983 79 81 88
-1.22526 -5.33182 1.25211 76 79 76
-1.24100 -5.33752 1.25439 68 71 64
-1.25674 -5.34321 1.25666 74 73 71
-1.27247 -5.34891 1.25894 75 74 68
-1.28820 -5.35460 1.26121 71 69 65
-1.30392 -5.36029 1.26349 71 67 55
-1.31964 -5.36597 1.26576 75 73 81
-1.33535 -5.37166 1.26803 76 73 76
-1.35106 -5.37734 1.27031 76 75 71
-1.36676 -5.38302 1.27258 77 76 79
-1.38246 -5.38870 1.27485 81 75 70
0.80979 -4.57800 0.94226 115 122 129
0.79344 -4.58392 0.94463 112 113 125
0.77709 -4.58984 0.94700 112 110 119
0.76074 -4.59576 0.94937 116 115 114
0.74440 -4.60168 0.95173 112 116 109
0.72806 -4.60759 0.95410 99 105 107
0.71173 -4.61350 0.95646 109 120 122
0.69541 -4.61941 0.95883 115 112 126
0.67909 -4.62532 0.96119 121 115 133
0.66278 -4.63122 0.96355 125 121 132
0.64647 -4.63713 0.96591 134 132 133
0.63017 -4.64303 0.96828 133 137 141
0.61387 -4.64893 0.97064 119 115 146
0.59758 -4.65483 0.97300 123 132 150
0.58129 -4.66072 0.97535 122 125 126
0.56501 -4.66662 0.97771 125 124 125
0.54874 -4.67251 0.98007 122 125 131
0.53247 -4.67840 0.98242 125 127 125
0.51620 -4.68429 0.98478 135 130 126
0.49994 -4.69018 0.98713 134 131 131
0.48369 -4.69606 0.98949 126 120 120
0.46744 -4.70194 0.99184 119 117 113
0.45119 -4.70782 0.99419 120 122 112
0.43496 -4.71370 0.99654 112 117 117
0.41872 -4.71958 0.99890 114 120 121
0.40250 -4.72545 1.00125 125 123 114
0.38628 -4.73132 1.00359 123 118 107
0.37006 -4.73720 1.00594 118 116 109
0.35385 -4.74306 1.00829 116 112 109
0.33764 -4.74893 1.01064 115 112 114
0.32144 -4.75480 1.01298 117 113 120
0.30525 -4.76066 1.01533 118 110 113
0.28906 -4.76652 1.01767 121 113 115
0.27287 -4.77238 1.02002 126 124 125
0.25669 -4.77824 1.02236 129 129 133
0.24052 -4.78409 1.02470 132 129 132
0.22435 -4.78994 1.02704 122 118 116
0.20819 -4.79580 1.02938 114 112 111
0.19203 -4.80165 1.03172 120 123 122
0.17588 -4.80749 1.03406 126 123 118
0.15973 -4.81334 1.03640 125 125 115
0.14359 -4.81918 1.03874 123 123 119
0.12745 -4.82502 1.04108 121 122 114
0.11132 -4.83086 1.04341 119 117 117
0.09520 -4.83670 1.04575 111 113 123
0.07908 -4.84254 1.04808 119 120 121
-0.00145 -4.87169 1.05974 120 112 102
-0.01753 -4.87751 1.06207 119 104 102
-0.03362 -4.88334 1.06440 114 111 110
-0.04970 -4.88916 1.06673 112 107 106
-0.06577 -4.89497 1.06906 107 103 96
-0.08184 -4.90079 1.07138 109 107 111
-0.09790 -4.90661 1.07371 111 105 111
-0.11395 -4.91242 1.07603 114 119 105
-0.13001 -4.91823 1.07836 104 101 107
-0.14605 -4.92404 1.08068 99 107 120
-0.16209 -4.92985 1.08301 121 118 121
-0.17813 -4.93565 1.08533 121 116 103
-0.19416 -4.94145 1.08765 112 106 110
-0.21018 -4.94726 1.08997 115 111 105
-0.22620 -4.95306 1.09229 109 113 97
-0.24222 -4.95885 1.09461 116 117 110
-0.25823 -4.96465 1.09693 114 110 105
-0.27423 -4.97044 1.09925 108 105 93
-0.29023 -4.97623 1.10156 103 101 91
-0.30622 -4.98202 1.10388 96 92 75
-0.32221 -4.98781 1.10619 100 92 89
-0.33820 -4.99360 1.10851 100 93 93
-0.35417 -4.99938 1.11082 97 96 97
-0.37015 -5.00517 1.11313 97 94 94
-0.38611 -5.01095 1.11545 96 94 91
-0.40208 -5.01672 1.11776 94 95 98
-0.41803 -5.02250 1.12007 101 98 105
-0.43398 -5.02828 1.12238 99 97 101
-0.44993 -5.03405 1.12469 99 94 91
-0.46587 -5.03982 1.12700 99 96 90
-0.48181 -5.04559 1.12930 90 89 76
-0.49774 -5.05136 1.13161 84 82 87
-0.51366 -5.05712 1.13392 86 85 95
-0.52958 -5.06289 1.13622 89 87 90
-0.54550 -5.06865 1.13853 94 89 92
-0.56141 -5.07441 1.14083 97 93 87
-0.57731 -5.08016 1.14314 91 87 82
-0.59321 -5.08592 1.14544 87 82 79
-0.60911 -5.09167 1.14774 86 87 84
-0.62500 -5.09743 1.15004 85 88 80
-0.64088 -5.10318 1.15234 86 85 84
-0.65676 -5.10893 1.15464 90 93 100
-0.67263 -5.11467 1.15694 96 99 100
-0.68850 -5.12042 1.15924 97 93 93
-0.70436 -5.12616 1.16153 92 89 89
-0.72022 -5.13190 1.16383 89 86 87
-0.73607 -5.13764 1.16613 86 82 86
-0.75192 -5.14338 1.16842 83 81 84
-0.76776 -5.14911 1.17072 85 83 84
-0.78360 -5.15485 1.17301 85 84 88
-0.79943 -5.16058 1.17530 85 83 91
-0.81526 -5.16631 1.17759 84 85 88
-0.83108 -5.17203 1.17988 85 89 84
-0.84690 -5.17776 1.18218 86 87 89
-0.86271 -5.18348 1.18446 90 86 84
-0.87851 -5.18921 1.18675 88 87 73
-0.89432 -5.19493 1.18904 89 86 75
-0.91011 -5.20064 1.19133 85 83 88
-0.92590 -5.20636 1.19362 86 83 94
-0.94169 -5.21208 1.19590 87 85 81
-0.95747 -5.21779 1.19819 85 83 77
-0.97324 -5.22350 1.20047 84 80 84
-0.98901 -5.22921 1.20276 90 85 85
-1.00478 -5.23492 1.20504 85 82 71
-1.02054 -5.24062 1.20732 81 79 65
-1.03629 -5.24632 1.20960 80 80 68
-1.05204 -5.25203 1.21188 80 83 74
-1.06779 -5.25773 1.21416 80 81 81
-1.08353 -5.26342 1.21644 83 81 82
-1.09926 -5.26912 1.21872 81 79 75
-1.11499 -5.27481 1.22100 81 84 81
-1.13071 -5.28051 1.22328 79 77 81
-1.14643 -5.28620 1.22555 80 78 74
-1.16215 -5.29189 1.22783 82 81 80
-1.17785 -5.29757 1.23010 69 68 74
-1.19356 -5.30326 1.23238 74 71 72
-1.20926 -5.30894 1.23465 75 79 83
-1.22495 -5.31462 1.23692 75 80 77
-1.24064 -5.32030 1.23919 78 76 70
-1.25632 -5.32598 1.24147 78 75 70
-1.27200 -5.33166 1.24374 74 75 67
-1.28767 -5.33733 1.24601 74 70 72
-1.30334 -5.34300 1.24827 75 73 70
-1.31900 -5.34867 1.25054 80 76 80
-1.33466 -5.35434 1.25281 79 75 73
-1.35031 -5.36001 1.25508 79 76 80
-1.36596 -5.36567 1.25734 79 77 86
-1.38160 -5.37133 1.25961 84 76 73
0.80295 -4.56315 0.92790 109 118 129
0.78665 -4.56906 0.93026 116 122 130
0.77036 -4.57496 0.93263 115 115 121
0.75407 -4.58086 0.93499 122 124 111
0.73779 -4.58675 0.93735 120 118 108
0.72152 -4.59265 0.93971 109 115 113
0.70524 -4.59854 0.94207 112 118 124
0.68898 -4.60443 0.94442 118 120 127
0.67272 -4.61032 0.94678 122 126 133
0.65646 -4.61621 0.94914 123 124 129
0.64021 -4.62210 0.95149 129 126 131
0.62397 -4.62798 0.95385 130 124 139
0.60773 -4.63386 0.95620 115 107 138
0.59150 -4.63974 0.95856 122 129 142
0.57527 -4.64562 0.96091 119 124 136
0.55905 -4.65149 0.96326 129 135 147
0.54283 -4.65737 0.96561 133 136 135
0.52662 -4.66324 0.96796 127 126 130
0.51041 -4.66911 0.97031 129 128 132
0.49421 -4.67498 0.97266 131 129 134
0.47801 -4.68084 0.97501 125 122 128
0.46182 -4.68671 0.97735 123 125 121
0.44564 -4.69257 0.97970 125 129 117
0.42946 -4.69843 0.98205 119 125 121
0.41328 -4.70429 0.98439 116 121 125
0.39711 -4.71015 0.98674 116 120 121
0.38095 -4.71600 0.98908 117 119 121
0.36479 -4.72185 0.99142 122 119 127
0.34863 -4.72771 0.99376 123 117 126
0.33249 -4.73355 0.99610 121 117 125
0.31634 -4.73940 0.99844 118 121 120
0.30021 -4.74525 1.00078 118 117 105
0.28407 -4.75109 1.00312 125 123 114
0.26795 -4.75693 1.00546 128 130 132
0.25183 -4.76277 1.00780 123 121 127
0.23571 -4.76861 1.01013 122 113 126
0.21960 -4.77444 1.01247 117 117 121
0.20349 -4.78028 1.01480 112 117 117
0.18739 -4.78611 1.01714 120 118 115
0.17130 -4.79194 1.01947 126 114 116
0.15521 -4.79776 1.02180 122 121 133
0.13912 -4.80359 1.02414 123 126 136
0.12304 -4.80941 1.02647 124 125 118
0.10697 -4.81524 1.02880 117 120 118
0.09090 -4.82106 1.03113 109 111 122
0.07484 -4.82687 1.03346 127 124 125
0.05878 -4.83269 1.03578 134 128 128
-0.00540 -4.85594 1.04509 123 117 117
-0.02143 -4.86174 1.04741 123 118 114
-0.03746 -4.86755 1.04974 119 117 115
-0.05348 -4.87335 1.05206 112 111 103
-0.06950 -4.87915 1.05438 117 108 104
-0.08551 -4.88495 1.05670 117 104 112
-0.10151 -4.89075 1.05902 115 113 107
-0.11751 -4.89654 1.06134 104 95 116
-0.13351 -4.90234 1.06366 109 104 116
-0.14950 -4.90813 1.06598 113 117 117
-0.16548 -4.91392 1.06829 118 113 117
-0.18146 -4.91970 1.07061 113 106 100
-0.19743 -4.92549 1.07293 107 105 114
-0.21340 -4.93127 1.07524 118 115 102
-0.22937 -4.93706 1.07756 104 102 92
-0.24533 -4.94284 1.07987 114 117 110
-0.26128 -4.94861 1.08218 116 114 119
-0.27723 -4.95439 1.08449 111 110 112
-0.29317 -4.96017 1.08681 106 105 107
-0.30911 -4.96594 1.08912 101 98 89
-0.32504 -4.97171 1.09143 101 98 92
-0.34097 -4.97748 1.09373 101 100 95
-0.35689 -4.98324 1.09604 100 99 103
-0.37280 -4.98901 1.09835 99 98 104
-0.38872 -4.99477 1.10066 97 96 89
-0.40462 -5.00053 1.10296 94 95 98
-0.42052 -5.00629 1.10527 98 102 111
-0.43642 -5.01205 1.10757 98 99 103
-0.45231 -5.01781 1.10988 93 86 89
-0.46819 -5.02356 1.11218 96 91 90
-0.48407 -5.02931 1.11448 87 86 83
-0.49995 -5.03506 1.11678 85 85 88
-0.51582 -5.04081 1.11908 90 88 90
-0.53168 -5.04655 1.12138 90 88 85
-0.54754 -5.05230 1.12368 96 100 93
-0.56340 -5.05804 1.12598 98 97 93
-0.57925 -5.06378 1.12828 93 88 86
-0.59509 -5.06952 1.13057 88 84 83
-0.61093 -5.07526 1.13287 83 85 87
-0.62676 -5.08099 1.13517 86 87 84
-0.64259 -5.08672 1.13746 92 88 84
-0.65841 -5.09246 1.13976 92 87 88
-0.67423 -5.09819 1.14205 96 92 92
-0.69005 -5.10391 1.14434 97 93 93
-0.70585 -5.10964 1.14663 91 88 90
-0.72166 -5.11536 1.14892 89 87 88
-0.73745 -5.12108 1.15121 88 87 88
-0.75325 -5.12680 1.15350 89 90 90
-0.76903 -5.13252 1.15579 89 92 92
-0.78482 -5.13824 1.15808 85 88 96
-0.80059 -5.14395 1.16037 88 86 96
-0.81636 -5.14967 1.16265 89 85 88
-0.83213 -5.15538 1.16494 88 85 85
-0.84789 -5.16108 1.16722 87 86 88
-0.86365 -5.16679 1.16951 86 83 89
-0.87940 -5.17250 1.17179 85 85 81
-0.89515 -5.17820 1.17407 89 86 76
-0.91089 -5.18390 1.17636 85 81 85
-0.92662 -5.18960 1.17864 86 79 86
-0.94235 -5.19530 1.18092 87 82 74
-0.95808 -5.20099 1.18320 87 85 67
-0.97380 -5.20669 1.18548 87 82 81
-0.98952 -5.21238 1.18775 79 77 81
-1.00523 -5.21807 1.19003 79 79 74
-1.02093 -5.22376 1.19231 78 77 66
-1.03663 -5.22945 1.19459 82 77 76
-1.05233 -5.23513 1.19686 82 81 79
-1.06802 -5.24081 1.19913 88 82 90
-1.08370 -5.24649 1.20141 88 83 87
-1.09938 -5.25217 1.20368 84 81 85
-1.11506 -5.25785 1.20595 83 79 84
-1.13073 -5.26353 1.20823 81 77 86
-1.14639 -5.26920 1.21050 82 80 78
-1.16205 -5.27487 1.21277 80 78 76
-1.17771 -5.28054 1.21504 79 79 74
-1.19335 -5.28621 1.21731 77 81 83
-1.20900 -5.29188 1.21957 78 75 78
-1.22464 -5.29754 1.22184 72 77 77
-1.24027 -5.30320 1.22411 81 77 76
-1.25590 -5.30886 1.22637 80 74 77
-1.27153 -5.31452 1.22864 76 76 78
-1.28714 -5.32018 1.23090 75 75 82
-1.30276 -5.32584 1.23317 75 75 84
-1.31837 -5.33149 1.23543 83 76 86
-1.33397 -5.33714 1.23769 80 74 71
-1.34957 -5.34279 1.23995 81 74 79
-1.36516 -5.34844 1.24221 79 76 83
-1.38075 -5.35408 1.24447 78 75 76
0.79616 -4.54841 0.91364 113 115 129
0.77992 -4.55429 0.91600 120 124 125
0.76368 -4.56017 0.91835 117 117 120
0.74746 -4.56606 0.92071 130 131 121
0.73123 -4.57194 0.92306 128 129 125
0.71501 -4.57781 0.92542 121 123 122
0.69880 -4.58369 0.92777 120 122 127
0.68259 -4.58956 0.93012 120 122 128
0.66639 -4.59543 0.93247 125 127 129
0.65019 -4.60130 0.93482 124 124 129
0.63400 -4.60717 0.93717 127 131 136
0.61781 -4.61303 0.93952 133 128 140
0.60163 -4.61890 0.94187 113 114 128
0.58546 -4.62476 0.94422 119 122 122
0.56929 -4.63062 0.94656 127 133 143
0.55312 -4.63648 0.94891 131 135 144
0.53696 -4.64233 0.95126 136 135 131
0.52081 -4.64819 0.95360 120 123 128
0.50466 -4.65404 0.95594 113 117 121
0.48851 -4.65989 0.95829 125 125 126
0.47238 -4.66574 0.96063 124 126 133
0.45624 -4.67158 0.96297 124 130 129
0.44011 -4.67743 0.96531 129 137 116
0.42399 -4.68327 0.96765 123 129 120
0.40787 -4.68911 0.96999 115 119 122
0.39176 -4.69495 0.97233 107 110 115
0.37566 -4.70079 0.97466 104 108 117
0.35955 -4.70662 0.97700 115 114 126
0.34346 -4.71245 0.97934 121 114 127
0.32737 -4.71828 0.98167 123 119 121
0.31128 -4.72411 0.98401 123 125 116
0.29520 -4.72994 0.98634 120 124 111
0.27913 -4.73577 0.98867 126 127 118
0.26306 -4.74159 0.99101 127 123 126
0.24699 -4.74741 0.99334 120 114 123
0.23093 -4.75323 0.99567 122 117 125
0.21488 -4.75905 0.99800 117 119 127
0.19883 -4.76486 1.00033 121 119 127
0.18279 -4.77068 1.00266 122 114 118
0.16675 -4.77649 1.00498 120 109 116
0.15071 -4.78230 1.00731 113 107 120
0.13469 -4.78811 1.00964 122 117 122
0.11866 -4.79391 1.01196 128 117 114
0.10265 -4.79972 1.01429 122 113 115
0.08663 -4.80552 1.01661 122 122 124
0.07063 -4.81132 1.01893 125 126 123
0.05463 -4.81712 1.02125 121 123 124
0.03863 -4.82291 1.02358 120 119 117
0.02264 -4.82871 1.02590 120 121 121
0.00665 -4.83450 1.02822 114 105 125
-0.00933 -4.84029 1.03054 119 116 128
-0.02530 -4.84608 1.03285 122 125 119
-0.04127 -4.85187 1.03517 120 112 106
-0.05724 -4.85765 1.03749 106 103 91
-0.07320 -4.86344 1.03980 112 111 114
-0.08915 -4.86922 1.04212 118 117 125
-0.10510 -4.87500 1.04443 120 118 111
-0.12105 -4.88078 1.04675 122 116 117
-0.13698 -4.88655 1.04906 121 120 126
-0.15292 -4.89233 1.05137 119 120 115
-0.16885 -4.89810 1.05369 121 118 115
-0.18477 -4.90387 1.05600 114 107 114
-0.20069 -4.90964 1.05831 108 110 124
-0.21660 -4.91540 1.06062 114 110 118
-0.23251 -4.92117 1.06292 118 120 112
-0.24841 -4.92693 1.06523 116 108 112
-0.26431 -4.93269 1.06754 108 102 115
-0.28020 -4.93845 1.06985 106 102 111
-0.29609 -4.94421 1.07215 103 103 105
-0.31197 -4.94996 1.07446 103 102 96
-0.32784 -4.95571 1.07676 108 104 102
-0.34372 -4.96147 1.07906 107 104 102
-0.35958 -4.96722 1.08137 104 99 103
-0.37544 -4.97296 1.08367 101 98 103
-0.39130 -4.97871 1.08597 96 96 95
-0.40715 -4.98445 1.08827 96 96 98
-0.42300 -4.99019 1.09057 99 99 103
-0.43884 -4.99593 1.09287 99 98 98
-0.45467 -5.00167 1.09517 95 88 93
-0.47050 -5.00741 1.09746 96 89 98
-0.48633 -5.01314 1.09976 87 84 90
-0.50215 -5.01888 1.10206 90 89 91
-0.51796 -5.02461 1.10435 95 91 93
-0.53377 -5.03034 1.10664 92 90 94
-0.54957 -5.03606 1.10894 91 93 95
-0.56537 -5.04179 1.11123 93 92 93
-0.58117 -5.04751 1.11352 93 89 90
-0.59696 -5.05323 1.11581 91 88 86
-0.61274 -5.05895 1.11811 84 87 85
-0.62852 -5.06467 1.12040 82 86 83
-0.64429 -5.07039 1.12268 88 87 86
-0.66006 -5.07610 1.12497 91 88 92
-0.67582 -5.08181 1.12726 94 90 92
-0.69158 -5.08752 1.12955 95 90 88
-0.70733 -5.09323 1.13183 93 89 88
-0.72308 -5.09894 1.13412 94 88 91
-0.73883 -5.10464 1.13640 88 84 92
-0.75456 -5.11035 1.13869 88 86 100
-0.77030 -5.11605 1.14097 92 89 102
-0.78602 -5.12175 1.14325 91 86 95
-0.80175 -5.12744 1.14553 90 86 93
-0.81746 -5.13314 1.14782 86 85 90
-0.83317 -5.13883 1.15010 89 87 90
-0.84888 -5.14452 1.15238 94 88 92
-0.86458 -5.15021 1.15465 87 86 91
-0.88028 -5.15590 1.15693 78 80 84
-0.89597 -5.16159 1.15921 78 76 75
-0.91166 -5.16727 1.16149 77 77 82
-0.92734 -5.17296 1.16376 79 76 78
-0.94302 -5.17864 1.16604 84 81 79
-0.95869 -5.18432 1.16831 89 85 79
-0.97436 -5.18999 1.17058 89 79 89
-0.99002 -5.19567 1.17286 78 77 86
-1.00567 -5.20134 1.17513 80 79 85
-1.02132 -5.20701 1.17740 78 78 80
-1.03697 -5.21268 1.17967 84 77 85
-1.05261 -5.21835 1.18194 84 77 85
-1.06825 -5.22402 1.18421 91 82 99
-1.08388 -5.22968 1.18648 89 79 82
-1.09950 -5.23534 1.18875 86 77 83
-1.11512 -5.24100 1.19101 84 79 79
-1.13074 -5.24666 1.19328 85 79 90
-1.14635 -5.25232 1.19555 84 81 82
-1.16196 -5.25797 1.19781 84 77 83
-1.17756 -5.26363 1.20007 81 77 73
-1.19315 -5.26928 1.20234 78 76 84
-1.20874 -5.27493 1.20460 83 77 81
-1.22433 -5.28058 1.20686 72 69 79
-1.23991 -5.28622 1.20912 79 78 81
-1.25549 -5.29187 1.21138 82 76 84
-1.27106 -5.29751 1.21364 84 80 85
-1.28662 -5.30315 1.21590 80 76 85
-1.30218 -5.30879 1.21816 72 70 84
-1.31774 -5.31442 1.22042 81 74 85
-1.33329 -5.32006 1.22267 80 73 76
-1.34883 -5.32569 1.22493 81 75 74
-1.36437 -5.33132 1.22719 78 75 75
-1.37991 -5.33695 1.22944 76 72 80
0.80560 -4.52790 0.89713 119 116 122
0.78941 -4.53377 0.89948 121 119 125
0.77323 -4.53963 0.90183 125 123 119
0.75705 -4.54550 0.90418 124 121 121
0.74088 -4.55136 0.90653 130 127 131
0.72472 -4.55722 0.90888 128 130 133
0.70856 -4.56308 0.91122 124 130 126
0.69240 -4.56894 0.91357 122 122 126
0.67625 -4.57479 0.91592 115 116 120
0.66011 -4.58064 0.91826 125 120 125
0.64397 -4.58650 0.92061 124 123 130
0.62783 -4.59235 0.92295 124 129 137
0.61170 -4.59819 0.92530 123 123 137
0.59558 -4.60404 0.92764 119 122 129
0.57946 -4.60988 0.92998 124 126 126
0.56335 -4.61572 0.93232 136 142 144
0.54724 -4.62156 0.93466 124 126 131
0.53114 -4.62740 0.93700 119 122 126
0.51504 -4.63324 0.93934 120 128 133
0.49895 -4.63907 0.94168 116 120 123
0.48286 -4.64490 0.94401 126 124 122
0.46678 -4.65073 0.94635 129 128 129
0.45070 -4.65656 0.94868 124 133 127
0.43463 -4.66239 0.95102 123 121 116
0.41857 -4.66821 0.95335 121 117 119
0.40251 -4.67404 0.95569 125 123 121
0.38645 -4.67986 0.95802 119 116 116
0.37040 -4.68568 0.96035 111 115 120
0.35436 -4.69149 0.96268 120 124 131
0.33832 -4.69731 0.96501 126 124 128
0.32228 -4.70312 0.96734 124 123 114
0.30625 -4.70893 0.96967 120 120 111
0.29023 -4.71474 0.97200 112 111 116
0.27421 -4.72055 0.97433 117 115 116
0.25820 -4.72635 0.97665 118 114 109
0.24219 -4.73216 0.97898 121 112 109
0.22619 -4.73796 0.98130 126 123 120
0.21019 -4.74376 0.98363 113 111 121
0.19420 -4.74956 0.98595 120 117 126
0.17821 -4.75535 0.98827 122 120 123
0.16223 -4.76115 0.99059 123 121 117
0.14625 -4.76694 0.99291 111 107 115
0.13028 -4.77273 0.99524 118 129 130
0.11432 -4.77852 0.99755 121 118 124
0.09835 -4.78431 0.99987 117 114 124
0.08240 -4.79009 1.00219 117 118 122
0.06645 -4.79587 1.00451 117 118 117
0.05050 -4.80165 1.00683 110 111 113
0.03456 -4.80743 1.00914 115 115 126
0.01863 -4.81321 1.01146 121 115 132
0.00270 -4.81898 1.01377 115 112 127
-0.01323 -4.82476 1.01608 125 125 131
-0.02915 -4.83053 1.01840 128 130 128
-0.04506 -4.83630 1.02071 124 114 107
-0.06097 -4.84207 1.02302 114 109 101
-0.07687 -4.84783 1.02533 116 112 113
-0.09277 -4.85360 1.02764 118 121 115
-0.10867 -4.85936 1.02995 120 120 109
-0.12455 -4.86512 1.03226 109 106 113
-0.14044 -4.87088 1.03456 115 117 121
-0.15631 -4.87663 1.03687 120 121 116
-0.17219 -4.88239 1.03918 125 120 113
-0.18805 -4.88814 1.04148 118 111 105
-0.20392 -4.89389 1.04379 105 104 102
-0.21977 -4.89964 1.04609 110 111 110
-0.23563 -4.90539 1.04839 114 103 98
-0.25147 -4.91113 1.05070 113 101 109
-0.26732 -4.91688 1.05300 107 104 106
-0.28315 -4.92262 1.05530 109 107 104
-0.29898 -4.92836 1.05760 98 100 103
-0.31481 -4.93410 1.05990 100 102 106
-0.33063 -4.93983 1.06220 110 106 114
-0.34645 -4.94557 1.06449 112 107 109
-0.36226 -4.95130 1.06679 107 106 101
-0.37806 -4.95703 1.06909 106 108 100
-0.39387 -4.96276 1.07138 95 97 98
-0.40966 -4.96848 1.07368 92 95 94
-0.42545 -4.97421 1.07597 89 96 96
-0.44124 -4.97993 1.07826 91 98 97
-0.45702 -4.98565 1.08056 93 90 94
-0.47279 -4.99137 1.08285 89 84 99
-0.48856 -4.99709 1.08514 90 89 99
-0.50433 -5.00280 1.08743 99 95 98
-0.52009 -5.00852 1.08972 99 94 100
-0.53584 -5.01423 1.09201 98 94 101
-0.55159 -5.01994 1.09430 96 91 92
-0.56733 -5.02565 1.09658 95 91 92
-0.58307 -5.03135 1.09887 96 96 96
-0.59881 -5.03706 1.10116 96 101 98
-0.61454 -5.04276 1.10344 95 101 96
-0.63026 -5.04846 1.10573 96 96 94
-0.64598 -5.05416 1.10801 97 92 96
-0.66169 -5.05986 1.11029 96 91 95
-0.67740 -5.06555 1.11257 98 90 90
-0.69311 -5.07125 1.11486 98 88 75
-0.70880 -5.07694 1.11714 96 87 72
-0.72450 -5.08263 1.11942 95 86 85
-0.74019 -5.08832 1.12170 87 84 93
-0.75587 -5.09400 1.12397 86 87 105
-0.77155 -5.09968 1.12625 91 88 104
-0.78722 -5.10537 1.12853 92 86 93
-0.80289 -5.11105 1.13080 94 86 89
-0.81855 -5.11673 1.13308 87 83 89
-0.83421 -5.12240 1.13535 87 85 95
-0.84986 -5.12808 1.13763 90 87 98
-0.86551 -5.13375 1.13990 86 87 90
-0.88115 -5.13942 1.14217 82 84 86
-0.89679 -5.14509 1.14445 78 79 84
-0.91243 -5.15076 1.14672 79 78 80
-0.92805 -5.15642 1.14899 81 73 69
-0.94368 -5.16209 1.15126 86 83 82
-0.95929 -5.16775 1.15353 91 87 87
-0.97491 -5.17341 1.15579 89 83 89
-0.99051 -5.17907 1.15806 84 80 94
-1.00612 -5.18473 1.16033 85 80 97
-1.02171 -5.19038 1.16259 83 79 85
-1.03731 -5.19603 1.16486 81 78 80
-1.05289 -5.20168 1.16712 82 78 76
-1.06848 -5.20733 1.16939 86 81 87
-1.08405 -5.21298 1.17165 87 79 70
-1.09962 -5.21863 1.17391 86 81 78
-1.11519 -5.22427 1.17618 84 81 73
-1.13075 -5.22991 1.17844 85 84 96
-1.14631 -5.23555 1.18070 84 80 85
-1.16186 -5.24119 1.18296 84 80 96
-1.17741 -5.24683 1.18521 81 78 75
-1.19295 -5.25246 1.18747 73 74 84
-1.20849 -5.25810 1.18973 86 83 91
-1.22402 -5.26373 1.19199 84 81 81
-1.23955 -5.26936 1.19424 82 79 81
-1.25507 -5.27498 1.19650 84 81 84
-1.27059 -5.28061 1.19875 86 79 82
-1.28610 -5.28623 1.20100 83 77 85
-1.30161 -5.29186 1.20326 69 65 78
-1.31711 -5.29748 1.20551 78 71 76
-1.33261 -5.30309 1.20776 80 73 69
-1.34810 -5.30871 1.21001 74 71 68
-1.36359 -5.31433 1.21226 75 73 66
-1.37907 -5.31994 1.21451 75 71 78
0.81498 -4.50752 0.88072 122 125 123
0.79884 -4.51337 0.88307 124 123 126
0.78271 -4.51922 0.88541 119 124 128
0.76659 -4.52507 0.88776 119 119 128
0.75047 -4.53092 0.89010 124 124 133
0.73436 -4.53677 0.89245 129 127 140
0.71825 -4.54261 0.89479 126 121 126
0.70214 -4.54845 0.89713 123 122 125
0.68605 -4.55429 0.89947 126 128 129
0.66995 -4.56013 0.90181 116 122 119
0.65386 -4.56596 0.90415 123 118 128
0.63778 -4.57179 0.90649 122 120 132
0.62171 -4.57763 0.90883 123 124 130
0.60563 -4.58346 0.91117 125 126 130
0.58957 -4.58928 0.91350 126 129 140
0.57351 -4.59511 0.91584 128 124 129
0.55745 -4.60093 0.91818 134 133 130
0.54140 -4.60675 0.92051 129 135 139
0.52535 -4.61257 0.92284 119 124 123
0.50931 -4.61839 0.92518 119 124 124
0.49328 -4.62421 0.92751 111 111 115
0.47725 -4.63002 0.92984 118 120 121
0.46122 -4.63584 0.93217 122 123 129
0.44520 -4.64165 0.93450 119 126 133
0.42919 -4.64745 0.93683 119 120 124
0.41318 -4.65326 0.93916 121 117 121
0.39718 -4.65907 0.94148 124 122 117
0.38118 -4.66487 0.94381 118 113 112
0.36518 -4.67067 0.94614 112 106 122
0.34920 -4.67647 0.94846 118 113 134
0.33321 -4.68227 0.95079 120 115 126
0.31723 -4.68806 0.95311 111 105 113
0.30126 -4.69386 0.95543 106 99 103
0.28529 -4.69965 0.95775 111 109 105
0.26933 -4.70544 0.96008 115 114 116
0.25338 -4.71123 0.96240 117 113 119
0.23742 -4.71701 0.96472 123 123 130
0.22148 -4.72280 0.96704 125 130 134
0.20554 -4.72858 0.96935 118 118 123
0.18960 -4.73436 0.97167 115 111 121
0.17367 -4.74014 0.97399 114 111 119
0.15774 -4.74591 0.97630 118 115 119
0.14182 -4.75169 0.97862 111 107 120
0.12591 -4.75746 0.98093 117 123 126
0.11000 -4.76323 0.98325 123 123 122
0.09409 -4.76900 0.98556 119 120 118
0.07819 -4.77477 0.98787 112 114 117
0.06230 -4.78053 0.99019 119 118 127
0.04641 -4.78630 0.99250 129 126 134
0.03052 -4.79206 0.99481 125 115 120
0.01464 -4.79782 0.99712 115 105 117
-0.00123 -4.80358 0.99942 111 116 126
-0.01710 -4.80933 1.00173 132 126 120
-0.03296 -4.81509 1.00404 127 104 113
-0.04882 -4.82084 1.00635 110 106 99
-0.06468 -4.82659 1.00865 107 109 114
-0.08052 -4.83234 1.01096 117 117 121
-0.09637 -4.83808 1.01326 115 118 118
-0.11221 -4.84383 1.01556 121 121 111
-0.12804 -4.84957 1.01787 114 107 105
-0.14387 -4.85531 1.02017 117 117 122
-0.15969 -4.86105 1.02247 121 123 123
-0.17551 -4.86679 1.02477 124 120 111
-0.19132 -4.87252 1.02707 120 116 101
-0.20713 -4.87826 1.02937 110 105 101
-0.22293 -4.88399 1.03167 113 111 118
-0.23872 -4.88972 1.03396 119 117 118
-0.25452 -4.89545 1.03626 128 113 115
-0.27030 -4.90117 1.03856 118 105 110
-0.28608 -4.90690 1.04085 116 110 103
-0.30186 -4.91262 1.04315 95 94 110
-0.31763 -4.91834 1.04544 96 104 113
-0.33340 -4.92406 1.04773 112 112 116
-0.34916 -4.92978 1.05002 115 109 109
-0.36492 -4.93549 1.05232 109 101 106
-0.38067 -4.94120 1.05461 109 104 106
-0.39641 -4.94692 1.05690 95 93 98
-0.41215 -4.95262 1.05919 96 90 87
-0.42789 -4.95833 1.06147 97 96 89
-0.44362 -4.96404 1.06376 94 94 96
-0.45935 -4.96974 1.06605 97 92 98
-0.47507 -4.97544 1.06833 94 94 101
-0.49078 -4.98114 1.07062 96 100 106
-0.50649 -4.98684 1.07290 96 98 102
-0.52220 -4.99254 1.07519 94 93 99
-0.53790 -4.99823 1.07747 94 92 95
-0.55359 -5.00393 1.07975 93 92 91
-0.56928 -5.00962 1.08204 92 93 96
-0.58497 -5.01531 1.08432 94 94 97
-0.60065 -5.02099 1.08660 96 97 97
-0.61632 -5.02668 1.08888 96 98 98
-0.63199 -5.03236 1.09116 102 101 101
-0.64766 -5.03805 1.09343 104 98 99
-0.66332 -5.04373 1.09571 98 91 94
-0.67897 -5.04940 1.09799 97 89 90
-0.69462 -5.05508 1.10026 95 86 81
-0.71027 -5.06076 1.10254 90 83 77
-0.72590 -5.06643 1.10481 88 80 77
-0.74154 -5.07210 1.10709 87 82 86
-0.75717 -5.07777 1.10936 94 91 108
-0.77279 -5.08344 1.11163 99 91 106
-0.78841 -5.08910 1.11390 95 88 90
-0.80403 -5.09476 1.11618 90 86 84
-0.81964 -5.10043 1.11845 86 82 84
-0.83524 -5.10609 1.12071 86 81 88
-0.85084 -5.11174 1.12298 87 85 90
-0.86643 -5.11740 1.12525 84 84 89
-0.88202 -5.12305 1.12752 81 80 87
-0.89761 -5.12871 1.12979 77 75 86
-0.91319 -5.13436 1.13205 80 73 85
-0.92876 -5.14001 1.13432 85 78 78
-0.94433 -5.14565 1.13658 88 82 87
-0.95989 -5.15130 1.13884 93 89 93
-0.97545 -5.15694 1.14111 89 81 87
-0.99101 -5.16258 1.14337 82 78 88
-1.00655 -5.16822 1.14563 81 78 89
-1.02210 -5.17386 1.14789 82 79 90
-1.03764 -5.17950 1.15015 79 79 93
-1.05317 -5.18513 1.15241 88 86 100
-1.06870 -5.19077 1.15467 87 85 90
-1.08423 -5.19640 1.15693 89 85 83
-1.09974 -5.20203 1.15918 85 84 80
-1.11526 -5.20765 1.16144 81 81 80
-1.13077 -5.21328 1.16369 78 81 90
-1.14627 -5.21890 1.16595 80 82 87
-1.16177 -5.22452 1.16820 81 82 86
-1.17727 -5.23014 1.17046 80 82 67
-1.19275 -5.23576 1.17271 74 74 81
-1.20824 -5.24138 1.17496 79 77 82
-1.22372 -5.24699 1.17721 80 80 74
-1.23919 -5.25261 1.17946 71 79 81
-1.25466 -5.25822 1.18171 79 80 86
-1.27013 -5.26383 1.18396 76 76 81
-1.28559 -5.26943 1.18621 79 84 90
-1.30104 -5.27504 1.18846 75 75 79
-1.31649 -5.28064 1.19070 70 72 73
-1.33193 -5.28625 1.19295 79 79 75
-1.34737 -5.29185 1.19519 72 69 77
-1.36281 -5.29744 1.19744 76 77 78
-1.37824 -5.30304 1.19968 81 78 82
0.82430 -4.48728 0.86443 125 127 130
0.80821 -4.49312 0.86677 129 128 122
0.79213 -4.49895 0.86911 129 122 121
