ply
format ascii 1.0
element face 0
property list uchar int vertex_indices
element vertex 1294
property float x
property float y
property float z
property uchar diffuse_red
property uchar diffuse_green
property uchar diffuse_blue
end_header
0.80601 -3.89649 2.21308 131 121 104
0.79882 -3.91531 2.21708 129 119 100
0.79159 -3.93424 2.22112 128 118 100
0.78431 -3.95330 2.22518 129 119 105
0.77698 -3.97247 2.22926 130 118 107
0.76961 -3.99177 2.23337 131 117 107
0.76219 -4.01119 2.23750 131 119 117
0.75473 -4.03073 2.24167 129 120 111
0.74722 -4.05039 2.24585 131 120 112
0.73966 -4.07018 2.25007 129 116 108
0.73205 -4.09010 2.25431 127 114 101
0.72439 -4.11014 2.25858 124 112 107
0.71669 -4.13031 2.26288 118 120 131
0.70893 -4.15062 2.26720 104 112 147
0.70113 -4.17105 2.27155 89 89 111
1.06267 -3.23598 2.05777 142 127 119
1.05698 -3.25092 2.06092 142 127 112
1.05125 -3.26595 2.06407 142 128 116
1.04549 -3.28106 2.06725 143 130 121
1.03970 -3.29625 2.07045 145 133 122
1.03387 -3.31153 2.07366 145 135 124
1.02802 -3.32690 2.07689 145 135 124
1.02213 -3.34235 2.08014 144 135 125
1.01620 -3.35789 2.08341 143 134 125
1.01025 -3.37352 2.08669 142 133 123
1.00426 -3.38923 2.09000 141 132 122
0.99823 -3.40504 2.09332 141 130 123
0.99217 -3.42093 2.09666 140 129 120
0.98608 -3.43692 2.10003 138 127 114
0.97995 -3.45300 2.10341 137 124 110
0.97378 -3.46917 2.10681 135 122 111
0.96758 -3.48544 2.11023 134 122 115
0.96135 -3.50179 2.11367 134 122 110
0.95508 -3.51825 2.11713 134 122 110
0.94877 -3.53480 2.12061 135 123 113
0.94242 -3.55145 2.12411 137 125 116
0.93604 -3.56819 2.12763 137 127 121
0.92962 -3.58503 2.13117 136 125 112
0.92316 -3.60198 2.13473 135 125 110
0.91666 -3.61902 2.13832 136 124 117
0.91013 -3.63616 2.14192 133 124 113
0.90355 -3.65341 2.14555 135 123 112
0.89694 -3.67076 2.14920 135 124 109
0.89029 -3.68821 2.15287 135 123 111
0.88360 -3.70577 2.15656 135 122 110
0.87686 -3.72343 2.16027 133 121 113
0.87009 -3.74120 2.16401 131 120 112
0.86327 -3.75908 2.16777 130 119 108
0.85642 -3.77707 2.17155 131 118 110
0.84952 -3.79516 2.17536 130 119 109
0.84258 -3.81337 2.17919 129 120 107
0.83560 -3.83169 2.18304 129 119 103
0.82857 -3.85012 2.18691 129 119 101
0.82150 -3.86867 2.19081 132 122 109
0.81439 -3.88733 2.19474 134 123 110
0.80723 -3.90610 2.19869 132 121 105
0.80003 -3.92500 2.20266 129 119 101
0.79278 -3.94401 2.20666 128 118 101
0.78549 -3.96314 2.21068 130 118 107
0.77815 -3.98239 2.21473 130 118 109
0.77077 -4.00176 2.21880 130 118 105
0.76333 -4.02126 2.22290 131 120 113
0.75586 -4.04087 2.22703 130 121 107
0.74833 -4.06062 2.23118 131 119 108
0.74076 -4.08049 2.23535 130 116 104
0.73313 -4.10048 2.23956 127 112 99
0.71774 -4.14086 2.24805 109 105 108
0.70997 -4.16125 2.25234 91 90 112
1.08122 -3.19870 2.03539 146 132 127
1.07561 -3.21344 2.03845 144 130 126
1.06997 -3.22827 2.04153 142 129 123
1.06429 -3.24318 2.04463 144 129 118
1.05859 -3.25818 2.04774 144 129 114
1.05286 -3.27326 2.05087 143 128 117
1.04709 -3.28842 2.05401 144 130 122
1.04129 -3.30366 2.05718 146 133 124
1.03546 -3.31900 2.06036 145 135 126
1.02959 -3.33441 2.06356 145 135 126
1.02369 -3.34992 2.06678 145 135 125
1.01776 -3.36551 2.07002 144 134 124
1.01180 -3.38119 2.07327 142 134 122
1.00580 -3.39697 2.07655 141 132 120
0.99977 -3.41283 2.07984 141 130 121
0.99370 -3.42878 2.08315 140 129 121
0.98759 -3.44482 2.08648 139 126 116
0.98146 -3.46096 2.08983 137 123 114
0.97528 -3.47719 2.09320 135 122 115
0.96907 -3.49351 2.09658 134 122 117
0.96283 -3.50993 2.09999 135 120 109
0.95655 -3.52644 2.10342 134 121 107
0.95023 -3.54305 2.10687 135 123 110
0.94387 -3.55976 2.11034 136 125 113
0.93748 -3.57657 2.11382 136 127 119
0.93105 -3.59347 2.11733 136 125 112
0.92458 -3.61048 2.12086 135 124 109
0.91807 -3.62758 2.12441 136 124 115
0.91153 -3.64479 2.12798 134 124 116
0.90494 -3.66210 2.13158 136 124 114
0.89832 -3.67952 2.13519 134 124 109
0.89166 -3.69703 2.13883 135 123 107
0.88495 -3.71466 2.14249 135 122 109
0.87821 -3.73239 2.14617 134 122 116
0.87142 -3.75023 2.14987 132 119 113
0.86460 -3.76817 2.15359 130 118 105
0.85773 -3.78623 2.15734 130 118 108
0.85082 -3.80439 2.16111 130 119 112
0.84387 -3.82267 2.16491 130 120 111
0.83687 -3.84106 2.16872 130 119 103
0.82983 -3.85956 2.17256 130 119 99
0.82275 -3.87818 2.17643 132 121 108
0.81563 -3.89691 2.18032 134 122 112
0.80846 -3.91576 2.18423 132 121 108
0.80124 -3.93473 2.18817 130 117 101
0.79398 -3.95382 2.19213 129 117 97
0.78668 -3.97302 2.19611 131 118 105
0.77932 -3.99235 2.20013 130 119 105
0.77193 -4.01180 2.20416 131 119 107
0.76448 -4.03137 2.20823 131 120 115
0.75699 -4.05107 2.21231 131 119 107
0.74945 -4.07089 2.21643 130 117 105
0.74186 -4.09084 2.22057 129 115 102
0.73422 -4.11092 2.22474 126 110 99
0.71880 -4.15147 2.23315 103 100 102
1.09953 -3.16187 2.01328 147 131 127
1.09401 -3.17642 2.01627 146 131 130
1.08845 -3.19106 2.01926 146 131 126
1.08287 -3.20578 2.02228 144 132 127
1.07725 -3.22057 2.02531 144 131 124
1.07160 -3.23545 2.02836 142 131 121
1.06592 -3.25042 2.03142 144 130 121
1.06021 -3.26546 2.03450 143 130 118
1.05447 -3.28059 2.03760 143 129 119
1.04869 -3.29580 2.04072 144 129 123
1.04289 -3.31110 2.04385 144 132 125
1.03705 -3.32649 2.04701 144 134 125
1.03117 -3.34196 2.05018 144 134 122
1.02527 -3.35752 2.05336 144 134 121
1.01933 -3.37317 2.05657 144 133 123
1.01335 -3.38891 2.05979 143 133 122
1.00735 -3.40473 2.06303 142 132 120
1.00130 -3.42065 2.06629 141 130 117
0.99523 -3.43666 2.06957 141 129 118
0.98912 -3.45276 2.07287 139 126 116
0.98297 -3.46895 2.07619 136 122 114
0.97679 -3.48524 2.07953 134 120 114
0.97057 -3.50162 2.08288 133 120 112
0.96431 -3.51810 2.08626 134 119 108
0.95802 -3.53467 2.08965 134 120 106
0.95170 -3.55134 2.09307 135 122 108
0.94533 -3.56811 2.09650 137 124 109
0.93893 -3.58498 2.09996 137 126 113
0.93249 -3.60195 2.10343 136 125 110
0.92601 -3.61902 2.10693 135 124 109
0.91949 -3.63619 2.11045 134 125 116
0.91294 -3.65346 2.11398 134 124 116
0.90634 -3.67083 2.11754 135 123 113
0.89971 -3.68831 2.12112 133 123 110
0.89303 -3.70590 2.12473 133 124 110
0.88632 -3.72359 2.12835 134 124 112
0.87956 -3.74138 2.13200 133 122 114
0.87277 -3.75929 2.13566 132 120 111
0.86593 -3.77730 2.13935 131 118 108
0.85905 -3.79543 2.14307 130 118 111
0.85213 -3.81366 2.14680 129 119 113
0.84516 -3.83201 2.15056 130 120 109
0.83815 -3.85047 2.15434 130 119 103
0.83110 -3.86905 2.15815 130 119 100
0.82401 -3.88774 2.16198 132 121 109
0.81687 -3.90654 2.16583 133 122 113
0.80969 -3.92547 2.16970 131 120 111
0.80246 -3.94451 2.17360 129 117 98
0.79519 -3.96367 2.17753 129 118 92
0.78787 -3.98295 2.18148 130 119 103
0.78050 -4.00236 2.18546 130 118 102
0.77309 -4.02188 2.18946 130 118 107
0.76563 -4.04154 2.19348 132 118 114
0.75812 -4.06131 2.19753 132 117 107
0.75057 -4.08122 2.20161 131 116 103
0.74297 -4.10125 2.20571 128 114 98
0.73531 -4.12141 2.20984 124 111 96
0.71986 -4.16212 2.21818 99 94 101
1.11762 -3.12549 1.99145 146 136 131
1.11218 -3.13986 1.99435 148 134 132
1.10671 -3.15430 1.99727 149 135 129
1.10121 -3.16883 2.00021 148 133 127
1.09568 -3.18343 2.00316 147 132 127
1.09011 -3.19812 2.00613 146 132 122
1.08452 -3.21289 2.00911 146 134 126
1.07890 -3.22773 2.01211 143 133 124
1.07324 -3.24266 2.01513 141 132 121
1.06755 -3.25768 2.01817 142 131 126
1.06184 -3.27277 2.02122 142 130 123
1.05609 -3.28796 2.02429 143 129 119
1.05030 -3.30322 2.02737 143 129 122
1.04449 -3.31857 2.03047 144 132 126
1.03864 -3.33401 2.03360 144 133 125
1.03276 -3.34954 2.03673 144 133 121
1.02685 -3.36515 2.03989 145 132 121
1.02090 -3.38086 2.04306 146 132 123
1.01492 -3.39665 2.04626 144 131 125
1.00890 -3.41253 2.04947 141 131 123
1.00285 -3.42851 2.05269 140 131 118
0.99677 -3.44457 2.05594 140 129 116
0.99065 -3.46073 2.05921 138 125 114
0.98449 -3.47698 2.06249 135 121 114
0.97830 -3.49333 2.06580 133 120 113
0.97207 -3.50977 2.06912 134 120 112
0.96581 -3.52631 2.07246 133 120 109
0.95951 -3.54294 2.07582 133 121 106
0.95317 -3.55967 2.07921 134 121 106
0.94679 -3.57650 2.08261 135 124 103
0.94038 -3.59343 2.08603 135 125 109
0.93393 -3.61046 2.08947 136 125 111
0.92744 -3.62759 2.09293 135 124 111
0.92092 -3.64483 2.09642 133 124 114
0.91435 -3.66216 2.09992 134 125 115
0.90774 -3.67960 2.10345 134 124 109
0.90110 -3.69715 2.10699 134 123 112
0.89441 -3.71480 2.11056 133 124 115
0.88769 -3.73255 2.11415 134 124 117
0.88092 -3.75042 2.11776 133 121 114
0.87411 -3.76839 2.12139 132 119 110
0.86726 -3.78648 2.12505 131 117 107
0.86037 -3.80467 2.12873 130 118 109
0.85344 -3.82298 2.13243 130 119 111
0.84646 -3.84139 2.13615 130 118 107
0.83944 -3.85993 2.13989 130 118 101
0.83238 -3.87857 2.14366 130 118 102
0.82527 -3.89734 2.14746 132 119 110
0.81812 -3.91622 2.15127 133 120 111
0.81093 -3.93522 2.15511 130 119 107
0.80369 -3.95433 2.15898 129 118 101
0.79640 -3.97357 2.16286 129 119 99
0.78907 -3.99293 2.16678 130 119 101
0.78169 -4.01241 2.17072 131 117 100
0.77426 -4.03202 2.17468 130 118 108
0.76679 -4.05175 2.17867 132 119 115
0.75927 -4.07161 2.18268 132 117 106
0.75170 -4.09159 2.18672 130 116 104
0.74408 -4.11170 2.19078 127 112 98
0.73641 -4.13195 2.19488 124 110 92
0.72093 -4.17283 2.20314 97 91 97
1.12474 -3.11800 1.97555 145 137 126
1.11932 -3.13233 1.97841 147 135 128
1.11388 -3.14675 1.98128 148 135 128
1.10840 -3.16124 1.98417 148 136 130
1.10289 -3.17582 1.98708 148 134 132
1.09735 -3.19047 1.99000 147 134 127
1.09178 -3.20521 1.99294 146 134 125
1.08618 -3.22002 1.99589 147 134 129
1.08055 -3.23492 1.99886 144 133 127
1.07489 -3.24990 2.00185 143 131 124
1.06920 -3.26497 2.00485 144 132 127
1.06347 -3.28012 2.00787 143 130 123
1.05771 -3.29535 2.01091 143 130 116
1.05192 -3.31067 2.01397 142 130 122
1.04610 -3.32608 2.01704 144 132 129
1.04024 -3.34157 2.02013 143 133 130
1.03436 -3.35715 2.02323 143 133 130
1.02843 -3.37282 2.02636 144 132 126
1.02248 -3.38858 2.02950 145 131 123
1.01649 -3.40442 2.03266 143 130 123
1.01046 -3.42036 2.03584 139 129 122
1.00440 -3.43639 2.03904 139 129 119
0.99831 -3.45252 2.04225 138 126 117
0.99218 -3.46873 2.04548 137 123 116
0.98602 -3.48504 2.04874 135 121 114
0.97982 -3.50145 2.05201 134 121 115
0.97358 -3.51795 2.05530 135 121 117
0.96731 -3.53455 2.05861 134 121 109
0.96100 -3.55124 2.06194 134 120 107
0.95465 -3.56804 2.06528 133 120 107
0.94827 -3.58493 2.06865 133 123 101
0.94184 -3.60192 2.07204 134 124 109
0.93538 -3.61901 2.07545 135 124 113
0.92888 -3.63621 2.07888 135 122 111
0.92235 -3.65350 2.08233 134 123 109
0.91577 -3.67091 2.08580 134 125 116
0.90915 -3.68841 2.08929 132 125 113
0.90250 -3.70602 2.09280 132 123 116
0.89580 -3.72374 2.09633 132 123 115
0.88906 -3.74156 2.09988 134 123 114
0.88229 -3.75950 2.10346 133 121 113
0.87547 -3.77754 2.10706 133 120 110
0.86861 -3.79569 2.11068 132 120 106
0.86170 -3.81396 2.11432 131 119 108
0.85476 -3.83233 2.11798 132 118 110
0.84777 -3.85082 2.12167 131 117 108
0.84074 -3.86943 2.12538 130 116 106
0.83366 -3.88815 2.12911 129 117 108
0.82654 -3.90698 2.13287 132 119 114
0.81938 -3.92594 2.13665 133 120 113
0.81217 -3.94501 2.14045 131 118 104
0.80492 -3.96420 2.14428 131 118 101
0.79762 -3.98352 2.14813 129 118 104
0.79027 -4.00295 2.15201 130 118 101
0.78288 -4.02251 2.15591 130 118 99
0.77544 -4.04220 2.15983 130 119 104
0.76795 -4.06201 2.16378 131 119 106
0.76042 -4.08195 2.16776 130 118 103
0.75283 -4.10201 2.17176 129 115 105
0.74520 -4.12221 2.17578 128 112 95
0.73752 -4.14253 2.17984 123 108 91
0.72200 -4.18358 2.18802 96 89 93
1.13722 -3.09628 1.95687 151 141 130
1.13185 -3.11051 1.95967 149 137 124
1.12646 -3.12482 1.96248 148 136 120
1.12103 -3.13921 1.96531 149 135 124
1.11558 -3.15367 1.96816 149 136 122
1.11009 -3.16821 1.97102 149 136 129
1.10458 -3.18284 1.97389 149 135 131
1.09903 -3.19754 1.97678 149 134 128
1.09346 -3.21233 1.97969 147 134 124
1.08785 -3.22719 1.98262 146 133 121
1.08221 -3.24214 1.98556 143 133 123
1.07654 -3.25717 1.98851 144 132 122
1.07084 -3.27229 1.99149 145 131 125
1.06511 -3.28749 1.99447 144 130 123
1.05934 -3.30278 1.99748 143 130 121
1.05355 -3.31815 2.00050 142 131 125
1.04772 -3.33361 2.00354 143 132 128
1.04185 -3.34916 2.00660 142 133 129
1.03596 -3.36479 2.00968 143 132 128
1.03003 -3.38052 2.01277 144 131 125
1.02406 -3.39633 2.01588 143 131 122
1.01806 -3.41223 2.01901 141 129 122
1.01203 -3.42823 2.02215 140 127 121
1.00596 -3.44432 2.02532 140 127 120
0.99986 -3.46050 2.02850 139 126 121
0.99372 -3.47677 2.03170 138 125 120
0.98755 -3.49314 2.03492 136 123 114
0.98134 -3.50961 2.03816 135 121 110
0.97509 -3.52617 2.04141 135 122 113
0.96881 -3.54283 2.04469 134 121 111
0.96249 -3.55958 2.04799 135 119 110
0.95614 -3.57644 2.05130 134 119 113
0.94974 -3.59339 2.05463 134 122 114
0.94331 -3.61045 2.05799 136 124 111
0.93684 -3.62760 2.06136 134 126 113
0.93033 -3.64486 2.06476 134 123 113
0.92378 -3.66222 2.06817 134 122 112
0.91720 -3.67969 2.07161 135 124 115
0.91057 -3.69726 2.07506 135 123 114
0.90390 -3.71494 2.07854 134 122 118
0.89720 -3.73272 2.08204 133 121 113
0.89045 -3.75061 2.08556 134 121 107
0.88366 -3.76862 2.08910 133 120 108
0.87683 -3.78673 2.09266 133 120 110
0.86996 -3.80495 2.09624 132 120 109
0.86304 -3.82328 2.09985 131 119 111
0.85608 -3.84173 2.10347 132 119 111
0.84908 -3.86029 2.10713 132 118 109
0.84204 -3.87897 2.11080 131 117 108
0.83495 -3.89776 2.11449 130 117 108
0.82782 -3.91667 2.11821 132 118 112
0.82064 -3.93570 2.12196 134 119 111
0.81342 -3.95485 2.12572 132 118 105
0.80615 -3.97412 2.12951 131 118 104
0.79884 -3.99351 2.13333 130 119 106
0.79148 -4.01303 2.13716 130 117 103
0.78407 -4.03267 2.14103 129 116 101
0.77662 -4.05243 2.14491 129 117 102
0.76912 -4.07232 2.14882 131 117 103
0.76157 -4.09234 2.15276 130 116 105
0.75397 -4.11249 2.15672 128 115 107
0.74632 -4.13276 2.16071 126 113 93
0.73863 -4.15317 2.16472 122 109 89
0.72308 -4.19439 2.17283 94 86 87
1.13896 -3.10304 1.94381 155 145 125
1.13358 -3.11732 1.94658 152 136 125
1.12818 -3.13167 1.94937 149 137 125
1.12275 -3.14611 1.95216 149 137 125
1.11729 -3.16062 1.95498 149 137 126
1.11180 -3.17521 1.95781 149 136 130
1.10627 -3.18988 1.96065 149 136 129
1.10072 -3.20464 1.96352 149 133 125
1.09514 -3.21947 1.96639 147 134 122
1.08953 -3.23439 1.96929 148 134 119
1.08388 -3.24939 1.97219 147 133 119
1.07820 -3.26448 1.97512 146 132 115
1.07250 -3.27964 1.97806 145 130 121
1.06676 -3.29490 1.98102 144 130 122
1.06098 -3.31024 1.98399 142 131 122
1.05518 -3.32566 1.98699 142 130 123
1.04934 -3.34118 1.98999 143 131 126
1.04347 -3.35678 1.99302 143 132 128
1.03756 -3.37247 1.99606 144 132 124
1.03163 -3.38825 1.99912 144 132 121
1.02565 -3.40412 2.00220 142 131 123
1.01965 -3.42008 2.00530 141 131 125
1.01361 -3.43613 2.00841 140 129 124
1.00753 -3.45228 2.01154 139 129 119
1.00142 -3.46852 2.01469 139 128 119
0.99527 -3.48485 2.01786 139 126 119
0.98909 -3.50128 2.02104 137 123 113
0.98287 -3.51780 2.02425 136 121 110
0.97662 -3.53442 2.02747 134 122 113
0.97032 -3.55114 2.03071 134 122 113
0.96400 -3.56796 2.03397 134 120 109
0.95763 -3.58487 2.03725 132 121 109
0.95123 -3.60189 2.04056 134 123 114
0.94478 -3.61901 2.04387 137 125 114
0.93830 -3.63623 2.04721 136 125 113
0.93178 -3.65355 2.05057 134 124 114
0.92523 -3.67098 2.05395 135 123 115
0.91863 -3.68851 2.05735 135 123 119
0.91199 -3.70615 2.06077 134 122 115
0.90531 -3.72389 2.06421 135 121 115
0.89860 -3.74174 2.06768 133 120 112
0.89184 -3.75971 2.07116 132 120 107
0.88504 -3.77778 2.07466 130 120 108
0.87819 -3.79596 2.07819 132 121 113
0.87131 -3.81425 2.08174 132 119 112
0.86438 -3.83266 2.08531 132 118 111
0.85741 -3.85117 2.08890 132 118 109
0.85040 -3.86981 2.09251 132 118 105
0.84335 -3.88856 2.09615 131 117 103
0.83625 -3.90743 2.09981 130 116 105
0.82910 -3.92641 2.10349 132 118 113
0.82191 -3.94552 2.10719 133 119 113
0.81468 -3.96474 2.11092 131 118 107
0.80740 -3.98409 2.11467 130 118 103
0.80007 -4.00356 2.11845 131 119 105
0.79270 -4.02315 2.12225 130 118 102
0.78528 -4.04287 2.12607 129 116 102
0.77781 -4.06271 2.12992 130 117 101
0.77029 -4.08268 2.13380 131 117 100
0.76273 -4.10278 2.13769 130 117 103
0.75512 -4.12301 2.14162 127 115 102
0.74745 -4.14337 2.14557 124 111 95
0.73974 -4.16387 2.14954 122 109 88
0.72416 -4.20526 2.15757 88 75 81
1.13532 -3.12415 1.93344 152 137 128
1.12991 -3.13855 1.93619 149 137 130
1.12447 -3.15304 1.93896 147 138 128
1.11900 -3.16760 1.94175 150 137 128
1.11351 -3.18224 1.94455 147 137 128
1.10798 -3.19696 1.94736 148 137 125
1.10242 -3.21176 1.95019 149 135 126
1.09683 -3.22665 1.95304 149 132 124
1.09121 -3.24162 1.95590 149 131 124
1.08556 -3.25667 1.95878 148 131 123
1.07987 -3.27181 1.96167 148 131 120
1.07416 -3.28703 1.96458 146 131 119
1.06841 -3.30233 1.96751 144 131 120
1.06263 -3.31773 1.97045 142 130 121
1.05682 -3.33321 1.97341 141 130 120
1.05097 -3.34877 1.97639 143 131 120
1.04509 -3.36443 1.97938 143 131 121
1.03918 -3.38018 1.98239 144 132 120
1.03323 -3.39601 1.98542 145 132 121
1.02725 -3.41194 1.98846 143 132 123
1.02124 -3.42795 1.99152 141 131 124
1.01519 -3.44407 1.99461 139 129 124
1.00910 -3.46027 1.99770 139 129 119
1.00298 -3.47657 2.00082 141 128 116
0.99683 -3.49296 2.00395 140 126 113
0.99064 -3.50945 2.00711 137 122 107
0.98441 -3.52603 2.01028 135 121 107
0.97815 -3.54271 2.01347 133 122 115
0.97184 -3.55949 2.01667 134 122 116
0.96551 -3.57637 2.01990 133 121 107
0.95913 -3.59335 2.02315 130 122 104
0.95272 -3.61043 2.02641 132 124 113
0.94626 -3.62761 2.02970 135 125 119
0.93977 -3.64490 2.03300 136 126 114
0.93324 -3.66228 2.03633 135 125 112
0.92668 -3.67978 2.03967 133 124 112
0.92007 -3.69737 2.04304 133 123 113
0.91342 -3.71508 2.04642 132 122 110
0.90673 -3.73289 2.04983 134 121 110
0.90000 -3.75081 2.05325 133 120 108
0.89323 -3.76884 2.05670 131 121 104
0.88642 -3.78698 2.06017 131 122 108
0.87957 -3.80523 2.06366 131 122 110
0.87267 -3.82359 2.06717 130 120 108
0.86573 -3.84207 2.07070 129 119 107
0.85875 -3.86066 2.07426 130 120 106
0.85173 -3.87937 2.07783 130 120 105
0.84466 -3.89819 2.08143 130 118 105
0.83755 -3.91713 2.08505 129 117 107
0.83039 -3.93619 2.08870 132 118 112
0.82319 -3.95537 2.09236 133 119 114
0.81594 -3.97467 2.09605 131 119 110
0.80864 -3.99410 2.09977 129 118 107
0.80130 -4.01364 2.10350 130 117 105
0.79392 -4.03332 2.10727 129 117 104
0.78648 -4.05311 2.11105 128 116 104
0.77900 -4.07304 2.11486 128 115 106
0.77147 -4.09309 2.11869 128 116 100
0.76389 -4.11327 2.12255 127 115 104
0.75627 -4.13359 2.12644 126 112 99
0.74859 -4.15403 2.13035 125 108 94
0.74086 -4.17461 2.13428 122 105 90
1.13706 -3.13101 1.92025 150 137 129
1.13165 -3.14546 1.92297 149 138 128
1.12620 -3.15999 1.92571 147 137 127
1.12073 -3.17460 1.92846 151 136 126
1.11522 -3.18929 1.93123 150 136 128
1.10969 -3.20407 1.93401 148 137 130
1.10412 -3.21892 1.93681 149 136 133
1.09853 -3.23386 1.93963 148 133 127
1.09290 -3.24888 1.94246 144 134 124
1.08724 -3.26398 1.94530 145 133 126
1.08155 -3.27917 1.94817 146 132 121
1.07583 -3.29444 1.95104 144 131 116
1.07007 -3.30980 1.95394 144 131 120
1.06428 -3.32525 1.95685 142 130 121
1.05846 -3.34078 1.95978 140 130 118
1.05261 -3.35640 1.96272 141 130 115
1.04672 -3.37212 1.96568 142 132 115
1.04080 -3.38792 1.96866 144 132 117
1.03485 -3.40381 1.97165 145 131 124
1.02886 -3.41979 1.97467 146 131 126
1.02283 -3.43587 1.97769 144 130 124
1.01678 -3.45203 1.98074 142 128 123
1.01068 -3.46830 1.98381 140 128 122
1.00455 -3.48465 1.98689 139 128 121
0.99839 -3.50110 1.98999 139 125 117
0.99219 -3.51765 1.99311 136 122 112
0.98595 -3.53430 1.99624 133 121 112
0.97968 -3.55104 1.99940 131 122 119
0.97337 -3.56788 2.00257 134 121 121
0.96702 -3.58482 2.00577 133 121 111
0.96064 -3.60186 2.00898 132 122 108
0.95421 -3.61901 2.01221 133 124 110
0.94775 -3.63625 2.01546 134 125 114
0.94125 -3.65360 2.01873 135 124 112
0.93471 -3.67105 2.02202 135 124 111
0.92813 -3.68861 2.02532 135 123 111
0.92151 -3.70628 2.02865 134 123 109
0.91485 -3.72405 2.03200 133 122 108
0.90816 -3.74193 2.03537 132 121 109
0.90142 -3.75991 2.03876 132 120 107
0.89463 -3.77801 2.04217 132 121 106
0.88781 -3.79622 2.04560 132 121 108
0.88095 -3.81454 2.04906 132 121 108
0.87404 -3.83298 2.05253 129 121 105
0.86709 -3.85153 2.05603 129 120 103
0.86010 -3.87019 2.05954 130 120 105
0.85306 -3.88897 2.06308 130 119 107
0.84598 -3.90787 2.06664 129 118 108
0.83885 -3.92689 2.07023 129 117 109
0.83168 -3.94602 2.07383 133 118 112
0.82447 -3.96528 2.07746 132 119 112
0.81721 -3.98466 2.08111 131 118 108
0.80990 -4.00416 2.08479 130 117 105
0.80255 -4.02378 2.08849 130 116 102
0.79514 -4.04353 2.09221 127 115 104
0.78770 -4.06341 2.09596 127 113 105
0.78020 -4.08342 2.09973 126 113 104
0.77266 -4.10355 2.10352 126 113 100
0.76506 -4.12382 2.10734 126 113 99
0.75742 -4.14421 2.11118 126 111 96
0.74973 -4.16474 2.11505 124 108 95
0.74199 -4.18541 2.11895 121 105 94
1.14420 -3.12348 1.90432 144 128 126
1.13881 -3.13790 1.90700 147 134 126
1.13339 -3.15240 1.90969 151 136 126
1.12794 -3.16698 1.91240 149 137 124
1.12246 -3.18164 1.91512 148 136 121
1.11695 -3.19638 1.91786 147 137 129
1.11141 -3.21120 1.92061 148 138 131
1.10583 -3.22611 1.92338 148 136 132
1.10023 -3.24109 1.92616 147 134 124
1.09459 -3.25617 1.92896 145 133 118
1.08893 -3.27132 1.93177 145 133 123
1.08323 -3.28656 1.93460 146 132 123
1.07750 -3.30189 1.93745 144 130 122
1.07174 -3.31730 1.94031 144 130 122
1.06594 -3.33280 1.94319 142 129 118
1.06011 -3.34839 1.94609 140 128 117
1.05425 -3.36407 1.94900 140 129 115
1.04836 -3.37983 1.95192 141 131 117
1.04243 -3.39569 1.95487 142 132 119
1.03647 -3.41164 1.95783 142 132 123
1.03047 -3.42768 1.96081 143 132 125
1.02444 -3.44381 1.96381 143 131 122
1.01837 -3.46004 1.96682 142 130 120
1.01227 -3.47636 1.96985 141 129 122
1.00613 -3.49277 1.97290 140 127 125
0.99996 -3.50928 1.97596 140 125 123
0.99375 -3.52589 1.97905 137 122 115
0.98750 -3.54260 1.98215 135 121 113
0.98122 -3.55940 1.98527 134 122 117
0.97490 -3.57630 1.98841 136 122 117
0.96854 -3.59331 1.99157 134 123 111
0.96215 -3.61041 1.99474 132 123 104
0.95572 -3.62762 1.99794 133 125 99
0.94924 -3.64493 2.00115 135 125 109
0.94273 -3.66234 2.00439 135 124 111
0.93618 -3.67986 2.00764 136 123 114
0.92960 -3.69749 2.01091 135 123 118
0.92297 -3.71522 2.01421 133 122 108
0.91630 -3.73306 2.01752 134 123 105
0.90959 -3.75100 2.02085 132 122 116
0.90283 -3.76906 2.02421 133 121 114
0.89604 -3.78723 2.02758 132 122 111
0.88921 -3.80551 2.03097 131 122 110
0.88233 -3.82390 2.03439 130 121 109
0.87541 -3.84241 2.03783 129 121 106
0.86845 -3.86103 2.04128 130 120 107
0.86145 -3.87977 2.04476 132 119 109
0.85440 -3.89862 2.04826 132 118 110
0.84730 -3.91759 2.05179 130 118 109
0.84017 -3.93668 2.05533 129 116 106
0.83298 -3.95590 2.05890 130 117 105
0.82575 -3.97523 2.06249 130 119 105
0.81848 -3.99469 2.06610 129 119 103
0.81116 -4.01427 2.06974 128 117 100
0.80379 -4.03397 2.07340 126 115 98
0.79638 -4.05380 2.07708 124 114 99
0.78892 -4.07376 2.08079 125 111 101
0.78141 -4.09385 2.08452 125 111 99
0.77385 -4.11406 2.08827 125 113 99
0.76624 -4.13441 2.09205 126 111 95
0.75858 -4.15489 2.09585 124 109 93
0.75087 -4.17551 2.09968 121 107 92
0.74312 -4.19626 2.10354 119 104 92
1.15133 -3.11596 1.88841 143 133 118
1.14597 -3.13035 1.89105 143 131 124
1.14057 -3.14482 1.89369 146 134 122
1.13514 -3.15937 1.89636 150 137 125
1.12968 -3.17399 1.89903 149 137 130
1.12420 -3.18870 1.90172 147 137 134
1.11868 -3.20349 1.90443 147 139 129
1.11313 -3.21837 1.90715 147 139 128
1.10755 -3.23332 1.90989 148 135 128
1.10194 -3.24836 1.91264 147 133 127
1.09630 -3.26348 1.91540 144 132 123
1.09062 -3.27869 1.91819 144 133 125
1.08492 -3.29399 1.92098 146 133 127
1.07918 -3.30937 1.92380 144 131 128
1.07341 -3.32483 1.92663 142 130 126
1.06761 -3.34039 1.92947 142 129 112
1.06177 -3.35603 1.93234 141 127 114
1.05590 -3.37176 1.93521 140 127 114
1.05000 -3.38759 1.93811 143 128 118
1.04407 -3.40350 1.94102 144 130 122
1.03809 -3.41950 1.94395 143 130 121
1.03209 -3.43560 1.94689 143 131 124
1.02605 -3.45179 1.94986 142 130 127
1.01997 -3.46807 1.95283 141 130 125
1.01386 -3.48445 1.95583 140 130 122
1.00772 -3.50093 1.95885 139 129 123
1.00154 -3.51750 1.96188 139 126 121
0.99532 -3.53417 1.96493 137 123 115
0.98906 -3.55094 1.96799 135 123 115
0.98277 -3.56780 1.97108 134 124 118
0.97644 -3.58477 1.97418 134 124 113
0.97007 -3.60183 1.97731 133 124 111
0.96367 -3.61900 1.98045 133 123 109
0.95723 -3.63627 1.98361 132 124 107
0.95074 -3.65365 1.98679 136 124 111
0.94422 -3.67113 1.98998 135 124 113
0.93766 -3.68871 1.99320 134 123 115
0.93106 -3.70640 1.99644 134 122 118
0.92442 -3.72420 1.99969 133 121 112
0.91774 -3.74211 2.00297 135 121 108
0.91102 -3.76012 2.00627 133 122 114
0.90426 -3.77825 2.00958 133 121 117
0.89746 -3.79649 2.01292 133 121 117
0.89061 -3.81484 2.01628 132 122 118
0.88372 -3.83330 2.01965 131 121 113
0.87679 -3.85188 2.02305 128 120 109
0.86982 -3.87058 2.02647 130 120 112
0.86280 -3.88939 2.02991 132 119 108
0.85574 -3.90831 2.03338 131 119 103
0.84863 -3.92736 2.03686 130 118 103
0.84148 -3.94653 2.04037 130 117 100
0.83429 -3.96582 2.04390 131 118 101
0.82705 -3.98523 2.04745 130 118 106
0.81976 -4.00476 2.05102 128 116 106
0.81243 -4.02442 2.05462 126 114 102
0.80505 -4.04420 2.05824 126 111 100
0.79762 -4.06412 2.06188 125 112 102
0.79014 -4.08416 2.06555 126 112 106
0.78262 -4.10433 2.06924 124 112 102
0.77504 -4.12463 2.07295 123 113 104
0.76742 -4.14506 2.07669 124 111 98
0.75975 -4.16562 2.08045 123 108 94
0.75203 -4.18632 2.08424 122 108 89
0.74425 -4.20716 2.08805 121 106 93
1.16906 -3.07996 1.86740 144 132 126
1.16377 -3.09416 1.86996 146 132 124
1.15846 -3.10845 1.87253 145 134 119
1.15311 -3.12281 1.87512 144 133 120
1.14774 -3.13724 1.87772 142 132 124
1.14233 -3.15176 1.88034 145 134 118
1.13690 -3.16636 1.88297 150 137 123
1.13143 -3.18104 1.88561 149 138 127
1.12594 -3.19580 1.88827 147 139 128
1.12042 -3.21064 1.89095 148 138 125
1.11486 -3.22556 1.89363 148 138 135
1.10928 -3.24057 1.89634 148 135 131
1.10366 -3.25566 1.89906 147 133 126
1.09801 -3.27083 1.90179 143 132 122
1.09233 -3.28609 1.90454 143 133 125
1.08662 -3.30144 1.90731 142 133 126
1.08087 -3.31687 1.91009 143 132 125
1.07509 -3.33240 1.91289 144 130 125
1.06928 -3.34801 1.91570 142 129 120
1.06344 -3.36370 1.91853 140 128 121
1.05756 -3.37949 1.92137 139 128 119
1.05165 -3.39537 1.92423 143 129 124
1.04571 -3.41134 1.92711 144 130 125
1.03973 -3.42740 1.93001 143 131 122
1.03372 -3.44356 1.93292 144 130 119
1.02767 -3.45980 1.93584 144 129 116
1.02158 -3.47615 1.93879 142 129 117
1.01546 -3.49259 1.94175 139 130 122
1.00931 -3.50912 1.94473 138 129 124
1.00312 -3.52575 1.94773 138 127 121
0.99689 -3.54248 1.95074 136 123 115
0.99063 -3.55931 1.95378 135 121 112
0.98433 -3.57624 1.95683 134 122 111
0.97799 -3.59327 1.95989 134 123 110
0.97161 -3.61040 1.96298 133 123 114
0.96520 -3.62763 1.96609 136 121 118
0.95874 -3.64497 1.96921 134 123 114
0.95225 -3.66241 1.97235 134 124 116
0.94572 -3.67995 1.97551 133 123 115
0.93915 -3.69760 1.97869 134 122 113
0.93254 -3.71536 1.98189 134 122 116
0.92589 -3.73323 1.98511 134 121 114
0.91920 -3.75120 1.98835 134 121 115
0.91247 -3.76929 1.99161 132 122 115
0.90569 -3.78748 1.99489 132 122 117
0.89888 -3.80579 1.99819 133 121 115
0.89202 -3.82421 2.00151 132 121 114
0.88512 -3.84275 2.00485 130 120 111
0.87818 -3.86140 2.00821 130 119 107
0.87119 -3.88017 2.01159 131 119 107
0.86416 -3.89905 2.01500 131 120 106
0.85709 -3.91805 2.01842 131 120 103
0.84997 -3.93718 2.02187 132 118 104
0.84281 -3.95642 2.02533 130 117 105
0.83560 -3.97579 2.02882 131 116 108
0.82835 -3.99527 2.03233 130 115 110
0.82105 -4.01489 2.03587 129 113 106
0.81370 -4.03462 2.03943 128 111 102
0.80630 -4.05449 2.04300 126 109 100
0.79886 -4.07448 2.04661 124 110 100
0.79137 -4.09460 2.05023 125 111 103
0.78383 -4.11485 2.05388 124 112 103
0.77625 -4.13524 2.05756 122 110 103
0.76861 -4.15576 2.06125 123 110 96
0.76092 -4.17641 2.06497 125 108 93
0.75318 -4.19719 2.06872 123 107 91
0.74540 -4.21812 2.07249 120 106 95
1.18136 -3.05842 1.84912 148 135 128
1.17613 -3.07252 1.85163 147 134 124
1.17086 -3.08669 1.85414 147 132 123
1.16557 -3.10094 1.85667 147 132 122
1.16025 -3.11527 1.85921 145 133 117
1.15489 -3.12968 1.86177 144 132 117
1.14951 -3.14417 1.86434 145 132 123
1.14410 -3.15874 1.86692 146 133 122
1.13866 -3.17338 1.86952 149 138 123
1.13319 -3.18811 1.87214 149 138 127
1.12769 -3.20292 1.87476 149 137 128
1.12216 -3.21781 1.87741 148 137 126
1.11660 -3.23279 1.88006 147 138 132
1.11101 -3.24784 1.88274 149 135 129
1.10538 -3.26299 1.88542 146 134 126
1.09973 -3.27822 1.88812 143 133 127
1.09404 -3.29353 1.89084 145 132 127
1.08832 -3.30893 1.89357 145 132 126
1.08257 -3.32442 1.89632 144 131 124
1.07678 -3.33999 1.89909 145 129 121
1.07096 -3.35566 1.90187 141 129 121
1.06511 -3.37141 1.90466 139 128 122
1.05923 -3.38725 1.90747 138 127 121
1.05331 -3.40319 1.91030 140 127 124
1.04736 -3.41921 1.91314 141 130 123
1.04137 -3.43533 1.91600 142 131 122
1.03535 -3.45155 1.91888 144 131 123
1.02929 -3.46785 1.92177 144 131 127
1.02320 -3.48426 1.92468 142 131 126
1.01707 -3.50075 1.92761 139 130 122
1.01091 -3.51735 1.93056 139 129 122
1.00471 -3.53404 1.93352 138 127 121
0.99847 -3.55083 1.93650 136 124 114
0.99220 -3.56772 1.93949 135 123 108
0.98589 -3.58471 1.94251 134 122 109
0.97954 -3.60181 1.94554 135 122 107
0.97315 -3.61900 1.94859 132 120 109
0.96673 -3.63630 1.95166 138 120 115
0.96027 -3.65370 1.95475 136 121 111
0.95377 -3.67120 1.95785 134 124 119
0.94722 -3.68881 1.96098 134 124 122
0.94064 -3.70653 1.96412 134 122 119
0.93402 -3.72436 1.96729 133 123 119
0.92736 -3.74229 1.97047 134 123 115
0.92066 -3.76034 1.97367 134 122 112
0.91392 -3.77849 1.97689 134 122 111
0.90713 -3.79676 1.98013 134 121 110
0.90031 -3.81514 1.98339 135 120 108
0.89344 -3.83363 1.98668 132 120 110
0.88653 -3.85224 1.98998 130 119 112
0.87957 -3.87096 1.99330 130 119 103
0.87257 -3.88980 1.99664 132 119 101
0.86553 -3.90876 2.00001 132 119 105
0.85845 -3.92784 2.00339 131 119 103
0.85132 -3.94704 2.00680 131 117 100
0.84414 -3.96636 2.01023 129 117 101
0.83692 -3.98580 2.01368 126 118 105
0.82965 -4.00537 2.01715 127 117 105
0.82234 -4.02506 2.02064 128 115 103
0.81498 -4.04488 2.02416 126 111 101
0.80757 -4.06482 2.02770 125 110 100
0.80011 -4.08490 2.03126 123 112 101
0.79261 -4.10510 2.03485 126 110 99
0.78506 -4.12544 2.03845 126 110 100
0.77745 -4.14590 2.04208 124 108 95
0.76980 -4.16651 2.04574 123 108 91
0.76210 -4.18724 2.04942 122 107 93
0.75435 -4.20812 2.05312 121 108 92
0.74654 -4.22913 2.05685 120 105 94
1.19358 -3.03702 1.83097 147 134 126
1.18840 -3.05102 1.83342 147 134 129
1.18318 -3.06509 1.83587 147 134 127
1.17794 -3.07923 1.83835 147 133 125
1.17267 -3.09345 1.84083 148 132 123
1.16737 -3.10775 1.84333 147 131 122
1.16204 -3.12213 1.84584 145 131 121
1.15669 -3.13659 1.84836 144 132 122
1.15130 -3.15112 1.85090 146 132 122
1.14588 -3.16574 1.85346 145 133 121
1.14044 -3.18043 1.85602 148 135 124
1.13496 -3.19521 1.85860 148 136 130
1.12945 -3.21007 1.86120 149 136 134
1.12391 -3.22502 1.86381 147 135 125
1.11835 -3.24004 1.86644 145 136 127
1.11275 -3.25515 1.86907 145 133 126
1.10712 -3.27035 1.87173 144 132 125
1.10145 -3.28563 1.87440 144 131 127
1.09576 -3.30099 1.87708 146 130 125
1.09003 -3.31645 1.87978 145 131 127
1.08427 -3.33199 1.88250 143 131 127
1.07848 -3.34762 1.88523 144 130 121
1.07265 -3.36334 1.88797 142 129 118
1.06679 -3.37915 1.89073 140 127 115
1.06090 -3.39505 1.89351 138 127 118
1.05498 -3.41104 1.89630 139 128 120
1.04901 -3.42712 1.89911 142 130 121
1.04302 -3.44330 1.90194 144 132 121
1.03699 -3.45957 1.90478 144 132 123
1.03092 -3.47594 1.90764 145 132 125
1.02482 -3.49240 1.91052 143 131 124
1.01869 -3.50896 1.91341 141 130 120
1.01252 -3.52561 1.91632 140 130 120
1.00631 -3.54237 1.91924 137 128 121
1.00006 -3.55922 1.92219 136 124 117
0.99378 -3.57617 1.92515 135 123 114
0.98746 -3.59323 1.92813 133 124 112
0.98110 -3.61038 1.93112 134 123 108
0.97470 -3.62764 1.93414 133 121 111
0.96827 -3.64500 1.93717 132 121 115
0.96180 -3.66247 1.94022 133 122 111
0.95529 -3.68004 1.94329 134 123 113
0.94873 -3.69772 1.94638 134 123 110
0.94214 -3.71550 1.94949 133 124 116
0.93551 -3.73340 1.95261 133 124 118
0.92884 -3.75140 1.95576 133 123 118
0.92213 -3.76951 1.95892 132 123 121
0.91537 -3.78774 1.96210 132 123 115
0.90858 -3.80607 1.96531 132 123 108
0.90174 -3.82452 1.96853 132 122 105
0.89486 -3.84309 1.97177 130 121 107
0.88794 -3.86177 1.97504 129 120 107
0.88097 -3.88057 1.97832 130 120 104
0.87396 -3.89948 1.98162 131 119 104
0.86691 -3.91852 1.98495 131 119 107
0.85981 -3.93767 1.98829 130 119 109
0.85267 -3.95695 1.99166 130 118 107
0.84548 -3.97634 1.99505 128 117 103
0.83824 -3.99586 1.99846 127 117 104
0.83096 -4.01551 2.00189 126 117 105
0.82364 -4.03528 2.00534 125 114 103
0.81626 -4.05518 2.00882 125 111 98
0.80884 -4.07521 2.01232 124 109 96
0.80137 -4.09536 2.01584 124 110 97
0.79385 -4.11565 2.01938 123 108 94
0.78628 -4.13607 2.02295 124 108 96
0.77867 -4.15662 2.02654 123 107 96
0.77100 -4.17731 2.03015 123 107 99
0.76328 -4.19813 2.03379 122 107 93
0.75552 -4.21909 2.03745 119 108 89
0.74770 -4.24019 2.04114 119 107 90
1.20572 -3.01577 1.81294 149 133 128
1.20059 -3.02966 1.81533 148 135 121
1.19542 -3.04362 1.81773 148 135 119
1.19023 -3.05766 1.82015 147 135 125
1.18501 -3.07178 1.82257 147 135 127
1.17976 -3.08597 1.82501 148 134 126
1.17449 -3.10024 1.82747 148 132 125
1.16918 -3.11459 1.82993 148 131 124
1.16385 -3.12901 1.83241 145 131 120
1.15848 -3.14352 1.83490 144 132 119
1.15309 -3.15810 1.83741 144 133 119
1.14767 -3.17277 1.83993 142 134 120
1.14222 -3.18752 1.84247 146 136 122
1.13673 -3.20234 1.84502 146 136 128
1.13122 -3.21725 1.84758 147 137 129
1.12567 -3.23225 1.85016 145 133 124
1.12010 -3.24733 1.85275 143 132 123
1.11449 -3.26249 1.85536 142 131 124
1.10885 -3.27774 1.85798 143 131 123
1.10318 -3.29307 1.86061 145 131 123
1.09748 -3.30849 1.86326 144 130 125
1.09175 -3.32400 1.86593 144 131 126
1.08598 -3.33959 1.86861 145 132 124
1.08018 -3.35528 1.87131 145 131 119
1.07435 -3.37105 1.87402 144 129 119
1.06848 -3.38692 1.87675 142 127 117
1.06258 -3.40288 1.87949 141 127 118
1.05665 -3.41893 1.88225 141 128 123
1.05068 -3.43507 1.88502 143 131 128
1.04468 -3.45130 1.88781 144 133 123
1.03864 -3.46763 1.89062 144 133 118
1.03256 -3.48406 1.89345 144 132 115
1.02645 -3.50058 1.89629 143 130 117
1.02031 -3.51720 1.89914 141 129 121
1.01413 -3.53391 1.90202 140 129 122
1.00791 -3.55073 1.90491 138 128 121
1.00166 -3.56764 1.90782 137 126 116
0.99536 -3.58466 1.91074 136 125 110
0.98903 -3.60178 1.91368 135 124 107
0.98267 -3.61900 1.91664 134 123 105
0.97626 -3.63632 1.91962 134 121 111
0.96982 -3.65374 1.92262 131 122 109
0.96334 -3.67128 1.92563 132 124 105
0.95681 -3.68891 1.92866 134 124 118
0.95025 -3.70666 1.93171 135 122 111
0.94365 -3.72451 1.93478 135 121 114
0.93701 -3.74247 1.93787 134 123 115
0.93033 -3.76055 1.94098 135 122 114
0.92360 -3.77873 1.94410 132 122 115
0.91684 -3.79703 1.94725 132 122 110
0.91003 -3.81543 1.95041 132 123 105
0.90318 -3.83396 1.95360 130 122 104
0.89629 -3.85259 1.95680 129 120 105
0.88936 -3.87135 1.96002 128 121 107
0.88238 -3.89022 1.96327 131 120 107
0.87536 -3.90921 1.96653 133 119 107
0.86829 -3.92832 1.96982 131 119 108
0.86118 -3.94755 1.97312 130 118 109
0.85402 -3.96690 1.97645 130 118 108
0.84682 -3.98638 1.97980 128 117 105
0.83957 -4.00598 1.98317 127 117 106
0.83228 -4.02570 1.98656 126 115 106
0.82494 -4.04555 1.98997 125 112 101
0.81755 -4.06553 1.99341 125 110 95
0.81012 -4.08564 1.99686 124 108 92
0.80263 -4.10588 2.00034 123 108 90
0.79510 -4.12625 2.00384 120 106 89
0.78752 -4.14675 2.00737 122 107 95
0.77989 -4.16739 2.01092 122 108 91
0.77221 -4.18816 2.01449 122 108 90
0.76447 -4.20907 2.01808 123 108 92
0.75669 -4.23012 2.02170 120 108 89
0.74886 -4.25131 2.02534 120 106 90
1.21269 -3.00845 1.79737 147 133 120
1.20758 -3.02231 1.79971 149 133 124
1.20244 -3.03624 1.80207 149 134 121
1.19727 -3.05025 1.80444 148 134 120
1.19207 -3.06434 1.80682 147 134 125
1.18685 -3.07850 1.80922 146 133 126
1.18159 -3.09274 1.81162 146 133 124
1.17631 -3.10706 1.81405 148 133 124
1.17100 -3.12145 1.81648 147 133 125
1.16566 -3.13593 1.81893 145 133 122
1.16029 -3.15048 1.82139 146 133 120
1.15489 -3.16511 1.82387 145 133 119
1.14946 -3.17983 1.82635 142 134 117
1.14400 -3.19463 1.82886 144 134 117
1.13851 -3.20951 1.83137 146 136 128
1.13299 -3.22447 1.83390 145 138 123
1.10492 -3.30054 1.84677 144 130 121
1.09922 -3.31602 1.84939 145 130 124
1.09347 -3.33158 1.85202 145 132 125
1.08770 -3.34723 1.85467 146 131 123
1.08189 -3.36297 1.85733 145 130 122
1.07605 -3.37880 1.86001 144 128 123
1.07018 -3.39473 1.86270 143 128 120
1.06427 -3.41074 1.86541 143 127 117
1.05833 -3.42685 1.86813 143 128 122
1.05235 -3.44304 1.87087 144 130 128
1.04634 -3.45934 1.87363 144 132 126
1.04029 -3.47573 1.87640 144 133 125
1.03421 -3.49221 1.87919 143 132 122
1.02809 -3.50879 1.88199 143 131 123
1.02194 -3.52547 1.88481 143 130 126
1.01575 -3.54225 1.88765 141 128 124
1.00952 -3.55913 1.89051 141 128 123
1.00326 -3.57611 1.89338 137 126 120
0.99696 -3.59318 1.89627 136 125 115
0.99062 -3.61037 1.89917 136 123 110
0.98424 -3.62765 1.90210 135 123 109
0.97783 -3.64504 1.90504 136 121 110
0.97137 -3.66253 1.90800 133 121 107
0.96488 -3.68013 1.91097 131 122 107
0.95835 -3.69783 1.91397 133 123 116
0.95178 -3.71564 1.91698 135 123 114
0.94516 -3.73357 1.92001 135 123 116
0.93851 -3.75160 1.92306 134 122 115
0.93182 -3.76974 1.92613 136 121 111
0.92508 -3.78799 1.92922 134 120 106
0.91831 -3.80636 1.93232 135 121 107
0.91149 -3.82484 1.93545 133 121 109
0.90463 -3.84343 1.93859 130 120 113
0.89773 -3.86214 1.94176 130 120 110
0.89078 -3.88097 1.94494 130 120 107
0.88379 -3.89992 1.94815 131 119 109
0.87676 -3.91898 1.95137 131 118 113
0.86968 -3.93817 1.95462 131 117 110
0.86255 -3.95747 1.95788 130 116 103
0.85539 -3.97690 1.96117 130 117 102
0.84817 -3.99646 1.96448 130 115 104
0.84091 -4.01614 1.96780 128 114 101
0.83360 -4.03594 1.97115 128 112 99
0.82625 -4.05587 1.97452 125 110 99
0.81885 -4.07593 1.97792 123 109 98
0.81140 -4.09612 1.98133 123 108 97
0.80390 -4.11645 1.98477 124 107 93
0.79636 -4.13690 1.98823 124 106 94
0.78876 -4.15749 1.99171 124 106 103
0.78111 -4.17821 1.99522 124 106 95
0.77342 -4.19907 1.99875 122 108 93
0.76567 -4.22007 2.00230 124 108 97
0.75787 -4.24121 2.00587 120 107 93
0.75002 -4.26249 2.00947 120 105 93
1.20944 -3.02887 1.78643 148 133 122
1.20430 -3.04285 1.78875 149 134 122
1.19912 -3.05691 1.79109 147 135 123
1.19392 -3.07104 1.79344 147 135 127
1.18869 -3.08525 1.79580 146 134 127
1.18343 -3.09954 1.79818 145 134 122
1.17814 -3.11390 1.80057 147 134 122
1.17282 -3.12835 1.80297 147 134 125
1.16748 -3.14287 1.80539 147 134 123
1.16210 -3.15747 1.80782 149 133 123
1.15670 -3.17215 1.81026 146 132 123
1.15126 -3.18692 1.81272 141 132 125
1.14580 -3.20177 1.81519 143 133 122
1.14030 -3.21670 1.81767 147 135 127
1.10096 -3.32358 1.83545 142 130 124
1.09521 -3.33920 1.83805 143 132 126
1.08943 -3.35490 1.84066 144 131 126
1.08361 -3.37070 1.84329 146 129 127
1.07776 -3.38659 1.84594 145 129 127
1.07188 -3.40256 1.84859 144 129 125
1.06596 -3.41863 1.85127 141 129 118
1.06001 -3.43480 1.85396 141 129 119
1.05403 -3.45106 1.85666 143 130 123
1.04801 -3.46741 1.85938 145 132 125
1.04195 -3.48386 1.86212 144 133 125
1.03586 -3.50040 1.86487 143 133 124
1.02974 -3.51705 1.86764 143 132 125
1.02357 -3.53379 1.87042 141 131 125
1.01738 -3.55063 1.87323 141 128 123
1.01114 -3.56756 1.87604 142 127 122
1.00487 -3.58461 1.87888 137 126 120
0.99856 -3.60175 1.88173 134 125 117
0.99221 -3.61899 1.88460 134 123 115
0.98582 -3.63634 1.88748 134 122 115
0.97940 -3.65379 1.89039 134 121 115
0.97293 -3.67135 1.89331 132 120 110
0.96643 -3.68902 1.89625 131 121 110
0.95989 -3.70679 1.89920 134 123 112
0.95331 -3.72467 1.90218 133 125 112
0.94669 -3.74266 1.90517 133 125 116
0.94002 -3.76076 1.90818 134 124 114
0.93332 -3.77897 1.91121 134 124 110
0.92657 -3.79729 1.91426 133 123 106
0.91979 -3.81573 1.91733 132 122 107
0.91296 -3.83428 1.92041 132 122 108
0.90608 -3.85295 1.92352 131 121 108
0.89917 -3.87174 1.92665 131 120 106
0.89221 -3.89064 1.92979 131 119 105
0.88521 -3.90966 1.93295 132 119 107
0.87816 -3.92880 1.93614 131 119 110
0.87107 -3.94806 1.93934 130 118 109
0.86394 -3.96745 1.94257 129 117 105
0.85676 -3.98695 1.94581 130 116 103
0.84953 -4.00659 1.94908 131 115 103
0.84226 -4.02634 1.95237 128 115 100
0.83494 -4.04623 1.95567 126 113 102
0.82757 -4.06624 1.95900 124 109 103
0.82015 -4.08639 1.96235 122 109 97
0.81269 -4.10666 1.96573 122 108 95
0.80518 -4.12707 1.96912 122 108 89
0.79762 -4.14761 1.97254 122 108 88
0.79001 -4.16828 1.97598 122 108 97
0.78235 -4.18909 1.97944 122 107 93
0.77463 -4.21004 1.98293 120 108 92
0.76687 -4.23112 1.98643 123 107 95
0.75906 -4.25235 1.98996 121 106 92
0.75119 -4.27372 1.99352 120 105 91
1.20616 -3.04949 1.77538 145 135 127
1.20098 -3.06359 1.77769 145 134 128
1.19577 -3.07777 1.78001 146 135 126
1.19054 -3.09203 1.78234 148 135 123
1.18527 -3.10636 1.78468 148 135 121
1.17998 -3.12077 1.78704 148 135 124
1.17466 -3.13527 1.78941 148 135 125
1.16931 -3.14984 1.79180 147 133 125
1.16392 -3.16449 1.79419 147 133 126
1.15851 -3.17922 1.79660 146 131 121
1.15307 -3.19404 1.79903 143 131 120
1.14760 -3.20894 1.80146 142 131 121
1.14210 -3.22392 1.80391 144 132 122
1.09695 -3.34684 1.82402 141 133 131
1.09116 -3.36261 1.82660 144 133 129
1.08534 -3.37846 1.82919 147 132 127
1.07948 -3.39440 1.83180 147 133 127
1.07359 -3.41044 1.83443 145 132 121
1.06767 -3.42657 1.83706 141 131 112
1.06171 -3.44279 1.83972 140 130 116
1.05571 -3.45910 1.84239 144 131 121
1.04969 -3.47552 1.84507 146 132 122
1.04362 -3.49202 1.84777 146 133 122
1.03752 -3.50863 1.85049 144 133 122
1.03139 -3.52533 1.85322 143 133 122
1.02522 -3.54214 1.85597 142 131 122
1.01901 -3.55904 1.85873 140 129 121
1.01277 -3.57604 1.86151 140 128 118
1.00648 -3.59314 1.86431 137 127 115
1.00016 -3.61035 1.86713 135 126 115
0.99381 -3.62766 1.86996 135 124 116
0.98741 -3.64507 1.87281 134 123 118
0.98098 -3.66259 1.87567 134 122 119
0.97450 -3.68021 1.87856 133 121 108
0.96799 -3.69795 1.88146 133 120 108
0.96144 -3.71579 1.88437 136 121 110
0.95485 -3.73374 1.88731 132 124 109
0.94821 -3.75179 1.89026 132 123 114
0.94154 -3.76996 1.89324 135 124 116
0.93482 -3.78825 1.89623 134 124 117
0.92807 -3.80664 1.89924 132 123 111
0.92127 -3.82515 1.90226 131 122 110
0.91443 -3.84377 1.90531 133 121 107
0.90755 -3.86252 1.90838 132 121 104
0.90062 -3.88137 1.91146 131 121 105
0.89365 -3.90035 1.91457 131 120 104
0.88664 -3.91945 1.91769 132 120 104
0.87958 -3.93866 1.92083 131 120 108
0.87247 -3.95800 1.92400 129 120 110
0.86533 -3.97746 1.92718 129 118 107
0.85813 -3.99705 1.93038 128 117 103
0.85089 -4.01676 1.93361 128 115 101
0.84361 -4.03660 1.93685 127 114 98
0.83627 -4.05657 1.94012 125 112 101
0.82889 -4.07666 1.94341 124 107 100
0.82146 -4.09689 1.94672 123 106 94
0.81399 -4.11725 1.95005 122 107 94
0.80646 -4.13774 1.95340 120 108 92
0.79888 -4.15836 1.95677 121 109 89
0.79126 -4.17912 1.96017 121 110 94
0.78358 -4.20002 1.96359 121 109 95
0.77586 -4.22105 1.96703 122 108 87
0.76808 -4.24223 1.97049 122 108 89
0.76025 -4.26355 1.97398 121 105 87
0.75237 -4.28501 1.97749 119 104 89
1.19764 -3.08453 1.76652 143 134 122
1.19240 -3.09883 1.76882 145 136 121
1.18713 -3.11321 1.77113 147 136 121
1.18183 -3.12767 1.77346 148 136 124
1.17650 -3.14222 1.77579 147 135 125
1.17114 -3.15684 1.77815 146 134 125
1.16575 -3.17154 1.78051 147 133 125
1.16033 -3.18632 1.78289 147 132 121
1.15489 -3.20119 1.78528 145 131 119
1.14941 -3.21614 1.78768 143 132 121
1.14390 -3.23117 1.79010 144 131 123
1.09290 -3.37034 1.81248 142 135 127
1.08707 -3.38625 1.81504 145 135 129
1.08120 -3.40225 1.81761 147 134 133
1.07531 -3.41834 1.82020 145 134 125
1.06938 -3.43453 1.82280 143 133 117
1.06341 -3.45081 1.82542 142 131 120
1.05741 -3.46719 1.82805 143 132 126
1.05137 -3.48366 1.83070 145 134 125
1.04530 -3.50023 1.83336 145 135 121
1.03919 -3.51689 1.83604 144 134 119
1.03305 -3.53366 1.83874 145 133 118
1.02687 -3.55052 1.84145 143 131 118
1.02065 -3.56749 1.84418 140 130 117
1.01440 -3.58455 1.84692 141 130 116
1.00811 -3.60172 1.84968 138 128 113
1.00178 -3.61899 1.85246 136 126 113
0.99541 -3.63636 1.85525 135 122 112
0.98901 -3.65384 1.85806 134 122 112
0.98256 -3.67143 1.86089 134 122 115
0.97608 -3.68912 1.86374 134 121 108
0.96956 -3.70692 1.86660 132 121 107
0.96299 -3.72483 1.86948 133 122 114
0.95639 -3.74284 1.87237 132 124 110
0.94975 -3.76097 1.87529 133 123 112
0.94306 -3.77921 1.87822 133 122 112
0.93634 -3.79756 1.88117 133 122 114
0.92957 -3.81603 1.88414 133 121 113
0.92276 -3.83461 1.88713 132 121 111
0.91591 -3.85331 1.89014 131 121 108
0.90901 -3.87212 1.89316 131 121 107
0.90208 -3.89106 1.89621 131 121 112
0.89509 -3.91011 1.89927 130 121 109
0.88807 -3.92928 1.90235 132 120 105
0.88100 -3.94857 1.90546 132 118 106
0.87388 -3.96799 1.90858 130 118 108
0.86672 -3.98753 1.91172 129 117 105
0.85951 -4.00720 1.91488 128 115 100
0.85226 -4.02699 1.91806 128 114 95
0.84496 -4.04691 1.92127 126 112 94
0.83762 -4.06696 1.92449 124 109 97
0.83022 -4.08713 1.92774 124 107 94
0.82278 -4.10744 1.93100 124 106 91
0.81529 -4.12788 1.93429 122 106 93
0.80775 -4.14846 1.93760 120 107 95
0.80016 -4.16917 1.94093 121 110 90
0.79252 -4.19002 1.94428 121 109 92
0.78483 -4.21100 1.94765 122 107 94
0.77709 -4.23213 1.95105 124 107 87
0.76929 -4.25339 1.95447 122 108 91
0.76145 -4.27480 1.95791 122 105 94
0.75355 -4.29635 1.96138 120 103 92
1.18899 -3.12009 1.75752 142 135 118
1.18368 -3.13460 1.75982 144 136 121
1.17835 -3.14919 1.76212 147 135 122
1.17298 -3.16386 1.76444 148 135 124
1.16759 -3.17862 1.76677 148 134 124
1.16216 -3.19345 1.76911 149 133 122
1.15671 -3.20837 1.77147 147 131 121
1.15123 -3.22337 1.77384 143 130 121
1.14571 -3.23845 1.77622 142 129 123
1.08881 -3.39408 1.80082 144 136 130
1.08294 -3.41013 1.80335 148 135 133
1.07703 -3.42629 1.80590 148 134 128
1.07109 -3.44253 1.80847 147 133 123
1.06512 -3.45887 1.81105 145 132 124
1.05911 -3.47530 1.81365 145 133 127
1.05306 -3.49184 1.81626 146 134 125
1.04698 -3.50847 1.81889 146 134 120
1.04087 -3.52519 1.82153 145 134 117
1.03472 -3.54202 1.82419 144 133 118
1.02853 -3.55895 1.82687 143 131 120
1.02230 -3.57597 1.82956 141 131 120
1.01604 -3.59310 1.83226 140 130 119
1.00974 -3.61033 1.83499 138 127 116
1.00340 -3.62767 1.83772 136 125 113
0.99702 -3.64511 1.84048 134 123 111
0.99061 -3.66265 1.84325 134 123 109
0.98415 -3.68030 1.84604 135 122 111
0.97766 -3.69806 1.84885 134 120 108
0.97113 -3.71593 1.85167 132 122 108
0.96456 -3.73391 1.85451 131 123 115
0.95794 -3.75199 1.85737 133 125 113
0.95129 -3.77019 1.86024 135 122 113
0.94459 -3.78850 1.86314 134 122 106
0.93786 -3.80693 1.86605 134 122 110
0.93108 -3.82546 1.86898 135 121 115
0.92426 -3.84412 1.87193 133 121 112
0.91740 -3.86289 1.87489 130 120 109
0.91049 -3.88178 1.87788 131 121 107
0.90354 -3.90079 1.88088 131 121 110
0.89655 -3.91991 1.88390 130 121 109
0.88951 -3.93916 1.88694 130 120 104
0.88243 -3.95853 1.89000 131 117 102
0.87530 -3.97803 1.89309 131 116 104
0.86812 -3.99765 1.89619 129 116 103
0.86090 -4.01739 1.89930 128 114 99
0.85364 -4.03726 1.90244 127 112 95
0.84633 -4.05726 1.90561 125 109 96
0.83897 -4.07739 1.90879 123 107 97
0.83156 -4.09766 1.91199 122 106 92
0.82410 -4.11805 1.91521 123 106 90
0.81660 -4.13858 1.91845 121 106 91
0.80904 -4.15924 1.92172 119 106 94
0.80144 -4.18003 1.92500 120 108 92
0.79378 -4.20097 1.92831 121 108 93
0.78608 -4.22204 1.93164 123 107 90
0.77832 -4.24325 1.93499 123 107 93
0.77051 -4.26461 1.93837 121 106 93
0.76265 -4.28611 1.94176 121 104 95
0.75474 -4.30775 1.94518 118 103 92
1.18020 -3.15620 1.74839 143 132 123
1.17483 -3.17092 1.75068 145 132 127
1.16943 -3.18572 1.75297 146 133 129
1.16400 -3.20061 1.75528 148 133 127
1.15854 -3.21557 1.75761 145 131 128
1.15305 -3.23063 1.75994 142 129 122
1.14753 -3.24576 1.76229 142 128 121
1.14198 -3.26098 1.76466 141 129 125
