ply
format ascii 1.0
element face 0
property list uchar int vertex_indices
element vertex 1257
property float x
property float y
property float z
property uchar diffuse_red
property uchar diffuse_green
property uchar diffuse_blue
end_header
-4.23912 -5.02061 1.39901 143 145 121
-4.24952 -5.04999 1.40446 146 144 125
-4.26002 -5.07964 1.40997 146 146 125
-4.27061 -5.10957 1.41553 143 147 130
-4.28130 -5.13977 1.42113 145 147 138
-4.29209 -5.17025 1.42680 146 148 126
-4.30298 -5.20102 1.43251 146 148 123
-4.31397 -5.23208 1.43828 146 148 124
-4.32507 -5.26343 1.44410 147 149 125
-4.33627 -5.29508 1.44998 149 150 132
-4.34758 -5.32703 1.45591 149 150 134
-4.35900 -5.35929 1.46190 147 151 129
-4.37053 -5.39186 1.46795 147 150 122
-4.38217 -5.42474 1.47405 149 149 128
-4.39392 -5.45795 1.48022 150 150 136
-4.40579 -5.49148 1.48645 150 150 130
-4.41777 -5.52534 1.49273 147 152 126
-4.42988 -5.55953 1.49908 150 149 132
-4.46692 -5.66417 1.51852 145 136 113
-4.47951 -5.69976 1.52512 143 137 107
-4.49223 -5.73570 1.53180 144 138 112
-4.50508 -5.77201 1.53854 143 138 114
-4.51807 -5.80869 1.54535 146 135 119
-4.53119 -5.84575 1.55223 146 136 113
-4.54444 -5.88319 1.55919 143 138 117
-4.55783 -5.92102 1.56621 143 137 126
-4.57136 -5.95925 1.57331 146 142 117
-3.85690 -3.96025 1.18744 141 139 117
-3.86412 -3.98072 1.19118 138 138 116
-3.87139 -4.00136 1.19496 137 136 114
-4.08235 -4.59954 1.30440 139 137 115
-4.09140 -4.62520 1.30909 140 137 122
-4.10053 -4.65109 1.31383 142 139 118
-4.10974 -4.67720 1.31861 142 139 110
-4.11903 -4.70353 1.32343 142 139 115
-4.12840 -4.73010 1.32829 143 138 114
-4.13785 -4.75690 1.33319 143 139 122
-4.14738 -4.78393 1.33813 142 142 110
-4.15700 -4.81120 1.34312 141 143 115
-4.16670 -4.83871 1.34816 142 143 124
-4.17649 -4.86647 1.35324 144 142 130
-4.18637 -4.89448 1.35836 144 143 121
-4.19634 -4.92274 1.36353 143 144 123
-4.20639 -4.95125 1.36875 145 144 124
-4.21654 -4.98002 1.37401 144 143 114
-4.22678 -5.00905 1.37932 143 144 107
-4.23711 -5.03835 1.38468 144 144 121
-4.24754 -5.06792 1.39009 146 144 126
-4.25806 -5.09776 1.39555 145 146 125
-4.26868 -5.12788 1.40106 142 146 128
-4.27940 -5.15828 1.40662 144 148 131
-4.29023 -5.18896 1.41224 148 149 125
-4.30115 -5.21993 1.41791 147 149 121
-4.31217 -5.25119 1.42363 148 147 124
-4.32330 -5.28276 1.42940 151 148 127
-4.33454 -5.31462 1.43523 150 149 128
-4.34589 -5.34678 1.44111 149 151 128
-4.35734 -5.37926 1.44706 148 152 127
-4.36890 -5.41205 1.45306 150 150 127
-4.38058 -5.44516 1.45911 153 148 130
-4.39237 -5.47860 1.46523 152 148 133
-4.40428 -5.51236 1.47141 152 149 129
-4.41630 -5.54645 1.47765 150 152 127
-4.42845 -5.58089 1.48395 147 147 127
-4.46561 -5.68627 1.50323 143 136 114
-4.47825 -5.72211 1.50978 142 136 113
-4.49102 -5.75831 1.51641 144 139 114
-4.50391 -5.79488 1.52310 144 140 112
-4.51694 -5.83183 1.52986 143 138 112
-4.53011 -5.86916 1.53669 143 136 109
-3.85406 -3.97185 1.17483 139 136 111
-3.86129 -3.99243 1.17854 137 134 110
-4.04442 -4.51360 1.27247 139 138 108
-4.05319 -4.53855 1.27696 142 140 107
-4.06203 -4.56372 1.28150 141 138 107
-4.07095 -4.58910 1.28607 140 136 113
-4.07994 -4.61470 1.29069 140 137 112
-4.08901 -4.64051 1.29534 141 137 121
-4.09816 -4.66655 1.30003 143 139 112
-4.10739 -4.69282 1.30476 142 140 107
-4.11670 -4.71932 1.30954 142 140 115
-4.12609 -4.74604 1.31436 144 139 110
-4.13557 -4.77300 1.31921 142 140 125
-4.14512 -4.80020 1.32412 140 142 114
-4.15477 -4.82764 1.32906 138 143 114
-4.16449 -4.85532 1.33405 141 144 116
-4.17431 -4.88325 1.33908 145 144 120
-4.18421 -4.91143 1.34416 145 144 115
-4.19420 -4.93987 1.34929 144 144 121
-4.20428 -4.96856 1.35446 145 143 125
-4.21446 -4.99752 1.35968 145 144 118
-4.22472 -5.02673 1.36494 144 146 113
-4.23508 -5.05622 1.37026 145 145 120
-4.24554 -5.08598 1.37562 146 146 121
-4.25609 -5.11601 1.38103 145 146 122
-4.26675 -5.14633 1.38649 145 147 123
-4.27750 -5.17692 1.39201 146 149 124
-4.28835 -5.20781 1.39757 150 148 124
-4.29930 -5.23899 1.40319 147 147 125
-4.31036 -5.27046 1.40886 148 148 128
-4.32153 -5.30223 1.41459 149 149 129
-4.33280 -5.33430 1.42037 150 151 124
-4.34418 -5.36669 1.42621 149 151 122
-4.35567 -5.39939 1.43210 150 152 125
-4.36727 -5.43240 1.43805 150 151 126
-4.37898 -5.46574 1.44406 154 151 127
-4.39081 -5.49940 1.45012 153 150 127
-4.40276 -5.53340 1.45625 150 150 127
-4.41482 -5.56773 1.46244 148 153 129
-4.45174 -5.67281 1.48137 145 136 112
-4.46429 -5.70854 1.48781 144 137 115
-4.47698 -5.74463 1.49432 143 137 114
-4.03320 -4.50337 1.25441 140 138 110
-4.04191 -4.52826 1.25883 140 138 110
-4.05070 -4.55336 1.26328 139 138 109
-4.05956 -4.57868 1.26778 140 138 109
-4.06850 -4.60421 1.27231 141 139 109
-4.07751 -4.62996 1.27688 139 139 107
-4.08661 -4.65593 1.28149 139 138 122
-4.09578 -4.68213 1.28614 143 139 115
-4.10503 -4.70855 1.29083 143 140 113
-4.11436 -4.73521 1.29556 142 140 120
-4.12377 -4.76209 1.30033 143 140 111
-4.13327 -4.78922 1.30514 141 141 118
-4.14285 -4.81659 1.31000 140 143 115
-4.15251 -4.84419 1.31490 138 144 116
-4.16227 -4.87205 1.31984 141 145 117
-4.17211 -4.90015 1.32483 144 145 121
-4.18203 -4.92851 1.32986 145 143 115
-4.19205 -4.95713 1.33494 143 143 118
-4.20216 -4.98600 1.34006 144 144 124
-4.21236 -5.01514 1.34524 146 146 119
-4.22265 -5.04454 1.35045 146 147 115
-4.23304 -5.07422 1.35572 146 146 119
-4.24353 -5.10417 1.36104 143 148 122
-4.25411 -5.13440 1.36640 144 147 118
-4.26479 -5.16491 1.37182 145 147 121
-4.27558 -5.19571 1.37728 146 149 122
-4.28646 -5.22680 1.38280 148 148 125
-4.29745 -5.25818 1.38837 145 148 128
-4.30854 -5.28986 1.39399 148 149 131
-4.31974 -5.32185 1.39967 149 149 135
-4.33104 -5.35414 1.40540 150 149 122
-4.34245 -5.38675 1.41118 150 148 112
-4.35398 -5.41967 1.41703 151 152 121
-4.36562 -5.45291 1.42293 149 153 127
-4.37737 -5.48648 1.42888 149 153 127
-4.38924 -5.52037 1.43490 150 154 124
-4.40122 -5.55461 1.44098 150 153 123
-4.43790 -5.65937 1.45957 142 137 115
-4.45037 -5.69500 1.46589 141 134 113
-4.46297 -5.73099 1.47228 144 136 118
-4.02200 -4.49317 1.23639 138 140 106
-4.03066 -4.51799 1.24073 140 138 110
-4.03939 -4.54303 1.24510 140 137 107
-4.04819 -4.56828 1.24952 141 137 104
-4.05708 -4.59374 1.25396 141 139 108
-4.06603 -4.61942 1.25845 139 140 106
-4.07507 -4.64532 1.26298 138 140 101
-4.08418 -4.67145 1.26754 137 140 118
-4.09337 -4.69781 1.27215 141 139 115
-4.10265 -4.72439 1.27679 141 141 113
-4.11200 -4.75121 1.28148 142 139 115
-4.12144 -4.77826 1.28620 141 141 110
-4.13095 -4.80555 1.29097 141 143 113
-4.14056 -4.83309 1.29578 142 144 116
-4.15025 -4.86087 1.30064 142 145 117
-4.16002 -4.88890 1.30553 142 145 117
-4.16989 -4.91718 1.31047 143 144 122
-4.17984 -4.94571 1.31546 145 142 114
-4.18988 -4.97451 1.32049 144 144 112
-4.20002 -5.00357 1.32557 142 145 117
-4.21025 -5.03289 1.33069 148 144 119
-4.22057 -5.06248 1.33586 147 145 117
-4.23099 -5.09235 1.34108 146 147 118
-4.24150 -5.12250 1.34635 143 148 118
-4.25212 -5.15292 1.35166 145 147 113
-4.26283 -5.18364 1.35703 143 146 120
-4.27364 -5.21464 1.36245 146 148 124
-4.28456 -5.24593 1.36791 148 148 126
-4.29557 -5.27752 1.37343 146 149 129
-4.30670 -5.30942 1.37901 148 151 130
-4.31793 -5.34162 1.38463 147 152 132
-4.32927 -5.37413 1.39031 149 150 123
-4.34072 -5.40696 1.39605 149 150 118
-4.35228 -5.44010 1.40184 152 153 122
-4.36396 -5.47358 1.40769 150 153 127
-4.37574 -5.50737 1.41359 148 151 128
-4.38765 -5.54151 1.41956 150 153 123
-4.39967 -5.57598 1.42558 150 153 120
-4.00228 -4.45843 1.21418 141 138 108
-4.01082 -4.48298 1.21840 140 138 113
-4.01942 -4.50774 1.22266 140 139 118
-4.02810 -4.53271 1.22695 140 138 113
-4.03685 -4.55789 1.23129 140 137 109
-4.04567 -4.58329 1.23565 143 137 103
-4.05457 -4.60890 1.24006 142 138 109
-4.06355 -4.63474 1.24450 140 137 111
-4.07261 -4.66080 1.24898 139 139 112
-4.08174 -4.68708 1.25350 139 140 117
-4.09095 -4.71359 1.25806 140 139 115
-4.10025 -4.74034 1.26266 139 140 115
-4.10962 -4.76732 1.26730 142 141 114
-4.11908 -4.79454 1.27198 142 140 107
-4.12862 -4.82200 1.27670 143 141 117
-4.13825 -4.84970 1.28147 144 143 118
-4.14796 -4.87766 1.28627 147 143 121
-4.15776 -4.90586 1.29112 143 143 115
-4.16765 -4.93432 1.29602 143 143 111
-4.17763 -4.96304 1.30095 143 143 111
-4.18770 -4.99201 1.30594 144 143 111
-4.19787 -5.02126 1.31097 141 142 115
-4.20812 -5.05077 1.31604 147 142 117
-4.21847 -5.08055 1.32116 148 142 115
-4.22892 -5.11062 1.32633 144 146 117
-4.23946 -5.14096 1.33155 144 147 117
-4.25010 -5.17159 1.33682 147 146 117
-4.26085 -5.20250 1.34213 147 146 122
-4.27169 -5.23371 1.34750 150 148 125
-4.28264 -5.26521 1.35292 149 148 123
-4.29369 -5.29701 1.35839 145 149 122
-4.30485 -5.32912 1.36391 148 150 122
-4.31611 -5.36154 1.36948 149 149 131
-4.32749 -5.39427 1.37511 149 149 127
-4.33897 -5.42732 1.38079 146 151 125
-4.35057 -5.46070 1.38653 147 151 125
-4.36228 -5.49440 1.39233 149 151 120
-4.37411 -5.52844 1.39818 149 152 124
-4.38605 -5.56281 1.40409 150 152 124
-4.39812 -5.59753 1.41006 151 153 121
-3.99118 -4.44832 1.19630 141 139 111
-3.99966 -4.47281 1.20045 141 137 115
-4.00820 -4.49751 1.20462 140 137 121
-4.01683 -4.52241 1.20884 140 137 121
-4.02552 -4.54753 1.21309 140 138 118
-4.03429 -4.57286 1.21737 139 138 115
-4.04314 -4.59840 1.22170 139 139 107
-4.05206 -4.62417 1.22606 140 137 114
-4.06105 -4.65016 1.23045 141 137 115
-4.07013 -4.67637 1.23489 140 139 117
-4.07928 -4.70282 1.23936 141 140 118
-4.08852 -4.72949 1.24388 140 141 118
-4.09783 -4.75640 1.24843 138 141 121
-4.10723 -4.78355 1.25302 139 142 120
-4.11671 -4.81093 1.25766 141 141 108
-4.12628 -4.83856 1.26233 142 142 122
-4.13593 -4.86644 1.26705 144 141 123
-4.14567 -4.89457 1.27181 149 139 129
-4.15549 -4.92295 1.27661 144 140 115
-4.16540 -4.95159 1.28145 144 142 105
-4.17541 -4.98048 1.28634 145 144 110
-4.18551 -5.00965 1.29128 147 143 115
-4.19569 -5.03908 1.29626 145 142 124
-4.20598 -5.06878 1.30128 146 142 122
-4.21636 -5.09876 1.30636 148 143 120
-4.22683 -5.12902 1.31148 145 147 120
-4.23740 -5.15956 1.31664 144 148 119
-4.24808 -5.19038 1.32186 146 147 119
-4.25885 -5.22150 1.32712 146 146 120
-4.26972 -5.25292 1.33244 146 147 119
-4.28070 -5.28463 1.33781 147 148 123
-4.29179 -5.31665 1.34322 148 148 122
-4.30298 -5.34898 1.34869 149 148 124
-4.31428 -5.38161 1.35422 150 149 138
-4.32569 -5.41457 1.35979 149 150 129
-4.33721 -5.44785 1.36542 145 150 126
-4.34884 -5.48145 1.37111 146 150 132
-4.36059 -5.51539 1.37685 149 149 127
-4.37246 -5.54966 1.38265 150 151 128
-4.38444 -5.58428 1.38851 151 150 130
-4.39654 -5.61924 1.39442 151 150 130
-3.95523 -4.36616 1.16646 137 138 109
-3.96345 -4.38998 1.17042 138 137 113
-3.97173 -4.41401 1.17442 137 136 115
-3.98009 -4.43823 1.17845 136 137 113
-3.98851 -4.46266 1.18252 141 136 113
-3.99701 -4.48729 1.18662 141 136 116
-4.00558 -4.51213 1.19075 140 136 125
-4.01421 -4.53718 1.19492 140 137 119
-4.02293 -4.56244 1.19913 140 138 116
-4.03172 -4.58792 1.20337 139 139 115
-4.04058 -4.61362 1.20764 138 139 115
-4.04952 -4.63954 1.21196 139 138 120
-4.05854 -4.66569 1.21631 139 137 114
-4.06763 -4.69206 1.22070 140 138 111
-4.07681 -4.71866 1.22513 140 139 116
-4.08606 -4.74550 1.22959 141 142 116
-4.09540 -4.77257 1.23410 140 142 122
-4.10482 -4.79988 1.23864 140 142 124
-4.11432 -4.82744 1.24323 140 142 116
-4.12391 -4.85524 1.24786 139 140 119
-4.13359 -4.88329 1.25253 142 139 122
-4.14335 -4.91160 1.25724 142 139 123
-4.15320 -4.94016 1.26199 145 139 116
-4.16314 -4.96898 1.26679 145 142 116
-4.17317 -4.99806 1.27163 146 142 113
-4.18329 -5.02741 1.27651 148 142 113
-4.19351 -5.05703 1.28144 147 143 121
-4.20382 -5.08692 1.28642 145 143 122
-4.21423 -5.11710 1.29144 147 145 121
-4.22473 -5.14755 1.29651 144 147 125
-4.23533 -5.17829 1.30162 144 147 121
-4.24603 -5.20932 1.30679 145 147 118
-4.25684 -5.24065 1.31200 148 147 123
-4.26775 -5.27227 1.31727 146 147 125
-4.27876 -5.30420 1.32258 146 150 128
-4.28987 -5.33644 1.32794 146 149 118
-4.30110 -5.36898 1.33336 147 148 115
-4.31243 -5.40184 1.33883 148 149 127
-4.32388 -5.43503 1.34435 147 151 124
-4.33543 -5.46853 1.34993 146 150 118
-4.34710 -5.50237 1.35556 147 151 128
-3.92022 -4.28613 1.13739 138 136 105
-3.92819 -4.30932 1.14119 137 137 105
-3.93622 -4.33270 1.14501 137 138 105
-3.94432 -4.35627 1.14887 137 137 110
-3.95248 -4.38004 1.15276 138 136 113
-3.96072 -4.40400 1.15668 140 136 114
-3.96902 -4.42816 1.16063 139 136 115
-3.97739 -4.45252 1.16462 140 137 115
-3.98583 -4.47709 1.16864 142 137 109
-3.99434 -4.50187 1.17270 141 136 110
-4.00293 -4.52685 1.17679 140 135 119
-4.01159 -4.55205 1.18091 142 136 112
-4.02032 -4.57746 1.18507 142 138 108
-4.02913 -4.60309 1.18927 140 139 112
-4.03801 -4.62894 1.19350 140 138 116
-4.04697 -4.65502 1.19776 140 137 118
-4.05600 -4.68132 1.20207 139 138 115
-4.06512 -4.70785 1.20641 140 138 116
-4.07432 -4.73462 1.21079 142 139 115
-4.08359 -4.76162 1.21521 142 140 116
-4.09295 -4.78886 1.21967 143 140 120
-4.10239 -4.81634 1.22417 142 142 125
-4.11192 -4.84407 1.22870 142 141 117
-4.12153 -4.87204 1.23328 140 139 115
-4.13123 -4.90027 1.23790 143 140 123
-4.14102 -4.92875 1.24256 141 142 122
-4.15089 -4.95749 1.24727 145 141 113
-4.16086 -4.98649 1.25201 144 140 118
-4.17091 -5.01576 1.25680 144 140 115
-4.18106 -5.04530 1.26164 144 141 107
-4.19131 -5.07511 1.26652 145 142 115
-4.20164 -5.10520 1.27144 144 143 120
-4.21208 -5.13557 1.27641 143 145 122
-4.22261 -5.16623 1.28143 141 146 123
-4.23324 -5.19717 1.28649 141 146 118
-4.24398 -5.22841 1.29161 144 145 110
-4.25481 -5.25994 1.29677 148 146 127
-4.26575 -5.29178 1.30198 146 147 127
-4.27679 -5.32392 1.30724 146 150 124
-4.28794 -5.35637 1.31255 148 151 122
-4.29920 -5.38914 1.31791 149 150 120
-4.31057 -5.42223 1.32333 148 148 123
-4.32205 -5.45564 1.32880 146 148 124
-4.33364 -5.48938 1.33432 146 150 118
-4.34535 -5.52345 1.33990 148 152 126
-3.90948 -4.27645 1.12006 138 137 100
-3.91740 -4.29957 1.12378 138 137 106
-3.92538 -4.32289 1.12753 137 136 107
-3.93343 -4.34640 1.13131 139 135 106
-3.94154 -4.37011 1.13513 138 135 113
-3.94972 -4.39401 1.13897 138 135 117
-3.95797 -4.41810 1.14285 141 136 117
-3.96629 -4.44240 1.14676 139 137 114
-3.97467 -4.46691 1.15070 139 138 113
-3.98313 -4.49162 1.15468 140 138 108
-3.99166 -4.51654 1.15869 139 137 110
-4.00026 -4.54167 1.16273 140 136 115
-4.00894 -4.56702 1.16681 141 136 112
-4.01769 -4.59258 1.17092 140 138 110
-4.02652 -4.61837 1.17507 138 139 115
-4.03542 -4.64437 1.17925 140 140 117
-4.04440 -4.67060 1.18347 141 139 116
-4.05345 -4.69707 1.18773 141 140 115
-4.06259 -4.72376 1.19202 141 140 121
-4.07181 -4.75069 1.19636 141 141 116
-4.08110 -4.77785 1.20073 143 140 114
-4.09049 -4.80526 1.20514 143 140 113
-4.09995 -4.83291 1.20959 143 141 113
-4.10950 -4.86081 1.21407 144 141 115
-4.11913 -4.88896 1.21860 144 141 115
-4.12886 -4.91736 1.22317 145 142 126
-4.13867 -4.94602 1.22778 143 143 128
-4.14857 -4.97495 1.23244 144 141 118
-4.15856 -5.00414 1.23713 143 140 121
-4.16864 -5.03359 1.24187 143 141 122
-4.17882 -5.06332 1.24666 144 143 114
-4.18909 -5.09333 1.25148 144 143 119
-4.19945 -5.12361 1.25636 145 142 121
-4.20992 -5.15418 1.26127 145 143 121
-4.22048 -5.18504 1.26624 144 145 119
-4.23114 -5.21619 1.27125 142 147 118
-4.24190 -5.24763 1.27631 144 146 115
-4.25277 -5.27938 1.28142 145 147 126
-4.26374 -5.31143 1.28657 146 146 126
-4.27482 -5.34379 1.29178 147 147 123
-4.28600 -5.37646 1.29704 148 149 128
-4.29729 -5.40946 1.30234 149 149 129
-4.30870 -5.44277 1.30770 148 149 126
-4.32021 -5.47641 1.31312 147 149 121
-4.33184 -5.51039 1.31858 148 150 111
-4.34359 -5.54470 1.32410 149 151 117
-4.35545 -5.57936 1.32968 145 151 126
-3.83073 -4.06727 1.07121 135 133 104
-3.89876 -4.26677 1.10275 134 138 96
-3.90663 -4.28984 1.10640 138 137 104
-3.91456 -4.31310 1.11008 138 136 107
-3.92255 -4.33655 1.11378 137 135 104
-3.93061 -4.36019 1.11752 139 135 102
-3.93874 -4.38403 1.12129 139 136 108
-3.94694 -4.40807 1.12509 139 136 115
-3.95520 -4.43231 1.12892 139 136 118
-3.96354 -4.45675 1.13279 139 137 110
-3.97194 -4.48139 1.13668 138 139 105
-3.98042 -4.50625 1.14061 138 138 108
-3.98896 -4.53131 1.14458 139 138 111
-3.99758 -4.55659 1.14857 140 137 111
-4.00628 -4.58209 1.15261 139 137 117
-4.01504 -4.60780 1.15667 139 138 121
-4.02389 -4.63374 1.16077 139 140 117
-4.03281 -4.65990 1.16491 140 140 117
-4.04181 -4.68630 1.16908 140 141 117
-4.05088 -4.71292 1.17329 140 140 109
-4.06004 -4.73977 1.17754 140 141 114
-4.06928 -4.76687 1.18182 141 142 112
-4.07860 -4.79420 1.18614 144 141 111
-4.08800 -4.82177 1.19050 140 142 112
-4.09749 -4.84960 1.19490 142 143 114
-4.10706 -4.87767 1.19934 145 141 114
-4.11672 -4.90600 1.20382 143 143 114
-4.12647 -4.93458 1.20834 142 144 121
-4.13630 -4.96342 1.21290 141 143 123
-4.14623 -4.99253 1.21750 143 142 114
-4.15624 -5.02191 1.22214 147 142 115
-4.16635 -5.05156 1.22683 145 141 117
-4.17655 -5.08148 1.23156 145 143 116
-4.18685 -5.11168 1.23634 144 141 124
-4.19725 -5.14216 1.24116 145 141 128
-4.20774 -5.17293 1.24602 147 142 117
-4.21833 -5.20399 1.25093 146 144 116
-4.22902 -5.23535 1.25589 142 145 119
-4.23982 -5.26701 1.26090 145 145 121
-4.25071 -5.29897 1.26595 146 148 125
-4.26172 -5.33123 1.27105 146 148 129
-4.27282 -5.36381 1.27620 146 149 133
-4.28404 -5.39671 1.28140 146 149 129
-4.29537 -5.42993 1.28666 147 149 126
-4.30681 -5.46347 1.29196 147 150 126
-4.31836 -5.49735 1.29732 148 150 125
-4.33002 -5.53156 1.30272 149 149 118
-4.34181 -5.56612 1.30819 148 150 116
-4.35371 -5.60102 1.31371 148 148 116
-3.82774 -4.07953 1.05789 135 132 108
-3.83507 -4.10112 1.06125 136 133 107
-3.88030 -4.23429 1.08193 134 133 106
-3.88806 -4.25711 1.08548 134 134 103
-3.89587 -4.28013 1.08905 134 136 104
-3.90375 -4.30333 1.09265 138 136 111
-3.91170 -4.32671 1.09629 140 136 112
-3.91971 -4.35030 1.09995 139 136 107
-3.92778 -4.37407 1.10364 138 136 108
-3.93593 -4.39805 1.10737 139 136 110
-3.94414 -4.42222 1.11112 141 136 114
-3.95242 -4.44660 1.11491 140 135 118
-3.96077 -4.47118 1.11873 139 136 111
-3.96919 -4.49597 1.12258 139 138 108
-3.97768 -4.52097 1.12646 140 138 111
-3.98624 -4.54619 1.13038 140 138 113
-3.99488 -4.57162 1.13432 141 138 109
-4.00359 -4.59726 1.13831 137 139 118
-4.01238 -4.62313 1.14233 140 138 122
-4.02124 -4.64922 1.14638 142 138 115
-4.03018 -4.67555 1.15047 140 139 115
-4.03920 -4.70210 1.15459 139 140 119
-4.04830 -4.72888 1.15875 141 139 104
-4.05748 -4.75590 1.16295 141 141 111
-4.06673 -4.78316 1.16718 140 141 115
-4.07608 -4.81066 1.17145 145 142 108
-4.08550 -4.83841 1.17576 140 143 111
-4.09501 -4.86640 1.18011 141 142 116
-4.10461 -4.89465 1.18450 143 141 114
-4.11429 -4.92316 1.18893 140 142 112
-4.12406 -4.95192 1.19340 140 143 119
-4.13392 -4.98095 1.19790 140 142 117
-4.14387 -5.01025 1.20245 142 143 114
-4.15391 -5.03981 1.20705 143 144 114
-4.16405 -5.06965 1.21168 142 143 117
-4.17428 -5.09977 1.21636 140 142 122
-4.18460 -5.13016 1.22108 142 142 123
-4.19502 -5.16085 1.22585 143 143 121
-4.20554 -5.19182 1.23066 145 143 109
-4.21616 -5.22309 1.23551 148 144 115
-4.22689 -5.25466 1.24042 147 144 120
-4.23771 -5.28653 1.24537 148 145 123
-4.24864 -5.31870 1.25036 147 146 127
-4.25967 -5.35119 1.25541 144 148 128
-4.27082 -5.38399 1.26051 146 149 129
-4.28207 -5.41711 1.26565 146 147 126
-4.29343 -5.45056 1.27085 146 146 124
-4.30490 -5.48434 1.27609 146 147 128
-4.31649 -5.51845 1.28139 147 150 130
-4.32819 -5.55290 1.28674 149 150 123
-4.34001 -5.58770 1.29215 148 149 119
-4.35195 -5.62285 1.29761 147 148 118
-4.36401 -5.65835 1.30312 152 148 122
-4.37619 -5.69422 1.30869 151 147 126
-3.82472 -4.09187 1.04449 134 134 112
-3.83206 -4.11357 1.04780 135 133 108
-3.83947 -4.13545 1.05114 136 131 106
-3.84693 -4.15749 1.05450 137 131 108
-3.85445 -4.17972 1.05789 137 132 107
-3.86203 -4.20212 1.06131 137 133 105
-3.86967 -4.22471 1.06476 136 132 106
-3.87737 -4.24747 1.06823 136 132 108
-3.88514 -4.27043 1.07173 137 134 109
-3.89297 -4.29357 1.07526 137 134 112
-3.90086 -4.31690 1.07882 138 135 113
-3.90882 -4.34042 1.08241 140 135 113
-3.91684 -4.36413 1.08602 139 136 113
-3.92493 -4.38805 1.08967 138 136 116
-3.93309 -4.41216 1.09335 139 137 116
-3.94132 -4.43647 1.09706 141 136 119
-3.94961 -4.46099 1.10080 140 135 120
-3.95798 -4.48572 1.10457 140 135 113
-3.96642 -4.51065 1.10837 140 136 110
-3.97493 -4.53580 1.11221 140 138 109
-3.98351 -4.56116 1.11608 140 138 109
-3.99216 -4.58674 1.11998 140 137 111
-4.00089 -4.61254 1.12391 140 137 117
-4.00970 -4.63856 1.12788 142 137 124
-4.01858 -4.66481 1.13189 141 137 116
-4.02754 -4.69129 1.13593 139 139 117
-4.03658 -4.71801 1.14000 138 140 117
-4.04569 -4.74495 1.14411 140 139 112
-4.05489 -4.77214 1.14826 142 139 117
-4.06417 -4.79957 1.15244 142 139 119
-4.07354 -4.82724 1.15666 144 141 110
-4.08298 -4.85516 1.16092 144 141 115
-4.09251 -4.88333 1.16522 144 140 116
-4.10213 -4.91176 1.16955 143 139 115
-4.11184 -4.94044 1.17393 139 142 108
-4.12163 -4.96939 1.17835 143 141 121
-4.13152 -4.99861 1.18280 142 142 119
-4.14149 -5.02809 1.18730 143 143 118
-4.15156 -5.05784 1.19184 145 143 115
-4.16172 -5.08788 1.19642 143 143 116
-4.17198 -5.11819 1.20104 139 143 130
-4.18233 -5.14879 1.20571 142 143 127
-4.19278 -5.17968 1.21042 145 144 122
-4.20333 -5.21086 1.21518 145 142 119
-4.21398 -5.24233 1.21998 147 144 121
-4.22474 -5.27411 1.22482 145 146 122
-4.23559 -5.30619 1.22972 144 147 122
-4.24655 -5.33859 1.23466 145 149 121
-4.25762 -5.37130 1.23965 144 148 126
-4.26879 -5.40432 1.24469 145 147 127
-4.28008 -5.43767 1.24977 146 147 122
-4.29147 -5.47135 1.25491 146 147 116
-4.30298 -5.50537 1.26010 145 146 124
-4.31461 -5.53972 1.26534 147 148 128
-4.32634 -5.57442 1.27063 148 149 125
-4.33820 -5.60946 1.27598 148 151 126
-4.35018 -5.64486 1.28138 146 151 129
-4.36228 -5.68062 1.28683 147 149 126
-3.82169 -4.10428 1.03101 133 134 109
-3.82904 -4.12610 1.03428 135 134 108
-3.83645 -4.14810 1.03757 135 132 107
-3.84392 -4.17027 1.04089 137 131 108
-3.85146 -4.19261 1.04424 136 132 107
-3.85905 -4.21514 1.04761 136 133 108
-3.86670 -4.23785 1.05101 136 133 111
-3.87442 -4.26074 1.05444 136 134 107
-3.88220 -4.28382 1.05790 137 136 102
-3.89004 -4.30709 1.06138 137 135 106
-3.89795 -4.33056 1.06489 138 134 112
-3.90592 -4.35421 1.06843 139 134 114
-3.91396 -4.37806 1.07201 138 135 116
-3.92207 -4.40211 1.07561 137 136 120
-3.93024 -4.42636 1.07924 139 138 115
-3.93848 -4.45082 1.08290 141 136 115
-3.94679 -4.47548 1.08659 140 136 113
-3.95517 -4.50035 1.09032 142 135 108
-3.96363 -4.52543 1.09407 140 137 109
-3.97215 -4.55072 1.09786 138 138 102
-3.98075 -4.57624 1.10168 139 138 100
-3.98942 -4.60197 1.10553 137 136 107
-3.99817 -4.62792 1.10942 138 136 109
-4.00700 -4.65410 1.11334 141 136 117
-4.01590 -4.68051 1.11729 140 138 115
-4.02488 -4.70715 1.12128 140 140 123
-4.03393 -4.73403 1.12531 142 139 120
-4.04307 -4.76114 1.12937 142 141 120
-4.05229 -4.78849 1.13346 143 140 116
-4.06159 -4.81609 1.13760 142 141 113
-4.07098 -4.84394 1.14176 142 142 109
-4.08045 -4.87203 1.14597 141 142 124
-4.09000 -4.90038 1.15022 142 138 119
-4.09964 -4.92899 1.15450 141 139 120
-4.10937 -4.95786 1.15882 142 141 111
-4.11919 -4.98699 1.16319 147 141 118
-4.12910 -5.01639 1.16759 143 141 119
-4.13910 -5.04606 1.17203 141 143 122
-4.14919 -5.07601 1.17652 144 143 118
-4.15938 -5.10624 1.18104 141 142 120
-4.16967 -5.13675 1.18561 144 142 128
-4.18005 -5.16755 1.19022 144 142 129
-4.19053 -5.19864 1.19488 145 143 126
-4.20111 -5.23003 1.19958 145 144 123
-4.21178 -5.26172 1.20432 144 145 121
-4.22257 -5.29371 1.20911 142 145 123
-4.23345 -5.32601 1.21395 143 145 121
-4.24445 -5.35863 1.21883 146 146 113
-4.25555 -5.39156 1.22377 146 148 118
-4.26675 -5.42481 1.22874 148 148 118
-4.27807 -5.45840 1.23377 147 147 119
-4.28950 -5.49231 1.23885 146 149 118
-4.30105 -5.52656 1.24398 148 149 122
-4.31271 -5.56116 1.24916 147 150 121
-4.32448 -5.59610 1.25439 148 151 122
-4.33638 -5.63139 1.25968 149 150 124
-4.34839 -5.66704 1.26502 146 151 128
-4.36053 -5.70306 1.27041 147 147 125
-3.81863 -4.11678 1.01744 134 132 103
-3.82600 -4.13872 1.02067 135 133 105
-3.83342 -4.16083 1.02392 135 133 106
-3.84090 -4.18312 1.02719 135 132 107
-3.84845 -4.20559 1.03049 136 132 105
-3.85605 -4.22824 1.03382 136 134 107
-3.86372 -4.25108 1.03718 135 136 109
-3.87145 -4.27410 1.04056 135 136 105
-3.87924 -4.29731 1.04397 136 137 98
-3.88710 -4.32071 1.04741 136 136 101
-3.89502 -4.34430 1.05088 138 134 110
-3.90300 -4.36809 1.05437 139 134 109
-3.91106 -4.39208 1.05790 139 134 109
-3.91918 -4.41627 1.06145 138 135 114
-3.92737 -4.44066 1.06503 139 136 112
-3.93562 -4.46526 1.06865 140 137 112
-3.94395 -4.49006 1.07229 140 136 108
-3.95235 -4.51508 1.07597 142 136 108
-3.96082 -4.54030 1.07968 140 137 114
-3.96936 -4.56575 1.08341 138 139 107
-3.97798 -4.59141 1.08719 140 140 108
-3.98667 -4.61730 1.09099 138 138 111
-3.99543 -4.64341 1.09483 137 138 113
-4.00428 -4.66975 1.09870 137 138 113
-4.01320 -4.69632 1.10260 137 139 106
-4.02219 -4.72312 1.10654 139 141 120
-4.03127 -4.75016 1.11051 142 138 121
-4.04043 -4.77744 1.11452 139 139 125
-4.04967 -4.80496 1.11856 140 141 119
-4.05899 -4.83273 1.12264 140 141 117
-4.06840 -4.86075 1.12676 137 145 114
-4.07789 -4.88902 1.13092 138 143 120
-4.08747 -4.91755 1.13511 141 140 112
-4.09713 -4.94634 1.13934 139 142 114
-4.10689 -4.97539 1.14361 140 142 109
-4.11673 -5.00471 1.14792 143 143 115
-4.12666 -5.03430 1.15226 141 142 122
-4.13669 -5.06417 1.15665 141 145 128
-4.14681 -5.09431 1.16108 144 144 117
-4.15703 -5.12474 1.16555 142 144 120
-4.16734 -5.15545 1.17006 147 142 127
-4.17774 -5.18646 1.17462 147 142 133
-4.18825 -5.21775 1.17922 145 141 127
-4.19886 -5.24935 1.18386 147 143 122
-4.20957 -5.28125 1.18855 144 144 118
-4.22038 -5.31346 1.19328 146 145 122
-4.23130 -5.34598 1.19806 147 145 127
-4.24233 -5.37882 1.20289 148 145 120
-4.25346 -5.41198 1.20776 147 147 123
-4.26470 -5.44546 1.21268 149 147 126
-4.27605 -5.47928 1.21765 147 145 126
-4.28752 -5.51343 1.22267 145 146 125
-4.29910 -5.54792 1.22773 145 148 123
-4.31079 -5.58276 1.23285 144 150 121
-4.32261 -5.61795 1.23802 146 150 120
-4.33454 -5.65350 1.24325 145 150 119
-4.34660 -5.68941 1.24852 143 150 124
-4.35877 -5.72568 1.25385 145 149 123
-3.81556 -4.12935 1.00379 136 133 104
-3.82294 -4.15141 1.00697 137 133 101
-3.83037 -4.17364 1.01017 135 133 105
-3.83787 -4.19605 1.01340 134 131 110
-3.84542 -4.21865 1.01666 135 132 109
-3.85304 -4.24143 1.01994 134 134 106
-3.86072 -4.26439 1.02325 134 135 106
-3.86846 -4.28754 1.02659 135 134 105
-3.87626 -4.31088 1.02996 137 134 104
-3.88413 -4.33441 1.03335 138 134 109
-3.89207 -4.35814 1.03677 139 133 114
-3.90007 -4.38207 1.04022 139 133 109
-3.90814 -4.40619 1.04369 138 133 105
-3.91627 -4.43052 1.04720 138 135 115
-3.92447 -4.45505 1.05074 140 136 116
-3.93275 -4.47979 1.05430 141 136 114
-3.94109 -4.50474 1.05790 139 136 110
-3.94951 -4.52991 1.06152 139 137 110
-3.95799 -4.55528 1.06518 139 137 113
-3.96655 -4.58088 1.06887 139 139 113
-3.97518 -4.60670 1.07259 141 138 117
-3.98389 -4.63274 1.07635 139 137 116
-3.99268 -4.65901 1.08013 138 137 119
-4.00154 -4.68550 1.08395 138 138 120
-4.01048 -4.71223 1.08780 137 139 114
-4.01949 -4.73920 1.09169 137 140 119
-4.02859 -4.76641 1.09561 139 140 118
-4.03777 -4.79385 1.09957 137 139 120
-4.04703 -4.82155 1.10356 139 139 115
-4.05638 -4.84949 1.10759 140 138 118
-4.06580 -4.87769 1.11165 140 142 117
-4.07532 -4.90614 1.11575 140 140 123
-4.08492 -4.93485 1.11989 142 139 118
-4.09461 -4.96382 1.12407 140 140 117
-4.10438 -4.99306 1.12828 141 141 110
-4.11425 -5.02257 1.13253 144 143 109
-4.12421 -5.05235 1.13683 140 145 118
-4.13426 -5.08241 1.14116 140 144 124
-4.14441 -5.11275 1.14553 142 142 124
-4.15465 -5.14338 1.14995 143 141 124
-4.16499 -5.17429 1.15440 144 143 126
-4.17543 -5.20550 1.15890 144 142 129
-4.18596 -5.23701 1.16344 144 142 126
-4.19660 -5.26882 1.16803 147 141 120
-4.20734 -5.30094 1.17266 142 143 112
-4.21818 -5.33336 1.17733 147 142 119
-4.22913 -5.36611 1.18205 147 146 123
-4.24019 -5.39917 1.18681 146 147 122
-4.25135 -5.43256 1.19163 146 147 123
-4.26263 -5.46628 1.19649 144 147 124
-4.27402 -5.50033 1.20139 144 146 129
-4.28552 -5.53472 1.20635 143 146 133
-4.29713 -5.56946 1.21136 145 147 125
-4.30886 -5.60454 1.21642 148 147 119
-4.32072 -5.63998 1.22152 147 149 118
-4.33269 -5.67579 1.22668 146 150 120
-4.34478 -5.71195 1.23190 144 150 125
-4.35700 -5.74849 1.23716 144 149 129
-3.81247 -4.14200 0.99005 138 133 108
-3.81985 -4.16418 0.99319 138 133 100
-3.82730 -4.18654 0.99635 135 131 103
-3.83481 -4.20907 0.99953 136 129 113
-3.84237 -4.23179 1.00274 136 130 112
-3.85000 -4.25470 1.00598 133 131 111
-3.85769 -4.27779 1.00924 132 133 115
-3.86545 -4.30107 1.01253 134 133 114
-3.87327 -4.32454 1.01585 136 132 110
-3.88115 -4.34821 1.01919 138 133 111
-3.88910 -4.37207 1.02257 138 133 115
-3.89711 -4.39614 1.02597 138 134 113
-3.90520 -4.42040 1.02940 138 134 111
-3.91335 -4.44487 1.03285 138 136 118
-3.92156 -4.46954 1.03634 139 136 120
-3.92985 -4.49443 1.03986 142 136 115
-3.93821 -4.51952 1.04340 140 136 110
-3.94664 -4.54483 1.04698 138 136 110
-3.95514 -4.57036 1.05059 138 138 113
-3.96372 -4.59611 1.05423 139 139 112
-3.97237 -4.62208 1.05790 140 138 115
-3.98110 -4.64828 1.06160 140 137 116
-3.98990 -4.67471 1.06534 140 136 113
-3.99878 -4.70137 1.06910 139 137 115
-4.00774 -4.72826 1.07290 139 138 123
-4.01677 -4.75539 1.07674 139 139 126
-4.02589 -4.78277 1.08061 138 139 120
-4.03509 -4.81039 1.08451 138 139 118
-4.04437 -4.83825 1.08845 139 139 104
-4.05374 -4.86637 1.09242 138 139 115
-4.06319 -4.89474 1.09643 140 139 112
-4.07273 -4.92337 1.10048 143 138 117
-4.08235 -4.95227 1.10456 142 140 119
-4.09206 -4.98142 1.10868 140 142 117
-4.10186 -5.01085 1.11284 141 141 111
-4.11175 -5.04055 1.11704 147 143 104
-4.12174 -5.07053 1.12127 141 145 117
-4.13182 -5.10078 1.12555 140 146 126
-4.14199 -5.13132 1.12987 142 143 129
-4.15226 -5.16215 1.13422 144 140 119
-4.16262 -5.19327 1.13862 143 142 118
-4.17309 -5.22469 1.14306 144 142 116
-4.18365 -5.25641 1.14754 142 144 124
-4.19432 -5.28844 1.15207 143 143 121
-4.20509 -5.32077 1.15664 142 145 115
-4.21596 -5.35342 1.16125 144 146 119
-4.22694 -5.38639 1.16591 143 145 122
-4.23803 -5.41968 1.17062 146 145 124
-4.24923 -5.45330 1.17537 145 145 125
-4.26054 -5.48725 1.18017 143 146 122
-4.27196 -5.52154 1.18501 142 145 124
-4.28350 -5.55618 1.18991 141 144 130
-4.29515 -5.59116 1.19485 143 145 127
-4.30692 -5.62650 1.19985 146 147 123
-4.31881 -5.66219 1.20489 147 148 122
-4.33082 -5.69825 1.20999 145 149 125
-4.34295 -5.73468 1.21514 144 148 129
-4.35521 -5.77149 1.22034 145 149 127
-3.80935 -4.15473 0.97622 137 134 109
-3.81675 -4.17703 0.97931 136 134 107
-3.82421 -4.19951 0.98243 134 131 109
-3.83173 -4.22217 0.98557 134 128 111
-3.83931 -4.24502 0.98873 134 128 111
-3.84695 -4.26805 0.99192 132 129 114
-3.85465 -4.29127 0.99514 133 131 115
-3.86242 -4.31469 0.99838 134 132 111
-3.87025 -4.33829 1.00165 134 131 108
-3.87815 -4.36209 1.00495 136 133 109
-3.88611 -4.38610 1.00827 138 135 113
-3.89414 -4.41030 1.01162 138 135 113
-3.90224 -4.43470 1.01500 137 135 110
-3.91040 -4.45931 1.01841 136 136 117
-3.91863 -4.48413 1.02185 137 136 121
-3.92694 -4.50916 1.02532 139 136 114
-3.93531 -4.53440 1.02881 138 136 109
-3.94376 -4.55987 1.03234 136 137 108
-3.95228 -4.58555 1.03590 136 138 113
-3.96087 -4.61145 1.03948 138 138 111
-3.96954 -4.63758 1.04310 141 138 111
-3.97828 -4.66393 1.04675 141 137 112
-3.98710 -4.69052 1.05044 142 137 102
-3.99600 -4.71734 1.05415 141 138 97
-4.00498 -4.74440 1.05790 142 137 115
-4.01404 -4.77170 1.06168 140 139 114
-4.02317 -4.79925 1.06550 139 137 115
-4.03239 -4.82704 1.06935 138 140 115
-4.04170 -4.85508 1.07323 140 140 108
-4.05108 -4.88337 1.07715 141 140 112
-4.06056 -4.91192 1.08110 142 140 107
-4.07011 -4.94074 1.08509 143 138 119
-4.07976 -4.96981 1.08912 141 141 126
-4.08950 -4.99916 1.09319 138 141 120
-4.09932 -5.02877 1.09729 141 143 119
-4.10924 -5.05867 1.10143 142 142 115
-4.11925 -5.08884 1.10561 142 143 116
-4.12935 -5.11929 1.10983 142 144 123
-4.13955 -5.15004 1.11408 140 143 125
-4.14985 -5.18107 1.11838 142 141 120
-4.16024 -5.21240 1.12272 141 142 116
-4.17073 -5.24403 1.12710 143 144 116
-4.18133 -5.27596 1.13153 141 144 121
-4.19202 -5.30820 1.13599 143 144 123
-4.20282 -5.34076 1.14050 144 147 122
-4.21373 -5.37363 1.14505 142 147 124
-4.22474 -5.40683 1.14965 142 144 124
-4.23586 -5.44035 1.15430 146 144 130
-4.24709 -5.47420 1.15898 144 144 137
-4.25844 -5.50839 1.16372 144 144 125
-4.26989 -5.54292 1.16850 143 147 117
-4.28146 -5.57781 1.17333 142 146 132
-4.29315 -5.61304 1.17821 145 145 131
-4.30496 -5.64863 1.18314 145 144 130
-4.31689 -5.68458 1.18812 148 146 125
-4.32894 -5.72090 1.19315 145 147 125
-4.34111 -5.75760 1.19824 144 146 129
-4.35341 -5.79467 1.20337 144 147 131
-3.80622 -4.16755 0.96231 137 133 112
-3.81363 -4.18997 0.96535 135 133 112
-3.82110 -4.21257 0.96842 131 129 110
-3.82863 -4.23536 0.97151 131 128 108
-3.83622 -4.25833 0.97463 131 128 109
-3.84387 -4.28150 0.97777 132 131 114
-3.85159 -4.30485 0.98094 135 134 109
-3.85937 -4.32839 0.98414 136 134 103
-3.86722 -4.35213 0.98736 136 132 104
-3.87513 -4.37607 0.99061 136 134 106
-3.88310 -4.40021 0.99388 137 135 111
-3.89114 -4.42455 0.99718 136 136 108
-3.89926 -4.44910 1.00051 136 135 101
-3.90743 -4.47385 1.00387 136 134 102
-3.91568 -4.49882 1.00726 139 136 105
-3.92400 -4.52399 1.01068 139 136 112
-3.93239 -4.54939 1.01412 138 136 109
-3.94086 -4.57500 1.01760 134 138 107
-3.94939 -4.60083 1.02110 135 140 108
-3.95800 -4.62689 1.02464 138 139 106
-3.96669 -4.65318 1.02821 142 136 109
-3.97545 -4.67969 1.03180 142 134 121
-3.98429 -4.70644 1.03543 142 135 109
-3.99321 -4.73343 1.03910 141 137 100
-4.00220 -4.76066 1.04279 140 137 111
-4.01128 -4.78812 1.04652 140 138 115
-4.02044 -4.81584 1.05028 143 139 113
-4.02968 -4.84380 1.05407 140 141 111
-4.03900 -4.87202 1.05790 139 141 114
-4.04841 -4.90049 1.06176 139 141 117
-4.05790 -4.92923 1.06566 139 140 110
-4.06748 -4.95822 1.06960 139 141 113
-4.07715 -4.98749 1.07357 139 141 113
-4.08691 -5.01702 1.07758 140 143 117
-4.09676 -5.04683 1.08162 140 141 121
-4.10670 -5.07692 1.08570 140 142 124
-4.11674 -5.10729 1.08982 140 140 115
-4.12687 -5.13794 1.09398 142 141 122
-4.13709 -5.16889 1.09818 144 140 116
-4.14742 -5.20013 1.10242 143 142 116
-4.15784 -5.23167 1.10670 144 142 115
-4.16836 -5.26351 1.11102 145 140 118
-4.17898 -5.29566 1.11539 147 142 118
-4.18971 -5.32812 1.11979 147 141 120
-4.20054 -5.36090 1.12424 145 143 123
-4.21148 -5.39400 1.12873 141 144 126
-4.22252 -5.42742 1.13326 142 142 124
-4.23368 -5.46118 1.13784 148 143 126
-4.24494 -5.49527 1.14247 144 144 129
-4.25632 -5.52970 1.14714 146 145 122
-4.26781 -5.56448 1.15186 142 147 117
-4.27942 -5.59961 1.15663 141 146 124
-4.29114 -5.63509 1.16144 146 144 126
-4.30298 -5.67094 1.16631 144 145 126
-4.31495 -5.70715 1.17122 144 146 123
-4.32704 -5.74374 1.17619 145 146 118
-4.33925 -5.78070 1.18120 145 145 118
-3.80307 -4.18044 0.94831 136 134 103
-3.81049 -4.20299 0.95130 135 133 104
-3.81797 -4.22572 0.95432 130 128 99
-3.82551 -4.24863 0.95737 131 129 100
-3.83312 -4.27173 0.96044 135 131 106
-3.84078 -4.29503 0.96353 137 133 109
-3.84851 -4.31851 0.96665 137 135 105
-3.85630 -4.34219 0.96980 136 136 102
-3.86416 -4.36607 0.97297 135 135 105
-3.87208 -4.39014 0.97617 136 135 109
-3.88007 -4.41442 0.97940 138 135 113
-3.88813 -4.43890 0.98265 139 136 110
-3.89625 -4.46359 0.98593 139 136 108
-3.90445 -4.48849 0.98924 139 135 105
-3.91271 -4.51360 0.99257 141 135 108
-3.92105 -4.53893 0.99594 140 134 114
-3.92945 -4.56447 0.99933 139 136 109
-3.93793 -4.59024 1.00276 134 139 110
-3.94649 -4.61623 1.00621 134 141 113
-3.95512 -4.64244 1.00969 135 140 113
-3.96382 -4.66889 1.01321 137 136 111
-3.97260 -4.69556 1.01675 138 135 118
-3.98145 -4.72248 1.02033 137 137 108
-3.99039 -4.74963 1.02393 139 137 98
-3.99941 -4.77702 1.02757 140 137 111
-4.00850 -4.80466 1.03125 139 137 122
-4.01768 -4.83255 1.03495 140 140 118
-4.02694 -4.86069 1.03869 139 140 115
-4.03629 -4.88909 1.04246 139 139 114
-4.04572 -4.91774 1.04627 138 141 114
-4.05523 -4.94666 1.05011 139 140 113
-4.06484 -4.97584 1.05399 143 142 117
-4.07453 -5.00529 1.05790 141 141 115
-4.08431 -5.03502 1.06185 140 142 123
-4.09419 -5.06502 1.06584 138 142 120
-4.10415 -5.09531 1.06986 140 143 122
-4.11421 -5.12587 1.07392 141 140 120
-4.12437 -5.15673 1.07802 142 140 118
-4.13462 -5.18789 1.08216 145 139 110
-4.14497 -5.21933 1.08634 144 140 121
-4.15542 -5.25109 1.09056 145 142 113
-4.16597 -5.28314 1.09482 145 141 119
-4.17662 -5.31551 1.09912 143 141 122
-4.18738 -5.34819 1.10346 144 141 127
-4.19824 -5.38120 1.10785 144 142 127
-4.20921 -5.41453 1.11228 142 142 130
-4.22028 -5.44818 1.11675 143 142 121
-4.23147 -5.48217 1.12126 145 142 117
-4.24277 -5.51650 1.12583 144 145 120
-4.25418 -5.55118 1.13043 144 145 122
-4.26571 -5.58620 1.13509 144 144 122
-4.27735 -5.62158 1.13979 143 143 124
-4.28911 -5.65732 1.14454 147 142 122
-4.30099 -5.69343 1.14933 146 144 121
-4.31300 -5.72990 1.15418 144 144 121
-4.32513 -5.76676 1.15908 145 145 119
-3.79990 -4.19342 0.93421 133 132 101
-3.80733 -4.21609 0.93716 133 132 103
-3.81482 -4.23895 0.94013 129 129 101
-3.82237 -4.26199 0.94313 130 131 105
-3.82999 -4.28522 0.94615 137 133 108
-3.83767 -4.30864 0.94920 140 133 105
-3.84541 -4.33226 0.95227 138 135 100
-3.85321 -4.35608 0.95537 137 135 101
-3.86108 -4.38009 0.95849 136 135 105
-3.86902 -4.40430 0.96164 136 134 107
-3.87702 -4.42872 0.96481 137 134 108
-3.88510 -4.45335 0.96801 139 135 107
-3.89323 -4.47818 0.97124 137 135 109
-3.90144 -4.50323 0.97450 137 135 110
-3.90972 -4.52849 0.97779 138 134 118
-3.91807 -4.55396 0.98110 138 134 118
-3.92650 -4.57966 0.98444 138 137 106
-3.93499 -4.60558 0.98781 139 139 108
-3.94356 -4.63172 0.99121 137 139 111
-3.95221 -4.65810 0.99464 136 138 112
-3.96093 -4.68470 0.99810 137 136 110
-3.96972 -4.71155 1.00159 137 135 116
-3.97860 -4.73862 1.00511 139 137 112
-3.98755 -4.76594 1.00866 142 138 103
-3.99659 -4.79351 1.01225 141 138 113
-4.00570 -4.82132 1.01587 139 139 127
-4.01490 -4.84938 1.01951 138 138 121
-4.02418 -4.87770 1.02320 138 139 113
-4.03355 -4.90628 1.02691 137 138 111
-4.04300 -4.93511 1.03066 135 139 117
-4.05254 -4.96421 1.03445 138 138 115
-4.06217 -4.99358 1.03827 139 142 109
-4.07188 -5.02323 1.04212 140 140 105
-4.08169 -5.05315 1.04601 141 142 114
-4.09159 -5.08335 1.04994 138 141 113
-4.10158 -5.11383 1.05390 142 140 122
-4.11167 -5.14460 1.05790 143 138 127
-4.12185 -5.17566 1.06194 143 138 123
-4.13213 -5.20702 1.06602 143 140 119
-4.14250 -5.23869 1.07014 142 140 124
-4.15298 -5.27065 1.07430 143 141 120
-4.16356 -5.30293 1.07849 144 139 125
-4.17424 -5.33552 1.08273 145 140 123
-4.18503 -5.36842 1.08701 144 141 121
-4.19592 -5.40165 1.09133 143 142 114
-4.20692 -5.43521 1.09569 138 143 107
-4.21803 -5.46910 1.10010 139 144 111
-4.22925 -5.50333 1.10455 142 143 110
-4.24058 -5.53791 1.10905 142 144 117
-4.25202 -5.57283 1.11359 142 143 124
-4.26359 -5.60810 1.11818 142 141 125
-4.27527 -5.64374 1.12281 140 141 131
-4.28706 -5.67973 1.12749 144 140 126
-4.29898 -5.71610 1.13222 145 143 121
-4.31103 -5.75284 1.13700 142 144 123
-4.32320 -5.78997 1.14183 142 145 126
-4.33549 -5.82748 1.14670 142 144 117
-3.79671 -4.20648 0.92003 133 132 105
-3.80415 -4.22927 0.92293 134 134 106
-3.81165 -4.25226 0.92585 129 132 108
-3.81922 -4.27543 0.92880 129 132 114
-3.82684 -4.29880 0.93177 135 133 111
-3.83453 -4.32235 0.93477 139 133 104
-3.84229 -4.34611 0.93779 139 133 100
-3.85010 -4.37006 0.94084 140 133 104
-3.85799 -4.39421 0.94391 139 133 108
-3.86594 -4.41856 0.94701 138 133 107
-3.87396 -4.44312 0.95013 137 135 111
-3.88204 -4.46789 0.95328 137 135 113
-3.89019 -4.49287 0.95646 135 135 111
-3.89842 -4.51806 0.95967 137 135 114
-3.90671 -4.54347 0.96290 137 132 119
-3.91508 -4.56910 0.96616 139 134 118
-3.92352 -4.59495 0.96945 140 137 111
-3.93203 -4.62103 0.97276 141 140 108
-3.94062 -4.64733 0.97611 139 139 106
-3.94928 -4.67386 0.97948 136 137 102
-3.95802 -4.70063 0.98289 139 134 102
-3.96683 -4.72764 0.98632 137 135 120
-3.97572 -4.75488 0.98979 137 138 128
-3.98470 -4.78237 0.99329 137 138 112
-3.99375 -4.81011 0.99682 137 140 108
-4.00289 -4.83810 1.00038 138 139 121
-4.01211 -4.86634 1.00397 138 137 119
-4.02141 -4.89483 1.00759 138 139 118
-4.03080 -4.92359 1.01125 138 138 122
-4.04027 -4.95261 1.01494 139 138 119
-4.04983 -4.98190 1.01867 140 139 120
-4.05948 -5.01146 1.02243 137 141 112
-4.06922 -5.04130 1.02622 138 142 110
-4.07905 -5.07141 1.03005 141 141 120
-4.08897 -5.10181 1.03392 142 142 115
-4.09899 -5.13249 1.03782 145 139 120
-4.10910 -5.16347 1.04176 144 139 121
-4.11931 -5.19474 1.04574 142 138 120
-4.12961 -5.22631 1.04976 141 138 119
-4.14002 -5.25818 1.05381 140 139 122
-4.15052 -5.29037 1.05791 142 140 118
-4.16113 -5.32286 1.06204 143 139 122
-4.17184 -5.35567 1.06621 142 140 123
-4.18266 -5.38881 1.07043 138 141 123
-4.19358 -5.42227 1.07468 139 142 115
-4.20461 -5.45606 1.07898 140 142 110
-4.21575 -5.49019 1.08332 141 144 117
-4.22701 -5.52466 1.08771 142 143 116
-4.23837 -5.55948 1.09214 144 143 118
-4.24985 -5.59465 1.09661 142 143 120
-4.26145 -5.63018 1.10113 141 143 119
-4.27317 -5.66607 1.10570 137 143 122
-4.28500 -5.70233 1.11031 139 142 123
-4.29696 -5.73896 1.11497 141 142 123
-4.30904 -5.77597 1.11968 140 142 119
-4.32125 -5.81337 1.12443 140 144 119
-4.33359 -5.85116 1.12924 139 145 114
-3.79349 -4.21962 0.90576 135 133 111
-3.80095 -4.24255 0.90861 135 134 110
-3.80846 -4.26566 0.91148 132 133 109
-3.81604 -4.28896 0.91438 132 132 112
-3.82367 -4.31246 0.91730 136 130 111
-3.83138 -4.33615 0.92025 139 131 109
-3.83914 -4.36004 0.92322 139 132 106
-3.84697 -4.38413 0.92621 139 132 105
-3.85487 -4.40842 0.92924 139 131 105
-3.86283 -4.43291 0.93228 138 132 103
-3.87086 -4.45762 0.93535 137 133 103
-3.87896 -4.48253 0.93845 137 134 109
-3.88713 -4.50766 0.94158 134 134 110
-3.89537 -4.53300 0.94473 137 133 113
-3.90368 -4.55856 0.94791 139 133 115
-3.91206 -4.58434 0.95111 141 134 115
-3.92052 -4.61035 0.95435 139 135 112
-3.92905 -4.63658 0.95761 138 137 111
-3.93765 -4.66304 0.96090 138 136 111
-3.94633 -4.68974 0.96422 137 138 111
-3.95508 -4.71667 0.96757 140 135 116
-3.96392 -4.74385 0.97095 136 135 119
-3.97283 -4.77126 0.97436 137 137 124
-3.98182 -4.79892 0.97780 136 138 113
-3.99090 -4.82683 0.98127 136 139 110
-4.00005 -4.85499 0.98477 137 138 117
-4.00929 -4.88341 0.98831 138 139 119
-4.01861 -4.91209 0.99187 138 140 117
-4.02802 -4.94103 0.99547 138 138 116
-4.03752 -4.97024 0.99911 140 138 117
-4.04710 -4.99971 1.00277 141 139 118
-4.05677 -5.02947 1.00647 139 140 113
-4.06653 -5.05950 1.01021 140 142 111
-4.07639 -5.08981 1.01398 140 142 116
-4.08634 -5.12041 1.01778 140 142 117
-4.09638 -5.15129 1.02162 141 140 116
-4.10652 -5.18248 1.02550 141 139 113
-4.11675 -5.21396 1.02942 137 138 113
-4.12708 -5.24574 1.03337 137 136 115
-4.13751 -5.27783 1.03736 138 138 113
-4.14805 -5.31023 1.04139 139 140 109
-4.15869 -5.34295 1.04546 142 140 118
-4.16943 -5.37599 1.04957 141 141 120
-4.18027 -5.40935 1.05372 134 144 115
-4.19123 -5.44305 1.05791 136 142 110
-4.20229 -5.47708 1.06214 141 141 112
-4.21346 -5.51145 1.06641 139 141 117
-4.22475 -5.54616 1.07073 141 142 115
-4.23615 -5.58123 1.07509 145 141 116
-4.24766 -5.61665 1.07950 141 143 117
-4.25930 -5.65243 1.08395 140 144 113
-4.27105 -5.68858 1.08844 139 143 110
-4.28292 -5.72510 1.09299 140 142 119
-4.29492 -5.76201 1.09757 140 142 120
-4.30704 -5.79929 1.10221 140 143 117
-4.31929 -5.83697 1.10690 141 141 119
-4.33167 -5.87504 1.11163 139 143 116
-3.79026 -4.23285 0.89139 137 134 115
-3.79772 -4.25590 0.89419 136 134 111
-3.80525 -4.27915 0.89701 133 132 107
-3.81284 -4.30258 0.89986 134 131 110
-3.82049 -4.32621 0.90273 136 130 110
-3.82820 -4.35004 0.90563 136 131 113
-3.83598 -4.37407 0.90855 135 132 113
-3.84382 -4.39829 0.91149 136 132 107
-3.85173 -4.42272 0.91446 136 132 108
-3.85971 -4.44736 0.91746 137 133 112
-3.86775 -4.47221 0.92048 139 133 112
-3.87587 -4.49727 0.92352 140 134 107
-3.88405 -4.52255 0.92659 138 134 107
-3.89230 -4.54804 0.92969 136 134 112
-3.90063 -4.57375 0.93282 136 135 114
-3.90903 -4.59969 0.93597 137 135 115
-3.91750 -4.62585 0.93915 135 136 106
-3.92604 -4.65225 0.94235 136 135 104
-3.93466 -4.67887 0.94559 138 137 106
-3.94336 -4.70573 0.94885 139 138 110
-3.95213 -4.73283 0.95215 140 134 118
-3.96098 -4.76017 0.95547 135 136 115
-3.96991 -4.78775 0.95882 141 136 112
-3.97893 -4.81559 0.96220 140 136 111
-3.98802 -4.84367 0.96562 141 136 108
-3.99719 -4.87201 0.96906 139 136 118
-4.00645 -4.90061 0.97254 137 139 124
-4.01580 -4.92947 0.97604 138 138 110
-4.02523 -4.95860 0.97958 139 136 101
-4.03474 -4.98799 0.98315 140 136 111
-4.04435 -5.01766 0.98676 143 138 114
-4.05404 -5.04761 0.99040 140 139 111
-4.06383 -5.07783 0.99407 141 139 105
-4.07371 -5.10835 0.99778 140 141 111
-4.08368 -5.13915 1.00152 139 141 114
-4.09375 -5.17024 1.00530 141 141 112
-4.10391 -5.20163 1.00912 139 140 108
-4.11417 -5.23332 1.01297 140 138 110
-4.12453 -5.26532 1.01686 139 138 111
-4.13499 -5.29763 1.02078 139 139 113
-4.14555 -5.33025 1.02475 138 140 113
-4.15622 -5.36320 1.02875 138 141 120
-4.16699 -5.39646 1.03279 139 143 122
-4.17787 -5.43006 1.03687 138 145 113
-4.18885 -5.46399 1.04100 139 143 108
-4.19995 -5.49826 1.04516 143 140 109
-4.21115 -5.53287 1.04937 142 140 106
-4.22247 -5.56783 1.05362 144 141 109
-4.23391 -5.60315 1.05791 144 140 113
-4.24546 -5.63882 1.06224 141 142 114
-4.25713 -5.67487 1.06662 139 142 112
-4.26892 -5.71128 1.07105 139 141 113
-4.28083 -5.74807 1.07552 139 140 116
-4.29286 -5.78524 1.08004 138 140 116
-4.30502 -5.82280 1.08460 138 140 113
-4.31731 -5.86076 1.08921 138 138 117
-3.78700 -4.24617 0.87693 133 129 112
-3.79448 -4.26935 0.87968 132 131 110
-3.80202 -4.29272 0.88245 132 131 109
-3.80961 -4.31629 0.88525 134 132 110
-3.81728 -4.34006 0.88807 136 133 104
-3.82500 -4.36402 0.89091 136 133 102
-3.83279 -4.38819 0.89378 134 133 108
-3.84065 -4.41255 0.89667 133 134 108
-3.84857 -4.43713 0.89959 135 134 104
-3.85656 -4.46191 0.90253 137 135 104
-3.86462 -4.48690 0.90550 139 135 108
-3.87275 -4.51211 0.90849 139 134 105
-3.88095 -4.53754 0.91151 137 133 108
-3.88922 -4.56318 0.91455 136 133 117
-3.89756 -4.58905 0.91762 137 135 113
-3.90597 -4.61514 0.92072 137 136 111
-3.91446 -4.64146 0.92384 134 137 106
-3.92302 -4.66802 0.92699 136 136 103
-3.93165 -4.69480 0.93017 139 139 102
-3.94037 -4.72183 0.93338 139 137 101
-3.94916 -4.74909 0.93661 142 134 111
-3.95803 -4.77661 0.93988 140 134 104
-3.96698 -4.80436 0.94317 140 134 100
-3.97601 -4.83237 0.94649 139 134 120
-3.98512 -4.86063 0.94985 136 136 109
-3.99432 -4.88915 0.95323 137 137 103
-4.00359 -4.91793 0.95665 135 141 99
-4.01296 -4.94698 0.96010 136 137 109
-4.02241 -4.97629 0.96357 137 137 105
-4.03195 -5.00588 0.96709 137 138 111
-4.04158 -5.03574 0.97063 142 137 120
-4.05130 -5.06588 0.97421 140 139 124
-4.06111 -5.09631 0.97782 139 138 113
-4.07101 -5.12702 0.98146 137 140 110
-4.08101 -5.15803 0.98514 136 141 110
-4.09110 -5.18933 0.98886 137 138 110
-4.10129 -5.22093 0.99261 137 137 114
-4.11157 -5.25284 0.99639 140 137 121
-4.12196 -5.28505 1.00022 140 138 116
-4.13245 -5.31758 1.00408 138 137 118
-4.14304 -5.35043 1.00797 137 139 121
-4.15373 -5.38360 1.01191 138 139 118
-4.16453 -5.41710 1.01589 139 142 114
-4.17544 -5.45093 1.01990 139 142 112
-4.18646 -5.48509 1.02395 138 141 114
-4.19759 -5.51961 1.02805 139 141 119
-4.20882 -5.55446 1.03219 138 140 113
-4.22018 -5.58968 1.03637 142 140 114
-4.23165 -5.62525 1.04059 142 138 116
-4.24323 -5.66118 1.04485 139 139 114
-4.25494 -5.69748 1.04916 139 139 116
-4.26676 -5.73416 1.05351 138 139 121
-4.27871 -5.77122 1.05791 138 139 118
-4.29079 -5.80867 1.06235 137 137 113
-4.30299 -5.84651 1.06684 135 136 112
-3.78373 -4.25957 0.86237 135 128 108
-3.79121 -4.28288 0.86507 135 129 110
-3.79876 -4.30639 0.86780 133 130 108
-3.80637 -4.33009 0.87054 134 133 102
-3.81405 -4.35399 0.87331 136 134 95
-3.82178 -4.37810 0.87610 137 134 97
-3.82959 -4.40240 0.87892 135 134 109
