ply
format ascii 1.0
element face 0
property list uchar int vertex_indices
element vertex 1256
property float x
property float y
property float z
property uchar diffuse_red
property uchar diffuse_green
property uchar diffuse_blue
end_header
0.72050 -0.63251 -0.38440 232 221 218
0.72542 -0.63497 -0.38093 232 221 220
0.73034 -0.63743 -0.37745 231 220 221
0.73524 -0.63988 -0.37398 230 220 220
0.74015 -0.64234 -0.37051 230 220 218
0.74505 -0.64478 -0.36705 231 220 217
0.74994 -0.64723 -0.36359 232 221 216
0.75483 -0.64968 -0.36013 233 222 219
0.75972 -0.65212 -0.35668 232 223 221
0.76460 -0.65456 -0.35323 231 222 220
0.76947 -0.65699 -0.34978 231 222 220
0.77434 -0.65943 -0.34634 230 221 219
0.77921 -0.66186 -0.34290 231 221 220
0.78407 -0.66429 -0.33946 231 221 220
0.78893 -0.66672 -0.33603 231 222 221
0.79378 -0.66914 -0.33260 231 222 221
0.79862 -0.67156 -0.32917 231 220 219
0.80346 -0.67398 -0.32575 231 220 219
0.80830 -0.67640 -0.32233 230 219 219
0.81313 -0.67882 -0.31891 229 218 216
0.81796 -0.68123 -0.31550 230 218 216
0.82278 -0.68364 -0.31209 229 220 218
0.82760 -0.68605 -0.30868 228 219 218
0.83241 -0.68845 -0.30528 228 216 215
0.83722 -0.69086 -0.30188 227 216 215
0.84202 -0.69326 -0.29849 227 217 216
0.84682 -0.69566 -0.29509 226 216 217
0.85161 -0.69805 -0.29170 226 216 216
0.85640 -0.70045 -0.28832 226 216 218
0.86119 -0.70284 -0.28494 226 216 218
0.86596 -0.70523 -0.28156 227 215 217
0.87074 -0.70761 -0.27818 226 215 218
0.87551 -0.71000 -0.27481 226 216 218
0.88027 -0.71238 -0.27144 225 215 218
0.88503 -0.71476 -0.26807 226 214 214
0.88979 -0.71714 -0.26471 225 212 212
0.89454 -0.71951 -0.26135 224 212 207
0.89929 -0.72188 -0.25800 222 211 209
0.90403 -0.72425 -0.25464 222 210 210
0.90877 -0.72662 -0.25129 223 212 215
0.91350 -0.72899 -0.24795 224 213 212
0.91823 -0.73135 -0.24461 223 211 212
0.92295 -0.73371 -0.24127 223 209 208
0.92767 -0.73607 -0.23793 221 208 206
0.93238 -0.73843 -0.23460 220 207 205
0.93709 -0.74078 -0.23127 222 207 203
0.65926 -0.61043 -0.41909 236 225 223
0.66422 -0.61291 -0.41558 236 226 223
0.66918 -0.61538 -0.41208 236 227 223
0.67413 -0.61785 -0.40859 235 226 224
0.67908 -0.62032 -0.40509 235 225 222
0.68402 -0.62279 -0.40160 235 226 223
0.68896 -0.62525 -0.39811 235 226 225
0.69389 -0.62772 -0.39463 234 225 222
0.69882 -0.63017 -0.39115 235 225 220
0.70375 -0.63263 -0.38767 236 224 222
0.70866 -0.63509 -0.38420 235 224 222
0.71358 -0.63754 -0.38073 235 224 220
0.71848 -0.63999 -0.37727 234 224 221
0.72339 -0.64243 -0.37380 233 223 223
0.72829 -0.64488 -0.37034 233 224 223
0.73318 -0.64732 -0.36689 233 224 222
0.73807 -0.64976 -0.36344 234 223 220
0.74295 -0.65220 -0.35999 235 224 220
0.74783 -0.65463 -0.35654 235 224 222
0.75270 -0.65706 -0.35310 235 225 224
0.75757 -0.65949 -0.34966 234 225 224
0.76244 -0.66192 -0.34623 233 224 221
0.76730 -0.66434 -0.34280 233 224 221
0.77215 -0.66677 -0.33937 233 224 223
0.77700 -0.66919 -0.33594 233 225 224
0.78185 -0.67160 -0.33252 234 225 225
0.78669 -0.67402 -0.32910 232 224 224
0.79152 -0.67643 -0.32569 231 222 221
0.79635 -0.67884 -0.32228 230 221 221
0.80118 -0.68125 -0.31887 229 220 221
0.80600 -0.68366 -0.31547 229 218 217
0.81082 -0.68606 -0.31206 230 219 215
0.81563 -0.68846 -0.30867 229 220 216
0.82043 -0.69086 -0.30527 227 217 216
0.82524 -0.69326 -0.30188 227 214 214
0.83003 -0.69565 -0.29849 226 214 214
0.83483 -0.69804 -0.29511 225 213 215
0.83961 -0.70043 -0.29173 225 212 215
0.84440 -0.70282 -0.28835 224 211 213
0.84917 -0.70520 -0.28498 223 210 214
0.85395 -0.70758 -0.28161 224 211 215
0.85872 -0.70996 -0.27824 225 212 216
0.86348 -0.71234 -0.27487 224 212 215
0.86824 -0.71471 -0.27151 223 211 213
0.87300 -0.71709 -0.26815 223 210 211
0.87775 -0.71946 -0.26480 224 209 207
0.88249 -0.72183 -0.26145 223 209 208
0.88723 -0.72419 -0.25810 222 208 205
0.89197 -0.72655 -0.25476 221 207 207
0.89670 -0.72892 -0.25142 220 207 207
0.90143 -0.73127 -0.24808 220 208 208
0.90615 -0.73363 -0.24474 221 210 210
0.91087 -0.73598 -0.24141 221 208 210
0.91558 -0.73834 -0.23808 221 207 206
0.92029 -0.74069 -0.23476 220 206 204
0.92499 -0.74303 -0.23144 220 206 204
0.92969 -0.74538 -0.22812 221 206 204
0.65250 -0.61553 -0.41530 238 226 222
0.65745 -0.61800 -0.41181 237 227 223
0.66240 -0.62046 -0.40832 235 228 223
0.66734 -0.62293 -0.40484 235 228 221
0.67227 -0.62538 -0.40136 236 228 221
0.67721 -0.62784 -0.39788 237 228 222
0.68213 -0.63030 -0.39440 235 228 225
0.68705 -0.63275 -0.39093 235 228 225
0.69197 -0.63520 -0.38746 237 227 223
0.69688 -0.63764 -0.38400 237 226 224
0.70179 -0.64009 -0.38054 237 227 223
0.70669 -0.64253 -0.37708 238 227 221
0.71159 -0.64497 -0.37363 237 226 222
0.71648 -0.64741 -0.37018 236 225 223
0.72137 -0.64984 -0.36673 236 226 224
0.72625 -0.65227 -0.36329 235 226 224
0.73113 -0.65470 -0.35985 235 224 223
0.73600 -0.65713 -0.35641 235 224 223
0.74087 -0.65955 -0.35298 235 226 223
0.74573 -0.66198 -0.34955 235 227 224
0.75059 -0.66440 -0.34612 235 227 224
0.75544 -0.66682 -0.34270 234 225 223
0.76029 -0.66923 -0.33928 233 225 222
0.76514 -0.67164 -0.33586 232 224 223
0.76998 -0.67405 -0.33245 232 223 223
0.77481 -0.67646 -0.32904 232 223 223
0.77964 -0.67887 -0.32563 230 220 222
0.78446 -0.68127 -0.32223 229 219 219
0.78928 -0.68367 -0.31883 228 219 218
0.79410 -0.68607 -0.31543 227 218 218
0.79891 -0.68847 -0.31204 227 216 217
0.80371 -0.69086 -0.30865 228 215 216
0.80852 -0.69325 -0.30526 226 215 215
0.81331 -0.69564 -0.30188 225 213 213
0.81810 -0.69803 -0.29850 225 212 211
0.82289 -0.70041 -0.29513 225 212 212
0.82767 -0.70280 -0.29175 224 210 212
0.83245 -0.70517 -0.28838 223 209 212
0.83722 -0.70755 -0.28502 223 208 211
0.84199 -0.70993 -0.28165 221 208 213
0.84675 -0.71230 -0.27830 223 210 215
0.85151 -0.71467 -0.27494 223 210 214
0.85627 -0.71704 -0.27159 222 210 211
0.86101 -0.71940 -0.26824 222 209 211
0.86576 -0.72177 -0.26489 222 208 208
0.87050 -0.72413 -0.26155 222 208 206
0.87523 -0.72649 -0.25821 222 208 207
0.87996 -0.72884 -0.25487 222 207 206
0.88469 -0.73120 -0.25154 222 207 206
0.88941 -0.73355 -0.24821 221 206 206
0.89413 -0.73590 -0.24488 220 206 205
0.89884 -0.73825 -0.24156 220 208 208
0.90355 -0.74059 -0.23824 220 208 208
0.90825 -0.74293 -0.23492 221 208 208
0.91295 -0.74528 -0.23161 220 206 207
0.91764 -0.74761 -0.22830 220 206 204
0.92233 -0.74995 -0.22499 220 206 205
0.68516 -0.64019 -0.38380 237 229 227
0.69006 -0.64263 -0.38035 237 228 226
0.69496 -0.64506 -0.37690 239 228 223
0.69985 -0.64749 -0.37345 238 227 222
0.70473 -0.64992 -0.37001 237 226 223
0.70961 -0.65235 -0.36657 236 226 224
0.71449 -0.65477 -0.36314 236 226 223
0.71936 -0.65720 -0.35970 235 224 222
0.72423 -0.65962 -0.35628 234 223 222
0.72909 -0.66204 -0.35285 233 223 222
0.73395 -0.66445 -0.34943 233 223 222
0.73880 -0.66686 -0.34601 233 223 221
0.74365 -0.66927 -0.34260 233 224 221
0.74849 -0.67168 -0.33919 232 223 222
0.75333 -0.67409 -0.33578 231 222 221
0.75816 -0.67649 -0.33237 230 220 220
0.76299 -0.67889 -0.32897 230 219 219
0.76781 -0.68129 -0.32557 230 218 218
0.77263 -0.68369 -0.32218 228 217 218
0.77745 -0.68608 -0.31879 227 217 217
0.78226 -0.68847 -0.31540 226 217 214
0.78706 -0.69086 -0.31201 225 215 215
0.79186 -0.69325 -0.30863 226 214 216
0.79665 -0.69563 -0.30526 226 213 216
0.80145 -0.69802 -0.30188 225 213 215
0.80623 -0.70040 -0.29851 224 212 212
0.81101 -0.70277 -0.29514 225 212 210
0.81579 -0.70515 -0.29178 225 212 209
0.82056 -0.70752 -0.28842 225 211 210
0.82533 -0.70989 -0.28506 224 210 212
0.83009 -0.71226 -0.28170 223 209 212
0.83485 -0.71463 -0.27835 222 210 213
0.83960 -0.71699 -0.27500 223 212 214
0.84435 -0.71935 -0.27166 223 210 214
0.84909 -0.72171 -0.26832 223 210 210
0.85383 -0.72407 -0.26498 223 210 211
0.85856 -0.72642 -0.26164 223 209 210
0.86329 -0.72877 -0.25831 223 208 207
0.86802 -0.73112 -0.25498 222 208 205
0.87274 -0.73347 -0.25166 222 208 207
0.87746 -0.73582 -0.24834 222 208 207
0.88217 -0.73816 -0.24502 223 208 209
0.88687 -0.74050 -0.24170 222 208 208
0.89158 -0.74284 -0.23839 222 209 209
0.89627 -0.74517 -0.23508 221 209 209
0.90097 -0.74751 -0.23177 221 208 209
0.90565 -0.74984 -0.22847 220 207 206
0.91034 -0.75217 -0.22517 221 207 202
0.91502 -0.75449 -0.22188 221 206 206
0.67839 -0.64515 -0.38015 236 227 223
0.68328 -0.64758 -0.37671 236 225 221
0.68816 -0.65000 -0.37328 236 224 221
0.69304 -0.65243 -0.36984 235 224 221
0.69792 -0.65485 -0.36641 234 224 222
0.70279 -0.65726 -0.36299 234 224 222
0.70765 -0.65968 -0.35956 234 223 221
0.71251 -0.66209 -0.35614 233 222 219
0.71737 -0.66450 -0.35273 233 221 219
0.72222 -0.66691 -0.34931 232 221 219
0.72707 -0.66932 -0.34590 231 220 219
0.73191 -0.67172 -0.34250 230 220 218
0.73675 -0.67412 -0.33909 231 220 217
0.74158 -0.67652 -0.33569 231 220 217
0.74640 -0.67892 -0.33230 229 218 218
0.75123 -0.68131 -0.32891 228 217 216
0.75605 -0.68370 -0.32552 229 217 215
0.76086 -0.68609 -0.32213 229 216 215
0.76567 -0.68848 -0.31875 229 217 216
0.77047 -0.69086 -0.31537 228 217 216
0.77527 -0.69325 -0.31199 227 216 213
0.78006 -0.69563 -0.30862 226 214 213
0.78485 -0.69800 -0.30525 226 214 213
0.78964 -0.70038 -0.30188 226 214 215
0.79442 -0.70275 -0.29852 226 214 215
0.79919 -0.70512 -0.29516 226 213 214
0.80396 -0.70749 -0.29180 225 213 212
0.80873 -0.70986 -0.28845 225 213 211
0.81349 -0.71222 -0.28510 225 213 213
0.81825 -0.71458 -0.28175 225 211 213
0.82300 -0.71694 -0.27841 224 209 212
0.82774 -0.71930 -0.27507 224 210 211
0.83249 -0.72165 -0.27173 224 212 213
0.83723 -0.72401 -0.26840 224 212 213
0.84196 -0.72636 -0.26507 225 213 213
0.84669 -0.72870 -0.26174 224 213 213
0.85141 -0.73105 -0.25842 224 211 211
0.85613 -0.73339 -0.25510 224 209 208
0.86085 -0.73573 -0.25178 224 210 205
0.86556 -0.73807 -0.24846 222 210 209
0.87026 -0.74041 -0.24515 223 211 211
0.87496 -0.74274 -0.24185 223 210 214
0.87966 -0.74507 -0.23854 223 210 212
0.88435 -0.74740 -0.23524 224 210 212
0.88904 -0.74973 -0.23194 223 210 213
0.89372 -0.75205 -0.22865 223 210 210
0.89840 -0.75438 -0.22536 222 208 205
0.90307 -0.75670 -0.22207 223 210 202
0.90774 -0.75901 -0.21878 224 210 208
0.67654 -0.65250 -0.37310 234 222 216
0.68141 -0.65492 -0.36968 234 222 218
0.68628 -0.65733 -0.36626 233 223 220
0.69114 -0.65974 -0.36284 232 222 221
0.69600 -0.66215 -0.35942 233 223 222
0.70086 -0.66456 -0.35601 233 222 221
0.70571 -0.66696 -0.35260 233 221 219
0.71055 -0.66936 -0.34920 232 221 219
0.71539 -0.67176 -0.34580 232 222 219
0.72023 -0.67416 -0.34240 231 221 218
0.72506 -0.67655 -0.33900 231 219 217
0.72988 -0.67894 -0.33561 231 219 216
0.73471 -0.68133 -0.33222 230 219 216
0.73952 -0.68372 -0.32884 229 218 218
0.74433 -0.68610 -0.32546 229 218 217
0.74914 -0.68849 -0.32208 230 218 216
0.75394 -0.69087 -0.31871 230 218 217
0.75874 -0.69324 -0.31533 230 218 219
0.76353 -0.69562 -0.31197 230 218 218
0.76832 -0.69799 -0.30860 229 217 215
0.77311 -0.70036 -0.30524 228 216 214
0.77788 -0.70273 -0.30188 227 215 213
0.78266 -0.70510 -0.29853 226 215 216
0.78743 -0.70746 -0.29517 227 216 216
0.79219 -0.70982 -0.29183 227 216 215
0.79695 -0.71218 -0.28848 227 214 214
0.80171 -0.71454 -0.28514 227 214 215
0.80646 -0.71689 -0.28180 226 215 216
0.81121 -0.71925 -0.27846 226 213 215
0.81595 -0.72160 -0.27513 225 211 213
0.82068 -0.72394 -0.27180 225 211 210
0.82542 -0.72629 -0.26848 225 213 212
0.83014 -0.72863 -0.26516 226 215 214
0.83487 -0.73097 -0.26184 227 216 215
0.83959 -0.73331 -0.25852 227 216 215
0.84430 -0.73565 -0.25521 226 215 214
0.84901 -0.73798 -0.25190 225 212 213
0.85371 -0.74031 -0.24859 225 213 209
0.85841 -0.74264 -0.24529 224 213 211
0.86311 -0.74497 -0.24199 224 213 213
0.86780 -0.74730 -0.23869 223 212 216
0.87249 -0.74962 -0.23540 222 210 213
0.87717 -0.75194 -0.23211 224 211 212
0.88185 -0.75426 -0.22882 224 212 214
0.88652 -0.75657 -0.22554 224 211 211
0.89119 -0.75889 -0.22226 224 210 209
0.89585 -0.76120 -0.21898 224 213 210
0.90051 -0.76351 -0.21571 225 213 210
0.67470 -0.65980 -0.36610 235 224 219
0.67955 -0.66221 -0.36269 234 224 221
0.68441 -0.66461 -0.35928 233 224 222
0.68926 -0.66701 -0.35588 233 224 223
0.69410 -0.66941 -0.35248 234 223 222
0.69894 -0.67180 -0.34908 234 223 220
0.70377 -0.67419 -0.34569 233 223 220
0.70860 -0.67658 -0.34230 234 224 220
0.71343 -0.67897 -0.33891 234 223 219
0.71825 -0.68135 -0.33553 233 222 218
0.72306 -0.68374 -0.33215 232 221 218
0.72787 -0.68612 -0.32878 231 221 219
0.73268 -0.68849 -0.32540 230 221 220
0.73748 -0.69087 -0.32203 230 220 219
0.74228 -0.69324 -0.31867 231 220 218
0.74707 -0.69561 -0.31530 231 220 219
0.75186 -0.69798 -0.31194 231 219 221
0.75664 -0.70035 -0.30858 230 219 220
0.76142 -0.70271 -0.30523 230 219 218
0.76619 -0.70507 -0.30188 229 219 217
0.77096 -0.70743 -0.29853 228 218 216
0.77572 -0.70979 -0.29519 227 218 218
0.78048 -0.71214 -0.29185 228 219 217
0.78523 -0.71450 -0.28851 228 219 217
0.78998 -0.71685 -0.28518 228 217 218
0.79473 -0.71919 -0.28185 228 217 218
0.79947 -0.72154 -0.27852 228 217 219
0.80421 -0.72388 -0.27520 228 217 218
0.80894 -0.72622 -0.27188 228 215 217
0.81366 -0.72856 -0.26856 226 214 215
0.81839 -0.73090 -0.26524 226 214 214
0.82310 -0.73323 -0.26193 227 215 215
0.82782 -0.73557 -0.25862 227 215 216
0.83253 -0.73789 -0.25532 228 217 216
0.83723 -0.74022 -0.25202 227 217 216
0.84193 -0.74255 -0.24872 226 215 215
0.84662 -0.74487 -0.24542 226 215 211
0.85131 -0.74719 -0.24213 226 214 212
0.85600 -0.74951 -0.23884 226 215 213
0.86068 -0.75183 -0.23556 224 213 214
0.86536 -0.75414 -0.23228 224 212 213
0.87003 -0.75645 -0.22900 223 212 212
0.87470 -0.75876 -0.22572 224 212 214
0.87936 -0.76107 -0.22245 222 210 212
0.88402 -0.76337 -0.21918 223 211 211
0.88867 -0.76567 -0.21591 224 212 213
0.89332 -0.76798 -0.21265 225 212 211
0.67287 -0.66706 -0.35915 235 226 223
0.67771 -0.66945 -0.35575 235 226 224
0.68255 -0.67184 -0.35236 235 225 224
0.68738 -0.67423 -0.34897 235 226 225
0.69221 -0.67661 -0.34559 235 226 223
0.69703 -0.67899 -0.34220 235 225 221
0.70185 -0.68137 -0.33883 235 225 222
0.70667 -0.68375 -0.33545 235 225 222
0.71148 -0.68613 -0.33208 235 225 221
0.71628 -0.68850 -0.32871 234 224 222
0.72108 -0.69087 -0.32535 233 223 224
0.72588 -0.69324 -0.32198 232 223 225
0.73067 -0.69561 -0.31862 232 222 223
0.73545 -0.69797 -0.31527 232 222 223
0.74023 -0.70033 -0.31192 232 222 222
0.74501 -0.70269 -0.30857 231 222 223
0.74978 -0.70505 -0.30522 231 222 222
0.75455 -0.70740 -0.30188 232 221 220
0.75931 -0.70976 -0.29854 231 221 219
0.76407 -0.71211 -0.29521 231 221 219
0.76882 -0.71445 -0.29187 230 221 219
0.77357 -0.71680 -0.28855 229 221 219
0.77832 -0.71914 -0.28522 229 221 219
0.78306 -0.72148 -0.28190 229 219 220
0.78779 -0.72382 -0.27858 229 219 221
0.79252 -0.72616 -0.27526 229 218 221
0.79725 -0.72849 -0.27195 229 218 221
0.80197 -0.73082 -0.26864 229 218 221
0.80668 -0.73315 -0.26533 228 217 221
0.81140 -0.73548 -0.26203 227 215 217
0.81610 -0.73781 -0.25873 226 215 216
0.82081 -0.74013 -0.25543 226 215 217
0.82550 -0.74245 -0.25214 226 216 217
0.83020 -0.74477 -0.24885 226 215 216
0.83489 -0.74709 -0.24556 226 215 216
0.83957 -0.74940 -0.24227 227 216 213
0.84425 -0.75171 -0.23899 228 216 213
0.84893 -0.75402 -0.23571 227 216 211
0.85360 -0.75633 -0.23244 225 213 211
0.85827 -0.75863 -0.22917 226 214 212
0.86293 -0.76094 -0.22590 223 212 211
0.86759 -0.76324 -0.22263 223 211 214
0.87224 -0.76554 -0.21937 221 211 212
0.87689 -0.76783 -0.21611 223 209 210
0.88153 -0.77013 -0.21286 222 208 208
0.88617 -0.77242 -0.20960 223 209 210
0.66622 -0.67188 -0.35562 237 229 225
0.67105 -0.67426 -0.35224 237 229 226
0.67588 -0.67664 -0.34886 236 228 226
0.68070 -0.67902 -0.34548 236 228 227
0.68552 -0.68139 -0.34211 237 228 225
0.69033 -0.68377 -0.33874 236 227 223
0.69514 -0.68614 -0.33537 235 226 223
0.69994 -0.68851 -0.33201 235 226 225
0.70474 -0.69087 -0.32865 235 227 225
0.70954 -0.69324 -0.32529 235 226 226
0.71433 -0.69560 -0.32194 235 226 226
0.71911 -0.69796 -0.31858 234 226 227
0.72389 -0.70032 -0.31524 233 225 227
0.72867 -0.70267 -0.31189 233 225 226
0.73344 -0.70502 -0.30855 234 224 224
0.73820 -0.70737 -0.30522 233 224 225
0.74296 -0.70972 -0.30188 232 224 224
0.74772 -0.71207 -0.29855 232 223 222
0.75247 -0.71441 -0.29522 232 222 221
0.75722 -0.71675 -0.29190 232 222 221
0.76196 -0.71909 -0.28858 231 222 221
0.76670 -0.72143 -0.28526 230 222 221
0.77144 -0.72376 -0.28194 230 222 221
0.77617 -0.72609 -0.27863 231 220 221
0.78089 -0.72842 -0.27532 230 220 221
0.78561 -0.73075 -0.27202 230 219 221
0.79033 -0.73308 -0.26872 228 218 220
0.79504 -0.73540 -0.26542 228 219 222
0.79974 -0.73772 -0.26212 228 218 222
0.80445 -0.74004 -0.25883 227 217 217
0.80914 -0.74236 -0.25554 226 216 216
0.81384 -0.74467 -0.25225 226 216 218
0.81852 -0.74698 -0.24897 225 215 217
0.82321 -0.74929 -0.24569 225 215 216
0.82789 -0.75160 -0.24242 226 216 217
0.83256 -0.75390 -0.23914 227 217 217
0.83723 -0.75621 -0.23587 228 216 213
0.84190 -0.75851 -0.23260 226 214 209
0.84656 -0.76081 -0.22934 225 212 206
0.85122 -0.76310 -0.22608 224 212 209
0.85587 -0.76540 -0.22282 222 211 209
0.86052 -0.76769 -0.21957 222 210 212
0.86516 -0.76998 -0.21632 222 210 212
0.86980 -0.77227 -0.21307 223 208 210
0.87443 -0.77455 -0.20982 221 206 204
0.87906 -0.77683 -0.20658 223 207 208
0.66443 -0.67904 -0.34874 237 229 227
0.66925 -0.68141 -0.34538 236 229 228
0.67406 -0.68378 -0.34201 237 230 229
0.67887 -0.68615 -0.33865 237 229 227
0.68367 -0.68851 -0.33529 237 228 225
0.68847 -0.69087 -0.33193 236 227 224
0.69326 -0.69323 -0.32858 234 227 225
0.69805 -0.69559 -0.32523 234 227 227
0.70283 -0.69795 -0.32189 235 226 227
0.70761 -0.70030 -0.31854 235 226 225
0.71239 -0.70265 -0.31521 234 226 225
0.71716 -0.70500 -0.31187 234 226 224
0.72192 -0.70734 -0.30854 233 226 224
0.72668 -0.70969 -0.30521 234 225 225
0.73144 -0.71203 -0.30188 233 224 226
0.73619 -0.71437 -0.29856 232 223 224
0.74093 -0.71670 -0.29524 232 223 222
0.74568 -0.71904 -0.29192 232 222 223
0.75041 -0.72137 -0.28861 232 222 223
0.75515 -0.72370 -0.28530 231 221 222
0.75987 -0.72603 -0.28199 230 221 222
0.76460 -0.72835 -0.27869 229 220 221
0.76932 -0.73068 -0.27539 230 220 218
0.77403 -0.73300 -0.27209 230 219 219
0.77874 -0.73532 -0.26880 229 218 220
0.78345 -0.73763 -0.26550 228 218 218
0.78815 -0.73995 -0.26222 227 217 219
0.79284 -0.74226 -0.25893 228 217 218
0.79754 -0.74457 -0.25565 227 217 216
0.80222 -0.74688 -0.25237 226 216 216
0.80691 -0.74918 -0.24910 226 215 216
0.81158 -0.75149 -0.24582 225 215 216
0.81626 -0.75379 -0.24256 225 215 215
0.82093 -0.75609 -0.23929 225 216 215
0.82559 -0.75838 -0.23603 226 215 215
0.83025 -0.76068 -0.23277 226 215 212
0.83491 -0.76297 -0.22951 225 212 209
0.83956 -0.76526 -0.22626 224 212 206
0.84421 -0.76755 -0.22301 224 212 210
0.84885 -0.76983 -0.21976 223 211 208
0.85349 -0.77212 -0.21652 222 211 210
0.85812 -0.77440 -0.21328 223 209 210
0.86275 -0.77668 -0.21004 223 208 207
0.86737 -0.77895 -0.20680 221 207 205
0.87199 -0.78123 -0.20357 221 207 208
0.66266 -0.68616 -0.34191 236 229 227
0.66746 -0.68852 -0.33856 236 228 228
0.67225 -0.69088 -0.33521 236 228 227
0.67705 -0.69323 -0.33186 236 228 227
0.68183 -0.69558 -0.32852 235 226 225
0.68662 -0.69794 -0.32518 235 226 224
0.69139 -0.70028 -0.32184 235 226 224
0.69617 -0.70263 -0.31850 235 225 223
0.70093 -0.70497 -0.31517 234 224 222
0.70570 -0.70731 -0.31185 233 223 220
0.71046 -0.70965 -0.30852 233 222 219
0.71521 -0.71199 -0.30520 232 223 220
0.71996 -0.71432 -0.30188 232 223 225
0.72471 -0.71666 -0.29857 232 223 226
0.72945 -0.71899 -0.29525 231 221 222
0.73418 -0.72132 -0.29195 231 220 220
0.73892 -0.72364 -0.28864 231 221 220
0.74364 -0.72596 -0.28534 230 221 223
0.74837 -0.72829 -0.28204 230 220 221
0.75308 -0.73060 -0.27874 229 219 220
0.75780 -0.73292 -0.27545 228 218 219
0.76251 -0.73524 -0.27216 228 217 216
0.76721 -0.73755 -0.26887 227 216 216
0.77191 -0.73986 -0.26559 226 214 217
0.77661 -0.74217 -0.26231 226 215 216
0.78130 -0.74447 -0.25903 226 215 216
0.78598 -0.74677 -0.25576 225 215 215
0.79066 -0.74908 -0.25249 225 214 214
0.79534 -0.75137 -0.24922 225 215 216
0.80001 -0.75367 -0.24596 226 214 214
0.80468 -0.75597 -0.24270 225 214 214
0.80935 -0.75826 -0.23944 225 213 212
0.81401 -0.76055 -0.23618 224 212 211
0.81866 -0.76284 -0.23293 225 213 213
0.82331 -0.76512 -0.22968 225 212 211
0.82796 -0.76740 -0.22644 224 210 210
0.83260 -0.76969 -0.22319 222 211 209
0.83724 -0.77196 -0.21995 223 210 211
0.84187 -0.77424 -0.21672 222 209 206
0.84650 -0.77652 -0.21348 222 209 209
0.85112 -0.77879 -0.21025 222 207 210
0.85574 -0.78106 -0.20703 222 207 205
0.86036 -0.78333 -0.20380 220 206 205
0.86497 -0.78559 -0.20058 220 206 207
0.66089 -0.69323 -0.33513 235 226 224
0.66568 -0.69558 -0.33179 235 225 225
0.67046 -0.69792 -0.32845 235 226 225
0.67524 -0.70027 -0.32512 234 225 224
0.68001 -0.70261 -0.32179 234 224 222
0.68478 -0.70495 -0.31847 234 224 222
0.68954 -0.70729 -0.31514 235 223 221
0.69430 -0.70962 -0.31182 234 221 219
0.69905 -0.71195 -0.30851 232 220 218
0.70380 -0.71428 -0.30519 232 220 216
0.70854 -0.71661 -0.30188 231 221 217
0.71328 -0.71894 -0.29857 230 221 221
0.71802 -0.72126 -0.29527 230 220 222
0.72275 -0.72358 -0.29197 230 218 220
0.72747 -0.72590 -0.28867 230 218 217
0.73220 -0.72822 -0.28538 229 218 216
0.73691 -0.73053 -0.28209 229 220 219
0.74162 -0.73284 -0.27880 228 219 217
0.74633 -0.73515 -0.27551 227 217 216
0.75104 -0.73746 -0.27223 227 216 215
0.75573 -0.73977 -0.26895 226 214 215
0.76043 -0.74207 -0.26568 226 213 214
0.76512 -0.74437 -0.26240 226 212 215
0.76980 -0.74667 -0.25913 225 214 215
0.77448 -0.74897 -0.25587 225 214 214
0.77916 -0.75126 -0.25261 224 213 213
0.78383 -0.75355 -0.24935 225 213 214
0.78850 -0.75584 -0.24609 225 214 216
0.79316 -0.75813 -0.24284 224 213 214
0.79782 -0.76042 -0.23958 224 212 212
0.80247 -0.76270 -0.23634 224 211 209
0.80712 -0.76498 -0.23309 223 210 208
0.81177 -0.76726 -0.22985 224 211 211
0.81641 -0.76954 -0.22661 224 211 211
0.82105 -0.77182 -0.22338 223 210 210
0.82568 -0.77409 -0.22015 221 210 209
0.83031 -0.77636 -0.21692 222 209 208
0.83493 -0.77863 -0.21369 222 208 204
0.83955 -0.78089 -0.21047 222 208 208
0.84416 -0.78316 -0.20725 220 205 209
0.84877 -0.78542 -0.20403 221 206 205
0.85338 -0.78768 -0.20082 221 205 203
0.85798 -0.78994 -0.19761 221 204 202
0.65437 -0.69791 -0.33172 234 224 221
0.65914 -0.70025 -0.32839 233 224 222
0.66391 -0.70259 -0.32507 233 224 222
0.66868 -0.70492 -0.32174 232 224 222
0.67344 -0.70726 -0.31843 232 223 222
0.67820 -0.70959 -0.31511 233 222 221
0.68295 -0.71191 -0.31180 233 221 219
0.68770 -0.71424 -0.30849 232 220 218
0.69244 -0.71656 -0.30518 231 219 217
0.69718 -0.71889 -0.30188 231 220 215
0.70191 -0.72120 -0.29858 230 219 214
0.70664 -0.72352 -0.29529 229 219 215
0.71137 -0.72584 -0.29199 228 217 217
0.71609 -0.72815 -0.28870 229 215 216
0.72080 -0.73046 -0.28542 228 215 215
0.72551 -0.73277 -0.28213 228 216 215
0.73022 -0.73507 -0.27885 227 217 215
0.73492 -0.73738 -0.27557 227 217 215
0.73962 -0.73968 -0.27230 227 216 215
0.74431 -0.74198 -0.26903 227 215 214
0.74900 -0.74427 -0.26576 226 213 214
0.75369 -0.74657 -0.26250 226 213 213
0.75837 -0.74886 -0.25924 226 212 214
0.76304 -0.75115 -0.25598 225 213 214
0.76771 -0.75344 -0.25272 225 212 211
0.77238 -0.75573 -0.24947 225 212 210
0.77704 -0.75801 -0.24622 225 212 213
0.78170 -0.76029 -0.24297 223 212 214
0.78635 -0.76257 -0.23973 223 211 213
0.79100 -0.76485 -0.23649 223 210 211
0.79564 -0.76712 -0.23325 223 211 209
0.80028 -0.76940 -0.23002 223 211 208
0.80492 -0.77167 -0.22679 224 210 210
0.80955 -0.77393 -0.22356 223 211 211
0.81417 -0.77620 -0.22034 223 209 209
0.81880 -0.77847 -0.21712 222 210 209
0.82341 -0.78073 -0.21390 223 208 208
0.82803 -0.78299 -0.21068 222 208 207
0.83264 -0.78525 -0.20747 221 208 209
0.83724 -0.78750 -0.20426 220 207 208
0.84184 -0.78975 -0.20106 221 205 205
0.84644 -0.79201 -0.19785 221 202 202
0.85103 -0.79426 -0.19465 221 202 198
0.65264 -0.70490 -0.32501 233 223 221
0.65740 -0.70723 -0.32170 232 222 218
0.66216 -0.70955 -0.31839 232 223 220
0.66691 -0.71188 -0.31508 232 222 220
0.67165 -0.71420 -0.31178 231 221 219
0.67640 -0.71652 -0.30847 231 220 218
0.68113 -0.71883 -0.30518 230 219 218
0.68587 -0.72115 -0.30188 230 218 215
0.69059 -0.72346 -0.29859 230 218 213
0.69532 -0.72577 -0.29530 230 217 211
0.70004 -0.72808 -0.29202 228 216 212
0.70475 -0.73039 -0.28873 228 216 215
0.70946 -0.73269 -0.28545 228 215 213
0.71417 -0.73499 -0.28218 228 215 214
0.71887 -0.73729 -0.27891 228 215 214
0.72356 -0.73959 -0.27564 227 215 214
0.72826 -0.74188 -0.27237 227 217 218
0.73294 -0.74418 -0.26911 228 218 218
0.73763 -0.74647 -0.26585 228 216 216
0.74231 -0.74875 -0.26259 227 215 214
0.74698 -0.75104 -0.25934 227 214 211
0.75165 -0.75332 -0.25608 226 213 213
0.75632 -0.75561 -0.25284 226 212 213
0.76098 -0.75789 -0.24959 225 213 210
0.76563 -0.76016 -0.24635 225 212 209
0.77028 -0.76244 -0.24311 224 212 212
0.77493 -0.76471 -0.23988 222 211 212
0.77957 -0.76698 -0.23664 223 212 212
0.78421 -0.76925 -0.23341 225 212 212
0.78885 -0.77152 -0.23019 225 213 209
0.79348 -0.77378 -0.22697 225 212 208
0.79810 -0.77604 -0.22375 225 212 211
0.80272 -0.77830 -0.22053 223 212 211
0.80734 -0.78056 -0.21731 223 210 208
0.81195 -0.78282 -0.21410 222 209 206
0.81656 -0.78507 -0.21090 222 208 209
0.82116 -0.78732 -0.20769 222 209 208
0.82576 -0.78957 -0.20449 222 209 211
0.83036 -0.79182 -0.20129 222 209 209
0.83495 -0.79407 -0.19809 222 206 206
0.83953 -0.79631 -0.19490 221 204 204
0.84412 -0.79855 -0.19171 221 203 202
0.65093 -0.71184 -0.31835 235 224 219
0.65567 -0.71416 -0.31505 233 223 219
0.66041 -0.71647 -0.31175 232 222 219
0.66515 -0.71878 -0.30846 231 221 218
0.66988 -0.72109 -0.30517 231 220 218
0.67461 -0.72340 -0.30188 231 220 217
0.67933 -0.72571 -0.29860 230 218 213
0.68405 -0.72801 -0.29532 230 217 213
0.68876 -0.73031 -0.29204 230 218 215
0.69347 -0.73261 -0.28876 229 218 215
0.69818 -0.73491 -0.28549 228 217 217
0.70287 -0.73721 -0.28223 228 216 216
0.70757 -0.73950 -0.27896 228 217 215
0.71226 -0.74179 -0.27570 228 217 216
0.71695 -0.74408 -0.27244 228 217 217
0.72163 -0.74636 -0.26918 228 218 218
0.72631 -0.74865 -0.26593 228 218 220
0.73098 -0.75093 -0.26268 227 217 217
0.73565 -0.75321 -0.25943 227 215 213
0.74031 -0.75549 -0.25619 227 214 211
0.74497 -0.75776 -0.25295 226 214 213
0.74963 -0.76004 -0.24971 226 213 214
0.75428 -0.76231 -0.24648 225 213 212
0.75892 -0.76458 -0.24325 225 213 211
0.76357 -0.76684 -0.24002 224 212 211
0.76820 -0.76911 -0.23680 223 213 211
0.77284 -0.77137 -0.23357 224 214 213
0.77747 -0.77363 -0.23036 226 214 214
0.78209 -0.77589 -0.22714 225 214 212
0.78671 -0.77814 -0.22393 224 213 209
0.79133 -0.78040 -0.22072 225 212 213
0.79594 -0.78265 -0.21751 224 212 210
0.80054 -0.78490 -0.21431 223 210 208
0.80515 -0.78715 -0.21111 221 209 206
0.80975 -0.78939 -0.20791 221 210 210
0.81434 -0.79164 -0.20472 222 211 208
0.81893 -0.79388 -0.20152 224 212 211
0.82351 -0.79612 -0.19834 223 211 210
0.82809 -0.79835 -0.19515 223 210 208
0.83267 -0.80059 -0.19197 222 209 206
0.83724 -0.80282 -0.18879 223 208 206
0.64923 -0.71873 -0.31173 234 225 220
0.65396 -0.72104 -0.30844 233 223 221
0.65868 -0.72334 -0.30516 233 222 219
0.66340 -0.72565 -0.30188 232 221 217
0.66812 -0.72794 -0.29860 231 220 215
0.67283 -0.73024 -0.29533 231 218 213
0.67754 -0.73254 -0.29206 231 218 214
0.68224 -0.73483 -0.28880 230 219 217
0.68694 -0.73712 -0.28553 229 219 218
0.69164 -0.73941 -0.28227 228 218 218
0.69633 -0.74170 -0.27901 228 216 217
0.70101 -0.74398 -0.27576 228 217 215
0.70569 -0.74626 -0.27251 228 218 216
0.71037 -0.74854 -0.26926 228 218 216
0.71504 -0.75082 -0.26601 228 218 216
0.71971 -0.75310 -0.26277 227 218 218
0.72437 -0.75537 -0.25953 227 218 218
0.72903 -0.75764 -0.25630 227 217 216
0.73368 -0.75991 -0.25307 227 215 215
0.73833 -0.76218 -0.24984 227 215 215
0.74298 -0.76444 -0.24661 228 215 215
0.74762 -0.76670 -0.24339 226 213 215
0.75226 -0.76896 -0.24017 225 214 214
0.75689 -0.77122 -0.23695 224 213 213
0.76151 -0.77348 -0.23373 225 214 214
0.76614 -0.77573 -0.23052 226 215 216
0.77076 -0.77798 -0.22731 225 215 214
0.77537 -0.78023 -0.22411 225 213 215
0.77998 -0.78248 -0.22091 224 212 212
0.78459 -0.78473 -0.21771 224 213 213
0.78919 -0.78697 -0.21451 224 213 211
0.79379 -0.78921 -0.21132 223 210 210
0.79838 -0.79145 -0.20813 222 210 210
0.80297 -0.79369 -0.20494 222 211 213
0.80755 -0.79592 -0.20176 223 212 211
0.81213 -0.79816 -0.19858 225 213 212
0.81671 -0.80039 -0.19540 224 212 211
0.82128 -0.80262 -0.19222 223 211 211
0.82585 -0.80484 -0.18905 221 209 209
0.83041 -0.80707 -0.18588 224 210 208
0.65225 -0.72788 -0.30188 233 222 218
0.65696 -0.73017 -0.29861 231 221 216
0.66167 -0.73246 -0.29535 230 219 212
0.66637 -0.73475 -0.29209 230 218 211
0.67107 -0.73704 -0.28883 231 219 214
0.67576 -0.73932 -0.28557 232 220 215
0.68045 -0.74160 -0.28232 230 219 217
0.68513 -0.74388 -0.27907 229 217 217
0.68981 -0.74616 -0.27582 228 217 216
0.69449 -0.74844 -0.27258 228 217 213
0.69916 -0.75071 -0.26934 228 218 214
0.70382 -0.75298 -0.26610 229 219 216
0.70849 -0.75525 -0.26286 228 218 215
0.71314 -0.75752 -0.25963 228 219 219
0.71780 -0.75978 -0.25640 228 220 219
0.72245 -0.76205 -0.25318 227 218 218
0.72709 -0.76431 -0.24996 227 218 217
0.73173 -0.76656 -0.24674 227 218 217
0.73636 -0.76882 -0.24352 227 217 216
0.74100 -0.77107 -0.24031 226 215 216
0.74562 -0.77333 -0.23710 226 215 217
0.75025 -0.77558 -0.23389 226 214 217
0.75486 -0.77782 -0.23069 226 214 216
0.75948 -0.78007 -0.22749 226 215 216
0.76409 -0.78231 -0.22429 225 215 214
0.76869 -0.78456 -0.22109 226 214 215
0.77329 -0.78679 -0.21790 225 214 215
0.77789 -0.78903 -0.21471 225 215 215
0.78248 -0.79127 -0.21153 225 213 214
0.78707 -0.79350 -0.20834 224 213 213
0.79165 -0.79573 -0.20516 224 212 212
0.79623 -0.79796 -0.20199 224 211 213
0.80080 -0.80019 -0.19881 224 212 213
0.80537 -0.80241 -0.19564 225 212 212
0.80994 -0.80463 -0.19248 224 211 210
0.81450 -0.80685 -0.18931 222 211 212
0.81906 -0.80907 -0.18615 219 208 209
0.82361 -0.81129 -0.18299 222 207 208
0.64586 -0.73239 -0.29862 233 222 218
0.65056 -0.73467 -0.29536 231 221 217
0.65525 -0.73695 -0.29211 230 219 215
0.65994 -0.73923 -0.28886 231 220 214
0.66463 -0.74151 -0.28561 232 221 216
0.66931 -0.74379 -0.28236 233 221 218
0.67399 -0.74606 -0.27912 232 220 218
0.67867 -0.74833 -0.27588 231 219 218
0.68334 -0.75060 -0.27265 229 219 217
0.68800 -0.75287 -0.26941 229 219 216
0.69266 -0.75513 -0.26618 230 220 218
0.69732 -0.75740 -0.26296 230 220 219
0.70197 -0.75966 -0.25973 229 219 217
0.70662 -0.76192 -0.25651 228 221 219
0.71126 -0.76417 -0.25329 229 221 219
0.71590 -0.76643 -0.25008 228 220 217
0.72053 -0.76868 -0.24687 228 219 215
0.72516 -0.77093 -0.24366 228 218 217
0.72979 -0.77318 -0.24045 227 217 216
0.73441 -0.77542 -0.23725 227 216 216
0.73903 -0.77767 -0.23405 227 215 219
0.74364 -0.77991 -0.23085 227 214 219
0.74825 -0.78215 -0.22766 225 214 215
0.75285 -0.78438 -0.22447 223 213 217
0.75745 -0.78662 -0.22128 224 215 215
0.76205 -0.78885 -0.21810 224 215 216
0.76664 -0.79108 -0.21491 225 216 215
0.77122 -0.79331 -0.21174 226 216 217
0.77581 -0.79554 -0.20856 226 215 218
0.78038 -0.79776 -0.20539 226 216 214
0.78496 -0.79999 -0.20222 225 213 212
0.78953 -0.80221 -0.19905 226 214 214
0.79409 -0.80443 -0.19589 224 213 215
0.79865 -0.80664 -0.19273 225 213 212
0.80321 -0.80886 -0.18957 224 212 208
0.80776 -0.81107 -0.18641 222 211 209
0.81231 -0.81328 -0.18326 221 208 207
0.81685 -0.81549 -0.18011 222 208 208
0.63950 -0.73687 -0.29538 233 224 222
0.64419 -0.73914 -0.29213 233 223 222
0.64887 -0.74142 -0.28889 232 221 221
0.65355 -0.74369 -0.28565 232 223 220
0.65823 -0.74596 -0.28241 233 224 221
0.66290 -0.74823 -0.27917 232 223 221
0.66757 -0.75049 -0.27594 232 221 221
0.67224 -0.75275 -0.27271 231 221 220
0.67690 -0.75502 -0.26949 230 220 219
0.68155 -0.75727 -0.26626 230 220 217
0.68620 -0.75953 -0.26305 230 221 218
0.69085 -0.76179 -0.25983 230 221 220
0.69549 -0.76404 -0.25662 230 221 219
0.70013 -0.76629 -0.25341 228 221 220
0.70476 -0.76854 -0.25020 228 221 221
0.70939 -0.77078 -0.24699 229 221 220
0.71401 -0.77303 -0.24379 228 219 217
0.71863 -0.77527 -0.24059 229 218 217
0.72325 -0.77751 -0.23740 228 219 217
0.72786 -0.77975 -0.23421 227 218 217
0.73247 -0.78198 -0.23102 227 216 217
0.73707 -0.78421 -0.22783 227 215 215
0.74167 -0.78645 -0.22465 225 214 213
0.74626 -0.78867 -0.22147 223 211 215
0.75085 -0.79090 -0.21829 223 214 215
0.75544 -0.79313 -0.21512 224 215 216
0.76002 -0.79535 -0.21194 223 214 212
0.76460 -0.79757 -0.20878 225 216 217
0.76917 -0.79979 -0.20561 227 218 218
0.77374 -0.80201 -0.20245 227 216 217
0.77830 -0.80422 -0.19929 227 215 215
0.78286 -0.80643 -0.19613 227 216 217
0.78742 -0.80864 -0.19298 225 216 217
0.79197 -0.81085 -0.18983 226 216 217
0.79652 -0.81306 -0.18668 226 217 213
0.80106 -0.81526 -0.18353 226 215 213
0.80560 -0.81746 -0.18039 225 213 212
0.81013 -0.81967 -0.17725 225 213 212
0.63785 -0.74359 -0.28892 234 227 225
0.64253 -0.74586 -0.28568 233 224 223
0.64720 -0.74812 -0.28245 232 224 224
0.65187 -0.75038 -0.27923 232 224 224
0.65653 -0.75264 -0.27600 232 224 223
0.66119 -0.75490 -0.27278 232 222 222
0.66584 -0.75715 -0.26956 231 221 221
0.67049 -0.75941 -0.26635 230 221 219
0.67514 -0.76166 -0.26314 230 220 217
0.67978 -0.76391 -0.25993 230 220 217
0.68441 -0.76615 -0.25672 230 220 219
0.68905 -0.76840 -0.25352 230 221 219
0.69367 -0.77064 -0.25032 228 221 220
0.69830 -0.77288 -0.24712 229 221 220
0.70292 -0.77511 -0.24393 229 220 220
0.70753 -0.77735 -0.24074 228 219 219
0.71214 -0.77958 -0.23755 228 219 220
0.71675 -0.78182 -0.23436 228 220 220
0.72135 -0.78404 -0.23118 228 220 219
0.72595 -0.78627 -0.22800 227 218 219
0.73054 -0.78850 -0.22483 228 218 216
0.73513 -0.79072 -0.22165 228 217 216
0.73971 -0.79294 -0.21848 227 217 218
0.74429 -0.79516 -0.21531 226 217 217
0.74887 -0.79738 -0.21215 226 218 219
0.75344 -0.79959 -0.20899 225 219 216
0.75801 -0.80180 -0.20583 227 219 219
0.76257 -0.80402 -0.20268 228 220 220
0.76713 -0.80622 -0.19952 228 219 221
0.77168 -0.80843 -0.19637 228 218 220
0.77623 -0.81063 -0.19323 228 218 221
0.78078 -0.81284 -0.19008 226 217 219
0.78532 -0.81504 -0.18694 226 217 219
0.78986 -0.81724 -0.18381 226 217 215
0.79439 -0.81943 -0.18067 226 216 215
0.79892 -0.82163 -0.17754 226 216 215
0.80345 -0.82382 -0.17441 225 216 212
0.63155 -0.74802 -0.28572 233 226 224
0.63622 -0.75028 -0.28250 231 223 222
0.64088 -0.75253 -0.27928 230 222 221
0.64554 -0.75478 -0.27606 231 221 219
0.65019 -0.75703 -0.27285 232 222 221
0.65484 -0.75928 -0.26964 232 222 221
0.65948 -0.76153 -0.26643 231 222 221
0.66412 -0.76377 -0.26322 230 221 218
0.66876 -0.76601 -0.26002 230 220 217
0.67339 -0.76825 -0.25682 230 220 217
0.67802 -0.77049 -0.25363 231 221 220
0.68264 -0.77273 -0.25044 231 223 221
0.68726 -0.77496 -0.24725 231 222 221
0.69187 -0.77719 -0.24406 231 222 220
0.69648 -0.77942 -0.24088 231 223 221
0.70108 -0.78165 -0.23770 230 222 222
0.70568 -0.78388 -0.23452 230 222 222
0.71028 -0.78610 -0.23134 229 222 222
0.71487 -0.78832 -0.22817 229 222 222
0.71946 -0.79054 -0.22500 228 222 223
0.72404 -0.79276 -0.22184 229 221 218
0.72862 -0.79497 -0.21867 230 220 219
0.73320 -0.79718 -0.21551 229 220 222
0.73777 -0.79940 -0.21236 228 221 220
0.74233 -0.80160 -0.20920 229 220 223
0.74690 -0.80381 -0.20605 228 222 220
0.75145 -0.80602 -0.20290 228 221 221
0.75601 -0.80822 -0.19976 228 220 221
0.76056 -0.81042 -0.19662 227 220 222
0.76510 -0.81262 -0.19348 226 218 217
0.76964 -0.81481 -0.19034 226 216 218
0.77418 -0.81701 -0.18721 225 215 216
0.77871 -0.81920 -0.18408 223 214 214
0.78324 -0.82139 -0.18095 224 214 212
0.78776 -0.82358 -0.17782 224 213 210
0.79228 -0.82576 -0.17470 223 214 210
0.79680 -0.82795 -0.17158 222 211 209
0.62529 -0.75242 -0.28254 234 226 222
0.62995 -0.75467 -0.27933 233 225 224
0.63460 -0.75691 -0.27612 233 223 223
0.63924 -0.75916 -0.27292 233 223 220
0.64389 -0.76140 -0.26971 233 224 221
0.64853 -0.76364 -0.26651 233 225 222
0.65316 -0.76588 -0.26331 232 224 222
0.65779 -0.76811 -0.26012 232 222 220
0.66241 -0.77035 -0.25693 231 222 219
0.66704 -0.77258 -0.25374 231 223 220
0.67165 -0.77481 -0.25055 233 223 220
0.67627 -0.77704 -0.24737 233 223 222
0.68087 -0.77926 -0.24419 231 223 221
0.68548 -0.78149 -0.24102 230 222 219
0.69008 -0.78371 -0.23784 230 223 222
0.69467 -0.78593 -0.23467 231 223 223
0.69926 -0.78814 -0.23150 230 222 220
0.70385 -0.79036 -0.22834 229 221 219
0.70843 -0.79257 -0.22518 228 221 220
0.71301 -0.79478 -0.22202 227 220 221
0.71758 -0.79699 -0.21886 228 219 218
0.72215 -0.79920 -0.21571 228 220 217
0.72672 -0.80140 -0.21256 227 219 217
0.73128 -0.80361 -0.20941 226 219 216
0.73584 -0.80581 -0.20627 227 218 217
0.74039 -0.80801 -0.20313 225 217 216
0.74494 -0.81020 -0.19999 224 218 217
0.74948 -0.81240 -0.19686 224 217 216
0.75402 -0.81459 -0.19372 224 215 215
0.75856 -0.81678 -0.19059 224 213 211
0.76309 -0.81897 -0.18747 223 212 214
0.76762 -0.82116 -0.18434 225 211 211
0.77214 -0.82334 -0.18122 221 209 210
0.77666 -0.82552 -0.17811 222 209 207
0.78117 -0.82770 -0.17499 222 207 207
0.78568 -0.82988 -0.17188 221 207 208
0.79019 -0.83206 -0.16877 220 206 206
0.62371 -0.75903 -0.27618 235 228 223
0.62835 -0.76127 -0.27298 234 225 222
0.63299 -0.76351 -0.26979 233 225 221
0.63762 -0.76574 -0.26659 233 225 222
0.64225 -0.76797 -0.26340 233 225 223
0.64687 -0.77020 -0.26022 233 225 223
0.65149 -0.77243 -0.25703 232 223 222
0.65611 -0.77466 -0.25385 231 223 222
0.66072 -0.77688 -0.25067 231 223 220
0.66532 -0.77910 -0.24750 233 221 218
0.66993 -0.78132 -0.24433 231 221 220
0.67453 -0.78354 -0.24116 230 220 218
0.67912 -0.78575 -0.23799 229 220 216
0.68371 -0.78797 -0.23483 228 220 219
0.68830 -0.79018 -0.23167 229 220 218
0.69288 -0.79239 -0.22851 228 219 215
0.69745 -0.79460 -0.22535 227 217 216
0.70203 -0.79680 -0.22220 227 218 217
0.70659 -0.79900 -0.21905 225 215 218
0.71116 -0.80120 -0.21591 225 216 215
0.71572 -0.80340 -0.21277 225 215 213
0.72027 -0.80560 -0.20963 225 213 212
0.72483 -0.80779 -0.20649 224 211 212
0.72937 -0.80999 -0.20335 222 210 211
0.73392 -0.81218 -0.20022 221 209 210
0.73846 -0.81437 -0.19710 222 212 211
0.74299 -0.81655 -0.19397 221 211 212
0.74752 -0.81874 -0.19085 222 211 211
0.75205 -0.82092 -0.18773 220 209 208
0.75657 -0.82310 -0.18461 221 211 210
0.76109 -0.82528 -0.18150 224 209 207
0.76560 -0.82746 -0.17839 221 207 204
0.77011 -0.82963 -0.17528 222 207 204
0.77461 -0.83180 -0.17217 222 205 202
0.77912 -0.83397 -0.16907 223 207 205
0.78361 -0.83614 -0.16597 222 208 203
0.61750 -0.76338 -0.27305 235 227 221
0.62213 -0.76561 -0.26986 233 224 221
0.62676 -0.76784 -0.26667 232 224 221
0.63138 -0.77006 -0.26349 232 224 221
0.63600 -0.77228 -0.26031 231 223 221
0.64062 -0.77451 -0.25713 232 223 220
0.64523 -0.77673 -0.25396 231 221 219
0.64983 -0.77894 -0.25079 230 221 219
0.65443 -0.78116 -0.24762 230 220 217
0.65903 -0.78337 -0.24446 229 219 216
0.66363 -0.78558 -0.24129 228 219 217
0.66821 -0.78779 -0.23814 228 218 213
0.67280 -0.79000 -0.23498 228 218 212
0.67738 -0.79221 -0.23183 227 218 214
0.68195 -0.79441 -0.22868 227 217 213
0.68653 -0.79661 -0.22553 226 215 210
0.69109 -0.79881 -0.22238 226 212 212
0.69566 -0.80101 -0.21924 224 211 214
0.70021 -0.80320 -0.21610 223 212 213
0.70477 -0.80539 -0.21297 224 213 210
0.70932 -0.80758 -0.20984 223 213 210
0.71387 -0.80977 -0.20671 224 211 208
0.71841 -0.81196 -0.20358 223 210 206
0.72295 -0.81415 -0.20045 221 209 207
0.72748 -0.81633 -0.19733 221 210 205
0.73201 -0.81851 -0.19422 222 210 208
0.73653 -0.82069 -0.19110 223 210 210
0.74106 -0.82286 -0.18799 222 210 208
0.74557 -0.82504 -0.18488 218 205 204
0.75008 -0.82721 -0.18177 220 206 209
0.75459 -0.82938 -0.17867 221 206 207
0.75910 -0.83155 -0.17557 219 206 205
0.76360 -0.83372 -0.17247 220 207 205
0.76809 -0.83588 -0.16937 220 207 204
0.77259 -0.83805 -0.16628 221 208 207
0.77707 -0.84021 -0.16319 222 210 208
0.61133 -0.76770 -0.26993 233 223 220
0.61595 -0.76992 -0.26675 232 222 221
0.62057 -0.77214 -0.26358 233 222 220
0.62519 -0.77436 -0.26041 232 223 219
0.62979 -0.77657 -0.25724 231 222 218
0.63440 -0.77879 -0.25407 230 220 217
0.63900 -0.78100 -0.25091 230 219 214
0.64359 -0.78321 -0.24775 229 219 213
0.64819 -0.78541 -0.24459 228 218 213
0.65277 -0.78762 -0.24143 228 218 216
0.65736 -0.78982 -0.23828 227 217 216
0.66194 -0.79202 -0.23513 227 217 215
0.66651 -0.79422 -0.23199 228 218 213
0.67108 -0.79642 -0.22884 226 217 211
0.67565 -0.79861 -0.22570 225 215 211
0.68021 -0.80081 -0.22257 225 214 205
0.68477 -0.80300 -0.21943 225 211 209
0.68932 -0.80519 -0.21630 223 210 210
0.69387 -0.80738 -0.21317 223 210 208
0.69841 -0.80956 -0.21004 223 209 205
0.70296 -0.81174 -0.20692 222 209 209
0.70749 -0.81392 -0.20380 224 210 206
0.71203 -0.81610 -0.20068 223 210 203
0.71655 -0.81828 -0.19757 222 210 209
0.72108 -0.82045 -0.19446 222 211 209
0.72560 -0.82263 -0.19135 223 212 211
0.73011 -0.82480 -0.18825 224 213 213
0.73463 -0.82697 -0.18514 224 214 212
0.73913 -0.82913 -0.18204 223 211 210
0.74364 -0.83130 -0.17895 223 210 212
0.74814 -0.83346 -0.17585 223 210 209
0.75263 -0.83562 -0.17276 222 209 205
0.75712 -0.83778 -0.16967 222 211 207
0.76161 -0.83994 -0.16659 222 210 206
0.76609 -0.84209 -0.16350 222 209 206
0.77057 -0.84425 -0.16042 221 209 203
0.60520 -0.77199 -0.26683 231 221 216
0.60981 -0.77421 -0.26367 230 221 217
0.61442 -0.77642 -0.26050 231 221 217
0.61902 -0.77863 -0.25734 230 222 216
0.62362 -0.78083 -0.25418 230 222 218
0.62821 -0.78304 -0.25102 230 220 217
0.63280 -0.78524 -0.24787 230 218 214
0.63739 -0.78745 -0.24472 229 218 213
0.64197 -0.78964 -0.24157 228 217 214
0.64655 -0.79184 -0.23843 228 217 216
0.65112 -0.79404 -0.23528 228 217 216
0.65569 -0.79623 -0.23215 226 216 215
0.66026 -0.79842 -0.22901 226 214 213
0.66482 -0.80061 -0.22588 225 213 211
0.66938 -0.80280 -0.22275 224 215 213
0.67393 -0.80498 -0.21962 224 214 211
0.67848 -0.80717 -0.21649 223 212 211
0.68302 -0.80935 -0.21337 223 212 211
0.68756 -0.81153 -0.21025 224 212 210
0.69210 -0.81370 -0.20714 224 212 210
0.69663 -0.81588 -0.20402 224 213 214
0.70115 -0.81805 -0.20091 226 213 213
0.70568 -0.82022 -0.19781 225 214 214
0.71020 -0.82239 -0.19470 224 213 213
0.71471 -0.82456 -0.19160 224 213 212
0.71922 -0.82672 -0.18850 224 213 214
0.72373 -0.82889 -0.18541 225 215 215
0.72823 -0.83105 -0.18231 226 219 216
0.73273 -0.83321 -0.17922 224 214 215
0.73722 -0.83537 -0.17614 223 213 218
0.74171 -0.83752 -0.17305 224 212 212
0.74620 -0.83967 -0.16997 223 211 213
0.75068 -0.84182 -0.16689 222 211 209
0.75516 -0.84397 -0.16381 222 210 204
0.75963 -0.84612 -0.16074 221 209 207
0.76410 -0.84827 -0.15767 221 208 206
0.60370 -0.77847 -0.26060 231 223 214
0.60829 -0.78067 -0.25744 231 221 215
0.61289 -0.78287 -0.25429 230 221 214
0.61748 -0.78507 -0.25114 231 222 217
0.62206 -0.78727 -0.24799 231 220 217
0.62664 -0.78947 -0.24485 230 219 215
0.63122 -0.79166 -0.24171 229 218 213
0.63579 -0.79385 -0.23857 228 218 214
0.64036 -0.79604 -0.23544 229 220 217
0.64492 -0.79823 -0.23230 229 219 218
0.64948 -0.80041 -0.22917 229 218 217
0.65404 -0.80260 -0.22605 228 219 218
0.65859 -0.80478 -0.22292 228 219 218
0.66314 -0.80696 -0.21980 226 218 217
0.66768 -0.80914 -0.21669 226 218 217
0.67222 -0.81131 -0.21357 226 217 212
0.67675 -0.81348 -0.21046 225 215 210
0.68128 -0.81566 -0.20735 225 214 209
0.68581 -0.81782 -0.20425 225 214 214
0.69033 -0.81999 -0.20114 225 215 217
0.69485 -0.82216 -0.19804 225 214 214
0.69936 -0.82432 -0.19494 225 216 214
0.70387 -0.82648 -0.19185 226 215 211
0.70838 -0.82864 -0.18876 224 213 212
0.71288 -0.83080 -0.18567 226 214 213
0.71738 -0.83295 -0.18258 225 214 212
0.72187 -0.83511 -0.17950 224 214 211
0.72636 -0.83726 -0.17642 223 211 211
0.73084 -0.83941 -0.17334 222 212 212
0.73532 -0.84156 -0.17027 220 209 206
0.73980 -0.84370 -0.16719 221 211 212
0.74427 -0.84585 -0.16412 224 211 210
0.74874 -0.84799 -0.16106 223 210 208
0.75321 -0.85013 -0.15799 220 210 209
0.75767 -0.85226 -0.15493 221 210 207
0.60221 -0.78491 -0.25440 233 226 220
0.60679 -0.78710 -0.25125 232 226 218
0.61137 -0.78929 -0.24811 233 224 220
0.61594 -0.79148 -0.24498 234 222 218
0.62052 -0.79367 -0.24184 232 222 217
0.62508 -0.79585 -0.23871 231 221 217
0.62965 -0.79804 -0.23559 232 220 215
0.63420 -0.80022 -0.23246 230 221 218
0.63876 -0.80240 -0.22934 230 220 220
0.64331 -0.80458 -0.22622 229 219 219
0.64785 -0.80675 -0.22310 227 219 221
0.65240 -0.80892 -0.21999 226 218 221
0.65693 -0.81110 -0.21688 225 218 217
0.66147 -0.81327 -0.21377 226 217 215
0.66600 -0.81543 -0.21067 226 217 213
0.67052 -0.81760 -0.20756 226 215 211
0.67504 -0.81976 -0.20447 226 214 211
0.67956 -0.82192 -0.20137 225 214 213
0.68407 -0.82408 -0.19828 225 215 215
0.68858 -0.82624 -0.19518 224 212 212
0.69308 -0.82840 -0.19210 224 214 210
0.69758 -0.83055 -0.18901 224 214 207
0.70208 -0.83270 -0.18593 223 213 212
0.70657 -0.83485 -0.18285 226 214 213
0.71106 -0.83700 -0.17977 225 214 212
0.71554 -0.83914 -0.17670 223 213 208
0.72002 -0.84129 -0.17363 223 212 208
0.72450 -0.84343 -0.17056 222 210 208
0.72897 -0.84557 -0.16750 223 209 207
0.73344 -0.84771 -0.16443 223 212 210
0.73790 -0.84984 -0.16137 225 214 210
0.74236 -0.85198 -0.15832 224 212 211
0.74682 -0.85411 -0.15526 221 210 208
0.75127 -0.85624 -0.15221 222 209 209
0.59615 -0.78912 -0.25137 232 224 222
0.60072 -0.79130 -0.24824 232 223 219
0.60529 -0.79348 -0.24511 232 223 218
0.60986 -0.79567 -0.24198 231 221 218
0.61442 -0.79785 -0.23886 229 221 219
0.61898 -0.80002 -0.23574 230 221 219
0.62353 -0.80220 -0.23262 230 220 216
0.62808 -0.80437 -0.22950 229 219 215
0.63263 -0.80654 -0.22639 228 218 217
0.63717 -0.80871 -0.22328 227 218 217
0.64170 -0.81088 -0.22017 226 217 216
0.64623 -0.81305 -0.21707 226 217 217
0.65076 -0.81521 -0.21397 226 217 216
0.65529 -0.81737 -0.21087 226 217 215
0.65981 -0.81953 -0.20778 225 218 217
0.66432 -0.82169 -0.20468 224 216 214
0.66883 -0.82385 -0.20160 224 214 212
0.67334 -0.82600 -0.19851 224 214 214
0.67784 -0.82815 -0.19542 225 215 214
0.68234 -0.83030 -0.19234 224 214 210
0.68684 -0.83245 -0.18927 225 214 211
0.69133 -0.83460 -0.18619 224 213 209
0.69582 -0.83674 -0.18312 223 212 213
0.70030 -0.83888 -0.18005 223 214 216
0.70478 -0.84102 -0.17698 224 213 212
0.70925 -0.84316 -0.17392 223 213 208
0.71372 -0.84530 -0.17085 223 211 203
0.71819 -0.84743 -0.16780 222 211 208
0.72265 -0.84956 -0.16474 220 211 210
0.72711 -0.85169 -0.16169 220 211 212
0.73156 -0.85382 -0.15864 222 211 209
0.73601 -0.85595 -0.15559 220 209 209
0.74046 -0.85807 -0.15254 220 206 206
0.74490 -0.86020 -0.14950 219 205 205
0.58556 -0.79112 -0.25148 231 224 220
0.59013 -0.79330 -0.24836 231 223 219
0.59469 -0.79548 -0.24523 230 221 217
0.59925 -0.79766 -0.24212 231 222 216
0.60381 -0.79983 -0.23900 230 221 216
0.60836 -0.80200 -0.23588 227 217 219
0.61291 -0.80417 -0.23277 227 219 218
0.61745 -0.80634 -0.22967 228 219 217
0.62199 -0.80850 -0.22656 228 219 218
0.62653 -0.81067 -0.22346 227 220 218
0.63106 -0.81283 -0.22036 226 217 215
0.63558 -0.81499 -0.21726 226 216 215
0.64011 -0.81715 -0.21417 227 216 216
0.64463 -0.81930 -0.21108 227 217 216
0.64914 -0.82146 -0.20799 226 217 217
0.65365 -0.82361 -0.20490 225 217 219
0.65816 -0.82576 -0.20182 223 215 213
0.66266 -0.82791 -0.19874 224 212 210
0.66716 -0.83005 -0.19566 224 212 211
0.67165 -0.83220 -0.19259 223 213 213
0.67614 -0.83434 -0.18952 222 213 212
0.68063 -0.83648 -0.18645 224 214 213
0.68511 -0.83862 -0.18338 223 212 211
0.68959 -0.84076 -0.18032 224 212 211
0.69406 -0.84289 -0.17726 221 212 214
0.69853 -0.84502 -0.17420 224 213 212
0.70299 -0.84715 -0.17115 224 211 206
0.70746 -0.84928 -0.16810 223 210 199
0.71191 -0.85141 -0.16505 223 210 207
0.71637 -0.85353 -0.16200 219 209 209
0.72082 -0.85566 -0.15896 220 209 207
0.72526 -0.85778 -0.15592 221 208 203
0.72970 -0.85990 -0.15288 219 205 208
0.73414 -0.86201 -0.14984 219 207 207
0.73857 -0.86413 -0.14681 219 208 205
0.37001 -0.69545 -0.39169 245 239 235
0.37476 -0.69771 -0.38844 244 240 236
0.37951 -0.69998 -0.38520 244 239 235
0.38426 -0.70224 -0.38196 243 238 234
0.38900 -0.70449 -0.37872 243 237 233
0.39373 -0.70675 -0.37548 244 239 235
