ply
format ascii 1.0
element face 0
property list uchar int vertex_indices
element vertex 1227
property float x
property float y
property float z
property uchar diffuse_red
property uchar diffuse_green
property uchar diffuse_blue
end_header
-5.31832 -4.76307 -0.10566 184 192 204
-5.33211 -4.76887 -0.10310 191 204 211
-5.34590 -4.77468 -0.10054 197 207 210
-5.35970 -4.78050 -0.09798 192 199 205
-5.37350 -4.78631 -0.09542 190 194 202
-5.38731 -4.79213 -0.09286 196 198 206
-5.40111 -4.79794 -0.09030 200 199 206
-5.41493 -4.80376 -0.08773 203 205 213
-5.42874 -4.80958 -0.08517 195 198 215
-5.44256 -4.81540 -0.08260 201 210 216
-5.45639 -4.82123 -0.08004 202 211 219
-5.47021 -4.82705 -0.07747 204 211 214
-5.48404 -4.83288 -0.07490 207 208 205
-5.49788 -4.83870 -0.07234 200 199 200
-5.51172 -4.84453 -0.06977 198 201 203
-5.52556 -4.85036 -0.06720 191 194 199
-5.53940 -4.85620 -0.06463 191 200 207
-5.55325 -4.86203 -0.06206 194 205 212
-5.56710 -4.86787 -0.05949 195 204 205
-5.58096 -4.87370 -0.05692 195 202 202
-5.59482 -4.87954 -0.05434 189 196 201
-5.71973 -4.93216 -0.03116 189 198 207
-5.73363 -4.93802 -0.02858 205 208 214
-5.74753 -4.94387 -0.02600 203 207 220
-5.76144 -4.94973 -0.02342 203 203 219
-5.77535 -4.95559 -0.02084 211 206 219
-5.78926 -4.96145 -0.01826 207 203 213
-5.80318 -4.96731 -0.01567 199 200 208
-5.81710 -4.97318 -0.01309 202 209 217
-5.83102 -4.97904 -0.01051 196 206 208
-5.84495 -4.98491 -0.00792 190 203 200
-5.85888 -4.99078 -0.00533 193 199 200
-5.87282 -4.99665 -0.00275 196 198 205
-5.88676 -5.00252 -0.00016 199 204 206
-5.90070 -5.00839 0.00243 193 198 210
-5.91465 -5.01427 0.00502 194 203 209
-5.92860 -5.02015 0.00760 180 196 206
-5.94255 -5.02602 0.01019 185 201 208
-5.95651 -5.03190 0.01279 174 179 199
-5.97047 -5.03779 0.01538 180 184 205
-5.98444 -5.04367 0.01797 193 207 226
-5.99841 -5.04955 0.02056 193 194 207
-6.01238 -5.05544 0.02315 194 192 200
-6.02636 -5.06133 0.02575 190 190 202
-6.04034 -5.06722 0.02834 178 182 200
-6.05432 -5.07311 0.03094 179 190 207
-6.06831 -5.07900 0.03354 179 186 204
-6.08230 -5.08490 0.03613 186 192 201
-6.09630 -5.09079 0.03873 187 188 199
-6.11030 -5.09669 0.04133 192 203 201
-6.12430 -5.10259 0.04393 208 217 216
-6.13831 -5.10849 0.04653 173 167 201
-6.15232 -5.11439 0.04913 171 176 194
-6.16634 -5.12029 0.05173 182 191 189
-6.18035 -5.12620 0.05433 183 187 199
-6.19438 -5.13211 0.05693 188 190 200
-6.20840 -5.13802 0.05954 191 201 211
-6.22243 -5.14393 0.06214 195 206 212
-6.23647 -5.14984 0.06475 191 196 197
-6.25050 -5.15575 0.06735 177 181 187
-6.26455 -5.16167 0.06996 184 187 194
-6.27859 -5.16758 0.07256 198 199 207
-6.29264 -5.17350 0.07517 199 202 208
-6.30669 -5.17942 0.07778 196 198 196
-2.65707 -3.62843 -0.61249 191 181 181
-2.67011 -3.63393 -0.61007 194 176 175
-2.68316 -3.63942 -0.60765 198 188 181
-2.69621 -3.64491 -0.60523 166 156 165
-2.70926 -3.65041 -0.60281 171 159 154
-2.72231 -3.65591 -0.60039 189 177 169
-2.73537 -3.66141 -0.59797 197 185 181
-2.74843 -3.66691 -0.59554 191 181 168
-2.76150 -3.67241 -0.59312 187 164 150
-2.77457 -3.67791 -0.59070 186 165 156
-2.78764 -3.68342 -0.58827 185 173 176
-2.80072 -3.68892 -0.58585 192 178 179
-2.81379 -3.69443 -0.58342 194 194 191
-2.82688 -3.69994 -0.58100 197 194 186
-2.83996 -3.70545 -0.57857 190 181 178
-2.85305 -3.71096 -0.57614 191 183 173
-2.86614 -3.71648 -0.57371 185 186 176
-2.87924 -3.72199 -0.57128 191 181 175
-2.89234 -3.72751 -0.56885 195 189 182
-2.90544 -3.73303 -0.56642 189 181 173
-2.91855 -3.73855 -0.56399 183 182 174
-2.93166 -3.74407 -0.56156 185 181 177
-2.94477 -3.74959 -0.55913 187 177 170
-2.95789 -3.75511 -0.55670 182 171 159
-2.97101 -3.76064 -0.55426 185 177 166
-2.98413 -3.76616 -0.55183 200 193 171
-2.99726 -3.77169 -0.54939 211 201 180
-3.01039 -3.77722 -0.54696 205 194 182
-3.02352 -3.78275 -0.54452 194 185 178
-3.03666 -3.78828 -0.54209 189 175 164
-3.04980 -3.79382 -0.53965 181 183 170
-3.06294 -3.79935 -0.53721 170 177 168
-3.07609 -3.80489 -0.53477 176 172 169
-3.08924 -3.81043 -0.53233 190 188 182
-3.10240 -3.81597 -0.52989 197 185 182
-3.11555 -3.82151 -0.52745 196 185 178
-3.12872 -3.82705 -0.52501 199 184 172
-3.14188 -3.83259 -0.52257 181 173 170
-3.15505 -3.83814 -0.52013 182 174 172
-3.16822 -3.84369 -0.51769 175 170 182
-3.18140 -3.84923 -0.51524 167 169 179
-3.19457 -3.85478 -0.51280 169 168 173
-3.20776 -3.86034 -0.51035 170 150 164
-3.22094 -3.86589 -0.50791 175 163 161
-3.23413 -3.87144 -0.50546 175 168 164
-3.24732 -3.87700 -0.50302 170 167 162
-3.26052 -3.88256 -0.50057 169 170 163
-3.27372 -3.88811 -0.49812 170 170 163
-3.28692 -3.89367 -0.49567 177 176 165
-3.30013 -3.89924 -0.49322 180 168 168
-3.31334 -3.90480 -0.49077 176 160 164
-3.32655 -3.91036 -0.48832 179 170 162
-3.33977 -3.91593 -0.48587 178 169 159
-3.35299 -3.92149 -0.48342 169 159 154
-3.36621 -3.92706 -0.48096 171 167 159
-3.37944 -3.93263 -0.47851 181 178 164
-3.39267 -3.93821 -0.47606 186 186 169
-3.40590 -3.94378 -0.47360 185 187 175
-3.41914 -3.94935 -0.47115 176 177 172
-3.43238 -3.95493 -0.46869 166 165 166
-3.44562 -3.96051 -0.46624 164 152 155
-3.45887 -3.96609 -0.46378 171 169 177
-3.47212 -3.97167 -0.46132 184 186 193
-3.48538 -3.97725 -0.45886 185 182 182
-3.49864 -3.98283 -0.45640 173 167 169
-3.51190 -3.98842 -0.45394 173 175 175
-3.52516 -3.99400 -0.45148 173 175 175
-3.53843 -3.99959 -0.44902 167 165 155
-3.59154 -4.02196 -0.43917 175 176 179
-3.60483 -4.02755 -0.43671 177 175 171
-3.61812 -4.03315 -0.43424 173 173 169
-3.63141 -4.03875 -0.43178 171 170 167
-3.64471 -4.04434 -0.42931 176 174 173
-3.65801 -4.04995 -0.42684 177 176 173
-3.67131 -4.05555 -0.42438 173 171 176
-3.68462 -4.06115 -0.42191 184 183 177
-3.77787 -4.10042 -0.40461 178 172 179
-3.79121 -4.10604 -0.40214 179 175 186
-3.80455 -4.11165 -0.39967 187 190 192
-3.81789 -4.11727 -0.39719 190 194 189
-3.83123 -4.12289 -0.39472 185 194 188
-3.84458 -4.12852 -0.39224 186 193 191
-3.85794 -4.13414 -0.38976 200 206 196
-3.87129 -4.13976 -0.38729 203 207 202
-3.88465 -4.14539 -0.38481 196 197 203
-3.89802 -4.15102 -0.38233 198 204 208
-3.91139 -4.15665 -0.37985 195 200 203
-3.92476 -4.16228 -0.37737 187 189 194
-3.93813 -4.16791 -0.37489 185 191 200
-3.95151 -4.17354 -0.37241 183 187 198
-3.96489 -4.17918 -0.36993 191 200 202
-3.97827 -4.18481 -0.36744 193 196 200
-3.99166 -4.19045 -0.36496 189 194 195
-4.00505 -4.19609 -0.36248 184 184 171
-4.01845 -4.20173 -0.35999 173 175 159
-4.03185 -4.20738 -0.35751 181 188 185
-4.04525 -4.21302 -0.35502 191 199 205
-4.05866 -4.21867 -0.35254 183 181 200
-4.07207 -4.22431 -0.35005 189 196 200
-4.08548 -4.22996 -0.34756 192 206 199
-4.09890 -4.23561 -0.34507 194 206 202
-4.11232 -4.24126 -0.34258 194 196 190
-4.12574 -4.24692 -0.34009 190 197 206
-4.13917 -4.25257 -0.33760 191 199 209
-4.15260 -4.25823 -0.33511 191 194 201
-4.16604 -4.26388 -0.33262 197 203 205
-4.17947 -4.26954 -0.33013 202 205 208
-4.19291 -4.27520 -0.32763 189 194 205
-4.20636 -4.28087 -0.32514 185 193 200
-4.21981 -4.28653 -0.32265 191 199 197
-4.23326 -4.29219 -0.32015 191 196 195
-4.24672 -4.29786 -0.31766 206 216 217
-4.26018 -4.30353 -0.31516 210 217 219
-4.27364 -4.30920 -0.31266 203 208 216
-4.28711 -4.31487 -0.31017 203 212 221
-4.30058 -4.32054 -0.30767 204 213 221
-4.31405 -4.32622 -0.30517 204 213 221
-4.32753 -4.33189 -0.30267 198 210 220
-4.34101 -4.33757 -0.30017 197 213 226
-4.40847 -4.36598 -0.28766 250 253 254
-4.42197 -4.37166 -0.28515 251 253 254
-5.06065 -4.64062 -0.16669 252 253 254
-5.07433 -4.64638 -0.16416 250 253 253
-5.08801 -4.65214 -0.16162 246 251 253
-5.10169 -4.65791 -0.15908 243 247 251
-5.11538 -4.66367 -0.15654 235 242 248
-5.12907 -4.66944 -0.15401 234 242 250
-5.14277 -4.67520 -0.15147 238 244 248
-5.15646 -4.68097 -0.14892 232 238 249
-5.17017 -4.68674 -0.14638 231 239 246
-5.18387 -4.69251 -0.14384 222 231 236
-5.19758 -4.69829 -0.14130 222 223 234
-5.21129 -4.70406 -0.13876 227 229 239
-5.22501 -4.70984 -0.13621 217 226 237
-5.23873 -4.71561 -0.13367 221 230 234
-5.25245 -4.72139 -0.13112 219 223 225
-5.26618 -4.72717 -0.12858 203 200 213
-5.27991 -4.73296 -0.12603 214 221 225
-5.29365 -4.73874 -0.12348 208 217 220
-5.30738 -4.74453 -0.12093 199 206 209
-5.32113 -4.75031 -0.11838 196 200 208
-5.33487 -4.75610 -0.11583 200 203 207
-5.34862 -4.76189 -0.11328 195 207 206
-5.36238 -4.76768 -0.11073 188 190 200
-5.37613 -4.77348 -0.10818 191 201 207
-5.38989 -4.77927 -0.10563 194 204 208
-5.40366 -4.78507 -0.10308 202 214 217
-5.41743 -4.79087 -0.10052 206 212 217
-5.43120 -4.79667 -0.09797 207 208 216
-5.44497 -4.80247 -0.09541 207 211 219
-5.45875 -4.80827 -0.09286 209 216 226
-5.47254 -4.81407 -0.09030 204 209 214
-5.48632 -4.81988 -0.08775 192 199 207
-5.50011 -4.82569 -0.08519 196 205 211
-5.51391 -4.83150 -0.08263 205 213 218
-5.52770 -4.83731 -0.08007 200 205 207
-5.54150 -4.84312 -0.07751 198 200 203
-5.55531 -4.84893 -0.07495 197 205 209
-5.56912 -4.85475 -0.07239 198 214 199
-5.58293 -4.86056 -0.06983 196 210 199
-5.59675 -4.86638 -0.06726 184 188 197
-5.72126 -4.91882 -0.04417 209 206 212
-5.73511 -4.92465 -0.04160 215 211 215
-5.74897 -4.93048 -0.03903 208 209 214
-5.76283 -4.93632 -0.03646 198 196 208
-5.77669 -4.94216 -0.03389 193 189 208
-5.79056 -4.94800 -0.03132 198 204 210
-5.80443 -4.95384 -0.02874 196 198 202
-5.81831 -4.95969 -0.02617 193 196 206
-5.83219 -4.96553 -0.02360 188 194 195
-5.84607 -4.97138 -0.02102 181 186 187
-5.85996 -4.97722 -0.01845 180 186 200
-5.87385 -4.98307 -0.01587 182 187 209
-5.88774 -4.98893 -0.01329 198 206 214
-5.90164 -4.99478 -0.01072 203 209 211
-5.91554 -5.00063 -0.00814 204 209 205
-5.92945 -5.00649 -0.00556 199 203 200
-5.94336 -5.01235 -0.00298 183 181 201
-5.95727 -5.01820 -0.00040 177 181 202
-5.97119 -5.02407 0.00218 188 192 201
-5.98511 -5.02993 0.00477 195 199 215
-5.99903 -5.03579 0.00735 194 193 211
-6.01296 -5.04166 0.00993 200 203 212
-6.02689 -5.04752 0.01252 195 202 206
-6.04083 -5.05339 0.01510 191 193 201
-6.05477 -5.05926 0.01769 186 191 207
-6.06871 -5.06513 0.02027 176 180 194
-6.08266 -5.07101 0.02286 180 184 211
-6.12452 -5.08864 0.03062 199 201 204
-6.13848 -5.09452 0.03321 173 179 194
-6.15245 -5.10040 0.03580 180 191 203
-6.16642 -5.10628 0.03839 191 203 214
-6.18039 -5.11216 0.04098 193 199 205
-6.19437 -5.11805 0.04358 186 190 198
-6.20835 -5.12394 0.04617 184 186 185
-6.22234 -5.12983 0.04876 177 180 186
-6.23632 -5.13572 0.05136 188 193 193
-6.25032 -5.14161 0.05395 180 180 179
-6.26431 -5.14750 0.05655 190 192 198
-6.27831 -5.15340 0.05915 201 195 202
-6.29232 -5.15930 0.06174 196 196 201
-6.30632 -5.16520 0.06434 194 195 198
-2.68110 -3.62506 -0.62085 189 179 166
-2.69410 -3.63054 -0.61844 192 191 179
-2.70711 -3.63601 -0.61603 169 158 165
-2.72012 -3.64149 -0.61362 172 161 161
-2.73314 -3.64697 -0.61121 192 180 180
-2.74616 -3.65245 -0.60879 195 187 180
-2.75918 -3.65793 -0.60638 192 181 180
-2.77221 -3.66342 -0.60397 193 184 176
-2.78524 -3.66890 -0.60155 189 172 164
-2.79827 -3.67439 -0.59914 188 178 171
-2.81131 -3.67988 -0.59672 203 185 181
-2.82434 -3.68537 -0.59430 195 176 177
-2.83739 -3.69086 -0.59188 210 202 191
-2.85043 -3.69635 -0.58947 205 195 193
-2.86348 -3.70184 -0.58705 198 196 186
-2.87654 -3.70734 -0.58463 179 183 172
-2.88959 -3.71283 -0.58221 193 182 159
-2.90265 -3.71833 -0.57979 187 189 183
-2.91572 -3.72383 -0.57737 186 182 180
-2.92878 -3.72933 -0.57495 194 191 184
-2.94185 -3.73484 -0.57252 198 197 186
-2.95493 -3.74034 -0.57010 192 181 164
-2.96800 -3.74584 -0.56768 192 177 154
-2.98108 -3.75135 -0.56525 191 181 167
-2.99417 -3.75686 -0.56283 202 201 195
-3.00725 -3.76237 -0.56040 206 194 192
-3.02034 -3.76788 -0.55798 200 179 177
-3.03344 -3.77339 -0.55555 195 188 182
-3.04654 -3.77890 -0.55312 187 178 171
-3.05964 -3.78442 -0.55069 193 192 192
-3.07274 -3.78994 -0.54826 197 192 184
-3.08585 -3.79545 -0.54583 193 187 172
-3.09896 -3.80097 -0.54340 190 186 177
-3.11207 -3.80650 -0.54097 190 192 185
-3.12519 -3.81202 -0.53854 188 187 186
-3.13831 -3.81754 -0.53611 195 187 183
-3.15144 -3.82307 -0.53368 191 185 171
-3.16457 -3.82859 -0.53124 183 171 156
-3.17770 -3.83412 -0.52881 184 176 169
-3.19083 -3.83965 -0.52638 182 176 176
-3.20397 -3.84518 -0.52394 176 176 178
-3.21711 -3.85071 -0.52151 175 170 169
-3.23026 -3.85625 -0.51907 177 175 166
-3.24341 -3.86178 -0.51663 170 175 166
-3.25656 -3.86732 -0.51419 163 162 140
-3.26971 -3.87286 -0.51176 164 154 139
-3.28287 -3.87840 -0.50932 166 150 152
-3.29604 -3.88394 -0.50688 177 165 158
-3.30920 -3.88948 -0.50444 185 174 165
-3.32237 -3.89503 -0.50200 178 164 163
-3.33554 -3.90057 -0.49955 177 170 172
-3.34872 -3.90612 -0.49711 173 175 169
-3.36190 -3.91167 -0.49467 170 171 154
-3.41465 -3.93388 -0.48489 178 172 165
-3.42785 -3.93943 -0.48245 173 166 171
-3.44105 -3.94499 -0.48000 162 158 168
-3.45426 -3.95055 -0.47755 158 159 164
-3.46746 -3.95611 -0.47510 157 165 171
-3.48067 -3.96167 -0.47266 172 170 182
-3.49389 -3.96723 -0.47021 179 181 186
-3.50711 -3.97280 -0.46776 180 181 178
-3.52033 -3.97836 -0.46531 180 174 177
-3.53355 -3.98393 -0.46286 175 166 177
-3.54678 -3.98950 -0.46040 182 174 170
-3.56001 -3.99507 -0.45795 179 172 169
-3.59973 -4.01179 -0.45059 176 182 182
-3.61297 -4.01737 -0.44814 180 179 172
-3.62622 -4.02294 -0.44568 180 173 177
-3.63948 -4.02852 -0.44322 167 165 170
-3.65273 -4.03410 -0.44077 167 169 175
-3.66599 -4.03969 -0.43831 180 174 178
-3.67925 -4.04527 -0.43585 178 176 175
-3.69252 -4.05085 -0.43339 171 170 163
-3.79878 -4.09559 -0.41370 178 178 183
-3.81208 -4.10118 -0.41123 187 193 196
-3.82538 -4.10678 -0.40877 186 191 190
-3.83868 -4.11239 -0.40630 180 182 185
-3.85199 -4.11799 -0.40384 173 178 191
-3.86530 -4.12359 -0.40137 177 179 197
-3.87862 -4.12920 -0.39890 184 185 200
-3.89194 -4.13480 -0.39643 185 191 203
-3.90526 -4.14041 -0.39396 193 204 211
-3.91859 -4.14602 -0.39149 195 202 208
-3.93192 -4.15163 -0.38902 186 187 196
-3.94525 -4.15725 -0.38655 190 191 202
-3.95859 -4.16286 -0.38408 188 185 200
-3.97193 -4.16848 -0.38161 191 195 204
-3.98527 -4.17410 -0.37913 194 200 202
-3.99862 -4.17971 -0.37666 198 202 204
-4.01197 -4.18533 -0.37418 199 202 194
-4.02532 -4.19096 -0.37171 193 197 180
-4.03868 -4.19658 -0.36923 184 191 191
-4.05204 -4.20220 -0.36676 184 191 202
-4.06540 -4.20783 -0.36428 179 183 200
-4.07877 -4.21346 -0.36180 185 196 200
-4.09214 -4.21909 -0.35932 190 201 200
-4.10552 -4.22472 -0.35685 201 221 207
-4.11890 -4.23035 -0.35437 199 208 199
-4.13228 -4.23598 -0.35189 190 189 204
-4.14567 -4.24162 -0.34940 189 193 204
-4.15906 -4.24726 -0.34692 194 193 199
-4.17245 -4.25289 -0.34444 200 209 213
-4.18584 -4.25853 -0.34196 203 211 214
-4.19924 -4.26417 -0.33947 194 199 207
-4.21265 -4.26982 -0.33699 189 196 204
-4.22606 -4.27546 -0.33451 194 199 200
-4.23947 -4.28111 -0.33202 204 205 203
-4.25288 -4.28676 -0.32953 215 221 225
-4.26630 -4.29240 -0.32705 209 213 220
-4.27972 -4.29805 -0.32456 192 197 214
-4.29314 -4.30370 -0.32207 188 196 219
-4.30657 -4.30936 -0.31958 187 196 219
-4.32000 -4.31501 -0.31709 192 201 216
-4.33344 -4.32067 -0.31460 198 208 214
-4.41413 -4.35464 -0.29965 247 253 254
-4.42759 -4.36030 -0.29715 249 253 254
-4.44105 -4.36597 -0.29466 253 254 254
-5.05064 -4.62260 -0.18167 254 253 254
-5.06427 -4.62833 -0.17915 250 249 252
-5.07790 -4.63407 -0.17662 246 250 251
-5.09154 -4.63981 -0.17409 247 248 252
-5.10518 -4.64556 -0.17157 245 244 248
-5.11882 -4.65130 -0.16904 239 234 239
-5.13247 -4.65705 -0.16651 236 235 242
-5.14612 -4.66279 -0.16398 248 251 253
-5.15977 -4.66854 -0.16145 245 243 248
-5.17343 -4.67429 -0.15892 232 234 241
-5.18710 -4.68004 -0.15638 232 235 237
-5.20076 -4.68580 -0.15385 214 219 227
-5.21443 -4.69155 -0.15132 211 217 230
-5.22810 -4.69731 -0.14878 207 224 236
-5.24178 -4.70306 -0.14625 203 206 228
-5.25546 -4.70882 -0.14371 205 210 229
-5.26914 -4.71458 -0.14118 207 220 230
-5.28283 -4.72035 -0.13864 221 234 236
-5.29652 -4.72611 -0.13610 223 231 231
-5.31022 -4.73188 -0.13356 218 225 228
-5.32392 -4.73764 -0.13102 210 211 218
-5.33762 -4.74341 -0.12848 207 211 216
-5.35132 -4.74918 -0.12594 200 210 212
-5.36503 -4.75495 -0.12340 198 205 205
-5.37875 -4.76073 -0.12086 206 211 214
-5.39246 -4.76650 -0.11832 215 229 227
-5.40618 -4.77228 -0.11578 208 215 217
-5.41991 -4.77805 -0.11323 205 206 213
-5.43364 -4.78383 -0.11069 202 198 214
-5.44737 -4.78961 -0.10814 204 206 221
-5.46110 -4.79540 -0.10560 211 220 229
-5.47484 -4.80118 -0.10305 198 198 211
-5.48858 -4.80697 -0.10050 176 177 205
-5.50233 -4.81275 -0.09796 189 203 221
-5.51608 -4.81854 -0.09541 197 204 220
-5.52983 -4.82433 -0.09286 194 199 211
-5.54359 -4.83012 -0.09031 197 203 204
-5.55735 -4.83592 -0.08776 198 197 198
-5.57112 -4.84171 -0.08521 196 193 194
-5.58489 -4.84751 -0.08266 193 189 191
-5.59866 -4.85330 -0.08010 181 180 191
-5.61243 -4.85910 -0.07755 183 194 204
-5.70897 -4.89974 -0.05966 194 199 208
-5.72277 -4.90555 -0.05710 206 209 218
-5.73658 -4.91137 -0.05454 210 211 221
-5.75039 -4.91718 -0.05198 204 208 212
-5.76421 -4.92300 -0.04942 199 199 204
-5.77803 -4.92882 -0.04686 198 195 204
-5.79185 -4.93464 -0.04430 210 212 211
-5.80568 -4.94046 -0.04173 211 215 210
-5.81951 -4.94628 -0.03917 198 201 205
-5.83335 -4.95210 -0.03660 193 195 203
-5.84719 -4.95793 -0.03404 178 179 188
-5.86103 -4.96376 -0.03147 153 155 182
-5.87488 -4.96959 -0.02891 162 166 197
-5.88872 -4.97542 -0.02634 190 200 214
-5.90258 -4.98125 -0.02377 196 202 206
-5.91644 -4.98708 -0.02121 198 196 199
-5.93030 -4.99292 -0.01864 196 199 204
-5.94416 -4.99875 -0.01607 194 195 210
-5.95803 -5.00459 -0.01350 199 203 211
-5.97190 -5.01043 -0.01092 199 195 202
-5.98578 -5.01627 -0.00835 192 189 204
-5.99966 -5.02212 -0.00578 192 187 214
-6.01354 -5.02796 -0.00321 190 194 219
-6.02743 -5.03381 -0.00063 193 208 215
-6.04132 -5.03966 0.00194 187 187 194
-6.05521 -5.04551 0.00452 185 188 196
-6.06911 -5.05136 0.00709 182 186 193
-6.12474 -5.07478 0.01740 200 197 204
-6.13866 -5.08063 0.01998 190 184 189
-6.15258 -5.08649 0.02256 187 194 200
-6.16650 -5.09236 0.02514 181 182 209
-6.18043 -5.09822 0.02772 183 177 209
-6.19436 -5.10409 0.03031 191 190 208
-6.20830 -5.10995 0.03289 199 194 193
-6.22224 -5.11582 0.03547 192 192 196
-6.23618 -5.12169 0.03806 194 199 207
-6.25013 -5.12756 0.04064 194 197 197
-6.26408 -5.13343 0.04323 189 185 202
-6.27803 -5.13931 0.04581 181 177 193
-6.29199 -5.14519 0.04840 186 194 197
-6.30595 -5.15106 0.05099 180 188 203
-2.69201 -3.61625 -0.63157 189 179 174
-2.70498 -3.62171 -0.62916 196 194 180
-2.71795 -3.62717 -0.62676 192 184 174
-2.73092 -3.63263 -0.62436 188 169 166
-2.74390 -3.63809 -0.62196 195 183 180
-2.75688 -3.64355 -0.61955 194 183 181
-2.76986 -3.64902 -0.61715 194 181 184
-2.78285 -3.65448 -0.61474 200 185 184
-2.79584 -3.65995 -0.61234 195 168 168
-2.80883 -3.66542 -0.60993 191 175 165
-2.82183 -3.67089 -0.60752 194 184 185
-2.83483 -3.67636 -0.60511 185 170 162
-2.84783 -3.68183 -0.60271 200 186 184
-2.86084 -3.68730 -0.60030 202 199 195
-2.87385 -3.69278 -0.59789 193 187 188
-2.88686 -3.69826 -0.59548 176 176 171
-2.89988 -3.70373 -0.59307 204 212 189
-2.91290 -3.70921 -0.59065 189 183 182
-2.92593 -3.71470 -0.58824 188 172 172
-2.93895 -3.72018 -0.58583 192 184 176
-2.95198 -3.72566 -0.58342 207 198 188
-2.96502 -3.73115 -0.58100 194 188 177
-2.97805 -3.73663 -0.57859 192 184 181
-2.99110 -3.74212 -0.57617 187 176 179
-3.00414 -3.74761 -0.57376 200 200 200
-3.01719 -3.75310 -0.57134 203 195 191
-3.03024 -3.75860 -0.56892 197 191 181
-3.04329 -3.76409 -0.56650 193 185 187
-3.05635 -3.76958 -0.56409 198 191 186
-3.06941 -3.77508 -0.56167 192 185 189
-3.08248 -3.78058 -0.55925 185 181 173
-3.09554 -3.78608 -0.55683 187 182 165
-3.10861 -3.79158 -0.55441 190 187 162
-3.12169 -3.79708 -0.55198 194 191 172
-3.16093 -3.81360 -0.54471 196 194 184
-3.17402 -3.81911 -0.54229 192 182 162
-3.18711 -3.82462 -0.53987 199 187 164
-3.20021 -3.83013 -0.53744 190 182 173
-3.21331 -3.83564 -0.53501 175 165 165
-3.22641 -3.84115 -0.53259 174 163 166
-3.23952 -3.84667 -0.53016 175 163 168
-3.25262 -3.85219 -0.52773 168 157 157
-3.26574 -3.85770 -0.52530 170 168 155
-3.27885 -3.86322 -0.52287 179 169 160
-3.29197 -3.86875 -0.52044 182 163 156
-3.30509 -3.87427 -0.51801 182 166 163
-3.31822 -3.87979 -0.51558 184 176 180
-3.33135 -3.88532 -0.51315 183 176 174
-3.34448 -3.89084 -0.51072 181 168 170
-3.35762 -3.89637 -0.50829 181 174 175
-3.42335 -3.92404 -0.49611 171 167 155
-3.43651 -3.92957 -0.49367 167 158 154
-3.44967 -3.93511 -0.49124 167 157 152
-3.46283 -3.94065 -0.48880 164 161 153
-3.47600 -3.94619 -0.48636 156 158 155
-3.48917 -3.95174 -0.48392 168 169 171
-3.50235 -3.95728 -0.48148 172 170 175
-3.51552 -3.96283 -0.47904 169 161 169
-3.52870 -3.96837 -0.47660 156 157 170
-3.54189 -3.97392 -0.47416 174 177 179
-3.55508 -3.97947 -0.47171 179 172 179
-3.56827 -3.98502 -0.46927 176 178 176
-3.58146 -3.99058 -0.46683 170 170 164
-3.59466 -3.99613 -0.46438 167 160 169
-3.60786 -4.00169 -0.46194 187 185 174
-3.62107 -4.00725 -0.45949 186 188 173
-3.63428 -4.01280 -0.45704 180 175 173
-3.64749 -4.01836 -0.45460 173 169 167
-3.66070 -4.02393 -0.45215 173 171 171
-3.80630 -4.08520 -0.42518 188 187 191
-3.81956 -4.09078 -0.42273 190 189 191
-3.83282 -4.09636 -0.42027 189 188 190
-3.84608 -4.10194 -0.41781 185 183 189
-3.85935 -4.10753 -0.41536 182 181 192
-3.87262 -4.11311 -0.41290 180 176 193
-3.88590 -4.11870 -0.41044 183 178 192
-3.89918 -4.12429 -0.40798 184 187 197
-3.91246 -4.12988 -0.40552 191 201 207
-3.92574 -4.13547 -0.40306 196 203 206
-3.93903 -4.14106 -0.40060 186 187 192
-3.95232 -4.14665 -0.39814 187 186 194
-3.96562 -4.15225 -0.39568 185 185 199
-3.97892 -4.15785 -0.39321 182 189 203
-3.99222 -4.16344 -0.39075 183 192 202
-4.00553 -4.16904 -0.38828 202 206 208
-4.01883 -4.17464 -0.38582 205 208 209
-4.03215 -4.18025 -0.38335 199 203 204
-4.04546 -4.18585 -0.38089 190 196 201
-4.05878 -4.19146 -0.37842 185 185 194
-4.07211 -4.19706 -0.37595 180 181 198
-4.08543 -4.20267 -0.37348 189 193 195
-4.09876 -4.20828 -0.37101 188 197 203
-4.11210 -4.21389 -0.36854 191 200 203
-4.12544 -4.21951 -0.36607 196 202 208
-4.13878 -4.22512 -0.36360 193 193 202
-4.15212 -4.23074 -0.36113 182 188 196
-4.16547 -4.23636 -0.35866 199 208 208
-4.17882 -4.24197 -0.35619 205 216 221
-4.19218 -4.24760 -0.35371 203 205 213
-4.20553 -4.25322 -0.35124 201 204 207
-4.21890 -4.25884 -0.34876 192 200 206
-4.23226 -4.26447 -0.34629 188 196 203
-4.24563 -4.27009 -0.34381 190 196 206
-4.25900 -4.27572 -0.34134 199 204 217
-4.27238 -4.28135 -0.33886 199 200 209
-4.28576 -4.28698 -0.33638 198 200 207
-4.29914 -4.29261 -0.33390 195 200 211
-4.31253 -4.29825 -0.33142 188 193 214
-4.32592 -4.30388 -0.32894 197 205 221
-4.33931 -4.30952 -0.32646 211 220 226
-4.41975 -4.34337 -0.31156 242 246 250
-4.43317 -4.34902 -0.30908 243 246 249
-4.44659 -4.35466 -0.30659 251 253 254
-5.04069 -4.60469 -0.19656 253 253 254
-5.05427 -4.61041 -0.19404 250 254 254
-5.06786 -4.61612 -0.19152 253 254 253
-5.08145 -4.62184 -0.18901 253 253 253
-5.09504 -4.62756 -0.18649 247 252 254
-5.10864 -4.63329 -0.18397 245 249 251
-5.12224 -4.63901 -0.18145 233 239 244
-5.13584 -4.64474 -0.17893 223 229 238
-5.14945 -4.65046 -0.17641 238 247 249
-5.16306 -4.65619 -0.17389 233 235 243
-5.17668 -4.66192 -0.17137 225 236 242
-5.19030 -4.66765 -0.16885 214 217 239
-5.20392 -4.67339 -0.16632 229 240 240
-5.21755 -4.67912 -0.16380 234 238 236
-5.23118 -4.68486 -0.16127 215 217 224
-5.24481 -4.69059 -0.15875 218 223 224
-5.25845 -4.69633 -0.15622 221 221 225
-5.27209 -4.70207 -0.15370 216 219 226
-5.28573 -4.70782 -0.15117 215 217 225
-5.29938 -4.71356 -0.14864 210 209 217
-5.31303 -4.71931 -0.14611 211 218 228
-5.32669 -4.72505 -0.14358 209 219 222
-5.34035 -4.73080 -0.14105 199 198 213
-5.35401 -4.73655 -0.13852 207 216 225
-5.36767 -4.74230 -0.13599 218 224 224
-5.38134 -4.74805 -0.13346 216 222 227
-5.39502 -4.75381 -0.13093 210 221 228
-5.40870 -4.75956 -0.12839 200 203 215
-5.42238 -4.76532 -0.12586 204 214 219
-5.43606 -4.77108 -0.12333 207 214 220
-5.44975 -4.77684 -0.12079 206 212 219
-5.46344 -4.78260 -0.11826 203 206 211
-5.47714 -4.78837 -0.11572 188 187 203
-5.49083 -4.79413 -0.11318 175 180 203
-5.50454 -4.79990 -0.11064 182 191 211
-5.51824 -4.80567 -0.10810 191 200 216
-5.53195 -4.81144 -0.10557 196 204 216
-5.54567 -4.81721 -0.10303 200 204 209
-5.55938 -4.82298 -0.10048 195 203 207
-5.57310 -4.82876 -0.09794 192 196 208
-5.58683 -4.83453 -0.09540 183 189 202
-5.60056 -4.84031 -0.09286 186 196 199
-5.61429 -4.84609 -0.09032 201 210 208
-5.62803 -4.85187 -0.08777 203 205 207
-5.64176 -4.85765 -0.08523 202 204 201
-5.65551 -4.86344 -0.08268 202 203 201
-5.66925 -4.86922 -0.08014 195 198 200
-5.68300 -4.87501 -0.07759 197 204 206
-5.69676 -4.88080 -0.07504 203 207 209
-5.71052 -4.88659 -0.07249 201 204 206
-5.72428 -4.89238 -0.06994 202 206 216
-5.73804 -4.89817 -0.06739 203 206 223
-5.75181 -4.90396 -0.06484 195 198 212
-5.76558 -4.90976 -0.06229 193 202 208
-5.77936 -4.91556 -0.05974 202 214 214
-5.79314 -4.92136 -0.05719 204 211 210
-5.80692 -4.92716 -0.05464 197 203 207
-5.82071 -4.93296 -0.05208 186 196 200
-5.83450 -4.93876 -0.04953 181 189 200
-5.84829 -4.94457 -0.04697 179 182 187
-5.86209 -4.95038 -0.04442 172 173 171
-5.87589 -4.95618 -0.04186 184 192 181
-5.88970 -4.96200 -0.03931 191 203 205
-5.90351 -4.96781 -0.03675 191 206 208
-5.91732 -4.97362 -0.03419 197 204 208
-5.93114 -4.97943 -0.03163 197 198 207
-5.94496 -4.98525 -0.02907 196 200 210
-5.95878 -4.99107 -0.02651 196 201 203
-5.97261 -4.99689 -0.02395 190 186 187
-5.98644 -5.00271 -0.02139 173 174 192
-6.00028 -5.00853 -0.01882 181 196 209
-6.01412 -5.01436 -0.01626 184 185 206
-6.02796 -5.02018 -0.01370 202 212 214
-6.04180 -5.02601 -0.01113 205 207 213
-6.05565 -5.03184 -0.00857 193 193 198
-6.06951 -5.03767 -0.00600 181 186 200
-6.13883 -5.06684 0.00684 194 194 207
-6.15271 -5.07268 0.00941 189 189 196
-6.16659 -5.07852 0.01198 191 194 205
-6.18047 -5.08437 0.01455 191 195 205
-6.19436 -5.09021 0.01712 186 194 210
-6.20825 -5.09606 0.01969 193 195 203
-6.22214 -5.10190 0.02227 197 202 201
-6.23604 -5.10775 0.02484 189 186 195
-6.24994 -5.11360 0.02742 184 184 192
-6.26385 -5.11946 0.02999 157 163 188
-6.27776 -5.12531 0.03257 174 184 199
-6.29167 -5.13116 0.03515 191 199 206
-6.30559 -5.13702 0.03772 191 196 204
-2.70286 -3.60750 -0.64221 185 179 182
-2.71579 -3.61294 -0.63982 190 181 181
-2.72872 -3.61838 -0.63743 188 180 179
-2.74165 -3.62382 -0.63503 192 189 185
-2.75459 -3.62926 -0.63264 205 200 183
-2.76753 -3.63471 -0.63024 200 192 194
-2.78048 -3.64015 -0.62785 193 184 185
-2.79342 -3.64560 -0.62545 194 183 186
-2.80638 -3.65105 -0.62306 202 186 190
-2.81933 -3.65650 -0.62066 194 183 179
-2.83229 -3.66195 -0.61826 191 184 186
-2.84525 -3.66740 -0.61586 189 177 170
-2.85821 -3.67286 -0.61346 197 174 164
-2.87118 -3.67832 -0.61106 198 184 176
-2.88415 -3.68377 -0.60866 201 184 184
-2.89713 -3.68923 -0.60626 188 181 174
-2.91010 -3.69469 -0.60386 201 206 194
-2.92309 -3.70015 -0.60145 180 170 179
-2.93607 -3.70562 -0.59905 188 177 169
-2.94906 -3.71108 -0.59665 194 186 183
-2.96205 -3.71655 -0.59424 197 193 187
-2.97505 -3.72201 -0.59184 192 182 180
-2.98804 -3.72748 -0.58943 191 187 176
-3.00104 -3.73295 -0.58702 181 178 174
-3.01405 -3.73842 -0.58462 193 193 188
-3.02706 -3.74389 -0.58221 191 189 185
-3.04007 -3.74937 -0.57980 191 181 182
-3.05309 -3.75484 -0.57739 195 187 184
-3.06610 -3.76032 -0.57498 193 188 182
-3.07912 -3.76580 -0.57257 178 178 171
-3.09215 -3.77128 -0.57016 191 187 177
-3.17037 -3.80419 -0.55568 191 185 186
-3.18342 -3.80968 -0.55327 183 177 166
-3.19647 -3.81517 -0.55085 192 192 181
-3.20953 -3.82066 -0.54844 191 191 180
-3.22259 -3.82616 -0.54602 182 178 172
-3.23565 -3.83165 -0.54360 183 175 173
-3.24872 -3.83715 -0.54118 187 178 170
-3.26179 -3.84265 -0.53876 176 172 164
-3.27486 -3.84815 -0.53634 160 164 163
-3.28793 -3.85365 -0.53392 166 165 163
-3.30101 -3.85915 -0.53150 179 174 165
-3.31410 -3.86466 -0.52908 179 169 169
-3.32718 -3.87016 -0.52666 182 168 174
-3.41888 -3.90874 -0.50969 172 167 167
-3.43200 -3.91426 -0.50726 174 169 171
-3.44511 -3.91978 -0.50483 180 171 167
-3.45823 -3.92530 -0.50240 178 167 169
-3.47136 -3.93082 -0.49997 174 171 174
-3.48448 -3.93634 -0.49754 166 169 165
-3.49761 -3.94187 -0.49511 173 171 171
-3.51075 -3.94739 -0.49268 179 182 176
-3.52389 -3.95292 -0.49025 167 172 175
-3.53703 -3.95845 -0.48782 162 161 164
-3.55017 -3.96398 -0.48539 179 177 172
-3.56332 -3.96951 -0.48295 181 170 172
-3.57647 -3.97504 -0.48052 179 183 177
-3.58962 -3.98058 -0.47808 178 175 158
-3.60278 -3.98611 -0.47565 178 181 178
-3.64228 -4.00273 -0.46834 181 169 160
-3.65545 -4.00827 -0.46590 174 162 167
-3.68180 -4.01936 -0.46102 195 192 191
-3.69499 -4.02490 -0.45858 186 188 191
-3.70817 -4.03045 -0.45614 195 197 192
-3.72136 -4.03600 -0.45370 191 196 196
-3.78736 -4.06376 -0.44149 203 203 205
-3.80057 -4.06932 -0.43904 206 209 211
-3.82700 -4.08044 -0.43415 194 195 197
-3.84022 -4.08600 -0.43170 189 193 195
-3.85344 -4.09157 -0.42926 189 189 192
-3.86667 -4.09713 -0.42681 192 191 193
-3.87990 -4.10270 -0.42436 190 186 190
-3.89313 -4.10826 -0.42191 187 188 193
-3.90637 -4.11383 -0.41946 184 191 195
-3.91961 -4.11940 -0.41701 185 190 194
-3.93285 -4.12498 -0.41456 190 193 200
-3.94610 -4.13055 -0.41210 188 189 196
-3.95935 -4.13613 -0.40965 187 190 195
-3.97261 -4.14170 -0.40720 188 194 196
-3.98586 -4.14728 -0.40474 187 191 197
-3.99913 -4.15286 -0.40229 183 188 203
-4.01239 -4.15844 -0.39983 192 203 210
-4.02566 -4.16402 -0.39738 202 204 207
-4.03893 -4.16961 -0.39492 204 207 208
-4.05221 -4.17519 -0.39247 197 199 205
-4.06549 -4.18078 -0.39001 194 198 197
-4.07877 -4.18637 -0.38755 184 186 193
-4.09205 -4.19196 -0.38509 188 192 193
-4.10534 -4.19755 -0.38263 189 194 201
-4.11864 -4.20314 -0.38017 185 184 194
-4.13193 -4.20873 -0.37771 198 205 214
-4.14523 -4.21433 -0.37525 206 205 207
-4.15854 -4.21993 -0.37279 189 196 201
-4.17184 -4.22552 -0.37032 198 203 207
-4.18515 -4.23112 -0.36786 200 204 208
-4.19847 -4.23672 -0.36539 198 199 206
-4.21178 -4.24233 -0.36293 197 203 209
-4.22510 -4.24793 -0.36046 190 199 204
-4.23843 -4.25354 -0.35800 190 200 206
-4.25176 -4.25914 -0.35553 191 199 211
-4.26509 -4.26475 -0.35306 198 205 215
-4.27842 -4.27036 -0.35060 205 211 214
-4.29176 -4.27598 -0.34813 211 218 218
-4.30510 -4.28159 -0.34566 206 214 221
-4.31845 -4.28720 -0.34319 196 203 216
-4.33180 -4.29282 -0.34072 199 207 218
-4.34515 -4.29844 -0.33824 205 214 224
-4.42534 -4.33217 -0.32340 241 246 248
-4.43871 -4.33780 -0.32093 241 244 247
-4.45210 -4.34343 -0.31845 248 253 253
-5.03080 -4.58690 -0.21134 252 253 254
-5.04434 -4.59260 -0.20883 251 252 252
-5.05788 -4.59829 -0.20633 243 247 249
-5.07142 -4.60399 -0.20382 249 250 251
-5.08497 -4.60969 -0.20131 249 250 251
-5.09852 -4.61539 -0.19880 237 239 247
-5.11208 -4.62109 -0.19630 237 239 247
-5.12564 -4.62680 -0.19379 238 243 249
-5.13920 -4.63250 -0.19128 237 243 246
-5.15276 -4.63821 -0.18876 231 235 241
-5.16633 -4.64392 -0.18625 224 227 236
-5.17990 -4.64963 -0.18374 221 219 228
-5.19348 -4.65534 -0.18123 209 208 229
-5.20706 -4.66106 -0.17871 219 227 232
-5.22064 -4.66677 -0.17620 214 216 224
-5.23423 -4.67249 -0.17369 203 216 221
-5.24782 -4.67820 -0.17117 224 235 242
-5.26142 -4.68392 -0.16865 233 239 239
-5.27501 -4.68964 -0.16614 214 216 224
-5.28861 -4.69537 -0.16362 207 215 219
-5.30222 -4.70109 -0.16110 209 214 214
-5.31583 -4.70682 -0.15858 208 209 219
-5.32944 -4.71254 -0.15606 216 221 227
-5.34306 -4.71827 -0.15354 210 217 219
-5.35668 -4.72400 -0.15102 204 203 213
-5.37030 -4.72973 -0.14850 208 208 212
-5.38393 -4.73547 -0.14598 205 199 208
-5.39756 -4.74120 -0.14346 192 187 206
-5.41119 -4.74694 -0.14093 192 196 212
-5.42483 -4.75267 -0.13841 205 213 223
-5.43847 -4.75841 -0.13588 210 219 226
-5.45211 -4.76415 -0.13336 206 211 221
-5.46576 -4.76989 -0.13083 199 204 212
-5.47941 -4.77564 -0.12831 196 198 203
-5.49307 -4.78138 -0.12578 190 190 203
-5.50673 -4.78713 -0.12325 179 191 217
-5.52039 -4.79288 -0.12072 191 200 211
-5.53406 -4.79863 -0.11819 206 210 217
-5.54773 -4.80438 -0.11566 209 212 217
-5.56140 -4.81013 -0.11313 200 200 205
-5.57508 -4.81589 -0.11060 197 193 203
-5.58876 -4.82164 -0.10807 189 194 206
-5.60245 -4.82740 -0.10553 191 205 205
-5.61613 -4.83316 -0.10300 195 203 203
-5.62983 -4.83892 -0.10047 186 188 198
-5.64352 -4.84468 -0.09793 187 188 200
-5.65722 -4.85044 -0.09540 200 200 207
-5.67092 -4.85621 -0.09286 208 210 212
-5.68463 -4.86198 -0.09032 208 214 212
-5.69834 -4.86774 -0.08778 200 201 201
-5.71205 -4.87351 -0.08525 185 187 196
-5.72577 -4.87928 -0.08271 183 188 207
-5.73949 -4.88506 -0.08017 191 193 212
-5.75322 -4.89083 -0.07763 196 198 212
-5.76695 -4.89661 -0.07509 201 207 211
-5.78068 -4.90238 -0.07254 209 210 207
-5.79441 -4.90816 -0.07000 204 203 203
-5.80815 -4.91394 -0.06746 197 202 213
-5.82190 -4.91973 -0.06492 205 214 211
-5.83564 -4.92551 -0.06237 204 205 200
-5.84939 -4.93129 -0.05983 197 200 199
-5.86315 -4.93708 -0.05728 195 199 198
-5.87691 -4.94287 -0.05473 202 207 206
-5.89067 -4.94866 -0.05219 204 206 215
-5.90443 -4.95445 -0.04964 191 200 212
-5.91820 -4.96024 -0.04709 184 187 210
-5.93197 -4.96604 -0.04454 182 189 202
-5.94575 -4.97183 -0.04199 184 196 203
-5.95953 -4.97763 -0.03944 191 198 202
-5.97331 -4.98343 -0.03689 193 203 202
-5.98710 -4.98923 -0.03434 188 198 204
-6.00089 -4.99503 -0.03179 176 183 194
-6.01469 -5.00084 -0.02923 183 192 200
-6.02848 -5.00664 -0.02668 199 209 220
-6.04229 -5.01245 -0.02412 204 207 215
-6.05609 -5.01826 -0.02157 188 188 204
-6.06990 -5.02407 -0.01901 182 191 198
-6.15284 -5.05896 -0.00366 193 195 197
-6.16667 -5.06478 -0.00110 195 197 197
-6.18051 -5.07060 0.00146 190 188 202
-6.19435 -5.07642 0.00402 178 183 207
-6.20820 -5.08225 0.00658 180 191 203
-6.22205 -5.08808 0.00915 197 202 203
-6.23590 -5.09390 0.01171 181 181 182
-6.24976 -5.09973 0.01428 173 173 177
-6.26362 -5.10557 0.01684 174 176 195
-6.27749 -5.11140 0.01941 183 191 197
-6.29135 -5.11723 0.02198 189 196 203
-6.30523 -5.12307 0.02454 194 192 204
-2.71364 -3.59880 -0.65280 188 180 185
-2.72653 -3.60422 -0.65041 184 177 180
-2.73942 -3.60964 -0.64803 181 169 180
-2.75232 -3.61507 -0.64564 192 187 189
-2.76522 -3.62049 -0.64326 209 207 200
-2.77812 -3.62592 -0.64087 204 192 192
-2.79102 -3.63135 -0.63848 189 170 174
-2.80393 -3.63678 -0.63610 185 173 181
-2.81685 -3.64221 -0.63371 200 188 187
-2.82976 -3.64764 -0.63132 196 188 185
-2.84268 -3.65307 -0.62893 196 191 189
-2.85560 -3.65851 -0.62654 188 170 165
-2.86853 -3.66394 -0.62415 190 178 167
-2.88146 -3.66938 -0.62176 189 184 186
-2.89439 -3.67482 -0.61936 193 191 190
-2.90733 -3.68026 -0.61697 183 175 166
-2.92027 -3.68570 -0.61458 186 186 175
-2.93321 -3.69115 -0.61218 181 183 193
-2.94615 -3.69659 -0.60979 191 184 180
-2.95910 -3.70204 -0.60740 196 182 184
-2.97206 -3.70749 -0.60500 196 194 186
-2.98501 -3.71293 -0.60260 190 184 180
-2.99797 -3.71839 -0.60021 197 195 192
-3.01093 -3.72384 -0.59781 185 188 183
-3.02390 -3.72929 -0.59541 189 193 187
-3.03687 -3.73474 -0.59301 193 184 179
-3.04984 -3.74020 -0.59061 197 192 179
-3.06282 -3.74566 -0.58821 198 189 179
-3.07580 -3.75112 -0.58581 192 183 171
-3.08878 -3.75658 -0.58341 186 180 157
-3.10177 -3.76204 -0.58101 196 185 178
-3.17975 -3.79484 -0.56658 195 192 193
-3.19276 -3.80031 -0.56418 186 176 161
-3.20577 -3.80578 -0.56177 193 181 181
-3.21879 -3.81126 -0.55936 206 200 206
-3.23181 -3.81673 -0.55695 203 198 195
-3.24483 -3.82221 -0.55455 194 189 183
-3.25786 -3.82769 -0.55214 188 182 179
-3.27089 -3.83317 -0.54973 192 183 181
-3.28392 -3.83865 -0.54732 195 185 178
-3.29696 -3.84413 -0.54490 189 182 173
-3.31000 -3.84962 -0.54249 188 186 170
-3.32304 -3.85510 -0.54008 184 181 162
-3.33609 -3.86059 -0.53767 182 177 165
-3.41444 -3.89354 -0.52317 182 173 167
-3.44059 -3.90454 -0.51834 163 164 171
-3.45366 -3.91004 -0.51592 170 169 172
-3.46674 -3.91554 -0.51350 169 167 169
-3.47983 -3.92105 -0.51108 171 164 162
-3.49291 -3.92655 -0.50866 167 159 152
-3.50601 -3.93206 -0.50624 169 165 159
-3.51910 -3.93756 -0.50382 170 168 162
-3.53220 -3.94307 -0.50139 168 163 161
-3.54530 -3.94858 -0.49897 184 180 174
-3.55840 -3.95409 -0.49655 186 180 180
-3.57151 -3.95961 -0.49412 181 174 179
-3.58462 -3.96512 -0.49170 181 188 188
-3.59774 -3.97064 -0.48927 185 183 178
-3.67650 -4.00376 -0.47470 193 200 204
-3.68963 -4.00929 -0.47227 194 196 199
-3.70278 -4.01481 -0.46984 194 192 196
-3.71592 -4.02034 -0.46741 197 197 196
-3.72907 -4.02587 -0.46498 195 196 202
-3.74222 -4.03140 -0.46255 191 192 195
-3.76854 -4.04247 -0.45768 195 196 187
-3.78170 -4.04801 -0.45525 194 200 201
-3.79487 -4.05355 -0.45281 200 206 210
-3.80804 -4.05908 -0.45037 205 213 214
-3.82121 -4.06462 -0.44794 200 204 205
-3.83438 -4.07017 -0.44550 196 199 205
-3.84756 -4.07571 -0.44306 200 206 211
-3.86075 -4.08125 -0.44062 204 210 208
-3.87393 -4.08680 -0.43819 206 209 204
-3.88712 -4.09235 -0.43575 199 202 201
-3.90032 -4.09790 -0.43331 189 196 200
-3.91351 -4.10345 -0.43086 187 193 196
-3.92671 -4.10900 -0.42842 188 190 192
-3.93992 -4.11455 -0.42598 192 193 198
-3.95313 -4.12011 -0.42354 194 194 198
-3.96634 -4.12566 -0.42109 195 199 197
-3.97955 -4.13122 -0.41865 203 210 198
-3.99277 -4.13678 -0.41621 202 205 196
-4.00599 -4.14234 -0.41376 189 196 199
-4.01921 -4.14790 -0.41131 187 196 206
-4.03244 -4.15347 -0.40887 203 207 211
-4.04567 -4.15903 -0.40642 208 211 211
-4.05891 -4.16460 -0.40397 202 203 209
-4.07215 -4.17016 -0.40152 198 201 197
-4.08539 -4.17573 -0.39907 199 205 198
-4.09863 -4.18130 -0.39662 190 191 197
-4.11188 -4.18688 -0.39417 193 204 207
-4.12513 -4.19245 -0.39172 192 194 205
-4.13839 -4.19803 -0.38927 197 204 212
-4.15165 -4.20360 -0.38682 202 203 209
-4.16491 -4.20918 -0.38437 196 205 209
-4.17818 -4.21476 -0.38191 199 206 209
-4.19145 -4.22034 -0.37946 202 209 209
-4.20472 -4.22592 -0.37700 197 199 207
-4.21800 -4.23151 -0.37455 198 202 210
-4.23128 -4.23709 -0.37209 199 205 203
-4.24456 -4.24268 -0.36963 196 202 202
-4.25785 -4.24827 -0.36718 192 195 200
-4.27114 -4.25386 -0.36472 198 203 211
-4.28443 -4.25945 -0.36226 208 216 221
-4.29773 -4.26504 -0.35980 212 217 223
-4.31103 -4.27063 -0.35734 207 212 221
-4.32433 -4.27623 -0.35488 202 207 217
-4.33764 -4.28183 -0.35242 201 206 216
-4.35095 -4.28743 -0.34995 202 210 222
-4.36427 -4.29302 -0.34749 203 212 226
-4.43089 -4.32105 -0.33517 242 248 250
-4.44423 -4.32666 -0.33270 244 250 251
-4.45757 -4.33227 -0.33023 247 252 254
-4.47091 -4.33788 -0.32777 253 254 254
-5.02099 -4.56923 -0.22602 252 251 251
-5.03448 -4.57490 -0.22353 244 245 247
-5.04797 -4.58058 -0.22103 247 250 251
-5.06147 -4.58626 -0.21854 248 249 251
-5.07497 -4.59193 -0.21604 248 251 250
-5.08847 -4.59762 -0.21354 245 252 253
-5.10198 -4.60330 -0.21104 248 251 250
-5.11550 -4.60898 -0.20854 248 249 247
-5.12901 -4.61466 -0.20604 238 239 239
-5.14253 -4.62035 -0.20354 238 234 241
-5.15605 -4.62604 -0.20104 235 238 236
-5.16958 -4.63173 -0.19854 222 226 234
-5.18311 -4.63742 -0.19604 218 228 239
-5.19664 -4.64311 -0.19353 213 222 234
-5.21018 -4.64880 -0.19103 214 217 230
-5.22372 -4.65450 -0.18852 204 207 224
-5.23727 -4.66019 -0.18602 219 224 232
-5.25081 -4.66589 -0.18351 225 231 235
-5.26437 -4.67159 -0.18101 224 223 232
-5.27792 -4.67729 -0.17850 207 214 223
-5.29148 -4.68300 -0.17599 190 202 218
-5.30504 -4.68870 -0.17348 206 213 220
-5.31861 -4.69440 -0.17097 214 220 224
-5.33218 -4.70011 -0.16846 215 221 222
-5.34575 -4.70582 -0.16595 202 204 210
-5.35933 -4.71153 -0.16344 197 205 213
-5.37291 -4.71724 -0.16093 205 211 216
-5.38649 -4.72296 -0.15842 195 192 206
-5.40008 -4.72867 -0.15590 193 201 210
-5.41367 -4.73439 -0.15339 203 214 222
-5.42726 -4.74010 -0.15088 201 209 222
-5.44086 -4.74582 -0.14836 199 201 215
-5.45446 -4.75154 -0.14585 196 191 208
-5.46807 -4.75727 -0.14333 198 207 219
-5.48168 -4.76299 -0.14081 207 222 224
-5.49529 -4.76871 -0.13829 216 226 228
-5.50891 -4.77444 -0.13578 216 221 226
-5.52253 -4.78017 -0.13326 205 213 221
-5.53615 -4.78590 -0.13074 199 201 212
-5.54978 -4.79163 -0.12822 199 201 215
-5.56341 -4.79736 -0.12570 200 207 209
-5.57704 -4.80310 -0.12317 200 203 197
-5.59068 -4.80883 -0.12065 195 192 196
-5.60432 -4.81457 -0.11813 198 200 207
-5.61797 -4.82031 -0.11560 192 202 206
-5.63161 -4.82605 -0.11308 184 193 197
-5.64527 -4.83179 -0.11055 196 204 205
-5.65892 -4.83754 -0.10803 209 216 219
-5.67258 -4.84328 -0.10550 202 205 213
-5.68625 -4.84903 -0.10297 192 194 203
-5.69991 -4.85477 -0.10045 186 188 198
-5.71358 -4.86052 -0.09792 178 184 197
-5.72726 -4.86628 -0.09539 182 194 206
-5.74093 -4.87203 -0.09286 192 199 210
-5.75462 -4.87778 -0.09033 188 193 201
-5.76830 -4.88354 -0.08780 184 189 198
-5.78199 -4.88930 -0.08527 193 198 205
-5.79568 -4.89505 -0.08273 198 200 209
-5.80938 -4.90081 -0.08020 193 198 208
-5.82308 -4.90658 -0.07767 202 210 212
-5.83678 -4.91234 -0.07513 206 207 208
-5.85049 -4.91810 -0.07260 203 200 199
-5.86420 -4.92387 -0.07006 195 190 192
-5.87791 -4.92964 -0.06752 193 197 204
-5.89163 -4.93541 -0.06499 197 201 211
-5.90535 -4.94118 -0.06245 189 192 202
-5.91908 -4.94695 -0.05991 187 190 197
-5.93280 -4.95273 -0.05737 186 189 194
-5.94654 -4.95850 -0.05483 194 204 206
-5.96027 -4.96428 -0.05229 194 191 192
-5.97401 -4.97006 -0.04975 199 203 205
-5.98776 -4.97584 -0.04721 203 212 203
-6.00150 -4.98162 -0.04466 187 191 184
-6.01525 -4.98740 -0.04212 201 212 214
-6.02901 -4.99319 -0.03958 207 210 218
-6.04277 -4.99897 -0.03703 199 197 207
-6.05653 -5.00476 -0.03449 179 186 189
-6.07029 -5.01055 -0.03194 158 178 196
-6.16675 -5.05112 -0.01410 198 202 207
-6.18055 -5.05692 -0.01155 189 193 203
-6.19435 -5.06273 -0.00899 176 181 192
-6.20815 -5.06853 -0.00644 188 196 193
-6.22195 -5.07434 -0.00389 198 202 208
-6.23576 -5.08014 -0.00133 188 189 193
-6.24958 -5.08595 0.00122 184 183 192
-6.26339 -5.09177 0.00378 186 190 197
-6.27721 -5.09758 0.00633 189 200 205
-6.29104 -5.10339 0.00889 183 192 202
-6.30486 -5.10921 0.01145 186 190 205
-2.71151 -3.58475 -0.66569 193 189 180
-2.72435 -3.59015 -0.66331 198 184 180
-2.73720 -3.59556 -0.66094 180 168 167
-2.75006 -3.60096 -0.65856 183 178 179
-2.76292 -3.60637 -0.65619 191 193 189
-2.77578 -3.61178 -0.65381 203 203 198
-2.78864 -3.61718 -0.65143 197 186 188
-2.80151 -3.62259 -0.64905 195 178 168
-2.81438 -3.62801 -0.64667 191 177 176
-2.82725 -3.63342 -0.64429 206 198 185
-2.84013 -3.63883 -0.64191 187 177 182
-2.85301 -3.64425 -0.63953 190 188 188
-2.86589 -3.64967 -0.63715 191 187 180
-2.87878 -3.65508 -0.63477 186 174 177
-2.89167 -3.66050 -0.63239 182 162 180
-2.90457 -3.66593 -0.63000 192 191 190
-2.91746 -3.67135 -0.62762 176 162 170
-2.93036 -3.67677 -0.62524 179 167 175
-2.94327 -3.68220 -0.62285 188 185 190
-2.95618 -3.68762 -0.62046 194 190 182
-2.96909 -3.69305 -0.61808 195 186 185
-2.98200 -3.69848 -0.61569 194 197 190
-2.99492 -3.70391 -0.61330 189 179 172
-3.03369 -3.72021 -0.60614 192 181 186
-3.04662 -3.72565 -0.60375 192 178 175
-3.05955 -3.73109 -0.60136 198 195 184
-3.07249 -3.73653 -0.59897 199 188 176
-3.12427 -3.75830 -0.58939 198 191 191
-3.13722 -3.76375 -0.58700 190 188 188
-3.15018 -3.76919 -0.58460 187 186 183
-3.16314 -3.77464 -0.58221 186 184 178
-3.17611 -3.78009 -0.57981 189 181 176
-3.18907 -3.78555 -0.57742 195 189 192
-3.20204 -3.79100 -0.57502 200 198 190
-3.21502 -3.79645 -0.57262 185 189 192
-3.22800 -3.80191 -0.57022 183 181 195
-3.24098 -3.80737 -0.56782 196 190 195
-3.25396 -3.81283 -0.56542 194 192 195
-3.26695 -3.81829 -0.56302 195 195 195
-3.27994 -3.82375 -0.56062 198 196 191
-3.29293 -3.82921 -0.55822 185 183 177
-3.30593 -3.83468 -0.55582 174 175 171
-3.31893 -3.84014 -0.55341 183 180 182
-3.33193 -3.84561 -0.55101 179 175 176
-3.34494 -3.85108 -0.54861 168 165 166
-3.35795 -3.85655 -0.54620 170 168 173
-3.37097 -3.86202 -0.54380 173 173 176
-3.38398 -3.86750 -0.54139 175 176 182
-3.39700 -3.87297 -0.53898 176 177 185
-3.41003 -3.87845 -0.53657 182 184 186
-3.42306 -3.88392 -0.53417 189 181 179
-3.43609 -3.88940 -0.53176 186 178 172
-3.46216 -3.90037 -0.52694 170 166 170
-3.47520 -3.90585 -0.52453 171 170 167
-3.48825 -3.91133 -0.52212 181 178 165
-3.50129 -3.91682 -0.51971 171 166 164
-3.51434 -3.92231 -0.51729 170 164 164
-3.52740 -3.92780 -0.51488 173 174 157
-3.54046 -3.93329 -0.51247 174 165 160
-3.55352 -3.93878 -0.51005 188 183 173
-3.56658 -3.94427 -0.50764 185 173 171
-3.57965 -3.94976 -0.50522 177 176 174
-3.59272 -3.95526 -0.50281 170 170 173
-3.60580 -3.96076 -0.50039 183 185 184
-3.67122 -3.98827 -0.48830 201 199 198
-3.68432 -3.99377 -0.48588 207 205 207
-3.69742 -3.99928 -0.48345 194 197 201
-3.71052 -4.00479 -0.48103 187 182 187
-3.72363 -4.01030 -0.47861 188 185 192
-3.73673 -4.01581 -0.47619 196 198 200
-3.74985 -4.02132 -0.47376 195 197 195
-3.76296 -4.02684 -0.47134 192 189 188
-3.77608 -4.03235 -0.46891 200 203 202
-3.78920 -4.03787 -0.46649 206 213 212
-3.80233 -4.04339 -0.46406 207 213 217
-3.81546 -4.04891 -0.46164 201 205 213
-3.82859 -4.05443 -0.45921 196 202 205
-3.84173 -4.05996 -0.45678 196 198 205
-3.85487 -4.06548 -0.45435 207 210 215
-3.86801 -4.07101 -0.45192 205 209 210
-3.88116 -4.07653 -0.44949 196 195 199
-3.89431 -4.08206 -0.44706 194 191 195
-3.90746 -4.08759 -0.44463 192 194 198
-3.92062 -4.09312 -0.44220 192 193 199
-3.93378 -4.09866 -0.43977 192 193 197
-3.94694 -4.10419 -0.43733 195 198 201
-3.96011 -4.10973 -0.43490 197 202 202
-3.97328 -4.11527 -0.43247 196 201 200
-3.98645 -4.12080 -0.43003 200 205 200
-3.99963 -4.12635 -0.42759 201 206 198
-4.01281 -4.13189 -0.42516 185 186 197
-4.02599 -4.13743 -0.42272 175 177 194
-4.03918 -4.14297 -0.42028 187 191 203
-4.05237 -4.14852 -0.41785 203 211 215
-4.06557 -4.15407 -0.41541 207 209 213
-4.07876 -4.15962 -0.41297 194 195 202
-4.09197 -4.16517 -0.41053 204 215 208
-4.10517 -4.17072 -0.40809 193 196 204
-4.11838 -4.17627 -0.40564 196 206 210
-4.13159 -4.18183 -0.40320 195 198 205
-4.14480 -4.18739 -0.40076 182 185 201
-4.15802 -4.19294 -0.39832 183 187 205
-4.17125 -4.19850 -0.39587 192 199 207
-4.18447 -4.20406 -0.39343 196 208 209
-4.19770 -4.20962 -0.39098 201 210 210
-4.21093 -4.21519 -0.38854 191 193 200
-4.22417 -4.22075 -0.38609 189 194 204
-4.23741 -4.22632 -0.38364 200 204 202
-4.25065 -4.23189 -0.38120 197 198 199
-4.26390 -4.23746 -0.37875 191 194 201
-4.27714 -4.24303 -0.37630 196 198 208
-4.29040 -4.24860 -0.37385 200 203 213
-4.30365 -4.25417 -0.37140 204 209 216
-4.31691 -4.25975 -0.36895 206 211 217
-4.33018 -4.26533 -0.36650 205 211 220
-4.34344 -4.27090 -0.36404 205 210 220
-4.35671 -4.27648 -0.36159 207 209 219
-4.36999 -4.28206 -0.35914 207 210 220
-4.38327 -4.28765 -0.35668 206 210 225
-4.44970 -4.31558 -0.34440 238 241 247
-4.46300 -4.32117 -0.34195 246 250 251
-4.47630 -4.32676 -0.33949 250 252 252
-4.48961 -4.33236 -0.33703 250 253 253
-5.02468 -4.55733 -0.23813 251 250 252
-5.03813 -4.56298 -0.23564 243 243 250
-5.05158 -4.56864 -0.23315 247 250 253
-5.06503 -4.57430 -0.23067 251 251 252
-5.07849 -4.57995 -0.22818 238 241 246
-5.09196 -4.58562 -0.22569 225 231 241
-5.10542 -4.59128 -0.22320 240 244 250
-5.11889 -4.59694 -0.22071 243 245 250
-5.13237 -4.60261 -0.21822 221 227 240
-5.14584 -4.60827 -0.21573 218 229 241
-5.15932 -4.61394 -0.21324 228 235 239
-5.17281 -4.61961 -0.21075 207 215 233
-5.18630 -4.62528 -0.20825 208 212 233
-5.19979 -4.63095 -0.20576 225 234 242
-5.21328 -4.63663 -0.20327 218 227 234
-5.22678 -4.64230 -0.20077 197 195 222
-5.24028 -4.64798 -0.19827 214 219 235
-5.25379 -4.65366 -0.19578 221 225 230
-5.26730 -4.65934 -0.19328 228 234 229
-5.28081 -4.66502 -0.19078 208 206 224
-5.29432 -4.67070 -0.18829 191 191 222
-5.30784 -4.67639 -0.18579 210 219 223
-5.32137 -4.68207 -0.18329 218 221 222
-5.33490 -4.68776 -0.18079 201 204 213
-5.34843 -4.69345 -0.17829 180 175 191
-5.36196 -4.69914 -0.17578 179 186 200
-5.37550 -4.70483 -0.17328 200 207 215
-5.38904 -4.71052 -0.17078 206 209 215
-5.40258 -4.71622 -0.16828 201 209 212
-5.41613 -4.72192 -0.16577 198 195 205
-5.42968 -4.72761 -0.16327 199 206 215
-5.44324 -4.73331 -0.16076 205 215 214
-5.45680 -4.73901 -0.15825 206 208 209
-5.47036 -4.74472 -0.15575 203 201 213
