ply
format ascii 1.0
element face 0
property list uchar int vertex_indices
element vertex 1224
property float x
property float y
property float z
property uchar diffuse_red
property uchar diffuse_green
property uchar diffuse_blue
end_header
-3.82180 -4.49765 -0.07074 187 186 165
-3.83485 -4.49411 -0.07619 182 179 163
-3.84789 -4.49057 -0.08164 176 172 162
-3.86092 -4.48704 -0.08708 184 183 174
-3.87394 -4.48351 -0.09252 194 196 186
-3.88695 -4.47998 -0.09795 196 197 184
-3.89995 -4.47645 -0.10338 194 194 177
-3.91295 -4.47293 -0.10881 187 185 170
-3.92593 -4.46941 -0.11423 188 183 173
-3.93890 -4.46589 -0.11965 198 198 179
-3.95187 -4.46238 -0.12506 191 190 174
-3.96482 -4.45886 -0.13047 179 177 171
-3.72135 -4.50859 -0.04433 135 138 130
-3.73442 -4.50506 -0.04978 136 138 127
-3.77357 -4.49446 -0.06611 187 187 163
-3.78660 -4.49093 -0.07155 188 189 167
-3.79962 -4.48741 -0.07698 190 191 170
-3.81263 -4.48388 -0.08241 190 190 167
-3.82563 -4.48037 -0.08783 185 178 165
-3.83862 -4.47685 -0.09325 182 174 165
-3.85161 -4.47333 -0.09867 188 186 176
-3.86458 -4.46982 -0.10408 196 196 186
-3.87754 -4.46631 -0.10949 197 195 184
-3.89050 -4.46281 -0.11489 194 189 178
-3.90344 -4.45930 -0.12029 192 188 174
-3.91638 -4.45580 -0.12569 199 197 179
-3.92930 -4.45230 -0.13108 206 206 183
-3.94222 -4.44880 -0.13647 196 191 171
-3.95513 -4.44531 -0.14185 188 184 171
-3.96803 -4.44182 -0.14723 198 200 187
-4.10929 -4.40358 -0.20616 201 208 199
-4.12207 -4.40012 -0.21149 199 199 197
-4.13485 -4.39666 -0.21682 197 196 194
-4.24943 -4.36565 -0.26462 214 220 204
-3.71259 -4.49481 -0.05608 137 144 136
-3.75162 -4.48426 -0.07234 184 189 178
-3.76461 -4.48075 -0.07776 190 192 175
-3.77759 -4.47724 -0.08317 189 189 173
-3.79057 -4.47374 -0.08857 192 193 175
-3.80353 -4.47023 -0.09398 193 194 177
-3.81649 -4.46673 -0.09937 193 189 170
-3.82943 -4.46323 -0.10477 191 180 165
-3.84237 -4.45974 -0.11016 188 181 170
-3.85529 -4.45624 -0.11555 194 190 179
-3.86821 -4.45275 -0.12093 201 196 183
-3.88111 -4.44927 -0.12631 203 198 185
-3.89401 -4.44578 -0.13168 200 195 185
-3.90690 -4.44230 -0.13705 199 198 183
-3.91978 -4.43882 -0.14242 201 202 182
-3.93265 -4.43534 -0.14778 197 194 181
-3.94551 -4.43186 -0.15314 197 195 188
-3.95836 -4.42839 -0.15850 205 203 191
-3.97120 -4.42492 -0.16385 198 195 180
-4.09911 -4.39036 -0.21715 197 198 196
-4.11185 -4.38691 -0.22246 196 191 184
-4.12458 -4.38347 -0.22776 193 194 188
-4.17541 -4.36974 -0.24894 199 197 186
-4.18809 -4.36631 -0.25423 203 212 195
-4.20077 -4.36288 -0.25951 205 208 200
-4.21344 -4.35946 -0.26479 211 212 207
-4.22609 -4.35604 -0.27007 210 202 193
-3.74279 -4.47064 -0.08393 182 184 160
-3.75573 -4.46715 -0.08931 188 185 166
-3.76866 -4.46366 -0.09470 185 186 170
-3.78159 -4.46017 -0.10008 185 189 172
-3.79451 -4.45669 -0.10546 188 188 173
-3.80741 -4.45320 -0.11083 193 190 174
-3.82031 -4.44972 -0.11620 193 187 170
-3.83320 -4.44625 -0.12156 189 183 170
-3.84608 -4.44277 -0.12692 196 195 179
-3.85894 -4.43930 -0.13228 203 203 181
-3.87180 -4.43583 -0.13764 205 200 184
-3.88465 -4.43236 -0.14298 202 197 189
-3.89750 -4.42890 -0.14833 192 191 187
-3.91033 -4.42544 -0.15367 192 193 180
-3.92315 -4.42198 -0.15901 196 197 181
-3.93596 -4.41852 -0.16434 204 204 194
-3.94877 -4.41507 -0.16967 216 216 201
-3.96156 -4.41162 -0.17500 209 207 195
-4.10170 -4.37381 -0.23334 208 204 191
-4.11439 -4.37039 -0.23862 200 206 194
-4.12706 -4.36697 -0.24390 201 208 201
-4.15239 -4.36013 -0.25444 210 203 187
-4.16504 -4.35672 -0.25970 196 191 168
-4.17767 -4.35331 -0.26497 193 199 183
-4.19030 -4.34990 -0.27022 181 185 185
-4.20293 -4.34650 -0.27548 206 209 207
-4.21554 -4.34310 -0.28073 213 210 201
-4.25332 -4.33290 -0.29646 207 216 193
-3.72111 -4.46060 -0.09005 191 183 167
-3.73402 -4.45713 -0.09542 184 178 150
-3.74692 -4.45365 -0.10078 186 185 165
-3.75980 -4.45018 -0.10614 181 181 165
-3.77268 -4.44671 -0.11150 175 176 163
-3.78555 -4.44325 -0.11685 182 185 176
-3.79841 -4.43978 -0.12219 193 193 184
-3.81126 -4.43632 -0.12754 196 196 183
-3.82410 -4.43286 -0.13288 195 195 183
-3.83693 -4.42941 -0.13821 202 201 181
-3.84975 -4.42595 -0.14355 198 194 176
-3.86257 -4.42250 -0.14888 190 184 175
-3.87537 -4.41905 -0.15420 191 190 181
-3.88817 -4.41561 -0.15952 187 186 182
-3.90095 -4.41216 -0.16484 186 181 177
-3.91373 -4.40872 -0.17015 197 197 185
-3.92649 -4.40528 -0.17546 205 207 197
-3.93925 -4.40185 -0.18077 215 217 202
-3.95200 -4.39841 -0.18607 221 220 205
-3.96474 -4.39498 -0.19137 215 213 199
-4.10427 -4.35740 -0.24939 208 207 195
-4.11690 -4.35400 -0.25465 202 202 193
-4.12953 -4.35060 -0.25989 206 211 198
-4.14214 -4.34720 -0.26514 207 206 190
-4.15474 -4.34381 -0.27038 201 202 174
-4.16734 -4.34041 -0.27562 199 199 181
-4.17992 -4.33702 -0.28085 183 182 177
-4.19250 -4.33364 -0.28608 205 210 203
-4.20506 -4.33025 -0.29131 208 210 200
-4.21762 -4.32687 -0.29653 209 209 193
-4.23017 -4.32349 -0.30175 200 200 173
-3.71246 -4.44718 -0.10148 187 181 178
-3.72532 -4.44372 -0.10682 177 175 158
-3.73817 -4.44026 -0.11216 182 180 163
-3.75101 -4.43681 -0.11749 185 182 165
-3.76384 -4.43336 -0.12282 179 177 166
-3.77666 -4.42991 -0.12815 186 184 171
-3.78948 -4.42647 -0.13347 189 183 173
-3.80228 -4.42302 -0.13879 191 189 179
-3.81507 -4.41958 -0.14411 197 200 185
-3.82786 -4.41614 -0.14942 206 209 187
-3.84064 -4.41271 -0.15472 202 204 188
-3.85340 -4.40928 -0.16003 196 196 186
-3.86616 -4.40585 -0.16533 194 192 177
-3.87891 -4.40242 -0.17062 184 180 171
-3.89165 -4.39899 -0.17592 184 183 175
-3.90438 -4.39557 -0.18121 194 194 182
-3.91710 -4.39215 -0.18649 196 194 187
-3.92981 -4.38873 -0.19177 205 204 196
-3.94251 -4.38531 -0.19705 217 214 202
-3.95521 -4.38190 -0.20232 212 205 192
-3.96789 -4.37849 -0.20759 209 206 194
-3.98057 -4.37508 -0.21286 210 209 188
-3.99323 -4.37167 -0.21812 216 215 190
-4.00589 -4.36827 -0.22338 212 207 194
-4.08164 -4.34790 -0.25485 205 203 201
-4.09424 -4.34451 -0.26008 192 190 193
-4.10682 -4.34113 -0.26531 200 199 193
-4.11940 -4.33775 -0.27054 208 213 197
-4.13197 -4.33437 -0.27576 207 210 198
-4.14453 -4.33099 -0.28097 209 211 197
-4.15708 -4.32762 -0.28619 209 206 188
-4.16962 -4.32424 -0.29140 202 200 183
-4.18215 -4.32087 -0.29660 207 213 203
-4.19467 -4.31751 -0.30181 203 206 198
-4.20718 -4.31414 -0.30701 208 213 203
-4.21969 -4.31078 -0.31220 214 219 202
-4.23218 -4.30742 -0.31739 219 219 208
-3.69106 -4.43729 -0.10749 177 181 170
-3.70388 -4.43385 -0.11281 173 171 158
-3.71669 -4.43041 -0.11813 171 169 156
-3.72949 -4.42698 -0.12344 177 176 158
-3.74229 -4.42354 -0.12875 178 175 160
-3.75507 -4.42011 -0.13406 190 189 161
-3.76785 -4.41668 -0.13936 197 198 173
-3.78061 -4.41325 -0.14466 190 187 175
-3.79337 -4.40983 -0.14995 189 180 170
-3.80612 -4.40640 -0.15525 191 185 171
-3.81886 -4.40298 -0.16053 197 193 181
-3.83159 -4.39957 -0.16582 190 185 181
-3.84431 -4.39615 -0.17110 187 184 175
-3.85702 -4.39274 -0.17637 193 190 170
-3.86972 -4.38933 -0.18164 184 182 170
-3.88241 -4.38592 -0.18691 181 180 175
-3.89510 -4.38252 -0.19217 196 194 187
-3.90777 -4.37911 -0.19744 205 204 197
-3.92044 -4.37571 -0.20269 208 209 198
-3.93310 -4.37231 -0.20795 220 220 207
-3.94574 -4.36892 -0.21319 213 209 198
-3.95838 -4.36553 -0.21844 210 212 202
-3.97101 -4.36213 -0.22368 216 218 198
-3.98364 -4.35875 -0.22892 222 226 190
-3.99625 -4.35536 -0.23415 217 212 189
-4.07173 -4.33510 -0.26548 197 194 200
-4.08428 -4.33173 -0.27069 179 177 190
-4.09682 -4.32836 -0.27590 204 208 192
-4.10935 -4.32500 -0.28110 206 194 182
-4.12188 -4.32163 -0.28629 202 197 185
-4.13439 -4.31827 -0.29149 198 203 199
-4.14689 -4.31492 -0.29668 202 207 195
-4.15939 -4.31156 -0.30186 206 211 196
-4.17188 -4.30821 -0.30705 209 210 199
-4.18436 -4.30486 -0.31222 203 202 198
-4.19683 -4.30151 -0.31740 211 217 212
-4.20929 -4.29817 -0.32257 221 230 218
-4.22174 -4.29482 -0.32774 218 222 212
-4.24662 -4.28815 -0.33806 206 209 202
-3.66980 -4.42748 -0.11347 181 182 172
-3.68259 -4.42406 -0.11877 182 185 170
-3.69536 -4.42063 -0.12406 174 172 141
-3.70813 -4.41721 -0.12936 174 176 159
-3.72088 -4.41379 -0.13465 175 173 157
-3.73363 -4.41037 -0.13993 171 169 159
-3.74637 -4.40696 -0.14521 182 182 170
-3.75910 -4.40355 -0.15049 190 189 177
-3.77182 -4.40014 -0.15576 189 183 167
-3.78453 -4.39673 -0.16103 194 188 173
-3.79723 -4.39333 -0.16630 201 199 187
-3.80992 -4.38993 -0.17156 199 198 187
-3.82261 -4.38653 -0.17682 193 187 172
-3.83528 -4.38313 -0.18208 189 182 161
-3.84795 -4.37973 -0.18733 194 194 173
-3.86061 -4.37634 -0.19258 197 199 182
-3.87325 -4.37295 -0.19782 190 188 176
-3.88589 -4.36956 -0.20306 195 192 184
-3.89852 -4.36618 -0.20830 206 205 199
-3.91114 -4.36280 -0.21353 203 204 196
-3.92375 -4.35942 -0.21876 208 208 198
-3.93636 -4.35604 -0.22398 206 200 193
-3.94895 -4.35266 -0.22920 205 200 193
-3.96154 -4.34929 -0.23442 207 204 194
-3.97411 -4.34592 -0.23964 215 218 201
-3.98668 -4.34255 -0.24485 217 217 205
-4.06189 -4.32239 -0.27603 213 208 195
-4.07440 -4.31904 -0.28122 188 188 185
-4.08689 -4.31569 -0.28640 210 213 192
-4.09938 -4.31234 -0.29158 215 199 186
-4.11186 -4.30900 -0.29675 205 202 187
-4.12433 -4.30565 -0.30192 197 199 194
-4.13679 -4.30232 -0.30709 202 202 188
-4.14924 -4.29898 -0.31225 199 198 183
-4.16169 -4.29564 -0.31741 210 209 195
-4.17412 -4.29231 -0.32256 205 203 197
-4.18655 -4.28898 -0.32771 214 220 213
-4.19896 -4.28565 -0.33286 219 228 218
-4.21137 -4.28232 -0.33801 214 212 202
-4.23616 -4.27568 -0.34829 206 209 194
-4.27328 -4.26573 -0.36368 210 203 195
-4.28564 -4.26242 -0.36880 211 211 197
-4.29798 -4.25911 -0.37392 221 217 209
-4.31032 -4.25580 -0.37903 218 217 207
-3.66144 -4.41433 -0.12468 185 188 168
-3.67418 -4.41092 -0.12995 184 190 170
-3.68691 -4.40751 -0.13523 189 190 169
-3.69963 -4.40411 -0.14050 190 190 173
-3.71234 -4.40071 -0.14576 186 174 150
-3.72504 -4.39731 -0.15102 170 163 146
-3.73773 -4.39391 -0.15628 178 176 169
-3.75042 -4.39052 -0.16153 191 193 182
-3.76309 -4.38713 -0.16678 197 193 177
-3.77576 -4.38374 -0.17203 202 197 177
-3.78841 -4.38035 -0.17727 203 199 182
-3.80106 -4.37697 -0.18251 196 191 183
-3.81370 -4.37359 -0.18774 191 185 171
-3.82633 -4.37021 -0.19297 188 183 157
-3.83895 -4.36683 -0.19820 194 192 169
-3.85156 -4.36345 -0.20342 205 203 186
-3.86416 -4.36008 -0.20864 208 205 186
-3.87676 -4.35671 -0.21386 207 204 186
-3.88934 -4.35334 -0.21907 200 195 181
-3.90192 -4.34998 -0.22428 186 184 176
-3.91448 -4.34662 -0.22949 183 184 183
-3.92704 -4.34325 -0.23469 195 195 193
-3.93959 -4.33990 -0.23989 204 203 193
-3.95213 -4.33654 -0.24508 208 210 196
-3.96466 -4.33319 -0.25027 213 215 204
-3.97718 -4.32984 -0.25546 217 219 213
-4.05213 -4.30978 -0.28650 214 209 190
-4.06459 -4.30645 -0.29166 196 201 178
-4.07704 -4.30311 -0.29682 210 212 192
-4.08949 -4.29978 -0.30197 226 221 196
-4.10192 -4.29646 -0.30713 209 209 189
-4.11435 -4.29313 -0.31227 215 210 193
-4.12676 -4.28981 -0.31742 216 210 186
-4.13917 -4.28649 -0.32255 197 196 183
-4.15157 -4.28317 -0.32769 216 221 212
-4.16396 -4.27985 -0.33282 219 225 210
-4.17634 -4.27654 -0.33795 225 230 209
-4.18872 -4.27323 -0.34308 215 214 208
-4.20108 -4.26992 -0.34820 207 201 190
-4.22579 -4.26331 -0.35843 206 218 201
-4.23812 -4.26001 -0.36354 211 214 197
-4.25045 -4.25671 -0.36865 211 208 199
-4.26278 -4.25341 -0.37375 211 211 202
-4.27509 -4.25012 -0.37885 211 212 204
-4.28739 -4.24682 -0.38395 223 222 215
-4.29969 -4.24353 -0.38904 227 227 210
-4.31197 -4.24025 -0.39413 211 210 196
-3.65315 -4.40128 -0.13580 186 187 164
-3.66584 -4.39789 -0.14106 182 181 171
-3.67852 -4.39450 -0.14630 192 186 176
-3.69120 -4.39111 -0.15155 201 195 186
-3.70386 -4.38773 -0.15679 202 196 176
-3.71652 -4.38435 -0.16203 181 174 147
-3.72916 -4.38097 -0.16726 179 176 157
-3.74180 -4.37759 -0.17249 182 175 162
-3.75443 -4.37422 -0.17771 192 184 177
-3.76705 -4.37084 -0.18294 206 200 183
-3.77966 -4.36748 -0.18815 207 203 182
-3.79226 -4.36411 -0.19337 200 199 180
-3.80486 -4.36074 -0.19858 197 196 181
-3.81744 -4.35738 -0.20379 200 199 182
-3.83002 -4.35402 -0.20899 204 203 181
-3.84258 -4.35066 -0.21419 205 202 183
-3.85514 -4.34731 -0.21939 206 203 186
-3.86769 -4.34396 -0.22458 200 194 169
-3.88023 -4.34061 -0.22977 187 175 153
-3.89276 -4.33726 -0.23495 182 174 167
-3.90528 -4.33391 -0.24014 188 189 187
-3.91779 -4.33057 -0.24531 202 203 193
-3.93030 -4.32723 -0.25049 210 211 197
-3.94279 -4.32389 -0.25566 212 212 198
-3.95528 -4.32055 -0.26083 209 205 202
-3.96776 -4.31722 -0.26599 213 208 207
-3.98023 -4.31389 -0.27115 214 211 200
-4.05486 -4.29395 -0.30203 207 206 196
-4.06727 -4.29063 -0.30716 204 205 198
-4.07967 -4.28732 -0.31230 215 215 197
-4.09206 -4.28401 -0.31742 201 202 193
-4.10444 -4.28070 -0.32255 223 220 192
-4.11681 -4.27740 -0.32767 222 213 190
-4.12918 -4.27409 -0.33278 205 201 190
-4.14153 -4.27079 -0.33790 220 217 205
-4.15388 -4.26749 -0.34300 225 222 211
-4.16622 -4.26420 -0.34811 233 234 208
-4.17855 -4.26090 -0.35321 213 211 210
-4.19087 -4.25761 -0.35831 212 212 202
-4.20318 -4.25432 -0.36341 206 204 194
-4.21549 -4.25103 -0.36850 208 214 200
-4.22778 -4.24775 -0.37359 206 203 186
-4.24007 -4.24447 -0.37867 206 204 193
-4.25235 -4.24118 -0.38375 212 213 205
-4.26462 -4.23791 -0.38883 210 213 204
-4.27688 -4.23463 -0.39390 209 210 207
-4.28913 -4.23136 -0.39897 217 219 204
-4.30138 -4.22809 -0.40404 213 214 198
-3.64492 -4.38832 -0.14685 189 185 166
-3.65756 -4.38495 -0.15207 193 189 178
-3.67020 -4.38158 -0.15730 195 197 187
-3.68283 -4.37821 -0.16252 196 192 189
-3.69545 -4.37484 -0.16773 201 198 191
-3.70806 -4.37148 -0.17295 204 200 178
-3.72066 -4.36812 -0.17816 196 194 174
-3.73325 -4.36476 -0.18336 194 193 181
-3.74584 -4.36140 -0.18856 209 210 199
-3.75841 -4.35805 -0.19376 218 220 201
-3.77098 -4.35470 -0.19896 210 208 187
-3.78353 -4.35135 -0.20415 198 194 168
-3.79608 -4.34800 -0.20934 199 196 175
-3.80862 -4.34465 -0.21452 206 205 193
-3.82115 -4.34131 -0.21970 208 203 187
-3.83367 -4.33797 -0.22488 204 194 178
-3.84619 -4.33463 -0.23005 201 196 185
-3.85869 -4.33130 -0.23522 202 202 182
-3.87119 -4.32797 -0.24038 199 197 174
-3.88367 -4.32463 -0.24554 199 195 181
-3.89615 -4.32131 -0.25070 208 205 191
-3.90862 -4.31798 -0.25586 214 213 199
-3.92108 -4.31466 -0.26101 220 214 201
-3.93353 -4.31133 -0.26616 216 211 202
-3.94597 -4.30802 -0.27130 215 212 210
-3.95841 -4.30470 -0.27644 216 213 214
-3.97083 -4.30138 -0.28158 213 211 203
-3.98325 -4.29807 -0.28671 218 219 203
-3.99566 -4.29476 -0.29184 220 226 199
-4.03283 -4.28485 -0.30720 215 215 214
-4.05757 -4.27825 -0.31743 206 202 199
-4.06992 -4.27495 -0.32254 211 211 197
-4.08227 -4.27166 -0.32764 203 205 196
-4.09461 -4.26837 -0.33274 220 219 191
-4.10694 -4.26508 -0.33784 212 206 184
-4.11926 -4.26179 -0.34293 205 197 181
-4.13157 -4.25851 -0.34802 213 206 194
-4.14388 -4.25523 -0.35311 214 219 209
-4.15617 -4.25195 -0.35819 218 220 209
-4.16846 -4.24867 -0.36327 208 205 209
-4.18074 -4.24539 -0.36835 221 222 212
-4.19301 -4.24212 -0.37342 220 222 208
-4.20527 -4.23885 -0.37849 215 215 206
-4.21752 -4.23558 -0.38355 214 213 203
-4.22977 -4.23231 -0.38862 218 217 195
-4.24200 -4.22905 -0.39367 215 215 201
-4.25423 -4.22579 -0.39873 210 211 201
-4.26645 -4.22253 -0.40378 197 194 198
-4.27866 -4.21927 -0.40883 210 213 199
-4.29086 -4.21602 -0.41387 215 216 197
-3.62414 -4.37883 -0.15259 184 186 172
-3.63675 -4.37547 -0.15780 186 179 171
-3.64935 -4.37211 -0.16301 182 175 169
-3.66194 -4.36876 -0.16821 179 169 156
-3.67453 -4.36541 -0.17340 175 171 165
-3.68710 -4.36206 -0.17860 195 196 190
-3.69966 -4.35871 -0.18379 203 205 190
-3.71222 -4.35537 -0.18897 192 192 179
-3.72477 -4.35203 -0.19415 191 190 174
-3.73731 -4.34869 -0.19933 206 209 196
-3.74984 -4.34535 -0.20451 211 208 200
-3.76236 -4.34201 -0.20968 206 198 193
-3.77487 -4.33868 -0.21485 205 203 188
-3.78737 -4.33535 -0.22001 204 202 187
-3.79987 -4.33203 -0.22517 206 203 192
-3.81236 -4.32870 -0.23033 211 209 190
-3.82483 -4.32538 -0.23548 205 198 172
-3.83730 -4.32206 -0.24063 199 190 169
-3.84976 -4.31874 -0.24577 204 200 184
-3.86221 -4.31542 -0.25092 207 203 190
-3.87465 -4.31211 -0.25605 200 200 188
-3.88709 -4.30880 -0.26119 200 200 191
-3.89951 -4.30549 -0.26632 211 213 208
-3.91193 -4.30218 -0.27145 219 221 209
-3.92434 -4.29887 -0.27657 209 210 206
-3.93674 -4.29557 -0.28169 211 212 207
-3.94913 -4.29227 -0.28681 211 210 208
-3.96151 -4.28898 -0.29192 216 214 206
-3.97388 -4.28568 -0.29703 221 219 206
-3.98625 -4.28239 -0.30214 216 215 202
-3.99860 -4.27910 -0.30724 213 212 203
-4.01095 -4.27581 -0.31234 213 215 203
-4.02329 -4.27252 -0.31744 220 216 213
-4.04794 -4.26596 -0.32762 197 191 188
-4.06025 -4.26268 -0.33270 202 201 196
-4.07256 -4.25940 -0.33779 212 215 200
-4.08485 -4.25613 -0.34286 209 207 194
-4.09714 -4.25285 -0.34794 211 214 193
-4.10942 -4.24958 -0.35301 214 211 198
-4.12169 -4.24632 -0.35808 218 217 200
-4.13395 -4.24305 -0.36314 210 210 198
-4.14620 -4.23979 -0.36820 208 212 201
-4.15844 -4.23653 -0.37326 208 208 203
-4.17068 -4.23327 -0.37831 219 223 214
-4.18291 -4.23001 -0.38336 232 235 223
-4.19513 -4.22676 -0.38841 218 214 206
-4.20734 -4.22350 -0.39345 212 210 203
-4.21954 -4.22025 -0.39849 219 217 199
-4.23173 -4.21701 -0.40352 215 215 198
-4.24392 -4.21376 -0.40856 215 214 198
-4.25609 -4.21052 -0.41359 205 201 201
-4.26826 -4.20728 -0.41861 213 216 206
-4.28042 -4.20404 -0.42363 217 217 200
-4.29257 -4.20080 -0.42865 217 216 201
-4.30472 -4.19757 -0.43367 215 217 208
-4.31685 -4.19434 -0.43868 217 217 205
-3.60351 -4.36940 -0.15830 188 183 173
-3.61608 -4.36605 -0.16349 189 199 186
-3.62864 -4.36271 -0.16868 185 181 179
-3.64120 -4.35937 -0.17386 192 195 164
-3.65375 -4.35604 -0.17903 186 180 161
-3.66628 -4.35270 -0.18421 176 173 164
-3.67881 -4.34937 -0.18938 185 185 172
-3.69133 -4.34604 -0.19454 194 195 182
-3.70385 -4.34271 -0.19970 192 182 171
-3.71635 -4.33939 -0.20486 179 178 155
-3.72884 -4.33607 -0.21002 186 189 176
-3.74133 -4.33275 -0.21517 197 196 186
-3.75381 -4.32943 -0.22032 200 189 178
-3.76627 -4.32611 -0.22546 200 188 179
-3.77873 -4.32280 -0.23060 197 192 177
-3.79118 -4.31949 -0.23574 195 190 172
-3.80363 -4.31618 -0.24087 201 198 185
-3.81606 -4.31288 -0.24600 203 199 186
-3.82848 -4.30957 -0.25113 200 198 181
-3.84090 -4.30627 -0.25625 200 201 188
-3.85331 -4.30297 -0.26137 202 197 188
-3.86570 -4.29967 -0.26649 201 197 184
-3.87809 -4.29638 -0.27160 201 195 189
-3.89048 -4.29309 -0.27671 215 213 209
-3.90285 -4.28980 -0.28181 223 218 203
-3.91521 -4.28651 -0.28691 212 206 199
-3.92757 -4.28322 -0.29201 207 205 196
-3.93992 -4.27994 -0.29710 205 204 199
-3.95225 -4.27666 -0.30220 219 218 211
-3.96458 -4.27338 -0.30728 227 224 211
-3.97690 -4.27010 -0.31237 219 217 202
-3.98922 -4.26683 -0.31745 211 211 202
-4.00152 -4.26356 -0.32252 212 209 200
-4.01382 -4.26029 -0.32760 224 216 205
-4.02610 -4.25702 -0.33266 215 205 200
-4.03838 -4.25376 -0.33773 203 199 192
-4.05065 -4.25049 -0.34279 196 198 196
-4.06291 -4.24723 -0.34785 209 215 205
-4.07517 -4.24398 -0.35291 204 201 191
-4.08741 -4.24072 -0.35796 204 197 186
-4.09965 -4.23747 -0.36301 214 214 209
-4.11187 -4.23421 -0.36805 217 216 206
-4.12409 -4.23097 -0.37309 211 214 201
-4.13630 -4.22772 -0.37813 211 218 204
-4.14850 -4.22447 -0.38317 209 211 205
-4.16070 -4.22123 -0.38820 212 211 199
-4.17288 -4.21799 -0.39323 222 230 221
-4.18506 -4.21475 -0.39825 214 211 205
-4.19723 -4.21152 -0.40327 220 220 204
-4.20939 -4.20828 -0.40829 228 219 199
-4.22154 -4.20505 -0.41330 218 210 183
-4.23368 -4.20182 -0.41831 218 214 191
-4.24582 -4.19860 -0.42332 212 210 201
-4.25794 -4.19537 -0.42832 215 213 203
-4.27006 -4.19215 -0.43332 215 212 206
-4.28217 -4.18893 -0.43832 214 214 209
-4.29427 -4.18571 -0.44331 222 223 216
-4.30637 -4.18250 -0.44830 221 221 210
-4.31845 -4.17928 -0.45329 216 214 197
-4.33053 -4.17607 -0.45827 224 224 208
-4.34259 -4.17286 -0.46325 219 215 204
-4.48677 -4.13453 -0.52273 232 235 217
-4.49873 -4.13134 -0.52767 227 229 214
-3.58301 -4.36003 -0.16397 194 190 174
-3.59555 -4.35670 -0.16914 185 187 174
-3.60808 -4.35338 -0.17431 184 176 178
-3.62060 -4.35005 -0.17947 182 185 180
-3.63311 -4.34673 -0.18462 190 192 177
-3.64561 -4.34341 -0.18978 189 188 174
-3.65811 -4.34009 -0.19493 179 176 168
-3.67059 -4.33678 -0.20007 173 175 160
-3.68307 -4.33347 -0.20522 188 194 176
-3.69553 -4.33016 -0.21036 198 194 173
-3.70799 -4.32685 -0.21549 185 188 163
-3.72044 -4.32354 -0.22062 179 181 168
-3.73288 -4.32024 -0.22575 191 188 179
-3.74532 -4.31694 -0.23088 202 200 178
-3.75774 -4.31364 -0.23600 204 202 184
-3.77016 -4.31034 -0.24111 197 196 183
-3.78256 -4.30705 -0.24623 197 194 177
-3.79496 -4.30376 -0.25134 203 196 182
-3.80735 -4.30047 -0.25645 203 197 185
-3.81973 -4.29718 -0.26155 200 195 179
-3.83210 -4.29390 -0.26665 201 193 181
-3.84447 -4.29061 -0.27175 203 202 194
-3.85682 -4.28733 -0.27684 204 207 200
-3.86917 -4.28406 -0.28193 210 210 203
-3.88151 -4.28078 -0.28701 227 226 213
-3.89384 -4.27751 -0.29210 223 217 206
-3.90616 -4.27424 -0.29717 211 205 196
-3.91847 -4.27097 -0.30225 204 203 198
-3.93077 -4.26770 -0.30732 210 209 204
-3.94307 -4.26444 -0.31239 222 221 209
-3.95535 -4.26117 -0.31745 226 224 209
-3.96763 -4.25791 -0.32251 220 222 200
-3.97990 -4.25466 -0.32757 204 206 196
-3.99216 -4.25140 -0.33263 200 200 194
-4.00442 -4.24815 -0.33768 221 218 210
-4.01666 -4.24490 -0.34272 218 212 211
-4.02890 -4.24165 -0.34777 220 224 208
-4.04112 -4.23840 -0.35281 202 200 196
-4.05334 -4.23516 -0.35784 207 211 206
-4.06555 -4.23192 -0.36288 214 213 201
-4.07775 -4.22868 -0.36791 209 203 187
-4.08995 -4.22544 -0.37293 216 217 214
-4.10213 -4.22220 -0.37796 223 225 215
-4.11431 -4.21897 -0.38297 225 227 204
-4.12648 -4.21574 -0.38799 212 212 204
-4.13864 -4.21251 -0.39300 209 210 203
-4.15079 -4.20929 -0.39801 219 220 200
-4.16293 -4.20606 -0.40302 215 215 205
-4.17507 -4.20284 -0.40802 211 212 209
-4.18719 -4.19962 -0.41302 228 231 214
-4.19931 -4.19640 -0.41801 226 220 201
-4.21142 -4.19319 -0.42300 219 212 173
-4.22352 -4.18997 -0.42799 222 219 191
-4.23562 -4.18676 -0.43298 223 220 203
-4.24770 -4.18356 -0.43796 219 215 204
-4.25978 -4.18035 -0.44294 216 218 212
-4.27185 -4.17715 -0.44791 216 215 214
-4.28391 -4.17394 -0.45288 222 220 213
-4.29596 -4.17074 -0.45785 219 220 212
-4.30800 -4.16755 -0.46281 218 219 211
-4.32004 -4.16435 -0.46777 230 231 218
-4.33206 -4.16116 -0.47273 224 221 202
-4.46382 -4.12618 -0.52704 219 222 209
-4.47575 -4.12301 -0.53196 223 226 205
-4.60642 -4.08831 -0.58582 222 225 226
-3.56266 -4.35073 -0.16961 209 206 174
-3.57516 -4.34741 -0.17475 192 185 176
-3.58765 -4.34410 -0.17990 186 180 174
-3.60014 -4.34079 -0.18504 188 191 177
-3.61261 -4.33749 -0.19018 198 198 189
-3.62508 -4.33418 -0.19531 193 188 186
-3.63754 -4.33088 -0.20044 173 167 176
-3.64999 -4.32758 -0.20557 178 176 171
-3.66243 -4.32428 -0.21069 174 176 165
-3.67486 -4.32099 -0.21581 175 170 167
-3.68728 -4.31769 -0.22093 177 169 161
-3.69970 -4.31440 -0.22604 179 168 156
-3.71210 -4.31111 -0.23115 181 174 172
-3.72450 -4.30783 -0.23625 206 201 189
-3.73689 -4.30454 -0.24136 227 223 199
-3.74927 -4.30126 -0.24645 216 209 191
-3.76164 -4.29798 -0.25155 201 196 183
-3.77401 -4.29470 -0.25664 199 197 182
-3.78636 -4.29143 -0.26173 209 212 188
-3.79871 -4.28816 -0.26681 211 210 193
-3.81104 -4.28488 -0.27189 207 201 186
-3.82337 -4.28162 -0.27697 206 200 183
-3.83569 -4.27835 -0.28204 206 199 191
-3.84801 -4.27509 -0.28711 213 208 198
-3.86031 -4.27182 -0.29218 218 216 205
-3.87260 -4.26857 -0.29724 220 219 209
-3.88489 -4.26531 -0.30230 218 214 203
-3.89717 -4.26205 -0.30736 215 211 200
-3.90944 -4.25880 -0.31241 206 205 203
-3.92170 -4.25555 -0.31746 213 213 205
-3.93395 -4.25230 -0.32251 222 223 209
-3.94620 -4.24906 -0.32755 224 222 207
-3.95843 -4.24581 -0.33259 212 207 186
-3.97066 -4.24257 -0.33762 195 189 174
-3.98288 -4.23933 -0.34265 191 193 181
-3.99509 -4.23610 -0.34768 210 215 210
-4.00729 -4.23286 -0.35271 218 219 211
-4.01948 -4.22963 -0.35773 224 225 203
-4.03167 -4.22640 -0.36275 206 196 185
-4.04384 -4.22317 -0.36776 202 196 191
-4.05601 -4.21995 -0.37277 216 210 201
-4.06817 -4.21672 -0.37778 210 208 193
-4.08032 -4.21350 -0.38278 216 223 209
-4.09247 -4.21028 -0.38778 226 224 213
-4.10460 -4.20707 -0.39278 231 229 211
-4.11673 -4.20385 -0.39778 218 213 204
-4.12885 -4.20064 -0.40277 212 211 198
-4.14096 -4.19743 -0.40775 234 236 217
-4.15306 -4.19422 -0.41274 223 228 211
-4.16515 -4.19101 -0.41772 214 220 209
-4.17723 -4.18781 -0.42269 222 221 210
-4.18931 -4.18461 -0.42767 222 219 206
-4.20138 -4.18141 -0.43264 221 221 200
-4.21344 -4.17821 -0.43760 230 230 217
-4.22549 -4.17502 -0.44256 228 228 218
-4.23753 -4.17183 -0.44752 227 226 220
-4.24957 -4.16864 -0.45248 225 226 219
-4.26160 -4.16545 -0.45743 227 226 219
-4.27362 -4.16226 -0.46238 225 221 214
-4.28563 -4.15908 -0.46733 220 220 213
-4.29763 -4.15590 -0.47227 222 219 212
-4.30962 -4.15272 -0.47721 236 239 226
-4.32161 -4.14954 -0.48215 228 229 207
-4.41720 -4.12420 -0.52151 218 224 211
-4.42912 -4.12104 -0.52642 224 226 214
-4.44102 -4.11788 -0.53132 225 222 212
-4.45292 -4.11473 -0.53622 227 229 211
-4.46481 -4.11158 -0.54112 217 217 201
-4.50042 -4.10214 -0.55578 219 214 201
-4.51228 -4.09899 -0.56067 217 212 203
-4.52413 -4.09585 -0.56555 217 217 212
-4.53597 -4.09271 -0.57042 225 226 216
-4.54780 -4.08958 -0.57529 226 226 217
-4.55962 -4.08644 -0.58016 224 226 218
-4.57144 -4.08331 -0.58503 223 226 218
-4.58325 -4.08018 -0.58989 220 222 221
-4.59505 -4.07705 -0.59475 225 228 229
-3.55491 -4.33819 -0.18033 211 221 194
-3.56737 -4.33489 -0.18545 190 188 188
-3.57982 -4.33160 -0.19057 183 178 162
-3.59226 -4.32831 -0.19569 183 190 168
-3.60469 -4.32502 -0.20081 180 177 169
-3.61711 -4.32173 -0.20592 185 178 167
-3.62953 -4.31844 -0.21103 179 176 166
-3.64193 -4.31516 -0.21613 178 173 165
-3.65433 -4.31188 -0.22123 172 174 162
-3.66672 -4.30860 -0.22633 175 173 156
-3.67910 -4.30532 -0.23142 178 175 159
-3.69147 -4.30205 -0.23651 182 181 158
-3.70383 -4.29878 -0.24160 191 192 174
-3.71618 -4.29551 -0.24668 211 215 201
-3.72853 -4.29224 -0.25176 222 223 207
-3.74087 -4.28897 -0.25683 204 197 194
-3.75319 -4.28571 -0.26191 202 200 188
-3.76551 -4.28245 -0.26697 210 208 182
-3.77783 -4.27919 -0.27204 210 199 171
-3.79013 -4.27593 -0.27710 210 205 188
-3.80242 -4.27268 -0.28216 213 219 207
-3.81471 -4.26943 -0.28721 218 222 202
-3.82699 -4.26618 -0.29226 216 217 191
-3.83926 -4.26293 -0.29731 203 205 184
-3.85152 -4.25968 -0.30236 187 189 185
-3.86377 -4.25644 -0.30740 189 190 192
-3.87601 -4.25320 -0.31243 211 209 196
-3.88825 -4.24996 -0.31747 220 216 204
-3.90047 -4.24673 -0.32250 215 214 207
-3.91269 -4.24349 -0.32753 212 211 202
-3.92490 -4.24026 -0.33255 214 214 199
-3.93710 -4.23703 -0.33757 210 210 195
-3.94930 -4.23380 -0.34259 201 198 185
-3.96148 -4.23058 -0.34760 200 195 176
-3.97366 -4.22736 -0.35261 180 176 174
-3.98583 -4.22414 -0.35761 196 193 191
-3.99799 -4.22092 -0.36262 205 201 202
-4.01014 -4.21770 -0.36762 207 206 197
-4.02228 -4.21449 -0.37261 207 209 200
-4.03441 -4.21127 -0.37760 209 207 196
-4.04654 -4.20807 -0.38259 219 217 191
-4.05866 -4.20486 -0.38758 197 189 187
-4.07077 -4.20165 -0.39256 202 207 206
-4.08287 -4.19845 -0.39754 206 213 207
-4.09496 -4.19525 -0.40252 206 212 208
-4.10705 -4.19205 -0.40749 204 200 198
-4.11912 -4.18885 -0.41246 207 205 197
-4.13119 -4.18566 -0.41742 228 235 220
-4.14325 -4.18247 -0.42238 220 218 210
-4.15531 -4.17928 -0.42734 212 202 196
-4.16735 -4.17609 -0.43230 215 209 197
-4.17938 -4.17290 -0.43725 222 221 205
-4.19141 -4.16972 -0.44220 214 206 199
-4.20343 -4.16654 -0.44714 220 220 215
-4.21544 -4.16336 -0.45208 218 219 216
-4.22744 -4.16018 -0.45702 230 236 222
-4.23944 -4.15701 -0.46196 228 225 215
-4.25142 -4.15384 -0.46689 220 217 204
-4.26340 -4.15067 -0.47181 216 210 207
-4.27537 -4.14750 -0.47674 219 215 211
-4.28733 -4.14433 -0.48166 216 206 202
-4.29929 -4.14117 -0.48658 225 223 217
-4.31123 -4.13801 -0.49149 223 226 213
-4.40650 -4.11279 -0.53069 222 226 212
-4.41838 -4.10965 -0.53557 227 229 222
-4.43024 -4.10651 -0.54046 225 225 220
-4.44210 -4.10337 -0.54533 228 233 219
-4.45395 -4.10023 -0.55021 223 226 214
-4.46579 -4.09710 -0.55508 217 216 211
-4.47762 -4.09397 -0.55995 226 224 215
-4.48944 -4.09084 -0.56481 234 234 218
-4.50126 -4.08771 -0.56967 228 229 215
-4.51307 -4.08458 -0.57453 223 226 222
-4.52487 -4.08146 -0.57939 233 236 229
-4.53666 -4.07834 -0.58424 231 229 222
-4.54845 -4.07522 -0.58909 225 221 217
-4.56022 -4.07210 -0.59393 223 223 218
-4.57199 -4.06899 -0.59877 224 223 221
-4.58375 -4.06587 -0.60361 229 230 227
-3.53480 -4.32903 -0.18586 190 205 193
-3.54722 -4.32575 -0.19097 208 223 201
-3.55963 -4.32247 -0.19607 205 210 199
-3.57204 -4.31919 -0.20117 188 191 167
-3.58444 -4.31591 -0.20627 182 172 169
-3.59682 -4.31264 -0.21136 172 173 166
-3.60920 -4.30937 -0.21645 185 188 169
-3.62157 -4.30610 -0.22153 186 179 151
-3.63393 -4.30283 -0.22661 178 178 163
-3.64629 -4.29957 -0.23169 180 182 166
-3.65863 -4.29630 -0.23676 186 187 164
-3.67097 -4.29304 -0.24183 198 200 170
-3.68330 -4.28979 -0.24690 197 191 167
-3.69562 -4.28653 -0.25196 191 182 163
-3.70793 -4.28328 -0.25702 194 186 179
-3.72023 -4.28002 -0.26208 198 192 189
-3.73252 -4.27678 -0.26713 199 194 190
-3.74481 -4.27353 -0.27218 203 197 187
-3.75709 -4.27028 -0.27723 204 194 179
-3.76935 -4.26704 -0.28227 200 184 168
-3.78161 -4.26380 -0.28731 203 194 180
-3.79387 -4.26056 -0.29235 209 210 198
-3.80611 -4.25733 -0.29738 214 216 198
-3.81834 -4.25410 -0.30241 214 212 195
-3.83057 -4.25086 -0.30744 204 201 192
-3.84279 -4.24763 -0.31246 196 192 189
-3.85500 -4.24441 -0.31748 195 192 191
-3.86720 -4.24118 -0.32249 206 203 197
-3.87939 -4.23796 -0.32750 214 211 203
-3.89158 -4.23474 -0.33251 211 210 203
-3.90375 -4.23152 -0.33752 208 211 202
-3.91592 -4.22831 -0.34252 204 208 199
-3.92808 -4.22509 -0.34751 197 202 194
-3.94023 -4.22188 -0.35251 209 211 196
-3.95237 -4.21867 -0.35750 219 217 203
-3.96451 -4.21547 -0.36249 199 196 193
-3.97663 -4.21226 -0.36747 208 208 203
-3.98875 -4.20906 -0.37245 209 211 201
-4.00086 -4.20586 -0.37743 203 202 190
-4.01296 -4.20266 -0.38240 203 196 183
-4.02506 -4.19947 -0.38738 208 200 192
-4.03714 -4.19627 -0.39234 218 213 190
-4.04922 -4.19308 -0.39731 207 201 194
-4.06129 -4.18989 -0.40227 208 206 198
-4.07335 -4.18670 -0.40722 200 201 194
-4.08540 -4.18352 -0.41218 204 204 194
-4.09744 -4.18034 -0.41713 218 218 203
-4.10948 -4.17716 -0.42208 216 214 205
-4.12150 -4.17398 -0.42702 222 229 220
-4.13352 -4.17080 -0.43196 217 213 204
-4.14553 -4.16763 -0.43690 213 201 198
-4.15754 -4.16445 -0.44183 217 216 201
-4.16953 -4.16128 -0.44676 229 227 217
-4.18152 -4.15812 -0.45169 219 210 197
-4.19349 -4.15495 -0.45661 211 210 200
-4.20546 -4.15179 -0.46153 203 201 199
-4.39588 -4.10146 -0.53980 221 223 203
-4.40772 -4.09834 -0.54466 221 222 214
-4.41954 -4.09521 -0.54952 222 224 218
-4.43136 -4.09209 -0.55438 225 230 218
-4.44317 -4.08897 -0.55923 221 224 214
-4.45497 -4.08585 -0.56408 219 220 212
-4.46676 -4.08273 -0.56893 229 228 221
-4.47855 -4.07962 -0.57378 237 239 231
-4.49032 -4.07651 -0.57862 236 239 230
-4.50209 -4.07339 -0.58345 226 228 226
-4.51385 -4.07029 -0.58829 228 230 227
-4.52561 -4.06718 -0.59312 228 226 224
-4.53735 -4.06408 -0.59795 229 227 224
-4.54909 -4.06097 -0.60277 228 226 222
-4.56082 -4.05787 -0.60759 228 227 223
-4.57254 -4.05478 -0.61241 226 226 223
-4.58425 -4.05168 -0.61723 225 227 226
-3.52721 -4.31666 -0.19645 191 196 189
-3.53959 -4.31340 -0.20153 188 187 181
-3.55196 -4.31013 -0.20661 192 190 175
-3.56432 -4.30687 -0.21169 191 189 177
-3.57667 -4.30361 -0.21676 201 200 169
-3.58902 -4.30035 -0.22183 197 193 170
-3.60135 -4.29710 -0.22689 194 191 177
-3.61368 -4.29385 -0.23196 197 195 176
-3.62600 -4.29060 -0.23702 183 184 161
-3.63831 -4.28735 -0.24207 173 174 156
-3.65061 -4.28410 -0.24712 177 181 158
-3.66290 -4.28086 -0.25217 187 185 172
-3.67519 -4.27761 -0.25722 190 189 176
-3.68746 -4.27438 -0.26226 179 174 160
-3.69973 -4.27114 -0.26729 189 191 177
-3.71199 -4.26790 -0.27233 197 189 171
-3.72424 -4.26467 -0.27736 194 183 165
-3.73649 -4.26144 -0.28239 202 196 182
-3.74872 -4.25821 -0.28741 210 204 196
-3.76095 -4.25498 -0.29243 208 212 199
-3.77316 -4.25176 -0.29745 204 209 189
-3.78537 -4.24854 -0.30246 196 187 169
-3.79757 -4.24532 -0.30747 190 180 172
-3.80976 -4.24210 -0.31248 198 197 193
-3.82195 -4.23889 -0.31748 210 208 197
-3.83412 -4.23567 -0.32248 213 207 194
-3.84629 -4.23246 -0.32748 210 206 199
-3.85845 -4.22926 -0.33247 206 204 204
-3.87060 -4.22605 -0.33746 207 206 201
-3.88274 -4.22284 -0.34245 215 215 201
-3.89488 -4.21964 -0.34743 212 212 203
-3.90700 -4.21644 -0.35241 207 206 196
-3.91912 -4.21325 -0.35739 205 202 184
-3.93123 -4.21005 -0.36236 208 211 195
-3.94333 -4.20686 -0.36733 220 221 213
-3.95543 -4.20367 -0.37230 227 230 213
-3.96751 -4.20048 -0.37726 221 217 207
-3.97959 -4.19729 -0.38222 213 208 200
-3.99165 -4.19411 -0.38717 203 199 192
-4.00371 -4.19092 -0.39213 198 195 186
-4.01577 -4.18774 -0.39707 200 200 193
-4.02781 -4.18457 -0.40202 214 220 209
-4.03984 -4.18139 -0.40696 221 218 204
-4.05187 -4.17822 -0.41190 218 223 198
-4.06389 -4.17504 -0.41684 201 201 188
-4.07590 -4.17188 -0.42177 209 218 200
-4.08790 -4.16871 -0.42670 224 223 199
-4.09990 -4.16554 -0.43162 222 220 194
-4.11188 -4.16238 -0.43655 225 228 208
-4.12386 -4.15922 -0.44146 218 214 210
-4.13583 -4.15606 -0.44638 221 225 214
-4.14780 -4.15290 -0.45129 220 216 204
-4.15975 -4.14975 -0.45620 220 219 213
-4.17169 -4.14660 -0.46111 223 224 209
-4.18363 -4.14345 -0.46601 212 208 197
-4.19556 -4.14030 -0.47091 204 194 180
-4.20748 -4.13715 -0.47580 204 200 193
-4.21940 -4.13401 -0.48070 210 209 199
-4.23130 -4.13087 -0.48558 215 216 198
-4.24320 -4.12773 -0.49047 214 218 203
-4.25509 -4.12459 -0.49535 212 213 204
-4.39713 -4.08711 -0.55368 206 212 207
-4.40892 -4.08400 -0.55852 216 218 212
-4.42070 -4.08089 -0.56336 219 217 212
-4.43247 -4.07779 -0.56819 216 215 210
-4.44423 -4.07468 -0.57302 219 220 209
-4.45598 -4.07158 -0.57785 231 229 216
-4.46773 -4.06848 -0.58267 229 227 221
-4.47947 -4.06538 -0.58749 222 221 219
-4.49120 -4.06229 -0.59231 218 218 216
-4.50292 -4.05919 -0.59712 223 220 217
-4.51463 -4.05610 -0.60193 228 227 221
-4.52634 -4.05301 -0.60674 228 225 222
-4.53804 -4.04993 -0.61155 225 222 222
-4.54973 -4.04684 -0.61635 227 227 225
-4.56141 -4.04376 -0.62114 224 224 222
-4.57308 -4.04068 -0.62594 219 219 222
-4.58475 -4.03760 -0.63073 229 232 233
-3.51968 -4.30439 -0.20695 184 189 184
-3.53201 -4.30114 -0.21201 194 199 184
-3.54434 -4.29789 -0.21707 194 194 186
-3.55666 -4.29464 -0.22213 191 191 175
-3.56897 -4.29140 -0.22718 201 202 179
-3.58127 -4.28816 -0.23222 194 192 168
-3.59356 -4.28492 -0.23727 169 166 160
-3.60584 -4.28168 -0.24231 184 181 171
-3.61812 -4.27845 -0.24734 198 197 176
-3.63039 -4.27522 -0.25238 199 191 161
-3.64265 -4.27199 -0.25740 197 194 173
-3.65490 -4.26876 -0.26243 194 185 171
-3.66714 -4.26553 -0.26745 193 183 166
-3.67937 -4.26231 -0.27247 189 184 170
-3.69160 -4.25909 -0.27749 198 195 183
-3.70381 -4.25587 -0.28250 203 199 180
-3.71602 -4.25265 -0.28751 194 187 177
-3.72822 -4.24944 -0.29251 201 199 189
-3.74041 -4.24623 -0.29752 214 213 199
-3.75260 -4.24302 -0.30252 208 205 187
-3.76477 -4.23981 -0.30751 202 197 179
-3.77694 -4.23660 -0.31250 199 183 169
-3.78910 -4.23340 -0.31749 204 187 176
-3.80125 -4.23020 -0.32248 220 218 206
-3.81339 -4.22700 -0.32746 224 229 214
-3.82553 -4.22380 -0.33244 208 207 196
-3.83765 -4.22061 -0.33741 194 195 187
-3.84977 -4.21741 -0.34238 199 203 194
-3.86188 -4.21422 -0.34735 200 195 195
-3.87398 -4.21104 -0.35231 203 203 202
-3.88607 -4.20785 -0.35728 217 222 208
-3.89815 -4.20467 -0.36223 221 224 208
-3.91023 -4.20148 -0.36719 218 219 207
-3.92230 -4.19830 -0.37214 219 218 207
-3.93436 -4.19513 -0.37709 223 218 215
-3.94641 -4.19195 -0.38203 229 236 223
-3.95845 -4.18878 -0.38697 229 233 217
-3.97049 -4.18561 -0.39191 224 218 207
-3.98251 -4.18244 -0.39684 227 217 211
-3.99453 -4.17927 -0.40177 225 214 208
-4.00654 -4.17611 -0.40670 228 224 213
-4.01855 -4.17295 -0.41163 233 232 221
-4.03054 -4.16978 -0.41655 225 220 211
-4.04253 -4.16663 -0.42147 227 231 217
-4.05450 -4.16347 -0.42638 222 220 202
-4.06647 -4.16032 -0.43129 238 241 217
-4.07844 -4.15717 -0.43620 236 231 206
-4.09039 -4.15402 -0.44110 218 221 211
-4.10234 -4.15087 -0.44600 226 235 217
-4.11427 -4.14772 -0.45090 225 226 214
-4.12620 -4.14458 -0.45580 219 219 211
-4.13812 -4.14144 -0.46069 217 215 203
-4.15004 -4.13830 -0.46557 209 207 208
-4.16194 -4.13516 -0.47046 214 214 205
-4.17384 -4.13203 -0.47534 209 207 198
-4.18573 -4.12889 -0.48022 205 193 178
-4.19761 -4.12576 -0.48509 207 202 195
-4.20948 -4.12264 -0.48996 204 208 194
-4.22135 -4.11951 -0.49483 211 214 199
-4.23321 -4.11639 -0.49970 210 215 195
-4.24506 -4.11326 -0.50456 205 205 188
-4.31598 -4.09458 -0.53366 222 218 206
-4.32778 -4.09147 -0.53850 227 223 214
-4.38663 -4.07596 -0.56264 210 216 209
-4.39837 -4.07287 -0.56746 223 227 219
-4.41011 -4.06977 -0.57228 224 222 217
-4.42184 -4.06668 -0.57709 220 219 213
-4.43356 -4.06359 -0.58190 221 222 212
-4.44528 -4.06051 -0.58670 228 229 217
-4.45699 -4.05742 -0.59151 225 224 219
-4.46869 -4.05434 -0.59631 216 216 212
-4.48038 -4.05126 -0.60110 215 218 213
-4.49206 -4.04818 -0.60590 225 226 221
-4.50374 -4.04511 -0.61069 235 233 224
-4.51540 -4.04203 -0.61547 228 221 219
-4.52706 -4.03896 -0.62026 222 219 221
-4.53872 -4.03589 -0.62504 225 228 227
-4.55036 -4.03282 -0.62982 223 225 225
-4.56200 -4.02976 -0.63459 217 218 223
-4.57363 -4.02669 -0.63936 221 225 229
-3.51220 -4.29220 -0.21738 183 178 175
-3.52449 -4.28897 -0.22242 193 193 181
-3.53678 -4.28574 -0.22746 195 186 183
-3.54905 -4.28251 -0.23249 189 179 170
-3.56132 -4.27928 -0.23752 198 198 187
-3.57358 -4.27606 -0.24254 184 180 168
-3.58583 -4.27283 -0.24756 167 166 156
-3.59807 -4.26961 -0.25258 168 172 160
-3.61030 -4.26639 -0.25759 184 184 169
-3.62252 -4.26318 -0.26260 186 183 166
-3.63474 -4.25996 -0.26761 184 186 176
-3.64695 -4.25675 -0.27262 198 197 180
-3.65915 -4.25354 -0.27762 203 198 180
-3.67134 -4.25033 -0.28261 204 198 182
-3.68352 -4.24713 -0.28761 206 203 190
-3.69570 -4.24393 -0.29260 212 209 193
-3.70786 -4.24073 -0.29758 199 192 189
-3.72002 -4.23753 -0.30257 196 190 191
-3.73217 -4.23433 -0.30755 211 210 203
-3.74431 -4.23114 -0.31252 210 209 195
-3.75645 -4.22794 -0.31750 204 202 188
-3.76857 -4.22475 -0.32247 210 214 198
-3.78069 -4.22157 -0.32743 217 226 207
-3.79280 -4.21838 -0.33240 219 226 213
-3.80490 -4.21520 -0.33736 210 208 213
-3.81699 -4.21202 -0.34231 207 203 203
-3.82907 -4.20884 -0.34727 220 221 200
-3.84115 -4.20566 -0.35222 220 226 208
-3.85322 -4.20249 -0.35716 213 221 213
-3.86528 -4.19931 -0.36211 212 218 210
-3.87733 -4.19614 -0.36705 221 221 217
-3.88937 -4.19297 -0.37198 230 231 226
-3.90140 -4.18981 -0.37692 227 226 217
-3.91343 -4.18664 -0.38185 217 214 205
-3.92545 -4.18348 -0.38677 205 207 202
-3.93746 -4.18032 -0.39169 207 210 197
-3.94946 -4.17716 -0.39661 211 210 207
-3.96146 -4.17401 -0.40153 213 216 213
-3.97344 -4.17086 -0.40644 219 216 214
-3.98542 -4.16771 -0.41135 219 224 214
-3.99739 -4.16456 -0.41626 224 225 217
-4.00935 -4.16141 -0.42116 229 226 221
-4.02131 -4.15826 -0.42606 224 221 218
-4.03325 -4.15512 -0.43096 239 237 228
-4.04519 -4.15198 -0.43585 235 227 216
-4.05712 -4.14884 -0.44074 235 238 218
-4.06904 -4.14571 -0.44563 221 220 210
-4.08095 -4.14257 -0.45051 217 211 206
-4.09286 -4.13944 -0.45539 230 232 209
-4.10475 -4.13631 -0.46027 221 216 202
-4.11664 -4.13318 -0.46514 206 197 191
-4.12853 -4.13006 -0.47001 204 198 198
-4.14040 -4.12693 -0.47488 207 204 208
-4.15226 -4.12381 -0.47974 212 204 197
-4.16412 -4.12069 -0.48460 213 209 201
-4.17597 -4.11757 -0.48946 216 219 200
-4.18781 -4.11446 -0.49431 221 220 205
-4.19965 -4.11134 -0.49916 218 215 203
-4.21147 -4.10823 -0.50401 216 216 202
-4.24690 -4.09891 -0.51853 207 203 199
-4.25869 -4.09581 -0.52337 201 200 192
-4.27048 -4.09271 -0.52820 211 211 200
-4.29403 -4.08651 -0.53785 221 221 212
-4.30579 -4.08342 -0.54267 221 216 208
-4.31754 -4.08033 -0.54749 232 231 218
-4.32929 -4.07724 -0.55231 226 226 214
-4.38790 -4.06182 -0.57633 217 222 215
-4.39960 -4.05874 -0.58113 219 220 218
-4.41130 -4.05566 -0.58592 220 219 214
-4.42298 -4.05259 -0.59071 219 217 209
-4.43466 -4.04952 -0.59549 217 216 209
-4.44632 -4.04645 -0.60028 225 227 219
-4.45798 -4.04338 -0.60506 224 225 221
-4.46964 -4.04031 -0.60983 220 218 214
-4.48128 -4.03725 -0.61461 229 230 224
-4.49292 -4.03419 -0.61938 238 236 228
-4.50455 -4.03113 -0.62414 230 225 221
-4.51617 -4.02807 -0.62891 219 218 218
-4.52778 -4.02502 -0.63367 216 218 219
-4.53939 -4.02196 -0.63842 217 221 223
-4.55099 -4.01891 -0.64318 217 218 222
-4.56258 -4.01586 -0.64793 221 221 224
-3.45570 -4.29300 -0.20763 198 200 178
-3.46798 -4.28977 -0.21266 202 198 184
-3.48026 -4.28655 -0.21769 206 200 172
-3.49252 -4.28333 -0.22271 199 194 168
-3.50478 -4.28011 -0.22773 194 186 181
-3.51703 -4.27689 -0.23275 199 198 192
-3.52927 -4.27367 -0.23776 199 196 192
-3.54150 -4.27046 -0.24277 189 184 176
-3.55372 -4.26725 -0.24778 186 182 164
-3.56594 -4.26404 -0.25278 182 176 167
-3.57815 -4.26083 -0.25778 182 180 168
-3.59035 -4.25763 -0.26278 184 184 177
-3.60254 -4.25443 -0.26777 191 191 182
-3.61472 -4.25123 -0.27276 184 175 169
-3.62689 -4.24803 -0.27774 169 164 160
-3.63906 -4.24483 -0.28272 181 187 184
-3.65122 -4.24164 -0.28770 196 197 181
-3.66337 -4.23845 -0.29268 191 180 182
-3.67551 -4.23526 -0.29765 197 191 186
-3.68764 -4.23207 -0.30262 207 202 188
-3.69976 -4.22889 -0.30758 204 200 180
-3.71188 -4.22570 -0.31255 200 200 177
-3.72399 -4.22252 -0.31751 203 203 185
-3.73609 -4.21934 -0.32246 203 204 190
-3.74818 -4.21617 -0.32741 204 205 192
-3.76026 -4.21299 -0.33236 211 207 196
-3.77234 -4.20982 -0.33731 215 211 196
-3.78441 -4.20665 -0.34225 214 214 201
-3.79646 -4.20348 -0.34719 206 204 200
-3.80852 -4.20032 -0.35212 201 201 201
-3.82056 -4.19715 -0.35705 206 211 209
-3.83259 -4.19399 -0.36198 207 208 204
-3.84462 -4.19083 -0.36691 212 212 204
-3.85664 -4.18768 -0.37183 210 210 205
-3.86865 -4.18452 -0.37675 211 208 208
-3.88065 -4.18137 -0.38166 223 221 214
-3.89264 -4.17822 -0.38657 225 219 214
-3.90463 -4.17507 -0.39148 214 208 198
-3.91661 -4.17192 -0.39639 215 218 202
-3.92858 -4.16878 -0.40129 217 219 206
-3.94054 -4.16564 -0.40619 204 208 200
-3.95249 -4.16250 -0.41108 206 211 206
-3.96444 -4.15936 -0.41597 215 219 208
-3.97637 -4.15622 -0.42086 205 196 197
-3.98830 -4.15309 -0.42575 199 196 196
-4.00022 -4.14996 -0.43063 208 207 210
-4.01214 -4.14683 -0.43551 218 221 221
-4.02404 -4.14370 -0.44038 230 234 229
-4.03594 -4.14057 -0.44526 222 227 223
-4.04783 -4.13745 -0.45013 230 236 224
-4.05971 -4.13433 -0.45499 233 234 223
-4.07158 -4.13121 -0.45985 234 228 218
-4.08345 -4.12809 -0.46471 215 205 210
-4.09530 -4.12498 -0.46957 215 216 198
-4.10715 -4.12187 -0.47442 211 198 189
-4.11900 -4.11876 -0.47927 209 206 201
-4.13083 -4.11565 -0.48412 214 217 214
-4.14265 -4.11254 -0.48896 218 219 213
-4.15447 -4.10944 -0.49380 221 224 211
-4.16628 -4.10633 -0.49863 215 221 203
-4.17808 -4.10323 -0.50347 222 226 208
-4.18988 -4.10014 -0.50830 208 203 200
-4.23697 -4.08776 -0.52759 210 214 204
-4.24873 -4.08468 -0.53240 204 201 181
-4.26048 -4.08159 -0.53721 208 208 194
-4.28394 -4.07542 -0.54682 225 224 220
-4.29567 -4.07235 -0.55162 226 226 218
-4.30738 -4.06927 -0.55642 229 228 220
-4.31909 -4.06619 -0.56121 228 228 218
-4.38917 -4.04778 -0.58991 215 217 214
-4.40082 -4.04472 -0.59469 219 218 214
-4.41247 -4.04166 -0.59945 219 217 206
-4.42411 -4.03860 -0.60422 214 215 204
-4.43574 -4.03555 -0.60898 223 226 219
-4.44736 -4.03250 -0.61374 228 227 223
-4.45897 -4.02945 -0.61850 227 222 214
-4.47058 -4.02640 -0.62325 228 225 216
-4.48218 -4.02335 -0.62800 224 218 215
-4.49377 -4.02030 -0.63275 225 221 218
-4.50535 -4.01726 -0.63749 218 215 213
-4.51693 -4.01422 -0.64223 207 201 203
-4.52850 -4.01118 -0.64697 211 208 211
-4.54006 -4.00815 -0.65170 221 222 223
-4.55161 -4.00511 -0.65644 228 231 229
-3.21436 -4.34235 -0.12220 190 190 164
-3.22676 -4.33910 -0.12727 189 188 168
-3.39946 -4.29380 -0.19793 192 190 171
-3.41173 -4.29058 -0.20295 204 199 182
-3.42400 -4.28736 -0.20797 206 204 183
-3.43626 -4.28414 -0.21299 201 204 176
-3.44850 -4.28093 -0.21800 192 196 171
-3.46074 -4.27772 -0.22301 192 192 170
-3.47297 -4.27451 -0.22801 202 197 183
-3.48520 -4.27131 -0.23301 203 197 181
-3.49741 -4.26810 -0.23801 190 183 174
-3.50962 -4.26490 -0.24300 179 179 187
-3.52182 -4.26170 -0.24799 182 181 182
-3.53401 -4.25850 -0.25298 190 191 183
-3.54619 -4.25531 -0.25797 195 195 172
-3.55836 -4.25211 -0.26295 188 180 162
-3.57053 -4.24892 -0.26792 181 171 154
-3.58268 -4.24573 -0.27290 194 198 186
-3.59483 -4.24255 -0.27787 207 205 186
-3.60697 -4.23936 -0.28284 197 186 167
-3.61910 -4.23618 -0.28780 179 172 157
-3.63123 -4.23300 -0.29276 182 176 165
-3.64334 -4.22982 -0.29772 188 185 173
-3.65545 -4.22665 -0.30267 188 173 169
-3.66755 -4.22347 -0.30762 200 196 180
-3.67964 -4.22030 -0.31257 206 209 192
-3.69172 -4.21713 -0.31751 192 192 178
-3.70380 -4.21397 -0.32245 187 188 176
-3.71586 -4.21080 -0.32739 199 204 193
-3.72792 -4.20764 -0.33232 202 202 197
-3.73997 -4.20448 -0.33725 204 200 195
-3.75202 -4.20132 -0.34218 211 205 196
-3.76405 -4.19816 -0.34710 212 209 197
-3.77608 -4.19501 -0.35203 211 216 202
-3.78809 -4.19185 -0.35694 211 216 203
-3.80010 -4.18870 -0.36186 208 205 198
-3.81210 -4.18556 -0.36677 204 195 190
-3.82410 -4.18241 -0.37167 207 201 186
-3.83608 -4.17927 -0.37658 208 207 193
-3.84806 -4.17612 -0.38148 207 207 202
-3.86003 -4.17298 -0.38638 216 219 207
-3.87199 -4.16985 -0.39127 216 216 211
-3.88394 -4.16671 -0.39616 223 225 216
-3.89589 -4.16358 -0.40105 227 226 211
-3.90783 -4.16045 -0.40593 223 221 202
-3.91975 -4.15732 -0.41081 219 210 192
-3.93168 -4.15419 -0.41569 217 210 206
-3.94359 -4.15107 -0.42056 217 221 204
-3.95549 -4.14794 -0.42543 210 207 194
-3.96739 -4.14482 -0.43030 206 211 197
-3.97928 -4.14170 -0.43517 214 217 200
-3.99116 -4.13859 -0.44003 217 216 211
-4.00303 -4.13547 -0.44489 226 228 217
-4.01490 -4.13236 -0.44974 211 208 205
-4.02676 -4.12925 -0.45459 192 184 187
-4.03861 -4.12614 -0.45944 195 190 199
-4.05045 -4.12304 -0.46429 199 204 208
-4.06228 -4.11993 -0.46913 215 216 216
-4.07411 -4.11683 -0.47397 222 231 228
-4.08592 -4.11373 -0.47880 232 232 216
-4.09773 -4.11063 -0.48363 229 227 210
-4.10953 -4.10754 -0.48846 217 208 203
-4.12133 -4.10444 -0.49329 216 213 213
-4.13311 -4.10135 -0.49811 226 223 219
-4.14489 -4.09826 -0.50293 232 234 219
-4.15666 -4.09518 -0.50774 215 218 194
-4.16843 -4.09209 -0.51256 225 228 215
-4.18018 -4.08901 -0.51737 226 223 216
-4.22712 -4.07669 -0.53657 228 235 224
-4.23883 -4.07362 -0.54136 230 230 209
-4.25054 -4.07055 -0.54616 211 206 192
-4.26224 -4.06748 -0.55094 202 192 192
-4.27393 -4.06441 -0.55573 215 217 213
-4.28562 -4.06135 -0.56051 215 225 217
-4.29730 -4.05829 -0.56528 217 225 219
-4.30896 -4.05523 -0.57006 224 225 221
-4.37881 -4.03690 -0.59864 213 215 212
-4.39043 -4.03386 -0.60339 219 222 218
-4.40204 -4.03081 -0.60814 217 217 211
-4.41363 -4.02777 -0.61288 215 219 211
-4.42523 -4.02473 -0.61763 219 223 217
-4.43681 -4.02169 -0.62237 221 222 219
-4.44839 -4.01865 -0.62710 226 227 221
-4.45995 -4.01562 -0.63184 229 230 223
-4.47152 -4.01259 -0.63657 219 216 215
-4.48307 -4.00956 -0.64129 224 223 221
-4.49461 -4.00653 -0.64602 233 233 225
-4.50615 -4.00350 -0.65074 222 218 211
-4.51768 -4.00048 -0.65546 220 217 215
-4.52921 -3.99746 -0.66017 224 227 228
-4.54072 -3.99443 -0.66488 229 234 233
-3.20803 -4.33006 -0.13290 199 198 174
-3.22039 -4.32683 -0.13795 201 195 177
-3.23273 -4.32359 -0.14300 193 184 165
-3.34348 -4.29459 -0.18827 193 187 168
-3.35575 -4.29137 -0.19329 194 190 174
-3.40472 -4.27855 -0.21331 182 175 174
-3.41694 -4.27535 -0.21830 181 179 170
-3.42915 -4.27215 -0.22330 185 187 172
-3.44136 -4.26895 -0.22828 196 197 180
-3.45356 -4.26576 -0.23327 204 202 182
-3.46575 -4.26256 -0.23825 204 199 188
