ply
format ascii 1.0
element face 0
property list uchar int vertex_indices
element vertex 1269
property float x
property float y
property float z
property uchar diffuse_red
property uchar diffuse_green
property uchar diffuse_blue
end_header
-1.42066 -4.76584 0.65259 138 135 134
-1.44063 -4.77069 0.65327 140 138 131
-1.46056 -4.77554 0.65395 135 130 132
-1.48048 -4.78038 0.65462 134 125 130
-1.50036 -4.78522 0.65530 133 129 120
-1.52022 -4.79004 0.65598 136 138 128
-1.54006 -4.79487 0.65665 138 137 130
-1.55986 -4.79968 0.65732 128 122 121
-1.57964 -4.80449 0.65800 124 121 124
-1.59940 -4.80929 0.65867 132 130 127
-1.61913 -4.81409 0.65934 136 131 127
-1.63884 -4.81888 0.66001 133 127 125
-1.65852 -4.82366 0.66068 120 119 122
0.97393 -4.16288 0.55173 196 188 185
0.95078 -4.16852 0.55253 193 185 187
0.92767 -4.17416 0.55333 188 186 180
0.90458 -4.17978 0.55413 190 190 184
0.88153 -4.18540 0.55493 198 196 189
0.85851 -4.19101 0.55572 195 193 181
0.83553 -4.19661 0.55652 183 180 174
0.81257 -4.20221 0.55731 180 175 174
0.78965 -4.20780 0.55811 189 188 183
0.76676 -4.21338 0.55890 186 184 185
0.74390 -4.21895 0.55969 183 178 173
0.72108 -4.22451 0.56048 183 177 171
0.69828 -4.23007 0.56127 180 174 173
0.67552 -4.23561 0.56205 178 174 174
0.65279 -4.24115 0.56284 179 173 170
0.63009 -4.24669 0.56363 171 169 167
0.60743 -4.25221 0.56441 170 164 161
0.58479 -4.25773 0.56519 177 167 159
0.56219 -4.26324 0.56597 181 175 165
0.53961 -4.26874 0.56676 174 162 164
0.51707 -4.27423 0.56754 172 163 174
0.49456 -4.27972 0.56831 174 169 171
0.47209 -4.28520 0.56909 175 170 172
0.44964 -4.29067 0.56987 167 166 164
0.42722 -4.29613 0.57064 167 168 156
0.40484 -4.30159 0.57142 168 167 155
0.38249 -4.30704 0.57219 162 165 161
0.36016 -4.31248 0.57296 168 164 157
0.33787 -4.31791 0.57373 164 152 149
0.31561 -4.32334 0.57450 168 162 162
0.29338 -4.32876 0.57527 169 169 173
0.27118 -4.33417 0.57604 173 169 168
0.24901 -4.33957 0.57681 177 171 159
0.22688 -4.34497 0.57757 167 163 152
0.20477 -4.35036 0.57834 150 150 149
0.18269 -4.35574 0.57910 148 149 150
0.16065 -4.36111 0.57986 170 171 163
0.13863 -4.36648 0.58063 173 175 166
0.11664 -4.37184 0.58139 173 171 169
0.09469 -4.37719 0.58215 178 175 173
0.07276 -4.38253 0.58290 175 173 165
0.05087 -4.38787 0.58366 174 168 163
0.02900 -4.39320 0.58442 166 163 159
0.00717 -4.39852 0.58517 164 160 159
-0.01464 -4.40384 0.58593 168 168 167
-0.03642 -4.40914 0.58668 172 166 153
-0.05816 -4.41444 0.58743 159 156 153
-0.07988 -4.41974 0.58818 162 169 165
-0.10156 -4.42502 0.58894 170 165 164
-0.12322 -4.43030 0.58968 166 167 168
-0.14485 -4.43557 0.59043 172 169 167
-0.16645 -4.44084 0.59118 166 172 158
-0.18802 -4.44609 0.59193 162 159 165
-0.20956 -4.45134 0.59267 156 163 164
-0.23107 -4.45659 0.59341 172 170 165
-0.25255 -4.46182 0.59416 166 160 159
-0.27400 -4.46705 0.59490 162 160 151
-0.29542 -4.47227 0.59564 157 159 158
-0.31681 -4.47749 0.59638 161 163 163
-0.33818 -4.48270 0.59712 163 161 158
-0.35951 -4.48790 0.59786 163 157 155
-0.38082 -4.49309 0.59859 163 160 157
-0.40210 -4.49828 0.59933 161 154 154
-0.42335 -4.50346 0.60007 155 150 158
-0.44457 -4.50863 0.60080 157 153 154
-0.46576 -4.51379 0.60153 163 157 148
-0.48692 -4.51895 0.60227 162 156 156
-0.50806 -4.52410 0.60300 157 153 154
-0.52916 -4.52925 0.60373 147 146 139
-0.55024 -4.53438 0.60446 154 151 147
-0.57129 -4.53952 0.60518 162 159 165
-0.59231 -4.54464 0.60591 160 161 162
-0.61330 -4.54976 0.60664 164 165 157
-0.63427 -4.55487 0.60736 164 161 151
-0.65521 -4.55997 0.60809 160 156 151
-0.67611 -4.56507 0.60881 162 158 155
-0.69699 -4.57016 0.60953 163 163 153
-0.71785 -4.57524 0.61025 157 156 147
-0.73867 -4.58031 0.61097 154 149 148
-0.75947 -4.58538 0.61169 160 154 152
-0.78024 -4.59044 0.61241 162 156 155
-0.80098 -4.59550 0.61313 154 147 146
-0.82169 -4.60055 0.61385 149 143 141
-0.84238 -4.60559 0.61456 152 146 146
-0.86304 -4.61063 0.61528 153 147 142
-0.88367 -4.61565 0.61599 149 143 138
-0.90427 -4.62068 0.61670 150 140 140
-0.92485 -4.62569 0.61741 149 144 142
-0.94540 -4.63070 0.61812 151 150 146
-0.96592 -4.63570 0.61883 151 153 143
-0.98641 -4.64070 0.61954 147 145 135
-1.00688 -4.64569 0.62025 144 141 136
-1.02732 -4.65067 0.62096 151 147 140
-1.04773 -4.65564 0.62166 145 133 132
-1.06812 -4.66061 0.62237 141 142 139
-1.08847 -4.66558 0.62307 144 145 131
-1.10881 -4.67053 0.62378 150 145 137
-1.12911 -4.67548 0.62448 146 143 132
-1.14939 -4.68042 0.62518 143 145 131
-1.16964 -4.68536 0.62588 136 136 123
-1.18986 -4.69029 0.62658 131 127 120
-1.21006 -4.69521 0.62728 138 135 136
-1.23023 -4.70013 0.62798 141 143 129
-1.25038 -4.70504 0.62867 129 123 119
-1.27050 -4.70994 0.62937 133 130 129
-1.29059 -4.71484 0.63007 135 132 115
-1.31065 -4.71973 0.63076 142 140 138
-1.33069 -4.72461 0.63145 151 145 144
-1.35071 -4.72949 0.63214 139 128 121
-1.37069 -4.73436 0.63284 137 135 117
-1.39065 -4.73923 0.63353 131 129 116
-1.41059 -4.74409 0.63422 133 128 128
-1.43050 -4.74894 0.63490 140 145 136
-1.45038 -4.75379 0.63559 140 146 130
-1.47023 -4.75863 0.63628 137 133 131
-1.49006 -4.76346 0.63697 138 139 130
-1.50987 -4.76829 0.63765 134 137 124
-1.52965 -4.77311 0.63833 131 132 124
-1.54940 -4.77792 0.63902 136 133 120
-1.56913 -4.78273 0.63970 136 131 114
-1.58883 -4.78753 0.64038 131 131 120
-1.60851 -4.79233 0.64106 132 136 128
-1.62816 -4.79712 0.64174 136 138 128
-1.64778 -4.80190 0.64242 128 132 116
-1.66738 -4.80668 0.64310 120 123 114
-1.68695 -4.81145 0.64378 126 131 122
0.99978 -4.13589 0.53151 198 197 186
0.97667 -4.14154 0.53232 195 195 181
0.95360 -4.14718 0.53314 191 186 183
0.93056 -4.15281 0.53395 192 185 186
0.90755 -4.15843 0.53476 190 189 185
0.88458 -4.16404 0.53556 186 188 188
0.86163 -4.16965 0.53637 188 189 189
0.83872 -4.17525 0.53718 191 191 181
0.81584 -4.18084 0.53798 184 182 174
0.79300 -4.18642 0.53879 175 174 174
0.77018 -4.19200 0.53959 179 180 175
0.74740 -4.19757 0.54039 182 181 177
0.72464 -4.20313 0.54119 180 181 171
0.70193 -4.20868 0.54199 181 177 168
0.67924 -4.21422 0.54279 183 178 175
0.65658 -4.21976 0.54359 177 174 173
0.63395 -4.22529 0.54438 176 169 165
0.61136 -4.23081 0.54518 173 171 175
0.58880 -4.23632 0.54597 166 164 165
0.56627 -4.24183 0.54676 172 169 165
0.54377 -4.24733 0.54755 178 175 171
0.52130 -4.25282 0.54834 176 168 167
0.49886 -4.25830 0.54913 176 170 175
0.47646 -4.26378 0.54992 173 169 169
0.45408 -4.26925 0.55071 176 167 166
0.43174 -4.27471 0.55150 171 168 159
0.40942 -4.28016 0.55228 168 166 148
0.38714 -4.28560 0.55306 171 160 146
0.36489 -4.29104 0.55385 171 168 160
0.34267 -4.29647 0.55463 165 157 155
0.32048 -4.30189 0.55541 163 152 147
0.29832 -4.30731 0.55619 168 158 160
0.27619 -4.31272 0.55697 166 165 171
0.25409 -4.31812 0.55775 167 161 163
0.23202 -4.32351 0.55852 173 172 155
0.20998 -4.32890 0.55930 168 166 150
0.18798 -4.33427 0.56007 162 162 146
0.16600 -4.33964 0.56084 159 160 141
0.14405 -4.34501 0.56162 174 170 163
0.12213 -4.35036 0.56239 177 172 173
0.10025 -4.35571 0.56316 177 172 171
0.07839 -4.36105 0.56393 184 173 169
0.05656 -4.36639 0.56469 168 163 155
0.03476 -4.37172 0.56546 166 154 164
0.01300 -4.37703 0.56623 170 169 166
-0.00874 -4.38235 0.56699 174 169 162
-0.03045 -4.38765 0.56776 169 168 163
-0.05213 -4.39295 0.56852 169 165 159
-0.07378 -4.39824 0.56928 163 162 156
-0.09540 -4.40352 0.57004 174 173 167
-0.11699 -4.40880 0.57080 172 171 164
-0.13855 -4.41407 0.57156 166 165 160
-0.16008 -4.41933 0.57232 166 164 154
-0.18159 -4.42458 0.57307 165 169 157
-0.20306 -4.42983 0.57383 166 157 162
-0.22450 -4.43507 0.57458 160 162 164
-0.24592 -4.44031 0.57534 170 169 167
-0.26731 -4.44553 0.57609 174 166 158
-0.28866 -4.45075 0.57684 177 168 149
-0.30999 -4.45596 0.57759 157 153 154
-0.33129 -4.46117 0.57834 159 162 164
-0.35256 -4.46637 0.57909 157 159 157
-0.37381 -4.47156 0.57983 161 157 148
-0.39502 -4.47674 0.58058 163 158 153
-0.41620 -4.48192 0.58133 162 159 152
-0.43736 -4.48709 0.58207 160 158 154
-0.45849 -4.49225 0.58281 163 157 157
-0.47959 -4.49741 0.58356 166 159 158
-0.50066 -4.50256 0.58430 164 160 158
-0.52170 -4.50770 0.58504 157 147 152
-0.54272 -4.51284 0.58578 153 150 151
-0.56371 -4.51796 0.58652 154 152 150
-0.58466 -4.52309 0.58725 158 153 153
-0.60559 -4.52820 0.58799 158 153 157
-0.62650 -4.53331 0.58872 156 153 155
-0.64737 -4.53841 0.58946 157 151 147
-0.66822 -4.54351 0.59019 159 154 150
-0.68904 -4.54859 0.59092 159 155 155
-0.70983 -4.55367 0.59166 155 158 158
-0.73059 -4.55875 0.59239 151 145 154
-0.75133 -4.56381 0.59312 152 145 148
-0.77204 -4.56887 0.59384 153 154 143
-0.79272 -4.57393 0.59457 148 145 140
-0.81337 -4.57898 0.59530 145 138 135
-0.83399 -4.58402 0.59602 147 143 137
-0.85459 -4.58905 0.59675 156 154 148
-0.87516 -4.59408 0.59747 158 158 147
-0.89571 -4.59910 0.59819 148 148 143
-0.91622 -4.60411 0.59892 144 139 141
-0.93671 -4.60912 0.59964 149 143 143
-0.95717 -4.61412 0.60036 154 150 148
-0.97761 -4.61911 0.60108 153 150 141
-0.99802 -4.62410 0.60179 150 149 126
-1.01840 -4.62908 0.60251 143 144 123
-1.03875 -4.63405 0.60323 145 148 135
-1.05908 -4.63902 0.60394 150 144 129
-1.07938 -4.64398 0.60466 152 143 136
-1.09965 -4.64894 0.60537 142 138 135
-1.11990 -4.65388 0.60608 137 136 130
-1.14012 -4.65882 0.60679 138 138 119
-1.16031 -4.66376 0.60750 139 143 130
-1.18048 -4.66869 0.60821 138 134 130
-1.20062 -4.67361 0.60892 139 131 133
-1.22073 -4.67852 0.60963 142 147 143
-1.24082 -4.68343 0.61034 130 123 121
-1.26088 -4.68834 0.61104 127 135 116
-1.28092 -4.69323 0.61175 132 135 126
-1.30093 -4.69812 0.61245 141 142 129
-1.32091 -4.70300 0.61315 142 146 140
-1.34087 -4.70788 0.61386 136 138 142
-1.36080 -4.71275 0.61456 136 131 135
-1.38070 -4.71762 0.61526 142 139 128
-1.40058 -4.72247 0.61596 138 136 126
-1.42043 -4.72733 0.61665 137 130 127
-1.44026 -4.73217 0.61735 138 138 126
-1.46006 -4.73701 0.61805 138 134 125
-1.47983 -4.74184 0.61874 143 135 125
-1.49958 -4.74667 0.61944 145 141 126
-1.51931 -4.75149 0.62013 140 139 121
-1.53900 -4.75630 0.62083 135 131 109
-1.55868 -4.76111 0.62152 135 131 107
-1.57832 -4.76591 0.62221 135 134 111
-1.59794 -4.77070 0.62290 131 130 119
-1.61754 -4.77549 0.62359 131 134 126
-1.63711 -4.78028 0.62428 138 140 124
-1.65666 -4.78505 0.62496 131 132 122
-1.67618 -4.78982 0.62565 125 127 123
-1.69567 -4.79459 0.62634 126 128 130
1.00243 -4.11470 0.51222 203 203 197
0.97940 -4.12034 0.51305 195 194 189
0.95640 -4.12597 0.51387 187 187 180
0.93344 -4.13160 0.51469 187 186 179
0.91050 -4.13722 0.51551 187 184 183
0.88760 -4.14283 0.51633 183 184 183
0.86474 -4.14843 0.51715 183 188 182
0.84190 -4.15403 0.51797 186 188 181
0.81909 -4.15962 0.51878 184 185 177
0.79632 -4.16519 0.51960 179 175 174
0.77358 -4.17077 0.52041 172 171 172
0.75087 -4.17633 0.52122 174 173 166
0.72819 -4.18189 0.52203 180 175 168
0.70554 -4.18743 0.52284 181 179 175
0.68293 -4.19298 0.52365 182 179 174
0.66035 -4.19851 0.52446 186 184 175
0.63779 -4.20403 0.52526 179 176 167
0.61527 -4.20955 0.52607 175 165 160
0.59278 -4.21506 0.52687 167 162 169
0.57032 -4.22056 0.52768 158 160 162
0.54790 -4.22606 0.52848 168 171 174
0.52550 -4.23155 0.52928 176 176 171
0.50313 -4.23703 0.53008 171 164 162
0.48080 -4.24250 0.53088 174 169 173
0.45849 -4.24796 0.53168 173 172 166
0.43622 -4.25342 0.53247 174 165 156
0.41398 -4.25887 0.53327 172 168 156
0.39177 -4.26431 0.53406 168 165 151
0.36958 -4.26974 0.53486 172 161 152
0.34743 -4.27517 0.53565 175 171 158
0.32531 -4.28059 0.53644 162 158 157
0.30322 -4.28600 0.53723 161 157 153
0.28116 -4.29141 0.53802 162 155 157
0.25913 -4.29680 0.53881 158 157 160
0.23713 -4.30219 0.53959 163 154 156
0.21516 -4.30758 0.54038 166 167 151
0.19323 -4.31295 0.54116 164 161 152
0.17132 -4.31832 0.54195 171 176 166
0.14944 -4.32368 0.54273 171 176 156
0.12759 -4.32903 0.54351 172 163 154
0.10577 -4.33438 0.54429 178 171 168
0.08398 -4.33972 0.54507 178 168 175
0.06222 -4.34505 0.54585 180 163 154
0.04049 -4.35037 0.54663 165 157 150
0.01879 -4.35569 0.54740 165 148 160
-0.00288 -4.36100 0.54818 171 164 162
-0.02453 -4.36630 0.54895 176 175 168
-0.04614 -4.37159 0.54973 167 166 168
-0.06772 -4.37688 0.55050 170 168 164
-0.08927 -4.38216 0.55127 176 175 163
-0.11080 -4.38744 0.55204 175 174 159
-0.13229 -4.39270 0.55281 169 164 155
-0.15376 -4.39796 0.55357 172 169 156
-0.17520 -4.40321 0.55434 166 163 157
-0.19661 -4.40846 0.55511 163 157 156
-0.21799 -4.41370 0.55587 167 158 158
-0.23934 -4.41893 0.55663 164 159 161
-0.26066 -4.42415 0.55740 168 165 164
-0.28195 -4.42937 0.55816 171 169 160
-0.30321 -4.43458 0.55892 175 170 149
-0.32445 -4.43978 0.55968 163 162 149
-0.34566 -4.44498 0.56044 163 162 159
-0.36684 -4.45017 0.56119 157 163 152
-0.38799 -4.45535 0.56195 160 160 139
-0.40911 -4.46052 0.56271 167 164 151
-0.43020 -4.46569 0.56346 165 167 151
-0.45127 -4.47085 0.56421 162 161 151
-0.47230 -4.47601 0.56497 167 157 158
-0.49331 -4.48115 0.56572 165 156 160
-0.51429 -4.48629 0.56647 163 161 161
-0.53524 -4.49143 0.56722 158 147 150
-0.55617 -4.49655 0.56797 157 152 154
-0.57707 -4.50167 0.56871 159 159 155
-0.59793 -4.50678 0.56946 161 159 153
-0.61877 -4.51189 0.57021 161 156 155
-0.63959 -4.51699 0.57095 157 151 153
-0.66037 -4.52208 0.57169 161 154 152
-0.68113 -4.52717 0.57244 165 162 156
-0.70186 -4.53225 0.57318 162 160 156
-0.72256 -4.53732 0.57392 151 150 154
-0.74324 -4.54238 0.57466 146 140 142
-0.76388 -4.54744 0.57539 148 145 135
-0.78450 -4.55249 0.57613 148 153 128
-0.80510 -4.55754 0.57687 146 146 127
-0.82566 -4.56258 0.57760 150 142 131
-0.84620 -4.56761 0.57834 156 146 140
-0.86671 -4.57263 0.57907 161 153 155
-0.88720 -4.57765 0.57981 157 154 158
-0.90765 -4.58266 0.58054 148 149 152
-0.92808 -4.58767 0.58127 151 148 143
-0.94849 -4.59267 0.58200 153 146 138
-0.96886 -4.59766 0.58273 154 150 151
-0.98921 -4.60265 0.58345 153 147 148
-1.00953 -4.60763 0.58418 156 155 137
-1.02983 -4.61260 0.58491 151 147 130
-1.05010 -4.61756 0.58563 144 138 135
-1.07034 -4.62252 0.58635 151 144 128
-1.09055 -4.62748 0.58708 157 148 138
-1.11074 -4.63242 0.58780 146 149 138
-1.13091 -4.63736 0.58852 143 148 138
-1.15104 -4.64229 0.58924 142 143 133
-1.17115 -4.64722 0.58996 141 144 130
-1.19123 -4.65214 0.59068 143 141 132
-1.21129 -4.65706 0.59140 143 135 137
-1.23132 -4.66196 0.59211 142 143 133
-1.25133 -4.66686 0.59283 145 143 112
-1.27131 -4.67176 0.59354 144 148 129
-1.29126 -4.67665 0.59426 137 136 126
-1.31118 -4.68153 0.59497 147 147 139
-1.33108 -4.68641 0.59568 145 147 147
-1.35096 -4.69127 0.59639 142 145 138
-1.37081 -4.69614 0.59710 143 146 135
-1.39063 -4.70099 0.59781 143 144 135
-1.41043 -4.70584 0.59852 134 139 134
-1.43020 -4.71069 0.59923 135 134 131
-1.44994 -4.71553 0.59993 137 137 125
-1.46966 -4.72036 0.60064 139 134 121
-1.48936 -4.72518 0.60134 135 130 129
-1.50903 -4.73000 0.60204 132 129 132
-1.52867 -4.73481 0.60275 131 131 126
-1.54829 -4.73962 0.60345 133 132 120
-1.56788 -4.74442 0.60415 137 133 122
-1.58745 -4.74921 0.60485 140 139 127
-1.60699 -4.75400 0.60555 139 139 122
-1.62651 -4.75878 0.60625 135 133 120
-1.64600 -4.76356 0.60694 131 131 124
-1.66547 -4.76833 0.60764 127 128 123
-1.68491 -4.77309 0.60833 127 125 125
-1.70432 -4.77785 0.60903 127 127 130
-1.72372 -4.78260 0.60972 124 127 130
1.00506 -4.09365 0.49307 195 193 190
0.98211 -4.09929 0.49390 203 202 197
0.95918 -4.10492 0.49473 196 193 191
0.93629 -4.11054 0.49556 190 188 186
0.91344 -4.11615 0.49640 192 193 185
0.89061 -4.12176 0.49723 185 184 183
0.86782 -4.12736 0.49805 177 179 180
0.84505 -4.13295 0.49888 180 184 172
0.82232 -4.13853 0.49971 184 183 169
0.79962 -4.14411 0.50053 181 179 173
0.77695 -4.14967 0.50136 177 173 172
0.75432 -4.15523 0.50218 172 170 171
0.73171 -4.16079 0.50300 169 170 171
0.70914 -4.16633 0.50382 172 170 169
0.68660 -4.17187 0.50464 173 170 172
0.66408 -4.17740 0.50546 176 173 173
0.64160 -4.18292 0.50628 180 177 168
0.61916 -4.18843 0.50709 180 173 163
0.59674 -4.19394 0.50791 179 172 162
0.57435 -4.19944 0.50872 168 160 158
0.55199 -4.20493 0.50953 162 162 157
0.52967 -4.21041 0.51034 170 172 179
0.50737 -4.21589 0.51115 178 178 172
0.48511 -4.22136 0.51196 171 167 158
0.46288 -4.22682 0.51277 176 171 162
0.44067 -4.23227 0.51358 174 169 158
0.41850 -4.23772 0.51438 171 164 156
0.39636 -4.24316 0.51519 167 165 156
0.37425 -4.24859 0.51599 165 165 155
0.35217 -4.25401 0.51679 171 171 162
0.33011 -4.25943 0.51760 172 172 155
0.30809 -4.26484 0.51840 172 168 162
0.28610 -4.27024 0.51920 171 165 159
0.26414 -4.27563 0.51999 167 158 156
0.24221 -4.28102 0.52079 155 155 155
0.22031 -4.28640 0.52159 164 157 153
0.19844 -4.29177 0.52238 166 164 160
0.17660 -4.29713 0.52318 163 158 154
0.15479 -4.30249 0.52397 176 180 167
0.13301 -4.30784 0.52476 174 175 160
0.11125 -4.31318 0.52555 174 161 147
0.08953 -4.31852 0.52634 182 172 162
0.06784 -4.32385 0.52713 171 164 169
0.04618 -4.32917 0.52792 171 159 154
0.02454 -4.33448 0.52870 168 164 159
0.00294 -4.33979 0.52949 168 157 156
-0.01864 -4.34509 0.53027 174 174 159
-0.04018 -4.35038 0.53105 177 175 165
-0.06170 -4.35566 0.53184 169 165 158
-0.08319 -4.36094 0.53262 174 172 161
-0.10465 -4.36621 0.53340 182 174 166
-0.12608 -4.37148 0.53418 174 168 162
-0.14748 -4.37673 0.53495 167 160 155
-0.16885 -4.38198 0.53573 172 168 153
-0.19019 -4.38723 0.53651 164 157 161
-0.21151 -4.39246 0.53728 163 153 151
-0.23280 -4.39769 0.53806 169 159 156
-0.25405 -4.40291 0.53883 167 163 160
-0.27528 -4.40812 0.53960 168 166 165
-0.29648 -4.41333 0.54037 169 173 168
-0.31765 -4.41853 0.54114 174 172 160
-0.33880 -4.42372 0.54191 168 171 162
-0.35991 -4.42891 0.54268 164 161 160
-0.38100 -4.43409 0.54344 159 161 150
-0.40206 -4.43926 0.54421 157 158 135
-0.42309 -4.44443 0.54497 167 165 155
-0.44409 -4.44959 0.54573 165 166 158
-0.46506 -4.45474 0.54650 163 166 161
-0.48601 -4.45988 0.54726 165 163 158
-0.50693 -4.46502 0.54802 162 158 155
-0.52782 -4.47015 0.54878 162 161 161
-0.54868 -4.47528 0.54954 160 152 158
-0.56952 -4.48039 0.55029 158 155 158
-0.59032 -4.48550 0.55105 162 159 159
-0.61110 -4.49061 0.55180 161 160 157
-0.63185 -4.49571 0.55256 162 161 155
-0.65258 -4.50080 0.55331 158 156 149
-0.67327 -4.50588 0.55406 158 156 154
-0.69394 -4.51096 0.55482 165 162 164
-0.71458 -4.51603 0.55557 165 162 160
-0.73520 -4.52109 0.55631 154 150 152
-0.75579 -4.52615 0.55706 149 149 145
-0.77635 -4.53120 0.55781 154 158 140
-0.79688 -4.53624 0.55856 161 159 144
-0.81738 -4.54128 0.55930 161 154 148
-0.83786 -4.54631 0.56005 151 148 139
-0.85832 -4.55133 0.56079 147 144 133
-0.87874 -4.55634 0.56153 151 148 138
-0.89914 -4.56136 0.56227 148 147 138
-0.91951 -4.56636 0.56301 146 142 141
-0.93985 -4.57136 0.56375 153 148 143
-0.96017 -4.57635 0.56449 150 142 142
-0.98046 -4.58133 0.56523 146 140 149
-1.00072 -4.58631 0.56597 146 144 153
-1.02096 -4.59128 0.56670 151 155 151
-1.04117 -4.59624 0.56744 139 137 135
-1.06136 -4.60120 0.56817 142 140 138
-1.08151 -4.60615 0.56890 149 150 131
-1.10165 -4.61110 0.56963 149 146 140
-1.12175 -4.61603 0.57036 148 146 135
-1.14183 -4.62097 0.57109 151 154 143
-1.16188 -4.62589 0.57182 156 153 149
-1.18191 -4.63081 0.57255 150 149 140
-1.20191 -4.63572 0.57328 150 154 145
-1.22188 -4.64063 0.57400 143 144 132
-1.24183 -4.64553 0.57473 142 137 135
-1.26175 -4.65042 0.57545 141 147 142
-1.28165 -4.65531 0.57618 146 141 137
-1.30152 -4.66019 0.57690 136 138 136
-1.32137 -4.66506 0.57762 139 141 132
-1.34118 -4.66993 0.57834 146 140 136
-1.36098 -4.67479 0.57906 143 137 136
-1.38075 -4.67965 0.57978 144 144 135
-1.40049 -4.68450 0.58049 149 148 135
-1.42020 -4.68934 0.58121 144 145 134
-1.43989 -4.69418 0.58193 143 141 133
-1.45956 -4.69901 0.58264 142 143 128
-1.47920 -4.70383 0.58336 145 141 130
-1.49881 -4.70865 0.58407 144 142 136
-1.51840 -4.71346 0.58478 138 143 137
-1.53797 -4.71826 0.58549 128 135 118
-1.55751 -4.72306 0.58620 124 126 105
-1.57702 -4.72786 0.58691 130 126 117
-1.59651 -4.73264 0.58762 138 134 131
-1.61597 -4.73742 0.58833 141 140 132
-1.63541 -4.74220 0.58903 136 137 127
-1.65482 -4.74697 0.58974 133 133 126
-1.67421 -4.75173 0.59044 132 134 121
-1.69357 -4.75648 0.59115 134 134 120
-1.71291 -4.76123 0.59185 135 131 124
-1.73223 -4.76598 0.59255 133 129 120
1.05353 -4.06145 0.47234 188 186 176
1.03059 -4.06710 0.47319 194 189 179
1.00768 -4.07274 0.47404 192 185 184
0.98480 -4.07837 0.47488 195 187 181
0.96195 -4.08400 0.47572 200 197 188
0.93913 -4.08961 0.47657 196 193 188
0.91635 -4.09522 0.47741 193 184 184
0.89360 -4.10083 0.47825 194 188 188
0.87088 -4.10642 0.47909 189 184 185
0.84819 -4.11201 0.47992 184 179 179
0.82553 -4.11759 0.48076 178 178 173
0.80290 -4.12316 0.48160 177 176 170
0.78031 -4.12872 0.48243 184 180 174
0.75774 -4.13428 0.48326 184 179 172
0.73521 -4.13983 0.48410 176 171 170
0.71271 -4.14537 0.48493 165 165 172
0.69024 -4.15090 0.48576 162 166 164
0.66780 -4.15643 0.48658 166 161 162
0.64539 -4.16194 0.48741 172 165 166
0.62301 -4.16745 0.48824 173 168 164
0.60067 -4.17296 0.48906 178 171 164
0.57835 -4.17845 0.48989 183 178 167
0.55607 -4.18394 0.49071 172 166 166
0.53381 -4.18942 0.49153 166 162 164
0.51159 -4.19489 0.49235 170 171 177
0.48939 -4.20036 0.49317 171 174 174
0.46723 -4.20581 0.49399 165 166 161
0.44510 -4.21126 0.49481 170 167 161
0.42299 -4.21671 0.49562 168 165 157
0.40092 -4.22214 0.49644 172 168 160
0.37888 -4.22757 0.49725 173 167 156
0.35687 -4.23299 0.49806 171 168 152
0.33489 -4.23840 0.49888 176 173 160
0.31293 -4.24381 0.49969 174 171 159
0.29101 -4.24921 0.50050 186 174 172
0.26912 -4.25460 0.50130 185 173 171
0.24726 -4.25998 0.50211 171 163 155
0.22542 -4.26536 0.50292 148 147 156
0.20362 -4.27072 0.50372 167 165 162
0.18185 -4.27609 0.50453 173 167 168
0.16010 -4.28144 0.50533 172 167 159
0.13839 -4.28679 0.50613 183 184 165
0.11671 -4.29213 0.50693 186 178 160
0.09505 -4.29746 0.50773 179 168 154
0.07342 -4.30278 0.50853 176 160 165
0.05183 -4.30810 0.50933 167 162 157
0.03026 -4.31341 0.51012 171 164 154
0.00872 -4.31872 0.51092 171 163 158
-0.01279 -4.32401 0.51171 170 163 157
-0.03427 -4.32930 0.51251 175 176 159
-0.05572 -4.33458 0.51330 177 173 154
-0.07714 -4.33986 0.51409 179 169 141
-0.09854 -4.34513 0.51488 179 173 153
-0.11990 -4.35039 0.51567 182 174 168
-0.14124 -4.35564 0.51645 175 166 166
-0.16254 -4.36089 0.51724 167 166 157
-0.18382 -4.36613 0.51803 171 166 153
-0.20507 -4.37136 0.51881 159 159 160
-0.22630 -4.37659 0.51959 162 162 156
-0.24749 -4.38180 0.52038 166 163 161
-0.26865 -4.38702 0.52116 168 165 162
-0.28979 -4.39222 0.52194 168 168 165
-0.31090 -4.39742 0.52272 163 167 173
-0.33198 -4.40261 0.52350 169 164 163
-0.35303 -4.40779 0.52427 155 158 157
-0.37405 -4.41297 0.52505 154 152 151
-0.39505 -4.41814 0.52583 156 156 150
-0.41602 -4.42330 0.52660 159 161 145
-0.43696 -4.42846 0.52737 166 162 154
-0.45787 -4.43361 0.52814 160 158 161
-0.47875 -4.43875 0.52892 160 164 170
-0.49961 -4.44389 0.52969 157 162 162
-0.52044 -4.44901 0.53046 157 159 160
-0.54124 -4.45414 0.53122 165 169 162
-0.56201 -4.45925 0.53199 166 165 157
-0.58276 -4.46436 0.53276 162 158 156
-0.60348 -4.46946 0.53352 164 156 155
-0.62417 -4.47456 0.53428 161 151 153
-0.64483 -4.47964 0.53505 163 159 153
-0.66547 -4.48473 0.53581 165 159 153
-0.68608 -4.48980 0.53657 163 154 156
-0.70666 -4.49487 0.53733 164 154 159
-0.72721 -4.49993 0.53809 164 157 157
-0.74774 -4.50498 0.53885 162 161 151
-0.76824 -4.51003 0.53960 159 161 150
-0.78871 -4.51507 0.54036 154 157 149
-0.80916 -4.52011 0.54111 154 154 152
-0.82958 -4.52514 0.54187 155 150 147
-0.84997 -4.53016 0.54262 152 147 134
-0.87034 -4.53517 0.54337 150 147 133
-0.89068 -4.54018 0.54412 151 147 136
-0.91099 -4.54518 0.54487 150 147 136
-0.93127 -4.55018 0.54562 148 146 139
-0.95153 -4.55516 0.54637 148 143 139
-0.97176 -4.56015 0.54712 150 144 137
-0.99197 -4.56512 0.54786 147 147 137
-1.01215 -4.57009 0.54861 145 149 140
-1.03230 -4.57505 0.54935 145 145 142
-1.05243 -4.58001 0.55010 146 145 129
-1.07253 -4.58496 0.55084 149 151 128
-1.09261 -4.58990 0.55158 151 147 124
-1.11265 -4.59484 0.55232 152 148 130
-1.13268 -4.59977 0.55306 156 148 124
-1.15267 -4.60469 0.55380 152 153 142
-1.17264 -4.60961 0.55454 153 147 147
-1.19259 -4.61452 0.55527 149 146 139
-1.21250 -4.61943 0.55601 149 145 138
-1.23240 -4.62432 0.55674 141 136 133
-1.25226 -4.62922 0.55747 149 152 138
-1.27210 -4.63410 0.55821 142 141 142
-1.29192 -4.63898 0.55894 137 138 138
-1.31171 -4.64385 0.55967 137 144 133
-1.33147 -4.64872 0.56040 140 134 132
-1.35121 -4.65358 0.56113 149 138 129
-1.37092 -4.65843 0.56186 141 136 132
-1.39061 -4.66328 0.56258 136 138 135
-1.41027 -4.66812 0.56331 144 154 146
-1.42991 -4.67296 0.56403 144 150 138
-1.44952 -4.67779 0.56476 142 148 137
-1.46910 -4.68261 0.56548 138 142 138
-1.48866 -4.68743 0.56620 138 140 142
-1.50820 -4.69224 0.56692 140 140 139
-1.52771 -4.69704 0.56764 138 138 132
-1.54719 -4.70184 0.56836 133 137 119
-1.56665 -4.70663 0.56908 132 133 116
-1.58609 -4.71142 0.56980 133 130 128
-1.60550 -4.71620 0.57052 131 130 137
-1.62488 -4.72097 0.57123 130 131 137
-1.64424 -4.72574 0.57195 133 133 135
-1.66358 -4.73050 0.57266 138 139 134
-1.68289 -4.73525 0.57337 142 143 131
-1.70218 -4.74000 0.57409 136 136 124
-1.72144 -4.74474 0.57480 129 134 124
-1.74068 -4.74948 0.57551 119 131 116
-1.79824 -4.76366 0.57763 49 62 73
1.10181 -4.02937 0.45170 182 187 182
1.07888 -4.03503 0.45256 186 185 178
1.05598 -4.04068 0.45342 188 183 175
1.03311 -4.04633 0.45428 190 186 174
1.01027 -4.05197 0.45513 195 189 179
0.98747 -4.05759 0.45599 200 191 190
0.96469 -4.06322 0.45684 197 190 185
0.94195 -4.06883 0.45769 191 187 178
0.91924 -4.07444 0.45855 186 185 179
0.89656 -4.08003 0.45940 186 180 184
0.87392 -4.08563 0.46024 188 178 187
0.85130 -4.09121 0.46109 191 181 184
0.82871 -4.09678 0.46194 195 186 181
0.80616 -4.10235 0.46279 177 179 179
0.78364 -4.10791 0.46363 170 175 175
0.76115 -4.11346 0.46447 185 182 175
0.73869 -4.11901 0.46531 188 180 173
0.71626 -4.12454 0.46616 185 171 168
0.69386 -4.13007 0.46700 174 163 166
0.67149 -4.13559 0.46783 164 163 157
0.64915 -4.14111 0.46867 169 162 154
0.62685 -4.14661 0.46951 174 166 160
0.60457 -4.15211 0.47034 173 168 166
0.58233 -4.15760 0.47118 179 178 172
0.56011 -4.16309 0.47201 183 182 177
0.53793 -4.16856 0.47284 171 170 173
0.51577 -4.17403 0.47367 170 166 171
0.49365 -4.17949 0.47450 172 172 175
0.47156 -4.18495 0.47533 169 166 175
0.44949 -4.19039 0.47616 168 160 164
0.42746 -4.19583 0.47698 168 160 169
0.40546 -4.20126 0.47781 170 169 172
0.38348 -4.20669 0.47863 176 176 167
0.36154 -4.21210 0.47946 179 169 158
0.33963 -4.21751 0.48028 175 167 161
0.31774 -4.22292 0.48110 180 173 164
0.29589 -4.22831 0.48192 174 172 165
0.27406 -4.23370 0.48274 180 169 167
0.25227 -4.23908 0.48355 178 168 169
0.23050 -4.24445 0.48437 168 167 153
0.20877 -4.24982 0.48518 146 147 153
0.18706 -4.25517 0.48600 170 171 165
0.16539 -4.26053 0.48681 177 169 162
0.14374 -4.26587 0.48762 178 171 161
0.12212 -4.27121 0.48843 182 177 169
0.10053 -4.27653 0.48924 187 179 166
0.07897 -4.28186 0.49005 179 172 168
0.05744 -4.28717 0.49086 168 158 172
0.03594 -4.29248 0.49166 170 168 159
0.01447 -4.29778 0.49247 175 169 156
-0.00698 -4.30307 0.49327 177 170 167
-0.02839 -4.30836 0.49408 179 172 170
-0.04978 -4.31364 0.49488 177 172 173
-0.07114 -4.31891 0.49568 171 169 156
-0.09246 -4.32418 0.49648 173 164 146
-0.11376 -4.32943 0.49728 177 175 158
-0.13504 -4.33468 0.49807 174 172 168
-0.15628 -4.33993 0.49887 172 167 166
-0.17749 -4.34517 0.49967 167 165 164
-0.19868 -4.35039 0.50046 173 172 161
-0.21984 -4.35562 0.50125 165 167 156
-0.24097 -4.36083 0.50205 162 160 161
-0.26207 -4.36604 0.50284 164 161 167
-0.28314 -4.37124 0.50363 173 169 164
-0.30419 -4.37644 0.50442 172 168 162
-0.32520 -4.38163 0.50520 158 158 164
-0.34619 -4.38681 0.50599 167 161 162
-0.36716 -4.39198 0.50678 155 154 158
-0.38809 -4.39715 0.50756 158 157 154
-0.40899 -4.40231 0.50835 162 159 152
-0.42987 -4.40746 0.50913 163 160 148
-0.45072 -4.41261 0.50991 164 162 147
-0.47154 -4.41775 0.51069 157 154 146
-0.49234 -4.42288 0.51147 158 155 156
-0.51311 -4.42801 0.51225 161 159 157
-0.53385 -4.43313 0.51303 161 156 161
-0.55456 -4.43824 0.51380 165 164 156
-0.57524 -4.44335 0.51458 165 164 154
-0.59590 -4.44845 0.51535 162 162 156
-0.61653 -4.45354 0.51613 166 160 153
-0.63713 -4.45863 0.51690 165 155 146
-0.65771 -4.46371 0.51767 166 163 152
-0.67826 -4.46878 0.51844 171 166 161
-0.69878 -4.47384 0.51921 167 157 166
-0.71928 -4.47890 0.51998 159 151 164
-0.73974 -4.48396 0.52075 157 155 162
-0.76018 -4.48900 0.52151 156 155 163
-0.78060 -4.49404 0.52228 159 159 162
-0.80099 -4.49907 0.52304 158 158 154
-0.82135 -4.50410 0.52381 155 155 149
-0.84168 -4.50912 0.52457 157 161 149
-0.86199 -4.51413 0.52533 156 155 140
-0.88227 -4.51914 0.52609 153 149 140
-0.90252 -4.52414 0.52685 149 147 145
-0.92275 -4.52913 0.52761 147 149 141
-0.94295 -4.53412 0.52837 147 148 137
-0.96312 -4.53910 0.52912 148 138 135
-0.98327 -4.54407 0.52988 151 145 135
-1.00339 -4.54904 0.53063 150 149 133
-1.02349 -4.55400 0.53138 152 158 131
-1.04356 -4.55895 0.53214 149 149 138
-1.06360 -4.56390 0.53289 150 151 142
-1.08362 -4.56884 0.53364 154 150 138
-1.10361 -4.57378 0.53439 153 150 138
-1.12358 -4.57870 0.53514 153 151 138
-1.14352 -4.58363 0.53589 159 153 137
-1.16343 -4.58854 0.53663 151 154 145
-1.18332 -4.59345 0.53738 155 147 144
-1.20318 -4.59836 0.53812 151 144 137
-1.22302 -4.60325 0.53887 144 144 134
-1.24283 -4.60814 0.53961 145 145 137
-1.26261 -4.61303 0.54035 154 147 141
-1.28237 -4.61790 0.54109 146 145 141
-1.30211 -4.62278 0.54183 138 133 134
-1.32182 -4.62764 0.54257 137 136 117
-1.34150 -4.63250 0.54331 136 134 129
-1.36116 -4.63735 0.54405 147 149 123
-1.38079 -4.64220 0.54478 141 134 122
-1.40040 -4.64704 0.54552 133 130 115
-1.41998 -4.65187 0.54625 139 141 142
-1.43954 -4.65670 0.54698 152 151 139
-1.45907 -4.66152 0.54772 152 151 134
-1.47857 -4.66634 0.54845 145 144 130
-1.49806 -4.67114 0.54918 142 137 125
-1.51751 -4.67595 0.54991 141 137 126
-1.53694 -4.68074 0.55064 138 138 123
-1.55635 -4.68553 0.55136 132 127 113
-1.57573 -4.69032 0.55209 134 129 119
-1.59509 -4.69510 0.55282 138 141 134
-1.61442 -4.69987 0.55354 137 141 138
-1.63373 -4.70464 0.55426 136 133 133
-1.65301 -4.70940 0.55499 135 131 130
-1.67227 -4.71415 0.55571 134 137 132
-1.69151 -4.71890 0.55643 133 133 132
-1.71072 -4.72364 0.55715 133 132 129
-1.72990 -4.72837 0.55787 134 136 128
-1.74906 -4.73311 0.55859 130 132 118
-1.80640 -4.74726 0.56074 90 78 74
1.10409 -4.00876 0.43288 200 200 185
1.08123 -4.01441 0.43375 199 200 187
1.05841 -4.02006 0.43462 195 193 186
1.03561 -4.02570 0.43549 193 189 179
1.01285 -4.03133 0.43635 191 186 173
0.99012 -4.03696 0.43722 194 188 180
0.96742 -4.04257 0.43808 197 188 188
0.94475 -4.04818 0.43895 193 190 186
0.92212 -4.05379 0.43981 186 185 178
0.89951 -4.05938 0.44067 185 182 178
0.87694 -4.06497 0.44153 187 183 187
0.85439 -4.07055 0.44239 184 178 186
0.83188 -4.07612 0.44324 182 175 182
0.80940 -4.08168 0.44410 183 182 183
0.78695 -4.08723 0.44495 174 177 181
0.76453 -4.09278 0.44581 170 170 172
0.74214 -4.09832 0.44666 180 174 169
0.71978 -4.10386 0.44751 182 172 170
0.69745 -4.10938 0.44836 183 172 168
0.67516 -4.11490 0.44921 182 174 169
0.65289 -4.12041 0.45006 173 166 166
0.63066 -4.12591 0.45090 170 162 159
0.60845 -4.13141 0.45175 171 164 159
0.58627 -4.13689 0.45259 171 165 165
0.56413 -4.14237 0.45343 180 179 173
0.54202 -4.14784 0.45428 182 180 171
0.51993 -4.15331 0.45512 179 176 165
0.49788 -4.15877 0.45596 184 178 175
0.47585 -4.16422 0.45679 178 174 177
0.45386 -4.16966 0.45763 166 157 172
0.43189 -4.17510 0.45847 173 163 165
0.40996 -4.18052 0.45930 172 158 165
0.38805 -4.18594 0.46014 176 172 173
0.36618 -4.19136 0.46097 178 173 169
0.34433 -4.19676 0.46180 177 168 159
0.32252 -4.20216 0.46263 173 164 169
0.30073 -4.20755 0.46346 181 182 169
0.27898 -4.21294 0.46429 171 170 163
0.25725 -4.21831 0.46511 170 168 152
0.23555 -4.22368 0.46594 163 158 153
0.21388 -4.22904 0.46676 168 169 157
0.19224 -4.23440 0.46759 166 168 160
0.17063 -4.23975 0.46841 177 175 162
0.14905 -4.24509 0.46923 178 171 161
0.12750 -4.25042 0.47005 177 175 166
0.10598 -4.25575 0.47087 178 169 172
0.08448 -4.26106 0.47169 180 172 165
0.06302 -4.26638 0.47251 179 174 174
0.04158 -4.27168 0.47332 173 168 178
0.02018 -4.27698 0.47414 172 169 165
-0.00120 -4.28227 0.47495 178 172 161
-0.02255 -4.28755 0.47576 180 175 175
-0.04387 -4.29283 0.47658 183 175 174
-0.06517 -4.29810 0.47739 178 168 178
-0.08643 -4.30336 0.47820 167 162 155
-0.10767 -4.30861 0.47900 169 162 163
-0.12888 -4.31386 0.47981 176 180 176
-0.15005 -4.31910 0.48062 171 171 165
-0.17121 -4.32434 0.48142 169 167 162
-0.19233 -4.32956 0.48223 169 172 167
-0.21342 -4.33478 0.48303 174 176 168
-0.23449 -4.34000 0.48383 173 174 159
-0.25553 -4.34520 0.48463 160 154 163
-0.27654 -4.35040 0.48543 160 159 170
-0.29752 -4.35559 0.48623 171 171 170
-0.31847 -4.36078 0.48703 171 165 167
-0.33940 -4.36596 0.48782 156 156 162
-0.36030 -4.37113 0.48862 168 160 165
-0.38117 -4.37629 0.48941 160 153 162
-0.40202 -4.38145 0.49021 162 157 158
-0.42283 -4.38660 0.49100 171 167 156
-0.44362 -4.39175 0.49179 168 158 152
-0.46438 -4.39689 0.49258 170 168 146
-0.48511 -4.40202 0.49337 166 160 134
-0.50582 -4.40714 0.49416 162 158 151
-0.52650 -4.41226 0.49495 163 162 160
-0.54715 -4.41737 0.49573 165 160 159
-0.56778 -4.42247 0.49652 159 155 155
-0.58837 -4.42757 0.49730 157 156 150
-0.60894 -4.43266 0.49808 155 158 152
-0.62949 -4.43774 0.49887 161 160 154
-0.65000 -4.44282 0.49965 164 158 149
-0.67049 -4.44789 0.50043 163 162 151
-0.69095 -4.45295 0.50120 165 165 154
-0.71139 -4.45801 0.50198 162 157 155
-0.73180 -4.46306 0.50276 157 154 151
-0.75218 -4.46810 0.50353 157 152 146
-0.77253 -4.47314 0.50431 155 150 153
-0.79286 -4.47817 0.50508 155 147 150
-0.81316 -4.48319 0.50586 151 145 145
-0.83344 -4.48821 0.50663 150 150 151
-0.85369 -4.49322 0.50740 157 156 154
-0.87391 -4.49823 0.50817 163 159 151
-0.89411 -4.50322 0.50894 162 157 149
-0.91428 -4.50822 0.50970 159 153 147
-0.93442 -4.51320 0.51047 158 153 140
-0.95454 -4.51818 0.51124 155 148 138
-0.97463 -4.52315 0.51200 154 147 139
-0.99469 -4.52812 0.51277 152 147 137
-1.01473 -4.53307 0.51353 151 148 137
-1.03475 -4.53803 0.51429 156 154 134
-1.05473 -4.54297 0.51505 153 138 131
-1.07469 -4.54791 0.51581 146 145 141
-1.09463 -4.55285 0.51657 138 145 139
-1.11454 -4.55777 0.51733 147 151 148
-1.13442 -4.56269 0.51808 150 153 137
-1.15428 -4.56761 0.51884 151 149 134
-1.17411 -4.57251 0.51959 147 149 133
-1.19392 -4.57741 0.52035 163 155 150
-1.21370 -4.58231 0.52110 159 149 145
-1.23345 -4.58720 0.52185 140 139 136
-1.25318 -4.59208 0.52260 145 146 142
-1.27289 -4.59696 0.52335 149 147 142
-1.29257 -4.60183 0.52410 143 140 138
-1.31222 -4.60669 0.52485 153 147 142
-1.33185 -4.61155 0.52560 149 148 139
-1.35145 -4.61640 0.52634 135 132 127
-1.37103 -4.62124 0.52709 136 132 131
-1.39059 -4.62608 0.52783 137 130 135
-1.41011 -4.63091 0.52858 152 150 146
-1.42962 -4.63574 0.52932 154 149 142
-1.44909 -4.64056 0.53006 146 142 136
-1.46855 -4.64537 0.53080 146 143 137
-1.48798 -4.65018 0.53154 147 145 134
-1.50738 -4.65498 0.53228 147 146 135
-1.52676 -4.65978 0.53302 145 144 131
-1.54611 -4.66457 0.53375 143 141 126
-1.56544 -4.66935 0.53449 135 135 125
-1.58475 -4.67413 0.53522 138 136 135
-1.60403 -4.67890 0.53596 141 139 141
-1.62328 -4.68366 0.53669 140 141 135
-1.64251 -4.68842 0.53742 142 143 130
-1.66172 -4.69318 0.53815 141 143 128
-1.68090 -4.69792 0.53888 136 143 132
-1.70006 -4.70266 0.53961 130 135 131
-1.71919 -4.70740 0.54034 132 134 121
-1.73830 -4.71213 0.54107 135 136 117
-1.75739 -4.71685 0.54180 134 131 112
-1.81449 -4.73098 0.54397 90 79 83
1.10636 -3.98828 0.41419 200 197 188
1.08357 -3.99393 0.41507 209 207 188
1.06082 -3.99957 0.41595 204 205 191
1.03810 -4.00521 0.41682 198 196 196
1.01541 -4.01084 0.41770 191 194 192
0.99276 -4.01646 0.41858 186 184 180
0.97013 -4.02207 0.41945 191 188 184
0.94753 -4.02767 0.42032 194 191 190
0.92497 -4.03327 0.42119 189 188 185
0.90244 -4.03886 0.42206 186 186 182
0.87993 -4.04444 0.42293 192 187 178
0.85746 -4.05002 0.42380 190 184 177
0.83502 -4.05558 0.42467 183 176 180
0.81261 -4.06114 0.42553 176 174 179
0.79024 -4.06669 0.42640 170 174 177
0.76789 -4.07224 0.42726 171 170 176
0.74557 -4.07777 0.42812 172 167 171
0.72328 -4.08330 0.42898 174 172 168
0.70103 -4.08882 0.42984 175 170 168
0.67880 -4.09434 0.43070 176 174 168
0.65660 -4.09984 0.43156 183 185 176
0.63444 -4.10534 0.43242 180 174 176
0.61230 -4.11083 0.43327 171 163 166
0.59020 -4.11632 0.43413 169 164 163
0.56812 -4.12179 0.43498 173 167 164
0.54608 -4.12726 0.43583 180 176 168
0.52406 -4.13272 0.43668 179 175 164
0.50208 -4.13818 0.43753 180 174 166
0.48012 -4.14362 0.43838 186 180 182
0.45820 -4.14906 0.43922 180 177 180
0.43630 -4.15449 0.44007 163 156 165
0.41443 -4.15992 0.44091 171 161 165
0.39260 -4.16533 0.44176 173 163 164
0.37079 -4.17074 0.44260 177 178 172
0.34901 -4.17615 0.44344 178 172 168
0.32726 -4.18154 0.44428 172 166 166
0.30555 -4.18693 0.44512 177 172 169
0.28386 -4.19231 0.44596 185 183 170
0.26220 -4.19768 0.44680 176 170 166
0.24057 -4.20305 0.44763 172 172 160
0.21896 -4.20841 0.44847 169 165 159
0.19739 -4.21376 0.44930 171 165 168
0.17585 -4.21910 0.45013 180 178 173
0.15433 -4.22444 0.45096 179 175 164
0.13285 -4.22977 0.45179 175 167 167
0.11139 -4.23509 0.45262 180 178 171
0.08996 -4.24041 0.45345 178 173 171
0.06856 -4.24571 0.45427 181 163 156
0.04719 -4.25102 0.45510 180 174 165
0.02585 -4.25631 0.45592 175 167 171
0.00453 -4.26160 0.45675 172 168 165
-0.01675 -4.26688 0.45757 177 177 168
-0.03801 -4.27215 0.45839 172 170 170
-0.05924 -4.27742 0.45921 178 170 169
-0.08044 -4.28268 0.46003 180 164 167
-0.10161 -4.28793 0.46085 170 160 156
-0.12275 -4.29317 0.46166 177 166 171
-0.14387 -4.29841 0.46248 182 175 175
-0.16496 -4.30364 0.46329 176 177 157
-0.18602 -4.30887 0.46411 174 173 160
-0.20705 -4.31408 0.46492 182 184 170
-0.22805 -4.31929 0.46573 176 176 163
-0.24903 -4.32450 0.46654 171 170 161
-0.26997 -4.32969 0.46735 158 154 159
-0.29089 -4.33488 0.46816 161 170 172
-0.31179 -4.34006 0.46897 163 166 171
-0.33265 -4.34524 0.46977 165 159 168
-0.35349 -4.35041 0.47058 164 161 164
-0.37430 -4.35557 0.47138 170 164 169
-0.39508 -4.36073 0.47218 166 162 162
-0.41584 -4.36588 0.47299 164 156 160
-0.43656 -4.37102 0.47379 173 164 164
-0.45726 -4.37615 0.47459 162 150 156
-0.47794 -4.38128 0.47538 167 162 155
-0.49858 -4.38640 0.47618 167 160 144
-0.51920 -4.39152 0.47698 162 157 157
-0.53979 -4.39662 0.47777 164 166 170
-0.56035 -4.40172 0.47857 171 169 160
-0.58089 -4.40682 0.47936 164 156 151
-0.60140 -4.41191 0.48015 157 153 141
-0.62189 -4.41699 0.48094 151 152 142
-0.64234 -4.42206 0.48173 151 147 142
-0.66277 -4.42713 0.48252 157 147 146
-0.68317 -4.43219 0.48331 157 152 149
-0.70355 -4.43725 0.48410 161 157 142
-0.72390 -4.44229 0.48488 159 153 133
-0.74422 -4.44734 0.48567 155 154 138
-0.76452 -4.45237 0.48645 156 160 148
-0.78479 -4.45740 0.48724 157 160 159
-0.80503 -4.46242 0.48802 159 154 154
-0.82525 -4.46744 0.48880 151 146 146
-0.84544 -4.47244 0.48958 145 148 149
-0.86561 -4.47745 0.49036 157 154 150
-0.88575 -4.48244 0.49114 163 158 152
-0.90586 -4.48743 0.49191 161 159 150
-0.92594 -4.49241 0.49269 158 152 141
-0.94600 -4.49739 0.49346 155 142 130
-0.96604 -4.50236 0.49424 155 141 136
-0.98605 -4.50732 0.49501 157 153 151
-1.00603 -4.51228 0.49578 159 155 146
-1.02599 -4.51723 0.49655 160 152 142
-1.04592 -4.52217 0.49732 152 143 142
-1.06582 -4.52711 0.49809 149 144 140
-1.08570 -4.53204 0.49886 147 147 142
-1.10555 -4.53697 0.49963 148 146 141
-1.12538 -4.54189 0.50039 153 150 142
-1.14518 -4.54680 0.50116 148 140 134
-1.16496 -4.55171 0.50192 152 152 141
-1.18471 -4.55660 0.50268 155 162 153
-1.20444 -4.56150 0.50345 160 166 156
-1.22414 -4.56638 0.50421 159 155 155
-1.24381 -4.57127 0.50497 145 142 132
-1.26346 -4.57614 0.50573 146 149 140
-1.28309 -4.58101 0.50648 147 158 135
-1.30269 -4.58587 0.50724 136 128 124
-1.32226 -4.59073 0.50800 145 150 149
-1.34181 -4.59557 0.50875 150 159 140
-1.36134 -4.60042 0.50951 143 140 133
-1.38083 -4.60526 0.51026 140 141 135
-1.40031 -4.61009 0.51101 149 140 144
-1.41976 -4.61491 0.51176 156 149 154
-1.43918 -4.61973 0.51251 157 159 146
-1.45858 -4.62454 0.51326 147 148 142
-1.47796 -4.62935 0.51401 147 141 138
-1.49731 -4.63415 0.51476 148 145 133
-1.51663 -4.63894 0.51551 146 146 135
-1.53594 -4.64373 0.51625 142 134 140
-1.55521 -4.64851 0.51700 141 136 139
-1.57446 -4.65329 0.51774 139 141 135
-1.59369 -4.65806 0.51848 138 137 136
-1.61290 -4.66282 0.51922 139 134 139
-1.63207 -4.66758 0.51996 144 143 136
-1.65123 -4.67233 0.52070 147 152 131
-1.67036 -4.67708 0.52144 140 145 129
-1.68947 -4.68182 0.52218 134 136 131
-1.70855 -4.68655 0.52292 132 132 128
-1.72761 -4.69128 0.52365 130 132 117
-1.74664 -4.69600 0.52439 125 129 112
-1.76565 -4.70071 0.52512 129 131 116
-1.78463 -4.70542 0.52586 132 129 115
-1.82253 -4.71482 0.52732 97 101 86
1.13135 -3.96228 0.39473 191 189 186
1.10861 -3.96793 0.39562 193 189 184
1.08590 -3.97358 0.39651 194 192 183
1.06322 -3.97922 0.39740 197 199 184
1.04057 -3.98485 0.39828 197 197 188
1.01796 -3.99048 0.39917 198 194 195
0.99537 -3.99609 0.40006 195 193 194
0.97282 -4.00170 0.40094 189 186 186
0.95030 -4.00730 0.40182 189 186 186
0.92781 -4.01289 0.40270 189 187 187
0.90534 -4.01848 0.40358 182 182 181
0.88292 -4.02406 0.40446 180 179 175
0.86052 -4.02963 0.40534 190 186 174
0.83815 -4.03519 0.40622 187 181 176
0.81581 -4.04074 0.40709 176 174 178
0.79350 -4.04629 0.40797 173 174 174
0.77122 -4.05183 0.40884 170 172 167
0.74898 -4.05736 0.40971 172 173 166
0.72676 -4.06289 0.41058 175 175 169
0.70457 -4.06840 0.41145 171 175 173
0.68242 -4.07391 0.41232 171 175 171
0.66029 -4.07941 0.41319 177 177 168
0.63820 -4.08491 0.41405 181 182 172
0.61613 -4.09039 0.41492 178 177 174
0.59410 -4.09587 0.41578 175 169 170
0.57209 -4.10135 0.41664 172 168 167
0.55011 -4.10681 0.41750 176 170 166
0.52817 -4.11227 0.41836 179 174 167
0.50625 -4.11772 0.41922 175 173 171
0.48436 -4.12316 0.42008 177 176 178
0.46251 -4.12860 0.42094 183 180 184
0.44068 -4.13402 0.42179 184 183 183
0.41888 -4.13944 0.42265 176 165 165
0.39711 -4.14486 0.42350 178 161 164
0.37537 -4.15026 0.42435 180 175 166
0.35366 -4.15566 0.42520 181 185 177
0.33198 -4.16105 0.42605 180 179 169
0.31033 -4.16644 0.42690 170 166 170
0.28871 -4.17181 0.42775 179 175 164
0.26711 -4.17718 0.42859 180 172 166
0.24555 -4.18255 0.42944 176 167 167
0.22401 -4.18790 0.43028 172 173 167
0.20250 -4.19325 0.43113 183 180 174
0.18103 -4.19859 0.43197 175 168 177
0.15958 -4.20392 0.43281 177 174 173
0.13816 -4.20925 0.43365 176 172 161
0.11677 -4.21457 0.43449 176 166 176
0.09540 -4.21988 0.43532 186 177 169
0.07407 -4.22519 0.43616 175 169 158
0.05276 -4.23048 0.43699 180 160 156
0.03148 -4.23577 0.43783 176 168 158
0.01023 -4.24106 0.43866 169 163 157
-0.01099 -4.24634 0.43949 169 162 160
-0.03218 -4.25161 0.44032 168 163 168
-0.05334 -4.25687 0.44115 163 162 162
-0.07448 -4.26212 0.44198 173 166 166
-0.09559 -4.26737 0.44281 182 168 164
-0.11667 -4.27262 0.44363 174 164 168
-0.13772 -4.27785 0.44446 172 164 167
-0.15875 -4.28308 0.44528 178 167 168
-0.17974 -4.28830 0.44611 175 175 160
-0.20071 -4.29351 0.44693 171 167 160
-0.22165 -4.29872 0.44775 182 185 171
-0.24257 -4.30392 0.44857 173 170 155
-0.26345 -4.30911 0.44939 169 163 153
-0.28431 -4.31430 0.45020 165 158 149
-0.30514 -4.31948 0.45102 165 169 171
-0.32594 -4.32465 0.45183 163 163 169
-0.34672 -4.32982 0.45265 166 164 163
-0.36747 -4.33498 0.45346 171 166 159
-0.38819 -4.34013 0.45427 168 162 165
-0.40888 -4.34528 0.45508 160 156 159
-0.42955 -4.35042 0.45589 160 161 158
-0.45019 -4.35555 0.45670 162 160 161
-0.47080 -4.36067 0.45751 148 141 151
-0.49139 -4.36579 0.45832 153 146 145
-0.51194 -4.37091 0.45912 163 158 151
-0.53248 -4.37601 0.45993 162 159 162
-0.55298 -4.38111 0.46073 161 163 168
-0.57346 -4.38620 0.46153 170 164 160
-0.59391 -4.39129 0.46234 166 157 155
-0.61433 -4.39637 0.46314 162 157 151
-0.63473 -4.40144 0.46394 161 160 151
-0.65510 -4.40650 0.46473 163 160 145
-0.67544 -4.41156 0.46553 165 160 144
-0.69576 -4.41661 0.46633 159 157 146
-0.71605 -4.42166 0.46712 154 156 142
-0.73632 -4.42670 0.46792 154 155 135
-0.75656 -4.43173 0.46871 158 151 137
-0.77677 -4.43676 0.46950 156 147 140
-0.79695 -4.44178 0.47029 154 152 146
-0.81711 -4.44679 0.47108 157 156 149
-0.83725 -4.45180 0.47187 152 148 146
-0.85735 -4.45680 0.47266 149 145 143
-0.87744 -4.46179 0.47345 158 155 140
-0.89749 -4.46678 0.47423 166 162 148
-0.91752 -4.47176 0.47502 166 164 151
-0.93752 -4.47673 0.47580 164 162 140
-0.95750 -4.48170 0.47658 155 151 133
-0.97745 -4.48666 0.47737 146 145 140
-0.99738 -4.49161 0.47815 146 147 151
-1.01728 -4.49656 0.47893 155 153 155
-1.03715 -4.50151 0.47971 159 158 148
-1.05700 -4.50644 0.48048 152 148 139
-1.07683 -4.51137 0.48126 147 144 140
-1.09662 -4.51629 0.48204 143 138 140
-1.11640 -4.52121 0.48281 144 134 138
-1.13614 -4.52612 0.48358 148 155 144
-1.15587 -4.53102 0.48436 143 142 138
-1.17556 -4.53592 0.48513 155 154 145
-1.19523 -4.54081 0.48590 151 154 153
-1.21488 -4.54570 0.48667 147 149 141
-1.23450 -4.55058 0.48744 135 127 129
-1.25409 -4.55545 0.48821 138 136 133
-1.27367 -4.56032 0.48897 154 152 136
-1.29321 -4.56518 0.48974 152 154 141
-1.31273 -4.57003 0.49050 145 141 137
-1.33223 -4.57488 0.49127 148 151 144
-1.35170 -4.57972 0.49203 153 149 139
-1.37114 -4.58456 0.49279 152 146 138
-1.39056 -4.58939 0.49355 153 149 139
-1.40996 -4.59421 0.49431 149 149 151
-1.42933 -4.59903 0.49507 150 143 144
-1.44868 -4.60384 0.49583 157 158 146
-1.46800 -4.60864 0.49659 149 148 142
-1.48730 -4.61344 0.49735 142 138 139
-1.50657 -4.61823 0.49810 143 142 140
-1.52582 -4.62302 0.49886 147 145 137
-1.54505 -4.62780 0.49961 142 142 132
-1.56425 -4.63257 0.50036 134 136 126
-1.58342 -4.63734 0.50111 131 131 127
-1.60257 -4.64210 0.50186 130 129 128
-1.62170 -4.64686 0.50261 131 131 132
-1.64080 -4.65161 0.50336 140 142 140
-1.65988 -4.65635 0.50411 144 147 135
-1.67894 -4.66109 0.50486 132 136 123
-1.69797 -4.66582 0.50560 129 133 124
-1.71697 -4.67055 0.50635 131 134 128
-1.73596 -4.67527 0.50709 131 133 120
-1.75492 -4.67999 0.50783 129 131 117
-1.77385 -4.68469 0.50857 133 132 123
-1.79276 -4.68940 0.50932 134 134 124
-1.83051 -4.69878 0.51080 124 114 89
1.11084 -3.94773 0.37717 195 190 183
1.08821 -3.95337 0.37807 191 187 180
1.06560 -3.95900 0.37897 191 187 177
1.04303 -3.96463 0.37987 188 192 181
1.02049 -3.97025 0.38076 189 186 183
0.99797 -3.97586 0.38166 195 189 189
0.97549 -3.98146 0.38255 195 191 191
0.95304 -3.98706 0.38344 193 188 184
0.93062 -3.99265 0.38433 189 185 178
0.90823 -3.99823 0.38522 185 180 175
0.88588 -4.00380 0.38611 181 178 176
0.86355 -4.00937 0.38700 184 181 174
0.84125 -4.01492 0.38789 188 183 180
0.81898 -4.02048 0.38877 181 175 182
0.79675 -4.02602 0.38965 171 170 171
0.77454 -4.03155 0.39054 171 170 162
0.75236 -4.03708 0.39142 174 172 164
0.73022 -4.04260 0.39230 180 178 167
0.70810 -4.04811 0.39318 180 177 170
0.68601 -4.05362 0.39406 170 171 170
0.66396 -4.05912 0.39493 165 170 167
0.64193 -4.06461 0.39581 173 171 166
0.61993 -4.07009 0.39668 179 176 170
0.59797 -4.07556 0.39755 176 176 172
0.57603 -4.08103 0.39843 173 169 167
0.55412 -4.08649 0.39930 169 164 166
0.53224 -4.09195 0.40017 173 168 168
0.51040 -4.09739 0.40104 177 173 166
0.48858 -4.10283 0.40190 173 168 169
0.46679 -4.10826 0.40277 176 170 175
0.44503 -4.11369 0.40363 186 183 179
0.42330 -4.11910 0.40450 186 183 181
0.40160 -4.12451 0.40536 185 177 178
0.37992 -4.12991 0.40622 185 178 175
0.35828 -4.13531 0.40708 186 181 175
0.33666 -4.14070 0.40794 184 185 175
0.31508 -4.14608 0.40880 177 176 167
0.29352 -4.15145 0.40966 174 170 167
0.27200 -4.15682 0.41051 174 173 160
0.25050 -4.16218 0.41137 171 172 168
0.22903 -4.16753 0.41222 172 169 167
0.20759 -4.17287 0.41307 171 171 165
0.18617 -4.17821 0.41392 185 179 171
0.16479 -4.18354 0.41477 180 178 177
0.14343 -4.18886 0.41562 177 174 173
