ply
format ascii 1.0
element face 0
property list uchar int vertex_indices
element vertex 1256
property float x
property float y
property float z
property uchar diffuse_red
property uchar diffuse_green
property uchar diffuse_blue
end_header
1.02104 -0.67178 -0.27600 222 208 207
1.02580 -0.67423 -0.27247 224 207 202
1.03054 -0.67668 -0.26894 219 205 203
0.72382 -0.52783 -0.48727 237 230 229
0.72889 -0.53044 -0.48352 237 230 228
0.73395 -0.53304 -0.47976 237 229 226
0.73900 -0.53564 -0.47601 237 229 226
0.74406 -0.53824 -0.47227 238 228 227
0.74910 -0.54084 -0.46853 237 227 225
0.75414 -0.54343 -0.46479 235 226 223
0.75917 -0.54602 -0.46106 236 225 223
0.76420 -0.54861 -0.45733 235 225 222
0.76922 -0.55120 -0.45361 234 225 223
0.77424 -0.55378 -0.44989 235 226 224
0.77925 -0.55636 -0.44617 235 225 223
0.78425 -0.55893 -0.44246 235 226 224
0.78925 -0.56151 -0.43875 234 225 224
0.79425 -0.56408 -0.43505 233 224 223
0.79924 -0.56664 -0.43135 233 224 223
0.80422 -0.56921 -0.42766 232 224 223
0.80919 -0.57177 -0.42397 232 223 223
0.81416 -0.57433 -0.42028 232 224 224
0.81913 -0.57688 -0.41660 232 224 223
0.82409 -0.57943 -0.41292 233 224 221
0.82904 -0.58198 -0.40925 233 223 219
0.83399 -0.58453 -0.40558 232 223 219
0.83893 -0.58707 -0.40192 231 223 220
0.84387 -0.58962 -0.39826 231 221 218
0.84880 -0.59215 -0.39460 231 220 217
0.85373 -0.59469 -0.39095 230 218 218
0.85865 -0.59722 -0.38730 229 217 218
0.86357 -0.59975 -0.38365 229 219 219
0.86847 -0.60228 -0.38001 229 221 220
0.87338 -0.60480 -0.37638 230 221 219
0.87828 -0.60732 -0.37275 230 220 219
0.88317 -0.60984 -0.36912 230 219 220
0.88806 -0.61236 -0.36549 229 219 219
0.89294 -0.61487 -0.36187 228 219 218
0.89782 -0.61738 -0.35826 227 217 217
0.90269 -0.61989 -0.35465 227 217 215
0.90755 -0.62239 -0.35104 228 216 215
0.91241 -0.62489 -0.34743 228 216 217
0.91727 -0.62739 -0.34384 227 217 216
0.92212 -0.62989 -0.34024 227 217 214
0.92696 -0.63238 -0.33665 227 216 215
0.93180 -0.63487 -0.33306 226 215 217
0.93663 -0.63736 -0.32948 224 215 216
0.94146 -0.63984 -0.32590 224 214 215
0.94628 -0.64232 -0.32232 224 213 213
0.95110 -0.64480 -0.31875 224 213 212
0.95591 -0.64728 -0.31518 224 212 213
0.96072 -0.64975 -0.31162 225 213 212
0.96552 -0.65222 -0.30806 223 211 211
0.97031 -0.65469 -0.30450 222 210 210
0.97510 -0.65716 -0.30095 222 209 208
0.97989 -0.65962 -0.29740 221 208 208
0.98467 -0.66208 -0.29386 221 208 209
0.98944 -0.66454 -0.29032 221 209 211
0.99421 -0.66699 -0.28678 221 210 210
0.99897 -0.66944 -0.28325 221 209 211
1.00373 -0.67189 -0.27972 220 209 211
1.00848 -0.67434 -0.27620 219 209 208
1.01323 -0.67678 -0.27268 220 208 208
1.01797 -0.67922 -0.26916 221 206 204
1.02271 -0.68166 -0.26565 216 204 204
0.71667 -0.53342 -0.48322 235 229 228
0.72172 -0.53601 -0.47947 235 228 226
0.72677 -0.53861 -0.47573 235 227 224
0.73182 -0.54120 -0.47200 236 227 225
0.73686 -0.54379 -0.46826 237 228 226
0.74189 -0.54637 -0.46454 236 227 224
0.74692 -0.54896 -0.46081 234 224 220
0.75194 -0.55153 -0.45710 234 223 218
0.75696 -0.55411 -0.45338 234 223 217
0.76197 -0.55669 -0.44967 234 224 218
0.76698 -0.55926 -0.44597 234 223 218
0.77198 -0.56182 -0.44226 235 222 216
0.77697 -0.56439 -0.43857 234 224 218
0.78196 -0.56695 -0.43487 233 224 221
0.78694 -0.56951 -0.43118 233 222 219
0.79192 -0.57207 -0.42750 233 223 221
0.79689 -0.57462 -0.42382 232 224 223
0.80185 -0.57717 -0.42014 232 224 223
0.80681 -0.57972 -0.41647 232 224 223
0.81177 -0.58226 -0.41280 232 223 222
0.81672 -0.58481 -0.40913 233 222 220
0.82166 -0.58734 -0.40547 232 223 219
0.82660 -0.58988 -0.40182 231 222 219
0.83153 -0.59241 -0.39817 231 222 220
0.83646 -0.59494 -0.39452 232 221 221
0.84138 -0.59747 -0.39088 232 221 219
0.84629 -0.60000 -0.38724 231 220 217
0.85120 -0.60252 -0.38360 230 218 216
0.85611 -0.60504 -0.37997 229 219 218
0.86101 -0.60755 -0.37634 229 219 219
0.86590 -0.61007 -0.37272 230 219 219
0.87079 -0.61258 -0.36910 230 219 219
0.87567 -0.61509 -0.36548 230 219 220
0.88055 -0.61759 -0.36187 230 220 220
0.88542 -0.62009 -0.35827 229 219 219
0.89029 -0.62259 -0.35466 228 217 218
0.89515 -0.62509 -0.35106 228 219 218
0.90000 -0.62758 -0.34747 228 218 218
0.90485 -0.63007 -0.34388 227 217 218
0.90970 -0.63256 -0.34029 227 217 215
0.91454 -0.63505 -0.33671 227 216 214
0.91937 -0.63753 -0.33313 226 215 214
0.92420 -0.64001 -0.32955 226 214 216
0.92902 -0.64249 -0.32598 225 214 216
0.93384 -0.64496 -0.32242 224 213 215
0.93865 -0.64743 -0.31885 224 213 213
0.94346 -0.64990 -0.31529 223 212 213
0.94826 -0.65237 -0.31174 222 211 213
0.95306 -0.65483 -0.30819 222 210 210
0.95785 -0.65729 -0.30464 221 209 210
0.96263 -0.65975 -0.30110 220 209 210
0.96741 -0.66221 -0.29756 223 209 208
0.97219 -0.66466 -0.29402 221 207 208
0.97696 -0.66711 -0.29049 220 207 207
0.98172 -0.66956 -0.28696 222 207 208
0.98648 -0.67200 -0.28344 221 209 212
0.99123 -0.67444 -0.27992 220 209 210
0.99598 -0.67688 -0.27640 220 208 209
1.00073 -0.67932 -0.27289 219 207 206
1.00546 -0.68175 -0.26938 220 206 206
1.01020 -0.68418 -0.26588 220 204 203
1.01492 -0.68661 -0.26238 218 202 202
0.70956 -0.53897 -0.47918 234 226 224
0.71460 -0.54156 -0.47545 234 225 223
0.71964 -0.54414 -0.47173 234 225 223
0.72468 -0.54672 -0.46800 235 225 223
0.72970 -0.54930 -0.46428 235 227 223
0.73473 -0.55187 -0.46057 235 226 223
0.73974 -0.55444 -0.45686 235 225 220
0.74476 -0.55701 -0.45316 235 225 219
0.74976 -0.55958 -0.44946 236 225 219
0.75476 -0.56214 -0.44576 236 226 221
0.75976 -0.56470 -0.44207 235 225 222
0.76474 -0.56726 -0.43838 235 225 220
0.76973 -0.56981 -0.43469 235 225 220
0.77470 -0.57237 -0.43101 235 226 222
0.77968 -0.57491 -0.42734 235 225 222
0.78464 -0.57746 -0.42366 234 224 222
0.78960 -0.58000 -0.42000 233 223 220
0.79456 -0.58254 -0.41633 233 222 219
0.79951 -0.58508 -0.41267 232 222 220
0.80445 -0.58761 -0.40902 232 222 221
0.80939 -0.59014 -0.40537 232 222 219
0.81432 -0.59267 -0.40172 232 221 218
0.81925 -0.59520 -0.39808 230 221 219
0.82417 -0.59772 -0.39444 231 221 219
0.82909 -0.60024 -0.39080 232 221 220
0.83400 -0.60276 -0.38717 232 221 221
0.83890 -0.60527 -0.38355 232 221 220
0.84380 -0.60778 -0.37992 231 219 217
0.84870 -0.61029 -0.37630 229 218 214
0.85359 -0.61280 -0.37269 228 218 216
0.85847 -0.61530 -0.36908 229 218 218
0.86335 -0.61780 -0.36547 229 218 218
0.86822 -0.62030 -0.36187 230 218 218
0.87309 -0.62280 -0.35827 229 218 216
0.87795 -0.62529 -0.35468 228 217 215
0.88280 -0.62778 -0.35109 227 217 215
0.88765 -0.63026 -0.34750 226 217 217
0.89250 -0.63275 -0.34392 225 216 217
0.89734 -0.63523 -0.34034 225 215 216
0.90217 -0.63771 -0.33677 225 215 214
0.90700 -0.64018 -0.33320 226 214 212
0.91183 -0.64265 -0.32963 224 213 213
0.91664 -0.64512 -0.32607 223 213 215
0.92146 -0.64759 -0.32251 224 213 214
0.92626 -0.65005 -0.31895 223 211 213
0.93107 -0.65252 -0.31540 223 211 212
0.93586 -0.65497 -0.31186 223 211 212
0.94066 -0.65743 -0.30831 222 210 212
0.94544 -0.65988 -0.30477 222 209 209
0.95022 -0.66233 -0.30124 222 208 208
0.95500 -0.66478 -0.29771 220 208 210
0.95977 -0.66723 -0.29418 221 208 205
0.96453 -0.66967 -0.29066 220 207 204
0.96929 -0.67211 -0.28714 220 207 206
0.97405 -0.67455 -0.28362 221 207 208
0.97880 -0.67698 -0.28011 220 207 210
0.98354 -0.67941 -0.27660 219 208 208
0.98828 -0.68184 -0.27310 219 206 206
0.99301 -0.68427 -0.26960 219 206 203
0.99774 -0.68669 -0.26610 219 204 201
1.00247 -0.68911 -0.26261 219 201 200
1.00718 -0.69153 -0.25912 218 201 195
0.69745 -0.54191 -0.47889 237 229 223
0.70249 -0.54449 -0.47517 236 226 222
0.70752 -0.54707 -0.47146 235 224 223
0.71255 -0.54964 -0.46774 235 225 223
0.71758 -0.55221 -0.46403 235 223 222
0.72259 -0.55478 -0.46033 236 224 221
0.72761 -0.55734 -0.45663 237 224 218
0.73261 -0.55990 -0.45293 236 225 215
0.73761 -0.56246 -0.44924 235 225 217
0.74261 -0.56501 -0.44555 235 225 220
0.74760 -0.56757 -0.44187 235 225 221
0.75258 -0.57012 -0.43819 235 225 222
0.75756 -0.57266 -0.43451 234 224 221
0.76253 -0.57521 -0.43084 234 225 223
0.76750 -0.57775 -0.42718 234 226 222
0.77246 -0.58028 -0.42351 233 225 221
0.77741 -0.58282 -0.41985 233 224 220
0.78236 -0.58535 -0.41620 233 222 217
0.78731 -0.58788 -0.41255 233 221 214
0.79224 -0.59041 -0.40890 232 222 217
0.79718 -0.59293 -0.40526 232 222 220
0.80211 -0.59545 -0.40162 233 222 219
0.80703 -0.59797 -0.39799 232 221 218
0.81194 -0.60049 -0.39436 231 221 218
0.81686 -0.60300 -0.39073 230 220 218
0.82176 -0.60551 -0.38711 231 220 218
0.82666 -0.60801 -0.38349 231 221 219
0.83156 -0.61052 -0.37988 230 220 218
0.83645 -0.61302 -0.37627 231 220 217
0.84133 -0.61552 -0.37266 231 220 217
0.84621 -0.61801 -0.36906 229 220 218
0.85108 -0.62051 -0.36546 229 219 218
0.85595 -0.62300 -0.36187 228 217 217
0.86081 -0.62548 -0.35828 228 217 215
0.86567 -0.62797 -0.35469 228 216 214
0.87052 -0.63045 -0.35111 227 216 214
0.87536 -0.63293 -0.34753 226 216 215
0.88020 -0.63540 -0.34396 225 216 215
0.88504 -0.63788 -0.34039 225 214 212
0.88987 -0.64035 -0.33682 224 213 211
0.89469 -0.64282 -0.33326 223 212 211
0.89951 -0.64528 -0.32970 223 211 209
0.90433 -0.64774 -0.32615 222 210 210
0.90913 -0.65020 -0.32260 222 211 213
0.91394 -0.65266 -0.31905 223 211 212
0.91873 -0.65512 -0.31551 223 210 210
0.92353 -0.65757 -0.31197 223 210 212
0.92831 -0.66002 -0.30844 223 211 211
0.93309 -0.66246 -0.30491 221 210 210
0.93787 -0.66491 -0.30138 221 209 209
0.94264 -0.66735 -0.29786 221 207 208
0.94741 -0.66978 -0.29434 221 208 210
0.95217 -0.67222 -0.29083 221 208 206
0.95692 -0.67465 -0.28731 221 208 204
0.96167 -0.67708 -0.28381 220 209 207
0.96642 -0.67951 -0.28030 221 209 209
0.97116 -0.68193 -0.27680 221 207 209
0.97589 -0.68436 -0.27331 221 209 208
0.98062 -0.68678 -0.26982 220 207 208
0.98535 -0.68919 -0.26633 221 207 205
0.99007 -0.69161 -0.26284 220 206 202
0.99478 -0.69402 -0.25936 220 204 202
0.99949 -0.69643 -0.25589 220 203 196
0.69044 -0.54741 -0.47490 236 228 224
0.69547 -0.54998 -0.47119 235 226 223
0.70049 -0.55255 -0.46748 235 226 224
0.70551 -0.55511 -0.46378 236 226 224
0.71052 -0.55767 -0.46009 236 227 223
0.71553 -0.56022 -0.45640 237 225 220
0.72053 -0.56278 -0.45271 237 225 218
0.72552 -0.56533 -0.44903 236 225 220
0.73051 -0.56787 -0.44535 234 224 220
0.73549 -0.57042 -0.44167 234 224 220
0.74047 -0.57296 -0.43800 235 225 218
0.74545 -0.57550 -0.43434 235 225 219
0.75041 -0.57803 -0.43068 234 225 220
0.75537 -0.58057 -0.42702 233 225 222
0.76033 -0.58310 -0.42336 233 224 221
0.76528 -0.58562 -0.41971 232 223 220
0.77022 -0.58815 -0.41607 233 223 220
0.77516 -0.59067 -0.41243 233 222 217
0.78010 -0.59319 -0.40879 232 221 214
0.78503 -0.59570 -0.40515 232 222 215
0.78995 -0.59822 -0.40153 232 222 219
0.79486 -0.60073 -0.39790 231 221 219
0.79978 -0.60324 -0.39428 231 221 218
0.80468 -0.60574 -0.39066 231 220 218
0.80958 -0.60824 -0.38705 230 219 217
0.81448 -0.61074 -0.38344 230 219 217
0.81937 -0.61324 -0.37983 230 219 217
0.82425 -0.61573 -0.37623 229 217 215
0.82913 -0.61822 -0.37264 228 217 215
0.83400 -0.62071 -0.36904 229 217 218
0.83887 -0.62320 -0.36545 229 218 219
0.84374 -0.62568 -0.36187 228 217 216
0.84859 -0.62816 -0.35829 227 216 215
0.85344 -0.63064 -0.35471 227 215 214
0.85829 -0.63311 -0.35114 227 215 213
0.86313 -0.63558 -0.34757 227 213 213
0.86797 -0.63805 -0.34400 226 214 214
0.87280 -0.64052 -0.34044 225 215 214
0.87762 -0.64298 -0.33688 225 213 212
0.88244 -0.64544 -0.33333 224 214 211
0.88726 -0.64790 -0.32978 225 214 212
0.89206 -0.65035 -0.32623 225 213 210
0.89687 -0.65281 -0.32269 225 211 211
0.90167 -0.65526 -0.31915 224 212 214
0.90646 -0.65770 -0.31562 224 212 213
0.91125 -0.66015 -0.31209 224 212 212
0.91603 -0.66259 -0.30856 224 212 214
0.92081 -0.66503 -0.30504 224 213 214
0.92558 -0.66746 -0.30152 223 213 214
0.93035 -0.66990 -0.29801 223 213 212
0.93511 -0.67233 -0.29450 222 210 211
0.93986 -0.67476 -0.29099 222 210 212
0.94461 -0.67718 -0.28749 223 212 211
0.94936 -0.67960 -0.28399 221 211 209
0.95410 -0.68203 -0.28050 222 211 210
0.95884 -0.68444 -0.27700 223 211 212
0.96357 -0.68686 -0.27352 222 210 212
0.96829 -0.68927 -0.27003 223 211 211
0.97301 -0.69168 -0.26655 223 211 211
0.97772 -0.69409 -0.26308 223 210 207
0.98243 -0.69649 -0.25960 222 209 207
0.98714 -0.69889 -0.25614 220 207 207
0.99184 -0.70129 -0.25267 220 205 202
0.68347 -0.55288 -0.47092 237 227 222
0.68848 -0.55544 -0.46723 237 226 222
0.69350 -0.55799 -0.46354 236 226 222
0.69850 -0.56054 -0.45985 235 226 223
0.70350 -0.56309 -0.45617 235 225 221
0.70850 -0.56564 -0.45249 234 224 218
0.71349 -0.56818 -0.44881 234 223 218
0.71847 -0.57072 -0.44515 233 223 219
0.72345 -0.57325 -0.44148 232 223 220
0.72842 -0.57579 -0.43782 233 224 220
0.73339 -0.57832 -0.43416 235 225 221
0.73835 -0.58085 -0.43051 236 224 220
0.74331 -0.58337 -0.42686 234 223 220
0.74826 -0.58589 -0.42321 233 223 219
0.75321 -0.58841 -0.41957 232 222 219
0.75815 -0.59093 -0.41594 232 221 217
0.76308 -0.59345 -0.41230 232 221 217
0.76801 -0.59596 -0.40867 231 219 216
0.77293 -0.59846 -0.40505 231 219 214
0.77785 -0.60097 -0.40143 232 220 211
0.78276 -0.60347 -0.39781 231 221 218
0.78767 -0.60597 -0.39420 230 221 220
0.79257 -0.60847 -0.39059 231 220 217
0.79746 -0.61097 -0.38699 230 219 218
0.80235 -0.61346 -0.38339 229 218 217
0.80724 -0.61595 -0.37979 229 217 215
0.81212 -0.61843 -0.37620 229 217 215
0.81699 -0.62092 -0.37261 228 217 216
0.82186 -0.62340 -0.36902 229 216 216
0.82672 -0.62587 -0.36544 230 217 219
0.83158 -0.62835 -0.36187 230 218 220
0.83643 -0.63082 -0.35829 229 218 219
0.84128 -0.63329 -0.35472 228 218 218
0.84612 -0.63576 -0.35116 228 218 218
0.85096 -0.63822 -0.34760 229 218 216
0.85579 -0.64068 -0.34404 228 216 215
0.86061 -0.64314 -0.34049 228 216 215
0.86543 -0.64560 -0.33694 227 217 216
0.87025 -0.64805 -0.33340 227 217 215
0.87506 -0.65050 -0.32985 226 217 214
0.87986 -0.65295 -0.32632 227 217 216
0.88466 -0.65540 -0.32278 228 217 216
0.88946 -0.65784 -0.31925 227 216 216
0.89424 -0.66028 -0.31573 227 215 217
0.89903 -0.66271 -0.31221 226 215 215
0.90380 -0.66515 -0.30869 225 214 216
0.90858 -0.66758 -0.30518 226 214 215
0.91334 -0.67001 -0.30166 225 214 216
0.91811 -0.67244 -0.29816 225 214 217
0.92286 -0.67486 -0.29466 224 215 214
0.92762 -0.67728 -0.29116 223 213 213
0.93236 -0.67970 -0.28766 224 213 215
0.93710 -0.68212 -0.28417 224 215 216
0.94184 -0.68453 -0.28069 223 213 212
0.94657 -0.68694 -0.27720 223 213 212
0.95130 -0.68935 -0.27372 224 212 213
0.95602 -0.69175 -0.27025 223 213 213
0.96073 -0.69415 -0.26678 223 212 213
0.96544 -0.69655 -0.26331 224 212 212
0.97015 -0.69895 -0.25984 223 211 208
0.97485 -0.70135 -0.25638 222 209 209
0.97954 -0.70374 -0.25293 219 207 209
0.98423 -0.70613 -0.24947 220 206 206
0.67654 -0.55831 -0.46697 235 225 222
0.68154 -0.56086 -0.46329 234 225 223
0.68654 -0.56340 -0.45961 234 225 221
0.69154 -0.56594 -0.45594 235 225 222
0.69653 -0.56848 -0.45227 234 223 221
0.70151 -0.57102 -0.44860 233 222 219
0.70649 -0.57355 -0.44494 232 222 217
0.71147 -0.57608 -0.44129 232 222 213
0.71643 -0.57860 -0.43763 231 222 215
0.72140 -0.58113 -0.43399 233 222 219
0.72635 -0.58365 -0.43034 235 222 218
0.73130 -0.58616 -0.42670 235 222 219
0.73625 -0.58868 -0.42306 233 223 221
0.74119 -0.59119 -0.41943 232 222 220
0.74612 -0.59370 -0.41580 232 222 219
0.75105 -0.59621 -0.41218 233 222 218
0.75598 -0.59871 -0.40856 233 222 217
0.76089 -0.60121 -0.40494 232 221 217
0.76581 -0.60371 -0.40133 232 220 216
0.77071 -0.60621 -0.39772 233 221 214
0.77561 -0.60870 -0.39412 232 222 219
0.78051 -0.61119 -0.39052 233 223 221
0.78540 -0.61367 -0.38692 233 222 218
0.79029 -0.61616 -0.38333 232 221 219
0.79517 -0.61864 -0.37974 232 221 219
0.80004 -0.62112 -0.37616 232 221 219
0.80491 -0.62359 -0.37258 231 221 219
0.80977 -0.62607 -0.36900 230 221 219
0.81463 -0.62854 -0.36543 231 220 219
0.81948 -0.63101 -0.36186 231 220 221
0.82433 -0.63347 -0.35830 230 220 221
0.82917 -0.63593 -0.35474 230 220 220
0.83401 -0.63839 -0.35118 229 219 219
0.83884 -0.64085 -0.34763 230 219 219
0.84367 -0.64330 -0.34408 230 220 220
0.84849 -0.64576 -0.34054 230 219 219
0.85330 -0.64820 -0.33700 229 219 218
0.85811 -0.65065 -0.33346 228 218 218
0.86292 -0.65309 -0.32993 228 218 216
0.86772 -0.65553 -0.32640 228 218 216
0.87251 -0.65797 -0.32287 228 217 217
0.87730 -0.66041 -0.31935 227 218 218
0.88209 -0.66284 -0.31584 226 217 216
0.88686 -0.66527 -0.31232 227 217 217
0.89164 -0.66770 -0.30881 225 215 215
0.89641 -0.67012 -0.30531 225 215 216
0.90117 -0.67254 -0.30181 226 215 215
0.90593 -0.67496 -0.29831 225 214 215
0.91068 -0.67738 -0.29481 224 212 215
0.91543 -0.67979 -0.29132 223 213 213
0.92017 -0.68221 -0.28784 222 214 213
0.92490 -0.68461 -0.28435 223 213 214
0.92964 -0.68702 -0.28087 223 213 215
0.93436 -0.68942 -0.27740 223 212 211
0.93908 -0.69182 -0.27393 222 211 210
0.94380 -0.69422 -0.27046 223 210 211
0.94851 -0.69662 -0.26700 222 211 211
0.95322 -0.69901 -0.26354 222 211 210
0.95792 -0.70140 -0.26008 223 210 209
0.96261 -0.70379 -0.25663 222 209 209
0.96730 -0.70618 -0.25318 221 207 210
0.97199 -0.70856 -0.24973 219 205 207
0.97667 -0.71094 -0.24629 219 205 205
0.66965 -0.56372 -0.46304 235 225 222
0.67464 -0.56625 -0.45937 233 225 222
0.67963 -0.56878 -0.45571 234 225 221
0.68462 -0.57131 -0.45205 235 225 222
0.68960 -0.57384 -0.44839 234 224 223
0.69457 -0.57636 -0.44474 233 224 222
0.69954 -0.57889 -0.44109 233 224 220
0.70450 -0.58140 -0.43745 234 225 217
0.70946 -0.58392 -0.43381 234 224 219
0.71441 -0.58643 -0.43017 235 224 222
0.71936 -0.58894 -0.42654 235 224 221
0.72430 -0.59145 -0.42292 234 224 220
0.72923 -0.59396 -0.41929 234 224 222
0.73416 -0.59646 -0.41567 234 224 223
0.73908 -0.59896 -0.41206 234 224 222
0.74400 -0.60145 -0.40845 235 224 222
0.74892 -0.60395 -0.40484 235 224 221
0.75382 -0.60644 -0.40124 234 224 220
0.75872 -0.60892 -0.39764 233 223 220
0.76362 -0.61141 -0.39404 233 223 220
0.76851 -0.61389 -0.39045 233 225 221
0.77340 -0.61637 -0.38686 234 225 221
0.77828 -0.61885 -0.38328 234 224 221
0.78315 -0.62132 -0.37970 233 223 221
0.78802 -0.62379 -0.37613 232 223 221
0.79289 -0.62626 -0.37255 232 223 222
0.79774 -0.62873 -0.36899 232 223 222
0.80260 -0.63119 -0.36542 231 222 221
0.80745 -0.63365 -0.36186 231 222 221
0.81229 -0.63611 -0.35831 231 222 223
0.81713 -0.63856 -0.35476 230 221 223
0.82196 -0.64102 -0.35121 230 221 222
0.82678 -0.64347 -0.34766 230 220 220
0.83161 -0.64591 -0.34412 229 219 218
0.83642 -0.64836 -0.34059 229 219 218
0.84123 -0.65080 -0.33706 229 219 218
0.84604 -0.65324 -0.33353 228 219 217
0.85084 -0.65567 -0.33000 227 218 216
0.85563 -0.65811 -0.32648 227 217 215
0.86042 -0.66054 -0.32297 228 216 214
0.86521 -0.66297 -0.31945 227 216 213
0.86998 -0.66539 -0.31594 225 215 212
0.87476 -0.66781 -0.31244 224 213 212
0.87953 -0.67023 -0.30894 224 214 214
0.88429 -0.67265 -0.30544 225 213 213
0.88905 -0.67507 -0.30195 225 212 213
0.89380 -0.67748 -0.29846 225 213 213
0.89855 -0.67989 -0.29497 224 211 213
0.90329 -0.68230 -0.29149 223 210 211
0.90803 -0.68470 -0.28801 222 211 210
0.91276 -0.68710 -0.28453 221 212 210
0.91749 -0.68950 -0.28106 221 211 212
0.92221 -0.69190 -0.27760 222 210 211
0.92693 -0.69429 -0.27413 223 209 209
0.93164 -0.69668 -0.27067 222 209 208
0.93635 -0.69907 -0.26722 222 208 210
0.94105 -0.70146 -0.26377 220 208 211
0.94574 -0.70384 -0.26032 221 209 208
0.95043 -0.70622 -0.25687 221 207 206
0.95512 -0.70860 -0.25343 220 205 206
0.95980 -0.71098 -0.24999 221 206 208
0.96448 -0.71335 -0.24656 220 204 206
0.96915 -0.71572 -0.24313 220 206 205
0.65781 -0.56656 -0.46280 238 230 227
0.66280 -0.56909 -0.45914 237 227 223
0.66779 -0.57161 -0.45548 236 226 220
0.67277 -0.57413 -0.45183 236 226 222
0.67774 -0.57665 -0.44818 236 227 225
0.68271 -0.57917 -0.44454 236 227 225
0.68767 -0.58168 -0.44090 234 227 224
0.69263 -0.58419 -0.43727 234 227 223
0.69758 -0.58670 -0.43364 235 227 221
0.70252 -0.58921 -0.43001 235 227 223
0.70747 -0.59171 -0.42639 235 228 227
0.71240 -0.59421 -0.42277 235 227 225
0.71733 -0.59671 -0.41915 235 226 222
0.72225 -0.59920 -0.41554 236 227 223
0.72717 -0.60169 -0.41194 235 227 226
0.73209 -0.60418 -0.40833 235 227 228
0.73699 -0.60667 -0.40474 235 226 226
0.74190 -0.60915 -0.40114 237 227 224
0.74679 -0.61163 -0.39755 236 226 223
0.75168 -0.61411 -0.39396 234 225 223
0.75657 -0.61658 -0.39038 233 224 222
0.76145 -0.61905 -0.38680 233 224 222
0.76633 -0.62152 -0.38323 233 223 221
0.77120 -0.62399 -0.37966 233 223 222
0.77606 -0.62645 -0.37609 231 222 222
0.78092 -0.62892 -0.37253 231 222 220
0.78577 -0.63137 -0.36897 231 221 218
0.79062 -0.63383 -0.36541 231 220 218
0.79546 -0.63628 -0.36186 231 220 218
0.80030 -0.63873 -0.35831 230 219 218
0.80513 -0.64118 -0.35477 230 219 220
0.80996 -0.64363 -0.35123 230 219 221
0.81478 -0.64607 -0.34770 229 218 220
0.81960 -0.64851 -0.34416 228 218 218
0.82441 -0.65095 -0.34064 228 217 213
0.82922 -0.65338 -0.33711 228 216 212
0.83402 -0.65581 -0.33359 228 215 215
0.83881 -0.65824 -0.33008 227 215 214
0.84360 -0.66067 -0.32656 226 214 211
0.84839 -0.66309 -0.32306 225 213 210
0.85317 -0.66551 -0.31955 225 212 212
0.85794 -0.66793 -0.31605 224 212 211
0.86271 -0.67035 -0.31255 223 211 210
0.86747 -0.67276 -0.30906 223 210 210
0.87223 -0.67517 -0.30557 223 210 211
0.87699 -0.67758 -0.30208 223 209 209
0.88174 -0.67998 -0.29860 224 210 209
0.88648 -0.68238 -0.29512 223 211 212
0.89122 -0.68478 -0.29165 222 210 211
0.89595 -0.68718 -0.28818 222 209 211
0.90068 -0.68958 -0.28471 222 209 209
0.90540 -0.69197 -0.28125 221 210 209
0.91012 -0.69436 -0.27779 222 210 209
0.91483 -0.69675 -0.27434 223 209 207
0.91954 -0.69913 -0.27088 224 209 207
0.92424 -0.70151 -0.26744 223 208 208
0.92894 -0.70389 -0.26399 222 207 209
0.93363 -0.70627 -0.26055 221 208 208
0.93831 -0.70864 -0.25712 221 208 208
0.94300 -0.71101 -0.25368 221 206 207
0.94767 -0.71338 -0.25025 220 205 204
0.95234 -0.71575 -0.24683 221 205 202
0.95701 -0.71811 -0.24341 219 204 205
0.96167 -0.72047 -0.23999 219 204 205
0.65102 -0.57191 -0.45890 238 232 231
0.65599 -0.57442 -0.45526 236 229 226
0.66097 -0.57694 -0.45161 237 228 223
0.66594 -0.57945 -0.44798 237 228 224
0.67090 -0.58196 -0.44434 236 228 227
0.67586 -0.58446 -0.44071 237 229 226
0.68081 -0.58697 -0.43709 237 229 225
0.68576 -0.58947 -0.43346 236 229 225
0.69070 -0.59197 -0.42985 236 228 224
0.69563 -0.59446 -0.42623 235 227 224
0.70056 -0.59695 -0.42262 235 226 226
0.70549 -0.59944 -0.41902 235 226 224
0.71040 -0.60193 -0.41541 235 225 221
0.71532 -0.60441 -0.41182 235 225 221
0.72023 -0.60689 -0.40822 234 226 223
0.72513 -0.60937 -0.40463 233 227 225
0.73003 -0.61185 -0.40105 234 226 224
0.73492 -0.61432 -0.39746 235 226 222
0.73980 -0.61679 -0.39389 234 226 222
0.74468 -0.61926 -0.39031 232 225 222
0.74956 -0.62172 -0.38674 232 223 222
0.75443 -0.62419 -0.38318 232 221 221
0.75930 -0.62665 -0.37961 231 221 222
0.76415 -0.62910 -0.37605 231 221 221
0.76901 -0.63156 -0.37250 229 220 221
0.77386 -0.63401 -0.36895 229 219 219
0.77870 -0.63646 -0.36540 229 218 216
0.78354 -0.63890 -0.36186 230 217 216
0.78837 -0.64135 -0.35832 230 218 215
0.79320 -0.64379 -0.35479 230 218 214
0.79802 -0.64622 -0.35126 229 217 216
0.80284 -0.64866 -0.34773 229 216 217
0.80765 -0.65109 -0.34420 226 215 216
0.81246 -0.65352 -0.34068 225 215 215
0.81726 -0.65595 -0.33717 226 215 212
0.82205 -0.65837 -0.33366 226 214 210
0.82684 -0.66080 -0.33015 226 213 212
0.83163 -0.66321 -0.32665 225 212 212
0.83641 -0.66563 -0.32315 226 212 209
0.84118 -0.66805 -0.31965 225 212 209
0.84595 -0.67046 -0.31616 224 211 211
0.85072 -0.67287 -0.31267 224 210 211
0.85548 -0.67527 -0.30918 224 210 209
0.86023 -0.67767 -0.30570 224 210 208
0.86498 -0.68008 -0.30222 224 210 209
0.86972 -0.68247 -0.29875 224 209 207
0.87446 -0.68487 -0.29528 223 210 208
0.87920 -0.68726 -0.29181 223 210 212
0.88393 -0.68965 -0.28835 222 211 212
0.88865 -0.69204 -0.28489 223 211 211
0.89337 -0.69443 -0.28144 223 210 210
0.89808 -0.69681 -0.27799 223 211 210
0.90279 -0.69919 -0.27454 223 211 210
0.90749 -0.70157 -0.27110 223 210 207
0.91219 -0.70394 -0.26766 223 210 209
0.91688 -0.70631 -0.26422 223 209 208
0.92157 -0.70868 -0.26079 222 208 208
0.92625 -0.71105 -0.25736 223 209 208
0.93093 -0.71341 -0.25393 222 210 209
0.93560 -0.71578 -0.25051 222 209 208
0.94027 -0.71814 -0.24709 221 208 205
0.94493 -0.72049 -0.24368 221 206 203
0.94959 -0.72285 -0.24027 220 205 206
0.95424 -0.72520 -0.23686 221 204 205
0.64426 -0.57722 -0.45503 236 229 229
0.64923 -0.57973 -0.45140 235 227 226
0.65419 -0.58223 -0.44777 235 227 224
0.65915 -0.58473 -0.44414 235 226 224
0.66410 -0.58723 -0.44052 235 226 225
0.66905 -0.58973 -0.43690 236 227 223
0.67399 -0.59222 -0.43329 238 228 223
0.67892 -0.59471 -0.42968 238 228 224
0.68385 -0.59720 -0.42608 236 227 224
0.68878 -0.59969 -0.42248 235 225 223
0.69370 -0.60217 -0.41888 234 224 222
0.69861 -0.60465 -0.41528 235 224 221
0.70352 -0.60712 -0.41170 234 223 220
0.70842 -0.60960 -0.40811 233 222 218
0.71332 -0.61207 -0.40453 232 221 216
0.71821 -0.61454 -0.40095 231 222 218
0.72310 -0.61700 -0.39738 231 222 219
0.72798 -0.61947 -0.39381 232 222 219
0.73286 -0.62193 -0.39024 232 222 220
0.73773 -0.62438 -0.38668 231 220 218
0.74259 -0.62684 -0.38312 230 219 216
0.74745 -0.62929 -0.37957 230 218 217
0.75231 -0.63174 -0.37602 229 219 219
0.75715 -0.63419 -0.37247 229 219 216
0.76200 -0.63663 -0.36893 228 218 216
0.76684 -0.63907 -0.36539 227 218 217
0.77167 -0.64151 -0.36186 228 218 215
0.77650 -0.64395 -0.35833 229 217 215
0.78132 -0.64638 -0.35480 229 217 212
0.78614 -0.64881 -0.35128 228 217 212
0.79095 -0.65124 -0.34776 228 216 214
0.79576 -0.65366 -0.34424 229 215 213
0.80056 -0.65609 -0.34073 226 214 212
0.80535 -0.65851 -0.33723 226 214 213
0.81015 -0.66092 -0.33372 226 214 212
0.81493 -0.66334 -0.33022 227 213 211
0.81971 -0.66575 -0.32673 226 213 212
0.82449 -0.66816 -0.32323 226 213 210
0.82926 -0.67057 -0.31975 227 214 209
0.83402 -0.67297 -0.31626 227 214 212
0.83878 -0.67537 -0.31278 225 213 213
0.84354 -0.67777 -0.30930 225 212 212
0.84829 -0.68017 -0.30583 224 211 211
0.85303 -0.68256 -0.30236 224 210 210
0.85777 -0.68495 -0.29890 225 212 210
0.86250 -0.68734 -0.29543 224 211 210
0.86723 -0.68973 -0.29198 223 211 211
0.87196 -0.69211 -0.28852 223 211 213
0.87668 -0.69449 -0.28507 224 211 213
0.88139 -0.69687 -0.28162 224 213 214
0.88610 -0.69925 -0.27818 225 214 213
0.89080 -0.70162 -0.27474 225 215 213
0.89550 -0.70399 -0.27131 224 214 212
0.90019 -0.70636 -0.26787 224 213 211
0.90488 -0.70872 -0.26444 224 212 210
0.90956 -0.71109 -0.26102 224 212 209
0.91424 -0.71345 -0.25760 223 211 210
0.91891 -0.71581 -0.25418 224 211 210
0.92358 -0.71816 -0.25077 224 213 209
0.92825 -0.72051 -0.24736 224 211 209
0.93290 -0.72286 -0.24395 223 209 208
0.93756 -0.72521 -0.24055 223 209 208
0.94220 -0.72756 -0.23715 223 208 209
0.94685 -0.72990 -0.23376 223 208 208
0.63754 -0.58251 -0.45118 234 225 225
0.64250 -0.58500 -0.44756 234 225 224
0.64745 -0.58750 -0.44395 236 225 222
0.65240 -0.58999 -0.44033 235 225 223
0.65734 -0.59248 -0.43672 235 225 224
0.66228 -0.59496 -0.43312 235 225 222
0.66721 -0.59745 -0.42952 236 226 222
0.67213 -0.59993 -0.42592 236 225 223
0.67705 -0.60240 -0.42233 236 225 222
0.68197 -0.60488 -0.41874 235 224 220
0.68687 -0.60735 -0.41516 234 223 220
0.69178 -0.60982 -0.41158 234 223 221
0.69667 -0.61229 -0.40800 233 223 223
0.70157 -0.61475 -0.40443 233 222 220
0.70645 -0.61721 -0.40086 233 221 216
0.71134 -0.61967 -0.39729 233 221 215
0.71621 -0.62213 -0.39373 233 221 216
0.72108 -0.62458 -0.39017 232 220 216
0.72595 -0.62703 -0.38662 231 219 217
0.73081 -0.62948 -0.38307 230 218 217
0.73566 -0.63192 -0.37953 230 217 215
0.74051 -0.63436 -0.37598 229 217 216
0.74536 -0.63680 -0.37245 228 218 217
0.75020 -0.63924 -0.36891 229 218 215
0.75503 -0.64167 -0.36538 229 218 214
0.75986 -0.64411 -0.36186 230 219 216
0.76468 -0.64653 -0.35833 229 219 217
0.76950 -0.64896 -0.35482 228 219 216
0.77431 -0.65138 -0.35130 228 218 215
0.77912 -0.65380 -0.34779 228 217 215
0.78392 -0.65622 -0.34428 229 217 217
0.78872 -0.65864 -0.34078 230 217 215
0.79351 -0.66105 -0.33728 229 217 214
0.79829 -0.66346 -0.33379 228 217 216
0.80308 -0.66587 -0.33030 229 216 215
0.80785 -0.66828 -0.32681 229 216 214
0.81262 -0.67068 -0.32332 228 216 215
0.81739 -0.67308 -0.31984 229 216 214
0.82215 -0.67547 -0.31637 229 217 214
0.82690 -0.67787 -0.31289 228 216 215
0.83165 -0.68026 -0.30943 227 215 215
0.83640 -0.68265 -0.30596 226 214 214
0.84114 -0.68504 -0.30250 225 214 213
0.84587 -0.68742 -0.29904 225 214 214
0.85060 -0.68980 -0.29559 225 214 214
0.85533 -0.69218 -0.29214 225 214 214
0.86005 -0.69456 -0.28869 224 215 216
0.86476 -0.69693 -0.28525 224 214 216
0.86947 -0.69931 -0.28181 225 214 216
0.87417 -0.70167 -0.27837 226 215 218
0.87887 -0.70404 -0.27494 227 217 217
0.88356 -0.70640 -0.27151 226 218 219
0.88825 -0.70877 -0.26809 226 216 216
0.89294 -0.71112 -0.26467 225 215 215
0.89762 -0.71348 -0.26125 225 215 211
0.90229 -0.71583 -0.25784 225 214 210
0.90696 -0.71819 -0.25443 224 213 212
0.91162 -0.72053 -0.25102 225 214 214
0.91628 -0.72288 -0.24762 226 214 211
0.92093 -0.72522 -0.24422 225 213 211
0.92558 -0.72756 -0.24083 224 211 211
0.93023 -0.72990 -0.23744 222 210 211
0.93486 -0.73224 -0.23405 222 208 208
0.93950 -0.73457 -0.23067 223 208 206
0.63087 -0.58776 -0.44736 235 225 222
0.63581 -0.59025 -0.44375 235 225 224
0.64076 -0.59273 -0.44014 236 226 222
0.64569 -0.59521 -0.43654 235 225 222
0.65062 -0.59769 -0.43295 234 224 222
0.65555 -0.60017 -0.42936 235 224 221
0.66047 -0.60264 -0.42577 235 225 221
0.66538 -0.60511 -0.42218 235 225 223
0.67029 -0.60758 -0.41860 235 225 223
0.67519 -0.61004 -0.41503 234 224 221
0.68009 -0.61250 -0.41146 233 223 220
0.68498 -0.61496 -0.40789 233 223 219
0.68987 -0.61742 -0.40432 233 223 222
0.69475 -0.61987 -0.40076 234 224 222
0.69963 -0.62232 -0.39721 233 222 218
0.70450 -0.62477 -0.39365 233 222 216
0.70936 -0.62722 -0.39011 234 222 218
0.71423 -0.62966 -0.38656 233 222 218
0.71908 -0.63210 -0.38302 232 221 218
0.72393 -0.63454 -0.37948 232 221 220
0.72877 -0.63697 -0.37595 231 220 221
0.73361 -0.63941 -0.37242 230 220 220
0.73845 -0.64184 -0.36889 230 220 218
0.74328 -0.64426 -0.36537 231 220 217
0.74810 -0.64669 -0.36186 232 221 216
0.75292 -0.64911 -0.35834 233 222 219
0.75773 -0.65153 -0.35483 232 223 221
0.76254 -0.65395 -0.35133 231 222 220
0.76734 -0.65636 -0.34782 231 222 220
0.77214 -0.65877 -0.34432 230 221 219
0.77693 -0.66118 -0.34083 231 221 220
0.78172 -0.66359 -0.33734 231 221 220
0.78650 -0.66599 -0.33385 231 222 221
0.79127 -0.66839 -0.33037 231 222 221
0.79605 -0.67079 -0.32689 231 220 219
0.80081 -0.67318 -0.32341 231 220 219
0.80557 -0.67558 -0.31994 230 219 219
0.81033 -0.67797 -0.31647 229 218 216
0.81508 -0.68035 -0.31301 230 218 216
0.81982 -0.68274 -0.30955 229 220 218
0.82456 -0.68512 -0.30609 228 219 218
0.82930 -0.68750 -0.30264 228 216 215
0.83403 -0.68988 -0.29919 227 216 215
0.83875 -0.69225 -0.29574 227 217 216
0.84347 -0.69463 -0.29230 226 216 217
0.84819 -0.69700 -0.28886 226 216 216
0.85290 -0.69936 -0.28542 226 216 218
0.85760 -0.70173 -0.28199 226 216 218
0.86230 -0.70409 -0.27857 227 215 217
0.86700 -0.70645 -0.27514 226 215 218
0.87169 -0.70881 -0.27172 226 216 218
0.87637 -0.71116 -0.26831 225 215 218
0.88105 -0.71351 -0.26489 226 214 214
0.88572 -0.71586 -0.26148 225 212 212
0.89039 -0.71821 -0.25808 224 212 207
0.89506 -0.72055 -0.25468 222 211 209
0.89972 -0.72290 -0.25128 222 210 210
0.90437 -0.72524 -0.24788 223 212 215
0.90902 -0.72757 -0.24449 224 213 212
0.91366 -0.72991 -0.24111 223 211 212
0.91830 -0.73224 -0.23772 223 209 208
0.92294 -0.73457 -0.23434 221 208 206
0.92757 -0.73690 -0.23097 220 207 205
0.93219 -0.73922 -0.22759 222 207 203
0.62423 -0.59299 -0.44355 237 227 223
0.62917 -0.59546 -0.43996 235 227 224
0.63410 -0.59794 -0.43637 235 227 223
0.63902 -0.60041 -0.43278 235 225 223
0.64394 -0.60287 -0.42920 234 224 222
0.64886 -0.60534 -0.42562 234 224 222
0.65376 -0.60780 -0.42204 235 225 222
0.65867 -0.61026 -0.41847 236 225 223
0.66357 -0.61272 -0.41490 236 226 223
0.66846 -0.61517 -0.41134 236 227 223
0.67335 -0.61763 -0.40778 235 226 224
0.67823 -0.62008 -0.40422 235 225 222
0.68310 -0.62252 -0.40067 235 226 223
0.68798 -0.62497 -0.39712 235 226 225
0.69284 -0.62741 -0.39358 234 225 222
0.69770 -0.62985 -0.39004 235 225 220
0.70256 -0.63228 -0.38650 236 224 222
0.70741 -0.63472 -0.38297 235 224 222
0.71225 -0.63715 -0.37944 235 224 220
0.71709 -0.63957 -0.37592 234 224 221
0.72193 -0.64200 -0.37239 233 223 223
0.72676 -0.64442 -0.36888 233 224 223
0.73158 -0.64684 -0.36536 233 224 222
0.73640 -0.64926 -0.36185 234 223 220
0.74121 -0.65167 -0.35835 235 224 220
0.74602 -0.65409 -0.35485 235 224 222
0.75082 -0.65650 -0.35135 235 225 224
0.75562 -0.65890 -0.34785 234 225 224
0.76041 -0.66131 -0.34436 233 224 221
0.76520 -0.66371 -0.34088 233 224 221
0.76998 -0.66611 -0.33739 233 224 223
0.77476 -0.66850 -0.33391 233 225 224
0.77953 -0.67090 -0.33044 234 225 225
0.78429 -0.67329 -0.32697 232 224 224
0.78906 -0.67568 -0.32350 231 222 221
0.79381 -0.67806 -0.32004 230 221 221
0.79856 -0.68045 -0.31658 229 220 221
0.80331 -0.68283 -0.31312 229 218 217
0.80805 -0.68521 -0.30967 230 219 215
0.81279 -0.68758 -0.30622 229 220 216
0.81752 -0.68995 -0.30277 227 217 216
0.82224 -0.69233 -0.29933 227 214 214
0.82696 -0.69469 -0.29589 226 214 214
0.83168 -0.69706 -0.29246 225 213 215
0.83639 -0.69942 -0.28903 225 212 215
0.84109 -0.70178 -0.28560 224 211 213
0.84579 -0.70414 -0.28218 223 210 214
0.85049 -0.70650 -0.27876 224 211 215
0.85518 -0.70885 -0.27534 225 212 216
0.85986 -0.71120 -0.27193 224 212 215
0.86454 -0.71355 -0.26852 223 211 213
0.86922 -0.71589 -0.26511 223 210 211
0.87389 -0.71823 -0.26171 224 209 207
0.87855 -0.72057 -0.25832 223 209 208
0.88321 -0.72291 -0.25492 222 208 205
0.88786 -0.72525 -0.25153 221 207 207
0.89251 -0.72758 -0.24814 220 207 207
0.89716 -0.72991 -0.24476 220 208 208
0.90180 -0.73224 -0.24138 221 210 210
0.90643 -0.73456 -0.23801 221 208 210
0.91106 -0.73689 -0.23463 221 207 206
0.91569 -0.73921 -0.23127 220 206 204
0.92031 -0.74152 -0.22790 220 206 204
0.92492 -0.74384 -0.22454 221 206 204
0.61270 -0.59571 -0.44336 238 229 226
0.61763 -0.59818 -0.43977 236 227 225
0.62256 -0.60065 -0.43619 236 228 227
0.62748 -0.60311 -0.43261 236 229 226
0.63239 -0.60557 -0.42903 237 227 224
0.63730 -0.60803 -0.42546 238 226 224
0.64220 -0.61048 -0.42190 237 226 223
0.64710 -0.61294 -0.41833 237 226 221
0.65199 -0.61539 -0.41478 238 226 222
0.65688 -0.61783 -0.41122 237 227 223
0.66176 -0.62028 -0.40767 235 228 223
0.66664 -0.62272 -0.40412 235 228 221
0.67151 -0.62516 -0.40058 236 228 221
0.67638 -0.62760 -0.39704 237 228 222
0.68124 -0.63003 -0.39350 235 228 225
0.68609 -0.63246 -0.38997 235 228 225
0.69095 -0.63489 -0.38644 237 227 223
0.69579 -0.63732 -0.38292 237 226 224
0.70063 -0.63974 -0.37940 237 227 223
0.70546 -0.64216 -0.37588 238 227 221
0.71029 -0.64458 -0.37237 237 226 222
0.71512 -0.64699 -0.36886 236 225 223
0.71994 -0.64941 -0.36535 236 226 224
0.72475 -0.65182 -0.36185 235 226 224
0.72956 -0.65423 -0.35835 235 224 223
0.73436 -0.65663 -0.35486 235 224 223
0.73916 -0.65903 -0.35137 235 226 223
0.74395 -0.66143 -0.34789 235 227 224
0.74874 -0.66383 -0.34440 235 227 224
0.75352 -0.66622 -0.34092 234 225 223
0.75830 -0.66862 -0.33745 233 225 222
0.76307 -0.67101 -0.33398 232 224 223
0.76784 -0.67339 -0.33051 232 223 223
0.77260 -0.67578 -0.32705 232 223 223
0.77736 -0.67816 -0.32359 230 220 222
0.78211 -0.68054 -0.32013 229 219 219
0.78685 -0.68291 -0.31668 228 219 218
0.79159 -0.68529 -0.31323 227 218 218
0.79633 -0.68766 -0.30979 227 216 217
0.80106 -0.69003 -0.30634 228 215 216
0.80579 -0.69240 -0.30291 226 215 215
0.81051 -0.69476 -0.29947 225 213 213
0.81522 -0.69712 -0.29604 225 212 211
0.81993 -0.69948 -0.29262 225 212 212
0.82464 -0.70184 -0.28919 224 210 212
0.82934 -0.70419 -0.28577 223 209 212
0.83403 -0.70654 -0.28236 223 208 211
0.83873 -0.70889 -0.27895 221 208 213
0.84341 -0.71124 -0.27554 223 210 215
0.84809 -0.71358 -0.27213 223 210 214
0.85277 -0.71592 -0.26873 222 210 211
0.85744 -0.71826 -0.26534 222 209 211
0.86210 -0.72059 -0.26194 222 208 208
0.86676 -0.72293 -0.25855 222 208 206
0.87142 -0.72526 -0.25517 222 208 207
0.87607 -0.72759 -0.25178 222 207 206
0.88071 -0.72991 -0.24840 222 207 206
0.88535 -0.73224 -0.24503 221 206 206
0.88999 -0.73456 -0.24166 220 206 205
0.89462 -0.73688 -0.23829 220 208 208
0.89925 -0.73919 -0.23492 220 208 208
0.90387 -0.74151 -0.23156 221 208 208
0.90848 -0.74382 -0.22821 220 206 207
0.91309 -0.74613 -0.22485 220 206 204
0.91770 -0.74843 -0.22150 220 206 205
0.68423 -0.63991 -0.38287 237 229 227
0.68906 -0.64232 -0.37935 237 228 226
0.69389 -0.64474 -0.37585 239 228 223
0.69872 -0.64715 -0.37234 238 227 222
0.70353 -0.64956 -0.36884 237 226 223
0.70835 -0.65196 -0.36534 236 226 224
0.71316 -0.65436 -0.36185 236 226 223
0.71796 -0.65677 -0.35836 235 224 222
0.72276 -0.65916 -0.35488 234 223 222
0.72755 -0.66156 -0.35139 233 223 222
0.73234 -0.66395 -0.34792 233 223 222
0.73712 -0.66634 -0.34444 233 223 221
0.74190 -0.66873 -0.34097 233 224 221
0.74667 -0.67111 -0.33750 232 223 222
0.75144 -0.67350 -0.33404 231 222 221
0.75620 -0.67588 -0.33058 230 220 220
0.76096 -0.67825 -0.32713 230 219 219
0.76571 -0.68063 -0.32367 230 218 218
0.77046 -0.68300 -0.32023 228 217 218
0.77520 -0.68537 -0.31678 227 217 217
0.77993 -0.68774 -0.31334 226 217 214
0.78466 -0.69010 -0.30990 225 215 215
0.78939 -0.69247 -0.30647 226 214 216
0.79411 -0.69483 -0.30304 226 213 216
0.79883 -0.69718 -0.29962 225 213 215
0.80354 -0.69954 -0.29619 224 212 212
0.80824 -0.70189 -0.29277 225 212 210
0.81295 -0.70424 -0.28936 225 212 209
0.81764 -0.70659 -0.28595 225 211 210
0.82233 -0.70893 -0.28254 224 210 212
0.82702 -0.71127 -0.27914 223 209 212
0.83170 -0.71361 -0.27574 222 210 213
0.83638 -0.71595 -0.27234 223 212 214
0.84105 -0.71828 -0.26895 223 210 214
0.84571 -0.72061 -0.26556 223 210 210
0.85037 -0.72294 -0.26217 223 210 211
0.85503 -0.72527 -0.25879 223 209 210
0.85968 -0.72760 -0.25541 223 208 207
0.86433 -0.72992 -0.25203 222 208 205
0.86897 -0.73224 -0.24866 222 208 207
0.87360 -0.73455 -0.24530 222 208 207
0.87823 -0.73687 -0.24193 223 208 209
0.88286 -0.73918 -0.23857 222 208 208
0.88748 -0.74149 -0.23521 222 209 209
0.89210 -0.74380 -0.23186 221 209 209
0.89671 -0.74610 -0.22851 221 208 209
0.90132 -0.74841 -0.22516 220 207 206
0.90592 -0.75071 -0.22182 221 207 202
0.91051 -0.75300 -0.21848 221 206 206
0.67755 -0.64489 -0.37931 236 227 223
0.68237 -0.64730 -0.37581 236 225 221
0.68719 -0.64970 -0.37232 236 224 221
0.69200 -0.65210 -0.36882 235 224 221
0.69681 -0.65450 -0.36533 234 224 222
0.70162 -0.65690 -0.36185 234 224 222
0.70642 -0.65929 -0.35837 234 223 221
0.71121 -0.66168 -0.35489 233 222 219
0.71600 -0.66407 -0.35142 233 221 219
0.72078 -0.66646 -0.34795 232 221 219
0.72556 -0.66884 -0.34448 231 220 219
0.73033 -0.67122 -0.34102 230 220 218
0.73510 -0.67360 -0.33756 231 220 217
0.73986 -0.67598 -0.33410 231 220 217
0.74462 -0.67835 -0.33065 229 218 218
0.74937 -0.68072 -0.32721 228 217 216
0.75412 -0.68309 -0.32376 229 217 215
0.75886 -0.68545 -0.32032 229 216 215
0.76359 -0.68782 -0.31688 229 217 216
0.76833 -0.69018 -0.31345 228 217 216
0.77305 -0.69254 -0.31002 227 216 213
0.77777 -0.69489 -0.30660 226 214 213
0.78249 -0.69724 -0.30318 226 214 213
0.78720 -0.69959 -0.29976 226 214 215
0.79191 -0.70194 -0.29634 226 214 215
0.79661 -0.70429 -0.29293 226 213 214
0.80131 -0.70663 -0.28952 225 213 212
0.80600 -0.70897 -0.28612 225 213 211
0.81068 -0.71131 -0.28272 225 213 213
0.81537 -0.71364 -0.27932 225 211 213
0.82004 -0.71598 -0.27593 224 209 212
0.82471 -0.71831 -0.27254 224 210 211
0.82938 -0.72063 -0.26916 224 212 213
0.83404 -0.72296 -0.26578 224 212 213
0.83870 -0.72528 -0.26240 225 213 213
0.84335 -0.72760 -0.25902 224 213 213
0.84800 -0.72992 -0.25565 224 211 211
0.85264 -0.73224 -0.25228 224 209 208
0.85727 -0.73455 -0.24892 224 210 205
0.86190 -0.73686 -0.24556 222 210 209
0.86653 -0.73917 -0.24220 223 211 211
0.87115 -0.74147 -0.23885 223 210 214
0.87577 -0.74378 -0.23550 223 210 212
0.88038 -0.74608 -0.23215 224 210 212
0.88499 -0.74838 -0.22881 223 210 213
0.88959 -0.75067 -0.22547 223 210 210
0.89419 -0.75297 -0.22214 222 208 205
0.89878 -0.75526 -0.21881 223 210 202
0.90337 -0.75755 -0.21548 224 210 208
0.67572 -0.65225 -0.37229 234 222 216
0.68053 -0.65464 -0.36881 234 222 218
0.68533 -0.65703 -0.36533 233 223 220
0.69013 -0.65942 -0.36185 232 222 221
0.69492 -0.66181 -0.35838 233 223 222
0.69971 -0.66419 -0.35491 233 222 221
0.70450 -0.66658 -0.35144 233 221 219
0.70927 -0.66895 -0.34798 232 221 219
0.71405 -0.67133 -0.34452 232 222 219
0.71881 -0.67370 -0.34107 231 221 218
0.72358 -0.67608 -0.33761 231 219 217
0.72833 -0.67845 -0.33417 231 219 216
0.73309 -0.68081 -0.33072 230 219 216
0.73783 -0.68318 -0.32728 229 218 218
0.74258 -0.68554 -0.32385 229 218 217
0.74731 -0.68790 -0.32042 230 218 216
0.75205 -0.69025 -0.31699 230 218 217
0.75677 -0.69261 -0.31356 230 218 219
0.76149 -0.69496 -0.31014 230 218 218
0.76621 -0.69731 -0.30672 229 217 215
0.77092 -0.69965 -0.30331 228 216 214
0.77563 -0.70200 -0.29990 227 215 213
0.78033 -0.70434 -0.29649 226 215 216
0.78503 -0.70667 -0.29309 227 216 216
0.78972 -0.70901 -0.28969 227 216 215
0.79441 -0.71134 -0.28629 227 214 214
0.79909 -0.71368 -0.28290 227 214 215
0.80377 -0.71600 -0.27951 226 215 216
0.80844 -0.71833 -0.27613 226 213 215
0.81310 -0.72065 -0.27275 225 211 213
0.81777 -0.72298 -0.26937 225 211 210
0.82242 -0.72529 -0.26599 225 213 212
0.82707 -0.72761 -0.26262 226 215 214
0.83172 -0.72992 -0.25926 227 216 215
0.83636 -0.73224 -0.25589 227 216 215
0.84100 -0.73455 -0.25253 226 215 214
0.84563 -0.73685 -0.24918 225 212 213
0.85026 -0.73916 -0.24582 225 213 209
0.85488 -0.74146 -0.24247 224 213 211
0.85950 -0.74376 -0.23913 224 213 213
0.86411 -0.74605 -0.23579 223 212 216
0.86872 -0.74835 -0.23245 222 210 213
0.87332 -0.75064 -0.22911 224 211 212
0.87792 -0.75293 -0.22578 224 212 214
0.88252 -0.75522 -0.22245 224 211 211
0.88710 -0.75750 -0.21913 224 210 209
0.89169 -0.75978 -0.21581 224 213 210
0.89627 -0.76206 -0.21249 225 213 210
0.67391 -0.65955 -0.36532 235 224 219
0.67870 -0.66193 -0.36185 234 224 221
0.68349 -0.66431 -0.35838 233 224 222
0.68827 -0.66669 -0.35492 233 224 223
0.69305 -0.66907 -0.35146 234 223 222
0.69782 -0.67144 -0.34801 234 223 220
0.70259 -0.67381 -0.34456 233 223 220
0.70735 -0.67618 -0.34111 234 224 220
0.71211 -0.67854 -0.33767 234 223 219
0.71686 -0.68090 -0.33423 233 222 218
0.72161 -0.68326 -0.33079 232 221 218
0.72635 -0.68562 -0.32736 231 221 219
0.73109 -0.68797 -0.32393 230 221 220
0.73582 -0.69033 -0.32051 230 220 219
0.74055 -0.69267 -0.31709 231 220 218
0.74527 -0.69502 -0.31367 231 220 219
0.74999 -0.69737 -0.31026 231 219 221
0.75470 -0.69971 -0.30685 230 219 220
0.75941 -0.70205 -0.30344 230 219 218
0.76411 -0.70438 -0.30004 229 219 217
0.76881 -0.70672 -0.29664 228 218 216
0.77350 -0.70905 -0.29324 227 218 218
0.77819 -0.71138 -0.28985 228 219 217
0.78287 -0.71371 -0.28646 228 219 217
0.78755 -0.71603 -0.28308 228 217 218
0.79222 -0.71835 -0.27970 228 217 218
0.79689 -0.72067 -0.27632 228 217 219
0.80155 -0.72299 -0.27295 228 217 218
0.80621 -0.72531 -0.26958 228 215 217
0.81086 -0.72762 -0.26621 226 214 215
0.81551 -0.72993 -0.26285 226 214 214
0.82015 -0.73224 -0.25949 227 215 215
0.82479 -0.73454 -0.25613 227 215 216
0.82942 -0.73684 -0.25278 228 217 216
0.83405 -0.73914 -0.24943 227 217 216
0.83867 -0.74144 -0.24609 226 215 215
0.84329 -0.74374 -0.24274 226 215 211
0.84790 -0.74603 -0.23941 226 214 212
0.85251 -0.74832 -0.23607 226 215 213
0.85711 -0.75061 -0.23274 224 213 214
0.86171 -0.75289 -0.22941 224 212 213
0.86630 -0.75518 -0.22609 223 212 212
0.87089 -0.75746 -0.22277 224 212 214
0.87548 -0.75974 -0.21945 222 210 212
0.88006 -0.76201 -0.21614 223 211 211
0.88463 -0.76428 -0.21283 224 212 213
0.88920 -0.76656 -0.20952 225 212 211
0.67210 -0.66681 -0.35839 235 226 223
0.67688 -0.66918 -0.35493 235 226 224
0.68165 -0.67155 -0.35149 235 225 224
0.68642 -0.67391 -0.34804 235 226 225
0.69119 -0.67627 -0.34460 235 226 223
0.69594 -0.67863 -0.34116 235 225 221
0.70070 -0.68099 -0.33772 235 225 222
0.70544 -0.68335 -0.33429 235 225 222
0.71019 -0.68570 -0.33086 235 225 221
0.71492 -0.68805 -0.32744 234 224 222
0.71966 -0.69040 -0.32402 233 223 224
0.72438 -0.69274 -0.32060 232 223 225
0.72911 -0.69509 -0.31719 232 222 223
0.73382 -0.69743 -0.31378 232 222 223
0.73854 -0.69977 -0.31037 232 222 222
0.74324 -0.70210 -0.30697 231 222 223
0.74795 -0.70443 -0.30357 231 222 222
0.75264 -0.70676 -0.30018 232 221 220
0.75734 -0.70909 -0.29679 231 221 219
0.76202 -0.71142 -0.29340 231 221 219
0.76671 -0.71374 -0.29002 230 221 219
0.77138 -0.71606 -0.28664 229 221 219
0.77606 -0.71838 -0.28326 229 221 219
0.78073 -0.72069 -0.27989 229 219 220
0.78539 -0.72301 -0.27652 229 219 221
0.79005 -0.72532 -0.27315 229 218 221
0.79470 -0.72763 -0.26979 229 218 221
0.79935 -0.72993 -0.26643 229 218 221
0.80399 -0.73224 -0.26307 228 217 221
0.80863 -0.73454 -0.25972 227 215 217
0.81326 -0.73683 -0.25637 226 215 216
0.81789 -0.73913 -0.25303 226 215 217
0.82251 -0.74142 -0.24969 226 216 217
0.82713 -0.74372 -0.24635 226 215 216
0.83174 -0.74600 -0.24301 226 215 216
0.83635 -0.74829 -0.23968 227 216 213
0.84096 -0.75057 -0.23635 228 216 213
0.84556 -0.75286 -0.23303 227 216 211
0.85015 -0.75514 -0.22971 225 213 211
0.85474 -0.75741 -0.22639 226 214 212
0.85932 -0.75969 -0.22308 223 212 211
0.86390 -0.76196 -0.21977 223 211 214
0.86848 -0.76423 -0.21646 221 211 212
0.87305 -0.76650 -0.21316 223 209 210
0.87761 -0.76876 -0.20986 222 208 208
0.88218 -0.77102 -0.20657 223 209 210
0.66554 -0.67165 -0.35495 237 229 225
0.67031 -0.67401 -0.35151 237 229 226
0.67508 -0.67637 -0.34807 236 228 226
0.67983 -0.67873 -0.34463 236 228 227
0.68459 -0.68108 -0.34120 237 228 225
0.68933 -0.68343 -0.33778 236 227 223
0.69408 -0.68578 -0.33435 235 226 223
0.69882 -0.68813 -0.33093 235 226 225
0.70355 -0.69047 -0.32752 235 227 225
0.70828 -0.69281 -0.32410 235 226 226
0.71300 -0.69515 -0.32070 235 226 226
0.71772 -0.69749 -0.31729 234 226 227
0.72243 -0.69982 -0.31389 233 225 227
0.72714 -0.70215 -0.31049 233 225 226
0.73184 -0.70448 -0.30710 234 224 224
0.73654 -0.70681 -0.30371 233 224 225
0.74123 -0.70913 -0.30032 232 224 224
0.74592 -0.71145 -0.29693 232 223 222
0.75060 -0.71377 -0.29355 232 222 221
0.75528 -0.71609 -0.29018 232 222 221
0.75995 -0.71840 -0.28681 231 222 221
0.76462 -0.72071 -0.28344 230 222 221
0.76928 -0.72302 -0.28007 230 222 221
0.77394 -0.72533 -0.27671 231 220 221
0.77859 -0.72763 -0.27335 230 220 221
0.78324 -0.72994 -0.26999 230 219 221
0.78789 -0.73223 -0.26664 228 218 220
0.79252 -0.73453 -0.26329 228 219 222
0.79716 -0.73683 -0.25995 228 218 222
0.80179 -0.73912 -0.25661 227 217 217
0.80641 -0.74141 -0.25327 226 216 216
0.81103 -0.74370 -0.24994 226 216 218
0.81564 -0.74598 -0.24661 225 215 217
0.82025 -0.74826 -0.24328 225 215 216
0.82486 -0.75054 -0.23996 226 216 217
0.82946 -0.75282 -0.23664 227 217 217
0.83405 -0.75510 -0.23332 228 216 213
0.83864 -0.75737 -0.23001 226 214 209
0.84323 -0.75964 -0.22670 225 212 206
0.84781 -0.76191 -0.22339 224 212 209
0.85238 -0.76417 -0.22009 222 211 209
0.85695 -0.76644 -0.21679 222 210 212
0.86152 -0.76870 -0.21349 222 210 212
0.86608 -0.77096 -0.21020 223 208 210
0.87064 -0.77321 -0.20691 221 206 204
0.87519 -0.77547 -0.20363 223 207 208
0.66378 -0.67882 -0.34810 237 229 227
0.66853 -0.68117 -0.34467 236 229 228
0.67328 -0.68352 -0.34125 237 230 229
0.67803 -0.68586 -0.33783 237 229 227
0.68276 -0.68821 -0.33442 237 228 225
0.68750 -0.69054 -0.33100 236 227 224
0.69222 -0.69288 -0.32759 234 227 225
0.69695 -0.69522 -0.32419 234 227 227
0.70167 -0.69755 -0.32079 235 226 227
0.70638 -0.69988 -0.31739 235 226 225
0.71109 -0.70221 -0.31400 234 226 225
0.71579 -0.70453 -0.31061 234 226 224
0.72049 -0.70685 -0.30722 233 226 224
0.72518 -0.70917 -0.30384 234 225 225
0.72987 -0.71149 -0.30046 233 224 226
0.73455 -0.71380 -0.29708 232 223 224
0.73923 -0.71612 -0.29371 232 223 222
0.74390 -0.71843 -0.29034 232 222 223
