ply
format ascii 1.0
element face 0
property list uchar int vertex_indices
element vertex 1245
property float x
property float y
property float z
property uchar diffuse_red
property uchar diffuse_green
property uchar diffuse_blue
end_header
-0.28379 -0.48656 -0.67896 254 254 254
-0.27803 -0.49068 -0.67415 254 254 254
-0.27227 -0.49479 -0.66935 254 254 254
-0.26652 -0.49891 -0.66455 254 254 254
-0.26077 -0.50302 -0.65975 254 254 254
-0.25503 -0.50712 -0.65496 254 254 254
-0.24929 -0.51123 -0.65017 254 254 254
-0.24355 -0.51533 -0.64539 254 254 254
-0.23782 -0.51943 -0.64061 254 254 254
-0.23209 -0.52352 -0.63583 254 254 254
-0.22637 -0.52761 -0.63106 254 254 254
-0.22065 -0.53170 -0.62629 254 254 254
-0.21494 -0.53579 -0.62152 254 254 254
-0.20923 -0.53987 -0.61676 254 254 254
-0.20353 -0.54395 -0.61200 254 254 254
-0.19782 -0.54802 -0.60724 254 254 254
-0.19213 -0.55210 -0.60249 254 254 254
-0.18644 -0.55617 -0.59774 254 254 254
-0.18075 -0.56023 -0.59299 254 254 254
-0.17506 -0.56430 -0.58825 254 254 254
-0.16938 -0.56836 -0.58351 254 254 254
-0.16371 -0.57242 -0.57878 254 254 254
-0.15804 -0.57647 -0.57404 254 254 254
-0.15237 -0.58053 -0.56932 254 254 254
-0.14671 -0.58458 -0.56459 254 254 254
-0.14105 -0.58862 -0.55987 254 254 254
-0.13539 -0.59266 -0.55515 254 253 254
-0.38837 -0.42433 -0.75417 254 254 254
-0.38256 -0.42848 -0.74932 254 254 254
-0.37675 -0.43263 -0.74448 254 254 254
-0.37094 -0.43678 -0.73964 254 254 254
-0.36514 -0.44092 -0.73481 254 254 254
-0.35934 -0.44506 -0.72997 254 254 254
-0.35355 -0.44920 -0.72515 254 254 254
-0.34776 -0.45333 -0.72032 254 254 254
-0.34198 -0.45746 -0.71550 254 254 254
-0.33620 -0.46159 -0.71068 254 254 254
-0.33042 -0.46572 -0.70587 254 254 254
-0.32465 -0.46984 -0.70106 254 254 254
-0.31889 -0.47396 -0.69625 254 254 254
-0.31312 -0.47807 -0.69145 254 254 254
-0.30737 -0.48219 -0.68665 254 254 254
-0.30161 -0.48630 -0.68185 254 254 254
-0.29586 -0.49040 -0.67706 254 254 254
-0.29012 -0.49451 -0.67227 254 254 254
-0.28438 -0.49861 -0.66749 254 254 254
-0.27864 -0.50270 -0.66271 254 254 254
-0.27291 -0.50680 -0.65793 254 254 254
-0.26718 -0.51089 -0.65315 254 254 254
-0.26145 -0.51498 -0.64838 254 254 254
-0.25574 -0.51906 -0.64361 254 254 254
-0.25002 -0.52314 -0.63885 254 254 254
-0.24431 -0.52722 -0.63409 254 254 254
-0.23860 -0.53130 -0.62933 254 254 254
-0.23290 -0.53537 -0.62458 254 254 254
-0.22720 -0.53944 -0.61983 254 254 254
-0.22151 -0.54351 -0.61508 254 254 254
-0.21582 -0.54757 -0.61034 254 254 254
-0.21013 -0.55163 -0.60560 254 254 254
-0.20445 -0.55569 -0.60087 254 254 254
-0.19877 -0.55975 -0.59613 254 254 254
-0.19310 -0.56380 -0.59141 254 254 254
-0.18743 -0.56785 -0.58668 254 254 254
-0.18177 -0.57189 -0.58196 254 254 254
-0.17611 -0.57593 -0.57724 254 254 254
-0.17045 -0.57997 -0.57253 254 254 254
-0.16480 -0.58401 -0.56782 254 254 254
-0.39431 -0.43254 -0.74717 254 254 254
-0.38852 -0.43667 -0.74235 254 254 254
-0.38273 -0.44080 -0.73753 254 254 254
-0.37694 -0.44493 -0.73271 254 254 254
-0.37116 -0.44905 -0.72790 254 254 254
-0.36538 -0.45318 -0.72309 254 254 254
-0.35961 -0.45729 -0.71828 254 254 254
-0.35384 -0.46141 -0.71347 254 254 254
-0.34808 -0.46552 -0.70868 254 254 254
-0.34232 -0.46963 -0.70388 254 254 254
-0.33656 -0.47374 -0.69909 254 254 254
-0.33081 -0.47784 -0.69430 254 254 254
-0.32507 -0.48194 -0.68951 254 254 254
-0.31932 -0.48603 -0.68473 254 254 254
-0.31359 -0.49013 -0.67995 254 254 254
-0.30785 -0.49422 -0.67518 254 254 254
-0.30212 -0.49831 -0.67040 254 254 254
-0.29640 -0.50239 -0.66564 254 254 254
-0.29068 -0.50647 -0.66087 254 254 254
-0.28496 -0.51055 -0.65611 254 254 254
-0.27925 -0.51463 -0.65135 254 254 254
-0.27354 -0.51870 -0.64660 254 254 254
-0.26783 -0.52277 -0.64185 254 254 254
-0.26213 -0.52684 -0.63710 254 254 254
-0.25644 -0.53090 -0.63236 254 254 254
-0.25075 -0.53496 -0.62762 254 254 254
-0.24506 -0.53902 -0.62289 254 254 254
-0.23938 -0.54307 -0.61815 254 254 254
-0.23370 -0.54712 -0.61342 254 254 254
-0.22802 -0.55117 -0.60870 254 254 254
-0.22235 -0.55522 -0.60398 254 254 254
-0.21669 -0.55926 -0.59926 254 254 254
-0.21102 -0.56330 -0.59454 254 254 254
-0.20537 -0.56733 -0.58983 254 254 254
-0.19971 -0.57137 -0.58512 254 254 254
-0.40020 -0.44068 -0.74023 254 254 254
-0.39443 -0.44480 -0.73543 254 254 254
-0.38866 -0.44891 -0.73063 254 254 254
-0.38290 -0.45302 -0.72583 254 254 254
-0.37713 -0.45712 -0.72104 254 254 254
-0.37138 -0.46123 -0.71625 254 254 254
-0.36563 -0.46532 -0.71146 254 254 254
-0.35988 -0.46942 -0.70668 254 254 254
-0.35413 -0.47351 -0.70190 254 254 254
-0.34839 -0.47760 -0.69713 254 254 254
-0.34266 -0.48169 -0.69236 254 254 254
-0.33693 -0.48578 -0.68759 254 254 254
-0.33120 -0.48986 -0.68282 254 254 254
-0.32548 -0.49393 -0.67806 254 254 254
-0.31976 -0.49801 -0.67330 254 254 254
-0.31405 -0.50208 -0.66855 254 254 254
-0.30834 -0.50615 -0.66380 254 254 254
-0.30263 -0.51022 -0.65905 254 254 254
-0.29693 -0.51428 -0.65431 254 254 254
-0.29123 -0.51834 -0.64957 254 254 254
-0.28554 -0.52240 -0.64483 254 254 254
-0.27985 -0.52645 -0.64010 254 254 254
-0.27416 -0.53050 -0.63537 254 254 254
-0.26848 -0.53455 -0.63064 254 254 254
-0.26281 -0.53859 -0.62592 254 254 254
-0.25714 -0.54264 -0.62120 254 254 254
-0.25147 -0.54668 -0.61649 254 254 254
-0.24580 -0.55071 -0.61177 254 254 254
-0.24014 -0.55474 -0.60707 254 254 254
-0.23449 -0.55877 -0.60236 254 254 254
-0.40605 -0.44877 -0.73335 254 254 254
-0.40030 -0.45286 -0.72856 254 254 254
-0.39455 -0.45695 -0.72378 254 254 254
-0.38880 -0.46104 -0.71901 254 254 254
-0.38306 -0.46513 -0.71424 254 254 254
-0.37733 -0.46921 -0.70947 254 254 254
-0.37159 -0.47329 -0.70470 254 254 254
-0.36586 -0.47737 -0.69994 254 254 254
-0.36014 -0.48145 -0.69518 254 254 254
-0.35442 -0.48552 -0.69043 254 254 254
-0.34871 -0.48959 -0.68568 254 254 254
-0.34299 -0.49365 -0.68093 254 254 254
-0.33729 -0.49771 -0.67619 254 254 254
-0.33158 -0.50177 -0.67145 254 254 254
-0.32589 -0.50583 -0.66671 254 254 254
-0.32019 -0.50988 -0.66198 254 254 254
-0.31450 -0.51393 -0.65725 254 254 254
-0.30881 -0.51798 -0.65252 254 254 254
-0.30313 -0.52203 -0.64780 254 254 254
-0.29745 -0.52607 -0.64308 254 254 254
-0.29178 -0.53011 -0.63836 254 254 254
-0.28611 -0.53414 -0.63365 254 254 254
-0.28045 -0.53818 -0.62894 254 254 254
-0.27479 -0.54220 -0.62423 254 254 254
-0.26913 -0.54623 -0.61953 254 254 254
-0.41759 -0.45271 -0.73128 254 254 254
-0.41186 -0.45679 -0.72651 254 254 254
-0.40612 -0.46086 -0.72175 254 254 254
-0.40039 -0.46494 -0.71699 254 254 254
-0.39467 -0.46901 -0.71224 254 254 254
-0.38895 -0.47308 -0.70749 254 254 254
-0.38323 -0.47714 -0.70274 254 254 254
-0.37752 -0.48120 -0.69799 254 254 254
-0.37181 -0.48526 -0.69325 254 254 254
-0.36610 -0.48932 -0.68852 254 254 254
-0.36040 -0.49337 -0.68378 254 254 254
-0.35471 -0.49742 -0.67905 254 254 254
-0.34901 -0.50147 -0.67432 254 254 254
-0.34333 -0.50551 -0.66960 254 254 254
-0.33764 -0.50955 -0.66488 254 254 254
-0.33196 -0.51359 -0.66016 254 254 254
-0.32629 -0.51763 -0.65545 254 254 254
-0.32062 -0.52166 -0.65074 254 254 254
-0.31495 -0.52569 -0.64604 254 254 254
-0.30929 -0.52971 -0.64133 254 254 254
-0.30363 -0.53374 -0.63663 254 254 254
-0.29798 -0.53776 -0.63194 254 254 254
-0.42905 -0.45662 -0.72922 254 254 254
-0.42333 -0.46068 -0.72447 254 254 254
-0.41761 -0.46474 -0.71973 254 254 254
-0.41190 -0.46880 -0.71499 254 254 254
-0.40619 -0.47286 -0.71025 254 254 254
-0.40048 -0.47691 -0.70552 254 254 254
-0.39478 -0.48096 -0.70079 254 254 254
-0.38909 -0.48501 -0.69606 254 254 254
-0.38339 -0.48905 -0.69133 254 254 254
-0.37770 -0.49309 -0.68661 254 254 254
-0.37202 -0.49713 -0.68190 254 254 254
-0.36634 -0.50116 -0.67718 254 254 254
-0.36066 -0.50520 -0.67247 254 254 254
-0.35499 -0.50922 -0.66777 254 254 254
-0.34932 -0.51325 -0.66306 254 254 254
-0.34366 -0.51727 -0.65836 254 254 254
-0.33800 -0.52129 -0.65367 254 254 254
-0.33234 -0.52531 -0.64898 254 254 254
-0.44044 -0.46050 -0.72718 254 254 254
-0.43473 -0.46455 -0.72245 254 254 254
-0.42903 -0.46860 -0.71772 254 254 254
-0.42333 -0.47264 -0.71300 254 254 254
-0.41763 -0.47668 -0.70828 254 254 254
-0.41194 -0.48072 -0.70356 254 254 254
-0.40626 -0.48475 -0.69885 254 254 254
-0.40058 -0.48879 -0.69414 254 254 254
-0.39490 -0.49281 -0.68943 254 254 254
-0.38922 -0.49684 -0.68473 254 254 254
-0.38356 -0.50086 -0.68003 254 254 254
-0.37789 -0.50488 -0.67533 254 254 254
-0.37223 -0.50890 -0.67064 254 254 254
-0.36657 -0.51291 -0.66595 254 254 254
-0.45174 -0.46436 -0.72516 254 254 254
-0.44605 -0.46840 -0.72044 254 254 254
-0.44036 -0.47243 -0.71573 254 254 254
-0.43468 -0.47646 -0.71102 254 254 254
-0.42900 -0.48048 -0.70632 254 254 254
-0.42333 -0.48450 -0.70162 254 254 254
-0.41766 -0.48852 -0.69692 254 254 254
-0.41199 -0.49254 -0.69223 254 254 254
-0.40633 -0.49655 -0.68754 254 254 254
-0.40067 -0.50056 -0.68285 254 254 254
-0.46297 -0.46820 -0.72314 254 254 254
-0.45729 -0.47221 -0.71845 254 254 254
-0.45162 -0.47623 -0.71375 254 254 254
-0.44595 -0.48024 -0.70906 254 254 254
-0.44029 -0.48425 -0.70437 254 254 254
-0.43463 -0.48826 -0.69969 254 254 254
0.60873 -0.38003 -0.64599 254 254 254
0.61370 -0.38671 -0.63857 254 254 254
0.58139 -0.37055 -0.65980 254 254 254
0.58637 -0.37723 -0.65239 254 254 254
0.59134 -0.38389 -0.64499 254 254 254
0.59631 -0.39055 -0.63761 254 254 254
0.55418 -0.36113 -0.67355 254 254 254
0.55917 -0.36779 -0.66615 254 254 254
0.56415 -0.37445 -0.65876 254 254 254
0.56913 -0.38109 -0.65138 254 254 254
0.57409 -0.38773 -0.64401 254 254 254
0.57905 -0.39435 -0.63665 254 254 254
0.52710 -0.35175 -0.68723 254 254 254
0.53210 -0.35841 -0.67984 254 254 254
0.53710 -0.36505 -0.67245 254 254 254
0.54208 -0.37169 -0.66508 254 254 254
0.54706 -0.37831 -0.65772 254 254 254
0.55203 -0.38493 -0.65037 254 254 254
0.55699 -0.39153 -0.64303 254 254 254
0.50517 -0.34907 -0.69346 254 254 254
0.51018 -0.35570 -0.68608 254 254 254
0.51517 -0.36233 -0.67871 254 254 254
0.52016 -0.36894 -0.67136 254 254 254
0.52514 -0.37555 -0.66402 254 254 254
0.53011 -0.38214 -0.65669 254 254 254
0.53507 -0.38873 -0.64937 254 254 254
0.47838 -0.33977 -0.70701 254 254 254
0.48339 -0.34640 -0.69964 254 254 254
0.48839 -0.35302 -0.69228 254 254 254
0.49339 -0.35962 -0.68493 254 254 254
0.49838 -0.36622 -0.67760 254 254 254
0.50336 -0.37280 -0.67028 254 254 254
0.50833 -0.37938 -0.66297 254 254 254
0.51329 -0.38594 -0.65567 254 254 254
0.45172 -0.33052 -0.72050 254 254 254
0.45674 -0.33714 -0.71313 254 254 254
0.46175 -0.34375 -0.70578 254 254 254
0.46676 -0.35035 -0.69844 254 254 254
0.47175 -0.35693 -0.69111 254 254 254
0.47674 -0.36351 -0.68380 254 254 254
0.48172 -0.37008 -0.67649 254 254 254
0.48669 -0.37663 -0.66920 254 254 254
0.49166 -0.38318 -0.66192 254 254 254
0.49662 -0.38971 -0.65465 254 254 254
0.42015 -0.31470 -0.74128 254 254 254
0.42518 -0.32132 -0.73391 254 254 254
0.43021 -0.32793 -0.72656 254 254 254
0.43524 -0.33453 -0.71921 254 254 254
0.44025 -0.34112 -0.71188 254 254 254
0.44526 -0.34770 -0.70456 254 254 254
0.45026 -0.35426 -0.69725 254 254 254
0.45525 -0.36082 -0.68996 254 254 254
0.46023 -0.36737 -0.68267 254 254 254
0.46520 -0.37390 -0.67540 254 254 254
0.47017 -0.38043 -0.66814 254 254 254
0.47512 -0.38694 -0.66089 254 254 254
0.39878 -0.31216 -0.74727 254 254 254
0.40382 -0.31876 -0.73992 254 254 254
0.40885 -0.32535 -0.73258 254 254 254
0.41388 -0.33193 -0.72526 254 254 254
0.41889 -0.33850 -0.71794 254 254 254
0.42390 -0.34506 -0.71064 254 254 254
0.42890 -0.35161 -0.70335 254 254 254
0.43389 -0.35815 -0.69607 254 254 254
0.43887 -0.36468 -0.68881 254 254 254
0.44385 -0.37119 -0.68155 254 254 254
0.44881 -0.37770 -0.67431 254 254 254
0.45377 -0.38420 -0.66708 254 254 254
0.36746 -0.29645 -0.76791 254 254 254
0.37251 -0.30305 -0.76055 254 254 254
0.37756 -0.30964 -0.75321 254 254 254
0.38260 -0.31622 -0.74588 254 254 254
0.38763 -0.32279 -0.73857 254 254 254
0.39266 -0.32936 -0.73126 254 254 254
0.39767 -0.33591 -0.72397 254 254 254
0.40268 -0.34245 -0.71668 254 254 254
0.40768 -0.34897 -0.70941 254 254 254
0.41267 -0.35549 -0.70215 254 254 254
0.41766 -0.36200 -0.69491 254 254 254
0.42263 -0.36850 -0.68767 254 254 254
0.42760 -0.37499 -0.68045 254 254 254
0.43256 -0.38146 -0.67323 254 254 254
0.43751 -0.38793 -0.66603 254 254 254
0.35648 -0.30714 -0.75912 254 254 254
0.36152 -0.31370 -0.75181 254 254 254
0.36655 -0.32025 -0.74451 254 254 254
0.37157 -0.32679 -0.73722 254 254 254
0.37659 -0.33332 -0.72995 254 254 254
0.38160 -0.33985 -0.72268 254 254 254
0.38660 -0.34636 -0.71543 254 254 254
0.39159 -0.35286 -0.70819 254 254 254
0.39658 -0.35935 -0.70096 254 254 254
0.40155 -0.36582 -0.69375 254 254 254
0.34560 -0.31773 -0.75042 254 254 254
0.35063 -0.32425 -0.74315 254 254 254
0.35564 -0.33076 -0.73589 254 254 254
0.36065 -0.33726 -0.72865 254 254 254
0.36565 -0.34375 -0.72141 254 254 254
0.37065 -0.35023 -0.71419 254 254 254
0.37563 -0.35671 -0.70698 254 254 254
0.33483 -0.32821 -0.74180 254 254 254
0.33984 -0.33470 -0.73457 254 254 254
0.34484 -0.34117 -0.72736 254 254 254
0.24763 -0.35766 -0.72687 254 254 254
0.22772 -0.35510 -0.73264 254 254 254
0.23268 -0.36138 -0.72562 254 254 254
0.23763 -0.36766 -0.71861 254 254 254
0.24257 -0.37392 -0.71161 254 254 254
0.21290 -0.35882 -0.73137 254 254 254
0.21785 -0.36508 -0.72438 254 254 254
0.22279 -0.37132 -0.71740 254 254 254
0.22772 -0.37756 -0.71042 254 254 254
0.23264 -0.38379 -0.70346 254 254 254
0.19324 -0.35627 -0.73709 254 254 254
0.19819 -0.36251 -0.73012 254 254 254
0.20313 -0.36874 -0.72315 254 254 254
0.20806 -0.37496 -0.71619 254 254 254
0.21299 -0.38117 -0.70925 254 254 254
0.21790 -0.38738 -0.70232 254 254 254
0.22281 -0.39357 -0.69539 254 254 254
0.17865 -0.35996 -0.73582 254 254 254
0.18359 -0.36617 -0.72887 254 254 254
0.18852 -0.37238 -0.72193 254 254 254
0.19345 -0.37857 -0.71500 254 254 254
0.19837 -0.38476 -0.70809 254 254 254
0.20327 -0.39093 -0.70118 254 254 254
0.20818 -0.39710 -0.69428 254 254 254
0.21307 -0.40326 -0.68740 254 254 254
0.16418 -0.36362 -0.73455 254 254 254
0.16911 -0.36981 -0.72763 254 254 254
0.17403 -0.37599 -0.72072 254 254 254
0.17895 -0.38216 -0.71382 254 254 254
0.18386 -0.38831 -0.70693 254 254 254
0.18876 -0.39446 -0.70005 254 254 254
0.19365 -0.40060 -0.69318 254 254 254
0.19854 -0.40673 -0.68632 254 254 254
0.20342 -0.41285 -0.67948 254 254 254
0.14981 -0.36726 -0.73329 254 254 254
0.15473 -0.37342 -0.72640 254 254 254
0.15965 -0.37957 -0.71952 254 254 254
0.16456 -0.38571 -0.71264 254 254 254
0.16946 -0.39184 -0.70578 254 254 254
0.17435 -0.39797 -0.69893 254 254 254
0.17924 -0.40408 -0.69209 254 254 254
0.18412 -0.41018 -0.68526 254 254 254
0.18899 -0.41628 -0.67844 254 254 254
0.19385 -0.42237 -0.67163 254 254 254
0.12076 -0.35241 -0.75271 254 254 254
0.12570 -0.35857 -0.74581 254 254 254
0.13063 -0.36472 -0.73892 254 254 254
0.13556 -0.37086 -0.73205 254 254 254
0.14047 -0.37700 -0.72518 254 254 254
0.14538 -0.38312 -0.71832 254 254 254
0.15028 -0.38924 -0.71148 254 254 254
0.15517 -0.39534 -0.70464 254 254 254
0.16006 -0.40144 -0.69782 254 254 254
0.16494 -0.40753 -0.69101 254 254 254
0.16981 -0.41361 -0.68420 254 254 254
0.17467 -0.41968 -0.67741 254 254 254
0.17953 -0.42574 -0.67062 254 254 254
0.18438 -0.43179 -0.66385 254 254 254
0.09676 -0.34377 -0.76516 254 254 254
0.10170 -0.34992 -0.75827 254 254 254
0.10664 -0.35606 -0.75139 254 254 254
0.11157 -0.36220 -0.74452 254 254 254
0.11649 -0.36833 -0.73766 254 254 254
0.12141 -0.37444 -0.73081 254 254 254
0.12632 -0.38055 -0.72397 254 254 254
0.13122 -0.38665 -0.71714 254 254 254
0.13611 -0.39274 -0.71032 254 254 254
0.14099 -0.39882 -0.70351 254 254 254
0.14587 -0.40489 -0.69672 254 254 254
0.15074 -0.41095 -0.68993 254 254 254
0.15560 -0.41701 -0.68315 254 254 254
0.16046 -0.42305 -0.67638 254 254 254
0.16531 -0.42909 -0.66963 254 254 254
0.17015 -0.43511 -0.66288 254 254 254
0.17499 -0.44113 -0.65614 254 254 254
0.34433 -0.65190 -0.42014 254 254 254
0.07287 -0.33516 -0.77755 254 254 254
0.07782 -0.34131 -0.77067 254 254 254
0.08276 -0.34745 -0.76380 254 254 254
0.08770 -0.35358 -0.75693 254 254 254
0.09263 -0.35969 -0.75008 254 254 254
0.09755 -0.36580 -0.74324 254 254 254
0.10246 -0.37190 -0.73640 254 254 254
0.10737 -0.37800 -0.72958 254 254 254
0.11227 -0.38408 -0.72277 254 254 254
0.11716 -0.39015 -0.71597 254 254 254
0.12204 -0.39621 -0.70917 254 254 254
0.12692 -0.40227 -0.70239 254 254 254
0.13179 -0.40832 -0.69562 254 254 254
0.13665 -0.41435 -0.68886 254 254 254
0.14151 -0.42038 -0.68211 254 254 254
0.14636 -0.42640 -0.67537 254 254 254
0.15120 -0.43241 -0.66864 254 254 254
0.15603 -0.43841 -0.66192 254 254 254
0.16086 -0.44440 -0.65520 254 254 254
0.16568 -0.45038 -0.64850 254 254 254
0.31160 -0.63154 -0.44561 254 254 254
0.31620 -0.63725 -0.43921 254 254 254
0.32079 -0.64295 -0.43283 254 254 254
0.32538 -0.64864 -0.42645 254 254 254
0.32995 -0.65432 -0.42009 254 254 254
0.33452 -0.65999 -0.41373 254 254 254
0.03914 -0.31430 -0.80368 254 253 249
0.04412 -0.32045 -0.79678 254 254 254
0.04908 -0.32660 -0.78989 254 254 254
0.05404 -0.33274 -0.78301 254 254 254
0.05899 -0.33887 -0.77615 254 254 254
0.06393 -0.34499 -0.76929 254 254 254
0.06887 -0.35110 -0.76244 254 254 254
0.07380 -0.35720 -0.75561 254 254 254
0.07872 -0.36330 -0.74878 254 254 254
0.08363 -0.36938 -0.74196 254 254 254
0.08854 -0.37545 -0.73516 254 254 254
0.09343 -0.38152 -0.72836 254 254 254
0.09832 -0.38758 -0.72158 254 254 254
0.10321 -0.39362 -0.71480 254 254 254
0.10809 -0.39966 -0.70804 254 254 254
0.11295 -0.40569 -0.70128 254 254 254
0.11782 -0.41171 -0.69454 254 254 254
0.12267 -0.41772 -0.68780 254 254 254
0.12752 -0.42373 -0.68107 254 254 254
0.13236 -0.42972 -0.67436 254 254 254
0.13719 -0.43571 -0.66765 254 254 254
0.14202 -0.44168 -0.66096 254 254 254
0.14684 -0.44765 -0.65427 254 254 254
0.15165 -0.45361 -0.64760 254 254 254
0.15645 -0.45956 -0.64093 254 254 254
0.27892 -0.61120 -0.47103 254 254 254
0.28354 -0.61692 -0.46463 254 254 254
0.28815 -0.62263 -0.45823 254 254 254
0.29276 -0.62833 -0.45184 254 254 254
0.29736 -0.63403 -0.44546 254 254 254
0.30195 -0.63971 -0.43909 254 254 254
0.30653 -0.64539 -0.43273 254 254 254
0.31111 -0.65106 -0.42638 254 254 254
0.31568 -0.65672 -0.42004 254 254 254
0.32025 -0.66237 -0.41371 254 254 254
0.32480 -0.66801 -0.40738 254 254 254
0.03037 -0.32421 -0.79530 254 254 253
0.03533 -0.33033 -0.78844 254 254 254
0.04028 -0.33644 -0.78159 254 254 254
0.04522 -0.34255 -0.77475 254 254 254
0.05015 -0.34864 -0.76792 254 254 254
0.05508 -0.35473 -0.76110 254 254 254
0.06000 -0.36080 -0.75429 254 254 254
0.06491 -0.36687 -0.74749 254 254 254
0.06982 -0.37293 -0.74070 254 254 254
0.07471 -0.37898 -0.73392 254 254 254
0.07960 -0.38502 -0.72715 254 254 254
0.08449 -0.39105 -0.72039 254 254 254
0.08936 -0.39707 -0.71364 254 254 254
0.09423 -0.40309 -0.70690 254 254 254
0.09909 -0.40909 -0.70018 254 254 254
0.10395 -0.41509 -0.69346 254 254 254
0.10879 -0.42107 -0.68675 254 254 254
0.11363 -0.42705 -0.68005 254 254 254
0.11847 -0.43302 -0.67336 254 254 254
0.12329 -0.43898 -0.66668 254 254 254
0.12811 -0.44493 -0.66001 254 254 254
0.13292 -0.45087 -0.65335 254 254 254
0.13773 -0.45681 -0.64670 254 254 254
0.14252 -0.46273 -0.64006 254 254 254
0.25093 -0.59663 -0.49000 254 254 254
0.25556 -0.60235 -0.48359 254 254 254
0.26019 -0.60806 -0.47719 254 254 254
0.26481 -0.61376 -0.47080 254 254 254
0.26942 -0.61946 -0.46442 254 254 254
0.27402 -0.62515 -0.45804 254 254 254
0.27862 -0.63083 -0.45168 254 254 254
0.28321 -0.63650 -0.44532 254 254 254
0.28780 -0.64216 -0.43898 254 254 254
0.29238 -0.64781 -0.43264 254 254 254
0.29695 -0.65346 -0.42631 254 254 254
0.30151 -0.65910 -0.41999 254 254 254
0.30607 -0.66473 -0.41368 254 254 254
0.31062 -0.67035 -0.40738 254 254 254
0.31517 -0.67596 -0.40109 254 254 254
0.02168 -0.33403 -0.78700 254 254 254
0.02662 -0.34012 -0.78018 254 254 254
0.03155 -0.34620 -0.77336 254 254 254
0.03648 -0.35227 -0.76656 254 254 254
0.04139 -0.35833 -0.75977 254 254 254
0.04631 -0.36438 -0.75298 254 254 254
0.05121 -0.37042 -0.74621 254 254 254
0.05611 -0.37645 -0.73945 254 254 254
0.06100 -0.38248 -0.73269 254 254 254
0.06588 -0.38849 -0.72595 254 254 254
0.07075 -0.39450 -0.71922 254 254 254
0.07562 -0.40049 -0.71250 254 254 254
0.08048 -0.40648 -0.70578 254 254 254
0.08534 -0.41246 -0.69908 254 254 254
0.09018 -0.41843 -0.69239 254 254 254
0.09502 -0.42439 -0.68570 254 254 254
0.09985 -0.43035 -0.67903 254 254 254
0.10468 -0.43629 -0.67237 254 254 254
0.10950 -0.44223 -0.66571 254 254 254
0.11431 -0.44815 -0.65907 254 254 254
0.11911 -0.45407 -0.65243 254 254 254
0.12391 -0.45998 -0.64581 254 254 254
0.12870 -0.46588 -0.63920 254 254 254
0.21837 -0.57636 -0.51534 254 254 254
0.22303 -0.58210 -0.50892 254 254 254
0.22767 -0.58782 -0.50250 254 254 254
0.23231 -0.59353 -0.49610 254 254 254
0.23694 -0.59924 -0.48970 254 254 254
0.24156 -0.60493 -0.48331 254 254 254
0.24618 -0.61062 -0.47693 254 254 254
0.25079 -0.61631 -0.47056 254 254 254
0.25540 -0.62198 -0.46421 254 254 254
0.26000 -0.62764 -0.45786 254 254 254
0.26459 -0.63330 -0.45151 254 254 254
0.26917 -0.63895 -0.44518 254 254 254
0.27375 -0.64459 -0.43886 254 254 254
0.27832 -0.65022 -0.43254 254 254 254
0.28289 -0.65584 -0.42624 254 254 254
0.28745 -0.66146 -0.41994 254 254 254
0.29200 -0.66707 -0.41366 254 254 254
0.29654 -0.67267 -0.40738 254 254 254
0.30108 -0.67826 -0.40111 254 254 254
0.30562 -0.68384 -0.39485 254 254 254
0.00813 -0.33771 -0.78557 254 254 254
0.01306 -0.34377 -0.77878 254 254 254
0.01798 -0.34982 -0.77199 254 254 254
0.02290 -0.35586 -0.76521 254 254 254
0.02781 -0.36190 -0.75844 254 254 254
0.03272 -0.36792 -0.75169 254 254 254
0.03761 -0.37394 -0.74494 254 254 254
0.04250 -0.37995 -0.73820 254 254 254
0.04738 -0.38595 -0.73148 254 254 254
0.05226 -0.39194 -0.72476 254 254 254
0.05712 -0.39792 -0.71805 254 254 254
0.06198 -0.40389 -0.71136 254 254 254
0.06683 -0.40985 -0.70467 254 254 254
0.07168 -0.41581 -0.69799 254 254 254
0.07652 -0.42176 -0.69132 254 254 254
0.08135 -0.42769 -0.68467 254 254 254
0.08617 -0.43362 -0.67802 254 254 254
0.09099 -0.43954 -0.67138 254 254 254
0.09580 -0.44545 -0.66475 254 254 254
0.10060 -0.45135 -0.65813 254 254 254
0.10540 -0.45725 -0.65152 254 254 254
0.11019 -0.46313 -0.64493 254 254 254
0.11497 -0.46901 -0.63834 254 254 254
0.18586 -0.55613 -0.54064 254 254 254
0.19054 -0.56187 -0.53420 254 254 254
0.19520 -0.56761 -0.52777 254 254 254
0.19986 -0.57333 -0.52135 254 254 254
0.20451 -0.57905 -0.51494 254 254 254
0.20915 -0.58475 -0.50854 254 254 254
0.21379 -0.59045 -0.50215 254 254 254
0.21842 -0.59614 -0.49577 254 254 254
0.22305 -0.60183 -0.48940 254 254 254
0.22767 -0.60750 -0.48303 254 254 254
0.23228 -0.61317 -0.47668 254 254 254
0.23688 -0.61883 -0.47033 254 254 254
0.24148 -0.62448 -0.46400 254 254 254
0.24607 -0.63012 -0.45767 254 254 254
0.25066 -0.63576 -0.45135 254 254 254
0.25523 -0.64138 -0.44504 254 254 254
0.25981 -0.64700 -0.43874 254 254 254
0.26437 -0.65261 -0.43245 254 254 254
0.26893 -0.65821 -0.42617 254 254 254
0.27348 -0.66381 -0.41990 254 254 254
0.27803 -0.66939 -0.41363 254 254 254
0.28257 -0.67497 -0.40738 254 254 254
0.28710 -0.68054 -0.40113 254 254 254
0.29162 -0.68610 -0.39489 254 254 254
0.29614 -0.69166 -0.38867 254 254 254
-0.00532 -0.34135 -0.78415 254 254 254
-0.00040 -0.34739 -0.77738 254 254 254
0.00452 -0.35342 -0.77062 254 254 254
0.00943 -0.35944 -0.76387 254 254 254
0.01433 -0.36544 -0.75713 254 254 254
0.01923 -0.37145 -0.75040 254 254 254
0.02411 -0.37744 -0.74368 254 254 254
0.02899 -0.38342 -0.73697 254 254 254
0.03387 -0.38939 -0.73027 254 254 254
0.03873 -0.39536 -0.72358 254 254 254
0.04359 -0.40132 -0.71690 254 254 254
0.04844 -0.40726 -0.71023 254 254 254
0.05329 -0.41320 -0.70356 254 254 254
0.05813 -0.41913 -0.69691 254 254 254
0.06296 -0.42505 -0.69027 254 254 254
0.06778 -0.43097 -0.68364 254 254 254
0.07260 -0.43687 -0.67702 254 254 254
0.07741 -0.44277 -0.67040 254 254 254
0.08221 -0.44865 -0.66380 254 254 254
0.08700 -0.45453 -0.65721 254 254 254
0.09179 -0.46040 -0.65062 254 254 254
0.09657 -0.46626 -0.64405 254 254 254
0.10135 -0.47211 -0.63748 254 254 254
0.15340 -0.53593 -0.56590 254 254 254
0.15810 -0.54168 -0.55945 254 254 254
0.16278 -0.54742 -0.55301 254 254 254
0.16746 -0.55316 -0.54657 254 254 254
0.17213 -0.55889 -0.54015 254 254 254
0.17679 -0.56460 -0.53374 254 254 254
0.18145 -0.57031 -0.52733 254 254 254
0.18610 -0.57602 -0.52094 254 254 254
0.19075 -0.58171 -0.51455 254 254 254
0.19538 -0.58739 -0.50817 254 254 254
0.20001 -0.59307 -0.50181 254 254 254
0.20464 -0.59874 -0.49545 254 254 254
0.20926 -0.60440 -0.48910 254 254 254
0.21387 -0.61005 -0.48276 254 254 254
0.21847 -0.61570 -0.47643 254 254 254
0.22307 -0.62133 -0.47010 254 254 254
0.22766 -0.62696 -0.46379 254 254 254
0.23225 -0.63258 -0.45749 254 254 254
0.23682 -0.63819 -0.45119 254 254 254
0.24140 -0.64380 -0.44490 254 254 254
0.24596 -0.64939 -0.43863 254 254 254
0.25052 -0.65498 -0.43236 254 254 254
0.25507 -0.66056 -0.42610 254 254 254
0.25962 -0.66614 -0.41985 254 254 254
0.26416 -0.67170 -0.41361 254 254 254
0.26869 -0.67726 -0.40737 254 254 254
0.27321 -0.68281 -0.40115 254 254 254
0.27773 -0.68835 -0.39494 254 254 254
0.28225 -0.69388 -0.38873 254 254 254
0.28676 -0.69940 -0.38253 254 254 254
-0.01867 -0.34497 -0.78275 254 254 254
-0.01375 -0.35098 -0.77600 254 254 254
-0.00884 -0.35699 -0.76927 254 254 254
-0.00394 -0.36298 -0.76254 254 254 254
0.00095 -0.36896 -0.75583 254 254 254
0.00584 -0.37494 -0.74912 254 254 254
0.01072 -0.38091 -0.74243 254 254 254
0.01559 -0.38686 -0.73574 254 254 254
0.02045 -0.39281 -0.72907 254 254 254
0.02531 -0.39875 -0.72240 254 254 254
0.03016 -0.40469 -0.71575 254 254 254
0.03501 -0.41061 -0.70910 254 254 254
0.03984 -0.41652 -0.70247 254 254 254
0.04467 -0.42243 -0.69584 254 254 254
0.04949 -0.42833 -0.68922 254 254 254
0.05431 -0.43422 -0.68262 254 254 254
0.05912 -0.44010 -0.67602 254 254 254
0.06392 -0.44597 -0.66943 254 254 254
0.06871 -0.45183 -0.66285 254 254 254
0.07350 -0.45768 -0.65628 254 254 254
0.07828 -0.46353 -0.64973 254 254 254
0.08305 -0.46937 -0.64318 254 254 254
0.08782 -0.47519 -0.63664 254 254 254
0.14448 -0.54448 -0.55889 254 254 254
0.14916 -0.55020 -0.55247 254 254 254
0.15383 -0.55592 -0.54607 254 254 254
0.15849 -0.56162 -0.53967 254 254 254
0.16315 -0.56731 -0.53328 254 254 254
0.16780 -0.57300 -0.52690 254 254 254
0.17245 -0.57868 -0.52052 254 254 254
0.17708 -0.58435 -0.51416 254 254 254
0.18171 -0.59001 -0.50781 254 254 254
0.18634 -0.59567 -0.50146 254 254 254
0.19095 -0.60132 -0.49513 254 254 254
0.19557 -0.60695 -0.48880 254 254 254
0.20017 -0.61258 -0.48248 254 254 254
0.20477 -0.61821 -0.47617 254 254 254
0.20936 -0.62382 -0.46988 254 254 254
0.21394 -0.62943 -0.46358 254 254 254
0.21852 -0.63503 -0.45730 254 254 254
0.22309 -0.64062 -0.45103 254 254 254
0.22766 -0.64620 -0.44477 254 254 254
0.23222 -0.65177 -0.43851 254 254 254
0.23677 -0.65734 -0.43227 254 254 254
0.24131 -0.66290 -0.42603 254 254 254
0.24585 -0.66845 -0.41980 254 254 254
0.25038 -0.67399 -0.41358 254 254 254
0.25491 -0.67953 -0.40737 254 254 254
0.25943 -0.68505 -0.40117 254 254 254
0.26394 -0.69057 -0.39498 254 254 254
0.26845 -0.69608 -0.38879 254 254 254
0.27295 -0.70159 -0.38262 254 254 254
0.27745 -0.70708 -0.37645 254 254 254
-0.03191 -0.34857 -0.78135 254 254 254
-0.02701 -0.35455 -0.77463 254 254 254
-0.02211 -0.36053 -0.76792 254 254 254
-0.01722 -0.36650 -0.76122 254 254 254
-0.01233 -0.37246 -0.75454 254 254 254
-0.00745 -0.37841 -0.74786 254 254 254
-0.00258 -0.38435 -0.74119 254 254 254
0.00228 -0.39028 -0.73453 254 254 254
0.00714 -0.39621 -0.72788 254 254 254
0.01199 -0.40212 -0.72124 254 254 254
0.01683 -0.40803 -0.71461 254 254 254
0.02167 -0.41393 -0.70799 254 254 254
0.02650 -0.41982 -0.70138 254 254 254
0.03132 -0.42570 -0.69478 254 254 254
0.03613 -0.43158 -0.68818 254 254 254
0.04094 -0.43744 -0.68160 254 254 254
0.04574 -0.44330 -0.67503 254 254 254
0.05053 -0.44914 -0.66847 254 254 254
0.05532 -0.45498 -0.66191 254 254 254
0.06010 -0.46081 -0.65537 254 254 254
0.06487 -0.46664 -0.64884 254 254 254
0.06964 -0.47245 -0.64231 254 254 254
0.07440 -0.47825 -0.63580 254 254 254
0.07915 -0.48405 -0.62929 254 254 254
0.08389 -0.48984 -0.62279 254 254 254
0.08863 -0.49562 -0.61631 254 254 254
0.09336 -0.50139 -0.60983 254 254 254
0.13097 -0.54727 -0.55834 254 254 254
0.13564 -0.55296 -0.55195 254 254 254
0.14030 -0.55865 -0.54556 254 254 254
0.14496 -0.56433 -0.53919 254 254 254
0.14961 -0.57001 -0.53282 254 254 254
0.15425 -0.57567 -0.52646 254 254 254
0.15889 -0.58133 -0.52011 254 254 254
0.16352 -0.58698 -0.51377 254 254 254
0.16814 -0.59262 -0.50744 254 254 254
0.17276 -0.59825 -0.50112 254 254 254
0.17737 -0.60387 -0.49481 254 254 254
0.18197 -0.60949 -0.48851 254 254 254
0.18657 -0.61510 -0.48221 254 254 254
0.19116 -0.62070 -0.47593 254 254 254
0.19574 -0.62629 -0.46965 254 254 254
0.20032 -0.63187 -0.46338 254 254 254
0.20489 -0.63745 -0.45712 254 254 254
0.20946 -0.64302 -0.45087 254 254 254
0.21402 -0.64858 -0.44463 254 254 254
0.21857 -0.65413 -0.43840 254 254 254
0.22311 -0.65968 -0.43218 254 254 254
0.22765 -0.66521 -0.42596 254 254 254
0.23219 -0.67074 -0.41976 254 254 254
0.23671 -0.67627 -0.41356 254 254 254
0.24123 -0.68178 -0.40737 254 254 254
0.24574 -0.68729 -0.40119 254 254 254
0.25025 -0.69278 -0.39502 254 254 254
0.25475 -0.69827 -0.38886 254 254 254
0.25925 -0.70376 -0.38270 254 254 254
0.26373 -0.70923 -0.37656 254 254 254
0.26822 -0.71470 -0.37042 254 254 254
-0.04506 -0.35213 -0.77996 254 254 254
-0.04017 -0.35809 -0.77327 254 254 254
-0.03527 -0.36405 -0.76659 254 254 254
-0.03039 -0.36999 -0.75991 254 254 254
-0.02551 -0.37592 -0.75325 254 254 254
-0.02064 -0.38185 -0.74660 254 254 254
-0.01578 -0.38777 -0.73995 254 254 254
-0.01093 -0.39368 -0.73332 254 254 254
-0.00608 -0.39958 -0.72670 254 254 254
-0.00124 -0.40547 -0.72008 254 254 254
0.00360 -0.41135 -0.71348 254 254 254
0.00843 -0.41723 -0.70688 254 254 254
0.01325 -0.42309 -0.70030 254 254 254
0.01806 -0.42895 -0.69372 254 254 254
0.02287 -0.43480 -0.68715 254 254 254
0.02767 -0.44064 -0.68060 254 254 254
0.03246 -0.44647 -0.67405 254 254 254
0.03724 -0.45230 -0.66751 254 254 254
0.04202 -0.45811 -0.66098 254 254 254
0.04679 -0.46392 -0.65446 254 254 254
0.05156 -0.46972 -0.64795 254 254 254
0.05632 -0.47551 -0.64145 254 254 254
0.06107 -0.48129 -0.63496 254 254 254
0.06581 -0.48706 -0.62848 254 254 254
0.07055 -0.49283 -0.62201 254 254 254
0.07528 -0.49859 -0.61554 254 254 254
0.08000 -0.50433 -0.60909 254 254 254
0.08472 -0.51008 -0.60265 254 254 254
0.11755 -0.55003 -0.55779 254 254 254
0.12221 -0.55570 -0.55142 254 254 254
0.12687 -0.56137 -0.54506 254 254 254
0.13152 -0.56703 -0.53871 254 254 254
0.13616 -0.57268 -0.53236 254 254 254
0.14080 -0.57832 -0.52603 254 254 254
0.14543 -0.58395 -0.51970 254 254 254
0.15005 -0.58958 -0.51339 254 254 254
0.15467 -0.59520 -0.50708 254 254 254
0.15928 -0.60081 -0.50078 254 254 254
0.16388 -0.60641 -0.49449 254 254 254
0.16848 -0.61201 -0.48821 254 254 254
0.17307 -0.61759 -0.48194 254 254 254
0.17765 -0.62317 -0.47568 254 254 254
0.18223 -0.62874 -0.46942 254 254 254
0.18680 -0.63430 -0.46318 254 254 254
0.19136 -0.63986 -0.45694 254 254 254
0.19592 -0.64541 -0.45071 254 254 254
0.20047 -0.65095 -0.44450 254 254 254
0.20502 -0.65648 -0.43829 254 254 254
0.20956 -0.66200 -0.43209 254 254 254
0.21409 -0.66752 -0.42589 254 254 254
0.21862 -0.67302 -0.41971 254 254 254
0.22314 -0.67852 -0.41353 254 254 254
0.22765 -0.68402 -0.40737 254 254 254
0.23216 -0.68950 -0.40121 254 254 254
0.23666 -0.69498 -0.39506 254 254 254
0.24115 -0.70045 -0.38892 254 254 254
0.24564 -0.70591 -0.38279 254 254 254
0.25012 -0.71136 -0.37667 254 254 254
0.25459 -0.71681 -0.37055 254 254 254
-0.06301 -0.34973 -0.78526 254 254 254
-0.05812 -0.35567 -0.77859 254 254 254
-0.05323 -0.36161 -0.77192 254 254 254
-0.04834 -0.36754 -0.76526 254 254 254
-0.04347 -0.37346 -0.75862 254 254 254
-0.03860 -0.37937 -0.75198 254 254 254
-0.03374 -0.38527 -0.74535 254 254 254
-0.02888 -0.39116 -0.73873 254 254 254
-0.02404 -0.39705 -0.73212 254 254 254
-0.01920 -0.40292 -0.72552 254 254 254
-0.01436 -0.40879 -0.71893 254 254 254
-0.00954 -0.41465 -0.71235 254 254 254
-0.00472 -0.42050 -0.70578 254 254 254
0.00009 -0.42634 -0.69922 254 254 254
0.00490 -0.43218 -0.69267 254 254 254
0.00970 -0.43800 -0.68613 254 254 254
0.01449 -0.44382 -0.67960 254 254 254
0.01927 -0.44963 -0.67307 254 254 254
0.02405 -0.45543 -0.66656 254 254 254
0.02882 -0.46122 -0.66006 254 254 254
0.03359 -0.46701 -0.65356 254 254 254
0.03834 -0.47278 -0.64708 254 254 254
0.04309 -0.47855 -0.64060 254 254 254
0.04784 -0.48431 -0.63413 254 254 254
0.05257 -0.49006 -0.62767 254 254 254
0.05730 -0.49580 -0.62123 254 254 254
0.06202 -0.50153 -0.61479 254 254 254
0.06674 -0.50726 -0.60836 254 254 254
0.07145 -0.51298 -0.60194 254 254 254
0.10888 -0.55842 -0.55090 254 254 254
0.11353 -0.56407 -0.54456 254 254 254
0.11817 -0.56970 -0.53823 254 254 254
0.12281 -0.57533 -0.53191 254 254 254
0.12744 -0.58095 -0.52560 254 254 254
0.13206 -0.58656 -0.51930 254 254 254
0.13668 -0.59217 -0.51301 254 254 254
0.14129 -0.59776 -0.50672 254 254 254
0.14589 -0.60335 -0.50045 254 254 254
0.15049 -0.60893 -0.49418 254 254 254
0.15508 -0.61450 -0.48792 254 254 254
0.15966 -0.62007 -0.48167 254 254 254
0.16424 -0.62563 -0.47543 254 254 254
0.16881 -0.63118 -0.46920 254 254 254
0.17337 -0.63672 -0.46298 254 254 254
0.17793 -0.64225 -0.45676 254 254 254
0.18248 -0.64778 -0.45056 254 254 254
0.18703 -0.65329 -0.44436 254 254 254
0.19156 -0.65880 -0.43817 254 254 254
0.19610 -0.66431 -0.43200 254 254 254
0.20062 -0.66980 -0.42582 254 254 254
0.20514 -0.67529 -0.41966 254 254 254
0.20966 -0.68077 -0.41351 254 254 254
0.21416 -0.68624 -0.40737 254 254 254
0.21866 -0.69170 -0.40123 254 254 254
0.22316 -0.69716 -0.39510 254 254 254
0.22764 -0.70261 -0.38898 254 254 254
0.23213 -0.70805 -0.38287 254 254 254
0.23660 -0.71348 -0.37677 254 254 254
0.24107 -0.71891 -0.37068 254 254 254
0.24553 -0.72432 -0.36460 254 254 254
-0.07596 -0.35326 -0.78387 254 254 254
-0.07107 -0.35919 -0.77722 254 254 254
-0.06619 -0.36510 -0.77058 254 254 254
-0.06132 -0.37100 -0.76395 254 254 254
-0.05645 -0.37690 -0.75732 254 254 254
-0.05159 -0.38278 -0.75071 254 254 254
-0.04674 -0.38866 -0.74411 254 254 254
-0.04189 -0.39453 -0.73752 254 254 254
-0.03705 -0.40039 -0.73093 254 254 254
-0.03222 -0.40624 -0.72436 254 254 254
-0.02739 -0.41209 -0.71779 254 254 254
-0.02258 -0.41792 -0.71124 254 254 254
-0.01777 -0.42375 -0.70469 254 254 254
-0.01296 -0.42957 -0.69816 254 254 254
-0.00816 -0.43538 -0.69163 254 254 254
-0.00337 -0.44118 -0.68511 254 254 254
0.00141 -0.44698 -0.67860 254 254 254
0.00619 -0.45276 -0.67211 254 254 254
0.01096 -0.45854 -0.66562 254 254 254
0.01572 -0.46431 -0.65914 254 254 254
0.02047 -0.47007 -0.65267 254 254 254
0.02522 -0.47582 -0.64620 254 254 254
0.02997 -0.48156 -0.63975 254 254 254
0.03470 -0.48730 -0.63331 254 254 254
0.03943 -0.49303 -0.62688 254 254 254
0.04415 -0.49875 -0.62045 254 254 254
0.04887 -0.50446 -0.61404 254 254 254
0.05357 -0.51016 -0.60763 254 254 254
0.05828 -0.51585 -0.60123 254 254 254
0.06297 -0.52154 -0.59485 254 254 254
0.10029 -0.56674 -0.54407 254 254 254
0.10493 -0.57236 -0.53776 254 254 254
0.10956 -0.57796 -0.53147 254 254 254
0.11418 -0.58356 -0.52518 254 254 254
0.11879 -0.58915 -0.51890 254 254 254
0.12340 -0.59473 -0.51263 254 254 254
0.12800 -0.60031 -0.50637 254 254 254
0.13260 -0.60588 -0.50011 254 254 254
0.13719 -0.61143 -0.49387 254 254 254
0.14177 -0.61699 -0.48763 254 254 254
0.14635 -0.62253 -0.48141 254 254 254
0.15092 -0.62806 -0.47519 254 254 254
0.15548 -0.63359 -0.46898 254 254 254
0.16004 -0.63911 -0.46278 254 254 254
0.16459 -0.64462 -0.45659 254 254 254
0.16914 -0.65013 -0.45040 254 254 254
0.17367 -0.65563 -0.44423 254 254 254
0.17821 -0.66111 -0.43806 254 254 254
0.18273 -0.66660 -0.43191 254 254 254
0.18725 -0.67207 -0.42576 254 254 254
0.19176 -0.67753 -0.41962 254 254 254
0.19627 -0.68299 -0.41349 254 254 254
0.20077 -0.68844 -0.40736 254 254 254
0.20526 -0.69389 -0.40125 254 254 254
0.20975 -0.69932 -0.39514 254 254 254
0.21423 -0.70475 -0.38905 254 254 254
0.21871 -0.71017 -0.38296 254 254 254
0.22318 -0.71558 -0.37688 254 254 254
0.22764 -0.72099 -0.37081 254 254 254
0.23210 -0.72639 -0.36474 254 254 254
-0.08881 -0.35678 -0.78249 254 254 254
-0.08393 -0.36267 -0.77586 254 254 254
-0.07906 -0.36856 -0.76925 254 254 254
-0.07420 -0.37444 -0.76264 254 254 254
-0.06934 -0.38031 -0.75604 254 254 254
-0.06449 -0.38617 -0.74946 254 254 254
-0.05964 -0.39203 -0.74288 254 254 254
-0.05480 -0.39787 -0.73631 254 254 254
-0.04997 -0.40371 -0.72975 254 254 254
-0.04515 -0.40954 -0.72320 254 254 254
-0.04033 -0.41536 -0.71666 254 254 254
-0.03552 -0.42117 -0.71013 254 254 254
-0.03072 -0.42698 -0.70361 254 254 254
-0.02592 -0.43277 -0.69710 254 254 254
-0.02113 -0.43856 -0.69060 254 254 254
-0.01635 -0.44434 -0.68410 254 254 254
-0.01158 -0.45011 -0.67762 254 254 254
-0.00681 -0.45587 -0.67115 254 254 254
-0.00205 -0.46162 -0.66468 254 254 254
0.00271 -0.46737 -0.65822 254 254 254
0.00746 -0.47311 -0.65178 254 254 254
0.01220 -0.47884 -0.64534 254 254 254
0.01693 -0.48456 -0.63891 254 254 254
0.02166 -0.49027 -0.63249 254 254 254
0.02638 -0.49597 -0.62608 254 254 254
0.03110 -0.50167 -0.61968 254 254 254
0.03580 -0.50736 -0.61329 254 254 254
0.04050 -0.51304 -0.60691 254 254 254
0.04520 -0.51871 -0.60054 254 254 254
0.04989 -0.52438 -0.59417 254 254 254
0.05457 -0.53003 -0.58782 254 254 254
0.08715 -0.56940 -0.54358 254 254 254
0.09177 -0.57499 -0.53730 254 254 254
0.09640 -0.58058 -0.53102 254 254 254
0.10101 -0.58615 -0.52476 254 254 254
0.10562 -0.59172 -0.51850 254 254 254
0.11022 -0.59728 -0.51225 254 254 254
0.11482 -0.60284 -0.50601 254 254 254
0.11941 -0.60838 -0.49978 254 254 254
0.12399 -0.61392 -0.49356 254 254 254
0.12856 -0.61945 -0.48735 254 254 254
0.13313 -0.62497 -0.48114 254 254 254
0.13770 -0.63049 -0.47495 254 254 254
0.14225 -0.63599 -0.46876 254 254 254
0.14680 -0.64149 -0.46258 254 254 254
0.15135 -0.64698 -0.45641 254 254 254
0.15589 -0.65246 -0.45025 254 254 254
0.16042 -0.65794 -0.44410 254 254 254
0.16494 -0.66341 -0.43795 254 254 254
0.16946 -0.66887 -0.43182 254 254 254
0.17397 -0.67432 -0.42569 254 254 254
0.17848 -0.67977 -0.41957 254 254 254
0.18298 -0.68520 -0.41346 254 254 254
0.18747 -0.69063 -0.40736 254 254 254
0.19196 -0.69606 -0.40127 254 254 254
0.19644 -0.70147 -0.39518 254 254 254
0.20092 -0.70688 -0.38911 254 254 254
0.20539 -0.71228 -0.38304 254 254 254
0.20985 -0.71767 -0.37698 254 254 254
-0.10645 -0.35438 -0.78773 254 254 254
-0.10157 -0.36026 -0.78112 254 254 254
-0.09670 -0.36614 -0.77452 254 254 254
-0.09184 -0.37200 -0.76793 254 254 254
-0.08698 -0.37786 -0.76134 254 254 254
-0.08213 -0.38370 -0.75477 254 254 254
-0.07729 -0.38954 -0.74821 254 254 254
-0.07245 -0.39537 -0.74166 254 254 254
-0.06762 -0.40119 -0.73511 254 254 254
-0.06280 -0.40701 -0.72858 254 254 254
-0.05798 -0.41281 -0.72205 254 254 254
-0.05317 -0.41861 -0.71554 254 254 254
-0.04837 -0.42440 -0.70903 254 254 254
-0.04358 -0.43018 -0.70254 254 254 254
-0.03879 -0.43595 -0.69605 254 254 254
-0.03401 -0.44172 -0.68957 254 254 254
-0.02924 -0.44747 -0.68310 254 254 254
-0.02447 -0.45322 -0.67664 254 254 254
-0.01971 -0.45896 -0.67019 254 254 254
-0.01495 -0.46469 -0.66375 254 254 254
-0.01021 -0.47041 -0.65732 254 254 254
-0.00547 -0.47613 -0.65090 254 254 254
-0.00073 -0.48183 -0.64448 254 254 254
0.00399 -0.48753 -0.63808 254 254 254
0.00871 -0.49322 -0.63168 254 254 254
0.01343 -0.49890 -0.62530 254 254 254
0.01813 -0.50458 -0.61892 254 254 254
0.02283 -0.51024 -0.61255 254 254 254
0.02753 -0.51590 -0.60619 254 254 254
0.03221 -0.52155 -0.59984 254 254 254
0.03689 -0.52719 -0.59350 254 254 254
0.04157 -0.53283 -0.58717 254 254 254
0.04623 -0.53845 -0.58085 254 254 254
0.05089 -0.54407 -0.57453 254 254 254
0.07409 -0.57204 -0.54309 254 254 254
0.07871 -0.57761 -0.53683 254 254 254
0.08333 -0.58317 -0.53058 254 254 254
0.08794 -0.58873 -0.52434 254 254 254
0.09254 -0.59428 -0.51810 254 254 254
0.09713 -0.59982 -0.51188 254 254 254
0.10172 -0.60535 -0.50566 254 254 254
0.10630 -0.61087 -0.49945 254 254 254
0.11088 -0.61639 -0.49325 254 254 254
0.11545 -0.62190 -0.48706 254 254 254
0.12001 -0.62740 -0.48088 254 254 254
0.12457 -0.63289 -0.47470 254 254 254
0.12912 -0.63837 -0.46854 254 254 254
0.13366 -0.64385 -0.46238 254 254 254
0.13820 -0.64932 -0.45624 254 254 254
0.14273 -0.65478 -0.45010 254 254 254
0.14725 -0.66024 -0.44396 254 254 254
0.15177 -0.66569 -0.43784 254 254 254
0.15628 -0.67113 -0.43173 254 254 254
0.16079 -0.67656 -0.42562 254 254 254
0.16529 -0.68198 -0.41953 254 254 254
0.16978 -0.68740 -0.41344 254 254 254
0.17427 -0.69281 -0.40736 254 254 254
0.17875 -0.69821 -0.40129 254 254 254
0.18322 -0.70361 -0.39522 254 254 254
0.18769 -0.70899 -0.38917 254 254 254
-0.12399 -0.35200 -0.79293 254 254 254
-0.11911 -0.35787 -0.78634 254 254 254
-0.11424 -0.36372 -0.77976 254 254 254
-0.10938 -0.36957 -0.77318 254 254 254
-0.10452 -0.37541 -0.76661 254 254 254
-0.09967 -0.38125 -0.76006 254 254 254
-0.09483 -0.38707 -0.75351 254 254 254
-0.09000 -0.39288 -0.74697 254 254 254
-0.08517 -0.39869 -0.74044 254 254 254
-0.08035 -0.40449 -0.73392 254 254 254
-0.07553 -0.41028 -0.72742 254 254 254
-0.07073 -0.41606 -0.72091 254 254 254
-0.06593 -0.42184 -0.71442 254 254 254
-0.06113 -0.42760 -0.70794 254 254 254
-0.05635 -0.43336 -0.70147 254 254 254
-0.05157 -0.43911 -0.69501 254 254 254
-0.04679 -0.44485 -0.68855 254 254 254
-0.04203 -0.45058 -0.68211 254 254 254
-0.03727 -0.45631 -0.67567 254 254 254
-0.03251 -0.46202 -0.66925 254 254 254
-0.02777 -0.46773 -0.66283 254 254 254
-0.02303 -0.47343 -0.65642 254 254 254
-0.01830 -0.47912 -0.65002 254 254 254
-0.01357 -0.48481 -0.64363 254 254 254
-0.00885 -0.49048 -0.63725 254 254 254
-0.00414 -0.49615 -0.63088 254 254 254
0.00056 -0.50181 -0.62451 254 254 254
0.00526 -0.50746 -0.61816 254 254 254
0.00996 -0.51310 -0.61182 254 254 254
0.01464 -0.51874 -0.60548 254 254 254
0.01932 -0.52437 -0.59915 254 254 254
0.02399 -0.52999 -0.59284 254 254 254
0.02866 -0.53560 -0.58653 254 254 254
0.03332 -0.54120 -0.58023 254 254 254
0.03797 -0.54680 -0.57393 254 254 254
0.04262 -0.55239 -0.56765 254 254 254
0.04725 -0.55797 -0.56138 254 254 254
0.05189 -0.56354 -0.55511 254 254 254
0.05651 -0.56911 -0.54886 254 254 254
0.06113 -0.57466 -0.54261 254 254 254
0.06575 -0.58021 -0.53637 254 254 254
0.07035 -0.58575 -0.53014 254 254 254
0.07496 -0.59129 -0.52392 254 254 254
0.07955 -0.59681 -0.51771 254 254 254
0.08414 -0.60233 -0.51151 254 254 254
0.08872 -0.60784 -0.50531 254 254 254
0.09329 -0.61334 -0.49912 254 254 254
0.09786 -0.61884 -0.49295 254 254 254
0.10242 -0.62432 -0.48678 254 254 254
0.10698 -0.62980 -0.48062 254 254 254
0.11153 -0.63528 -0.47447 254 254 254
0.11607 -0.64074 -0.46832 254 254 254
0.12061 -0.64620 -0.46219 254 254 254
0.12514 -0.65165 -0.45606 254 254 254
0.12966 -0.65709 -0.44994 254 254 254
0.13418 -0.66252 -0.44383 254 254 254
0.13869 -0.66795 -0.43773 254 254 254
0.14320 -0.67337 -0.43164 254 254 254
0.14770 -0.67878 -0.42556 254 254 254
0.15219 -0.68418 -0.41948 254 254 254
0.15668 -0.68958 -0.41342 254 254 254
0.16116 -0.69497 -0.40736 254 254 254
0.16563 -0.70035 -0.40131 254 254 254
-0.13654 -0.35548 -0.79153 254 254 254
-0.13167 -0.36133 -0.78496 254 254 254
-0.12681 -0.36716 -0.77840 254 254 254
-0.12196 -0.37299 -0.77185 254 254 254
-0.11711 -0.37880 -0.76531 254 254 254
-0.11227 -0.38461 -0.75878 254 254 254
-0.10744 -0.39041 -0.75226 254 254 254
-0.10261 -0.39620 -0.74574 254 254 254
-0.09779 -0.40199 -0.73924 254 254 254
-0.09298 -0.40776 -0.73274 254 254 254
-0.08817 -0.41353 -0.72626 254 254 254
-0.08338 -0.41929 -0.71978 254 254 254
-0.07858 -0.42504 -0.71332 254 254 254
-0.07380 -0.43078 -0.70686 254 254 254
-0.06902 -0.43652 -0.70041 254 254 254
-0.06425 -0.44224 -0.69397 254 254 254
-0.05948 -0.44796 -0.68754 254 254 254
-0.05473 -0.45367 -0.68112 254 254 254
-0.04997 -0.45937 -0.67471 254 254 254
-0.04523 -0.46506 -0.66831 254 254 254
-0.04049 -0.47075 -0.66191 254 254 254
-0.03576 -0.47643 -0.65553 254 254 254
-0.03104 -0.48210 -0.64915 254 254 254
-0.02632 -0.48776 -0.64278 254 254 254
-0.02161 -0.49341 -0.63643 254 254 254
-0.01690 -0.49906 -0.63008 254 254 254
-0.01221 -0.50469 -0.62374 254 254 254
-0.00752 -0.51032 -0.61741 254 254 254
-0.00283 -0.51595 -0.61109 254 254 254
0.00185 -0.52156 -0.60477 254 254 254
0.00652 -0.52717 -0.59847 254 254 254
0.01118 -0.53276 -0.59217 254 254 254
0.01584 -0.53835 -0.58589 254 254 254
0.02049 -0.54394 -0.57961 254 254 254
0.02514 -0.54951 -0.57334 254 254 254
0.02978 -0.55508 -0.56708 254 254 254
0.03441 -0.56064 -0.56083 254 254 254
0.03903 -0.56619 -0.55459 254 254 254
0.04365 -0.57173 -0.54836 254 254 254
0.04827 -0.57726 -0.54213 254 254 254
0.05287 -0.58279 -0.53591 254 254 254
0.05747 -0.58831 -0.52971 254 254 254
0.06207 -0.59382 -0.52351 254 254 254
0.06665 -0.59933 -0.51732 254 254 254
0.07123 -0.60483 -0.51114 254 254 254
0.07581 -0.61031 -0.50496 254 254 254
0.08037 -0.61580 -0.49880 254 254 254
0.08494 -0.62127 -0.49264 254 254 254
0.08949 -0.62674 -0.48650 254 254 254
0.09404 -0.63220 -0.48036 254 254 254
0.09858 -0.63765 -0.47423 254 254 254
0.10312 -0.64309 -0.46811 254 254 254
0.10765 -0.64853 -0.46199 254 254 254
0.11217 -0.65395 -0.45589 254 254 254
0.11669 -0.65938 -0.44979 254 254 254
0.12120 -0.66479 -0.44371 254 254 254
0.12570 -0.67019 -0.43763 254 254 254
0.13020 -0.67559 -0.43155 254 254 254
0.13470 -0.68098 -0.42549 254 254 254
0.13918 -0.68637 -0.41944 254 254 254
0.14366 -0.69174 -0.41339 254 254 254
-0.15388 -0.35312 -0.79670 254 254 254
-0.14901 -0.35894 -0.79014 254 254 254
-0.14415 -0.36476 -0.78360 254 254 254
-0.13930 -0.37057 -0.77706 254 254 254
-0.13445 -0.37637 -0.77054 254 254 254
-0.12961 -0.38217 -0.76402 254 254 254
-0.12478 -0.38795 -0.75751 254 254 254
-0.11996 -0.39373 -0.75101 254 254 254
-0.11514 -0.39950 -0.74452 254 254 254
-0.11033 -0.40526 -0.73804 254 254 254
-0.10552 -0.41101 -0.73157 254 254 254
-0.10073 -0.41675 -0.72511 254 254 254
-0.09594 -0.42249 -0.71866 254 254 254
-0.09115 -0.42822 -0.71222 254 254 254
-0.08637 -0.43394 -0.70578 254 254 254
-0.08160 -0.43965 -0.69936 254 254 254
-0.07684 -0.44535 -0.69294 254 254 254
-0.07208 -0.45105 -0.68654 254 254 254
-0.06733 -0.45674 -0.68014 254 254 254
-0.06259 -0.46241 -0.67375 254 254 254
-0.05786 -0.46809 -0.66737 254 254 254
-0.05313 -0.47375 -0.66100 254 254 254
-0.04840 -0.47940 -0.65464 254 254 254
-0.04369 -0.48505 -0.64829 254 254 254
-0.03898 -0.49069 -0.64194 254 254 254
-0.03427 -0.49632 -0.63561 254 254 254
-0.02958 -0.50194 -0.62929 254 254 254
-0.02489 -0.50756 -0.62297 254 254 254
-0.02020 -0.51317 -0.61666 254 254 254
-0.01553 -0.51877 -0.61036 254 254 254
-0.01086 -0.52436 -0.60407 254 254 254
-0.00619 -0.52994 -0.59779 254 254 254
-0.00153 -0.53552 -0.59152 254 254 254
0.00312 -0.54109 -0.58525 254 254 254
0.00776 -0.54665 -0.57900 254 254 254
0.01240 -0.55220 -0.57275 254 254 254
0.01703 -0.55775 -0.56652 254 254 254
0.02165 -0.56328 -0.56029 254 254 254
0.02627 -0.56881 -0.55407 254 254 254
0.03088 -0.57433 -0.54786 254 254 254
0.03549 -0.57985 -0.54165 254 254 254
0.04009 -0.58535 -0.53546 254 254 254
0.04468 -0.59085 -0.52928 254 254 254
0.04927 -0.59634 -0.52310 254 254 254
0.05385 -0.60183 -0.51693 254 254 254
0.05842 -0.60730 -0.51077 254 254 254
0.06299 -0.61277 -0.50462 254 254 254
0.06755 -0.61823 -0.49848 254 254 254
0.07210 -0.62369 -0.49234 254 254 254
0.07665 -0.62913 -0.48622 254 254 254
0.08119 -0.63457 -0.48010 254 254 254
0.08573 -0.64000 -0.47399 254 254 254
0.09026 -0.64542 -0.46789 254 254 254
0.09478 -0.65084 -0.46180 254 254 254
0.09929 -0.65625 -0.45572 254 254 254
0.10381 -0.66165 -0.44964 254 254 254
0.10831 -0.66704 -0.44358 254 254 254
0.11281 -0.67243 -0.43752 254 254 254
0.11730 -0.67780 -0.43147 254 254 254
0.12179 -0.68317 -0.42543 254 254 254
-0.16624 -0.35657 -0.79529 254 254 254
