ply
format ascii 1.0
element face 0
property list uchar int vertex_indices
element vertex 1256
property float x
property float y
property float z
property uchar diffuse_red
property uchar diffuse_green
property uchar diffuse_blue
end_header
0.55366 -0.39323 -0.64479 254 254 254
0.55549 -0.40022 -0.63769 254 254 254
0.55733 -0.40719 -0.63061 254 254 254
0.55916 -0.41417 -0.62352 254 254 254
0.56099 -0.42113 -0.61645 254 254 254
0.56282 -0.42809 -0.60938 254 254 254
0.56465 -0.43504 -0.60232 254 254 254
0.56648 -0.44198 -0.59527 254 254 254
0.56830 -0.44892 -0.58822 254 254 254
0.57013 -0.45585 -0.58118 254 254 254
0.57195 -0.46278 -0.57415 254 254 254
0.57377 -0.46969 -0.56712 254 254 254
0.52568 -0.34476 -0.69635 254 254 254
0.52753 -0.35176 -0.68924 254 254 254
0.52938 -0.35876 -0.68213 254 254 254
0.53123 -0.36574 -0.67503 254 254 254
0.53307 -0.37273 -0.66794 254 254 254
0.53491 -0.37970 -0.66085 254 254 254
0.53675 -0.38667 -0.65377 254 254 254
0.53859 -0.39363 -0.64670 254 254 254
0.54043 -0.40059 -0.63963 254 254 254
0.54226 -0.40754 -0.63257 254 254 254
0.54409 -0.41448 -0.62552 254 254 254
0.54592 -0.42141 -0.61847 254 254 254
0.54775 -0.42834 -0.61143 254 254 254
0.54958 -0.43526 -0.60440 254 254 254
0.55141 -0.44218 -0.59738 254 254 254
0.55323 -0.44909 -0.59036 254 254 254
0.55505 -0.45599 -0.58335 254 254 254
0.55687 -0.46288 -0.57634 254 254 254
0.55869 -0.46977 -0.56934 254 254 254
0.56051 -0.47665 -0.56235 254 254 254
0.50890 -0.33838 -0.70513 254 254 254
0.51075 -0.34536 -0.69804 254 254 254
0.51259 -0.35233 -0.69096 254 254 254
0.51444 -0.35930 -0.68388 254 254 254
0.51628 -0.36626 -0.67681 254 254 254
0.51813 -0.37321 -0.66974 254 254 254
0.51997 -0.38016 -0.66268 254 254 254
0.52181 -0.38710 -0.65563 254 254 254
0.52365 -0.39403 -0.64859 254 254 254
0.52548 -0.40095 -0.64155 254 254 254
0.52732 -0.40787 -0.63452 254 254 254
0.52915 -0.41479 -0.62750 254 254 254
0.53098 -0.42169 -0.62048 254 254 254
0.53281 -0.42859 -0.61347 254 254 254
0.53463 -0.43548 -0.60647 254 254 254
0.53646 -0.44237 -0.59947 254 254 254
0.53828 -0.44925 -0.59248 254 254 254
0.54010 -0.45612 -0.58549 254 254 254
0.54193 -0.46299 -0.57852 254 254 254
0.54374 -0.46985 -0.57155 254 254 254
0.54556 -0.47670 -0.56458 254 254 254
0.54737 -0.48355 -0.55763 254 254 254
0.49223 -0.33205 -0.71385 254 254 254
0.49408 -0.33901 -0.70678 254 254 254
0.49593 -0.34596 -0.69972 254 254 254
0.49778 -0.35290 -0.69266 254 254 254
0.49962 -0.35984 -0.68561 254 254 254
0.50147 -0.36677 -0.67857 254 254 254
0.50331 -0.37369 -0.67153 254 254 254
0.50515 -0.38061 -0.66450 254 254 254
0.50699 -0.38752 -0.65748 254 254 254
0.50883 -0.39442 -0.65047 254 254 254
0.51066 -0.40132 -0.64346 254 254 254
0.51250 -0.40821 -0.63645 254 254 254
0.51433 -0.41509 -0.62946 254 254 254
0.51616 -0.42197 -0.62247 254 254 254
0.51799 -0.42884 -0.61549 254 254 254
0.51981 -0.43571 -0.60851 254 254 254
0.52164 -0.44256 -0.60154 254 254 254
0.52346 -0.44941 -0.59458 254 254 254
0.52528 -0.45626 -0.58762 254 254 254
0.52710 -0.46310 -0.58067 254 254 254
0.52892 -0.46993 -0.57373 254 254 254
0.53073 -0.47675 -0.56680 254 254 254
0.53255 -0.48357 -0.55987 254 254 254
0.53436 -0.49038 -0.55294 254 254 254
0.53617 -0.49719 -0.54603 254 254 254
0.47569 -0.32577 -0.72250 254 254 254
0.47754 -0.33270 -0.71545 254 254 254
0.47939 -0.33963 -0.70841 254 254 254
0.48124 -0.34655 -0.70138 254 254 254
0.48309 -0.35347 -0.69435 254 254 254
0.48493 -0.36037 -0.68733 254 254 254
0.48677 -0.36727 -0.68032 254 254 254
0.48862 -0.37417 -0.67331 254 254 254
0.49046 -0.38106 -0.66631 254 254 254
0.49229 -0.38794 -0.65931 254 254 254
0.49413 -0.39481 -0.65233 254 254 254
0.49597 -0.40168 -0.64534 254 254 254
0.49780 -0.40854 -0.63837 254 254 254
0.49963 -0.41540 -0.63140 254 254 254
0.50146 -0.42225 -0.62444 254 254 254
0.50329 -0.42909 -0.61749 254 254 254
0.50511 -0.43592 -0.61054 254 254 254
0.50694 -0.44275 -0.60360 254 254 254
0.50876 -0.44958 -0.59666 254 254 254
0.51058 -0.45639 -0.58974 254 254 254
0.51240 -0.46320 -0.58281 254 254 254
0.51422 -0.47000 -0.57590 254 254 254
0.51603 -0.47680 -0.56899 254 254 254
0.51785 -0.48359 -0.56209 254 254 254
0.51966 -0.49038 -0.55519 254 254 254
0.52147 -0.49715 -0.54830 254 254 254
0.46112 -0.32644 -0.72406 254 254 254
0.46297 -0.33335 -0.71705 254 254 254
0.46482 -0.34025 -0.71003 254 254 254
0.46667 -0.34714 -0.70303 254 254 254
0.46852 -0.35403 -0.69603 254 254 254
0.47036 -0.36090 -0.68903 254 254 254
0.47220 -0.36778 -0.68205 254 254 254
0.47404 -0.37464 -0.67507 254 254 254
0.47588 -0.38150 -0.66810 254 254 254
0.47772 -0.38835 -0.66113 254 254 254
0.47956 -0.39520 -0.65417 254 254 254
0.48139 -0.40204 -0.64722 254 254 254
0.48322 -0.40887 -0.64027 254 254 254
0.48505 -0.41570 -0.63333 254 254 254
0.48688 -0.42252 -0.62640 254 254 254
0.48871 -0.42933 -0.61947 254 254 254
0.49053 -0.43614 -0.61255 254 254 254
0.49236 -0.44294 -0.60564 254 254 254
0.49418 -0.44974 -0.59873 254 254 254
0.49600 -0.45652 -0.59183 254 254 254
0.49782 -0.46331 -0.58494 254 254 254
0.49963 -0.47008 -0.57805 254 254 254
0.50145 -0.47685 -0.57117 254 254 254
0.50326 -0.48361 -0.56429 254 254 254
0.50507 -0.49037 -0.55742 254 254 254
0.50688 -0.49712 -0.55056 254 254 254
0.44297 -0.31334 -0.73962 254 254 254
0.44482 -0.32023 -0.73261 254 254 254
0.44667 -0.32711 -0.72562 254 254 254
0.44852 -0.33399 -0.71862 254 254 254
0.45037 -0.34086 -0.71164 254 254 254
0.45222 -0.34772 -0.70466 254 254 254
0.45406 -0.35458 -0.69769 254 254 254
0.45591 -0.36143 -0.69073 254 254 254
0.45775 -0.36827 -0.68377 254 254 254
0.45959 -0.37511 -0.67682 254 254 254
0.46143 -0.38194 -0.66987 254 254 254
0.46327 -0.38877 -0.66293 254 254 254
0.46510 -0.39558 -0.65600 254 254 254
0.46693 -0.40239 -0.64908 254 254 254
0.46877 -0.40920 -0.64216 254 254 254
0.47060 -0.41600 -0.63524 254 254 254
0.47242 -0.42279 -0.62834 254 254 254
0.47425 -0.42958 -0.62144 254 254 254
0.47607 -0.43636 -0.61455 254 254 254
0.47790 -0.44313 -0.60766 254 254 254
0.47972 -0.44989 -0.60078 254 254 254
0.48154 -0.45666 -0.59391 254 254 254
0.48336 -0.46341 -0.58704 254 254 254
0.48517 -0.47016 -0.58018 254 254 254
0.48699 -0.47690 -0.57333 254 254 254
0.48880 -0.48363 -0.56648 254 254 254
0.49061 -0.49036 -0.55964 254 254 254
0.49242 -0.49708 -0.55280 254 254 254
0.42678 -0.30720 -0.74808 254 254 254
0.42864 -0.31406 -0.74110 254 254 254
0.43049 -0.32092 -0.73412 254 254 254
0.43234 -0.32778 -0.72715 254 254 254
0.43419 -0.33463 -0.72019 254 254 254
0.43604 -0.34147 -0.71323 254 254 254
0.43789 -0.34830 -0.70628 254 254 254
0.43973 -0.35513 -0.69934 254 254 254
0.44158 -0.36195 -0.69240 254 254 254
0.44342 -0.36877 -0.68547 254 254 254
0.44526 -0.37558 -0.67855 254 254 254
0.44709 -0.38238 -0.67163 254 254 254
0.44893 -0.38917 -0.66472 254 254 254
0.45076 -0.39596 -0.65782 254 254 254
0.45260 -0.40275 -0.65092 254 254 254
0.45443 -0.40952 -0.64403 254 254 254
0.45626 -0.41629 -0.63714 254 254 254
0.45808 -0.42306 -0.63026 254 254 254
0.45991 -0.42982 -0.62339 254 254 254
0.46173 -0.43657 -0.61653 254 254 254
0.46356 -0.44331 -0.60967 254 254 254
0.46538 -0.45005 -0.60281 254 254 254
0.46719 -0.45679 -0.59597 254 254 254
0.46901 -0.46351 -0.58913 254 254 254
0.47083 -0.47023 -0.58229 254 254 254
0.47264 -0.47695 -0.57547 254 254 254
0.47445 -0.48365 -0.56865 254 254 254
0.47626 -0.49035 -0.56183 254 254 254
0.47807 -0.49705 -0.55502 254 254 254
0.41072 -0.30110 -0.75648 254 254 254
0.41258 -0.30794 -0.74952 254 254 254
0.41443 -0.31478 -0.74257 254 254 254
0.41628 -0.32161 -0.73562 254 254 254
0.41813 -0.32844 -0.72868 254 254 254
0.41998 -0.33526 -0.72174 254 254 254
0.42183 -0.34207 -0.71481 254 254 254
0.42367 -0.34887 -0.70789 254 254 254
0.42552 -0.35567 -0.70098 254 254 254
0.42736 -0.36247 -0.69407 254 254 254
0.42920 -0.36926 -0.68716 254 254 254
0.43104 -0.37604 -0.68027 254 254 254
0.43288 -0.38281 -0.67338 254 254 254
0.43471 -0.38958 -0.66649 254 254 254
0.43654 -0.39634 -0.65962 254 254 254
0.43838 -0.40310 -0.65275 254 254 254
0.44021 -0.40985 -0.64588 254 254 254
0.44203 -0.41659 -0.63902 254 254 254
0.44386 -0.42333 -0.63217 254 254 254
0.44569 -0.43006 -0.62533 254 254 254
0.44751 -0.43678 -0.61849 254 254 254
0.44933 -0.44350 -0.61166 254 254 254
0.45115 -0.45021 -0.60483 254 254 254
0.45297 -0.45691 -0.59801 254 254 254
0.45478 -0.46361 -0.59120 254 254 254
0.45660 -0.47031 -0.58439 254 254 254
0.45841 -0.47699 -0.57759 254 254 254
0.46022 -0.48367 -0.57080 254 254 254
0.46203 -0.49035 -0.56401 254 254 254
0.46384 -0.49702 -0.55723 254 254 254
0.46565 -0.50368 -0.55045 254 254 254
0.46745 -0.51033 -0.54368 254 254 254
0.46925 -0.51698 -0.53692 254 254 254
0.47106 -0.52363 -0.53017 254 254 254
0.47286 -0.53026 -0.52342 254 254 254
0.47465 -0.53689 -0.51667 254 254 254
0.39477 -0.29504 -0.76483 254 254 254
0.39663 -0.30186 -0.75789 254 254 254
0.39848 -0.30868 -0.75095 254 254 254
0.40034 -0.31549 -0.74403 254 254 254
0.40219 -0.32229 -0.73710 254 254 254
0.40404 -0.32909 -0.73019 254 254 254
0.40588 -0.33588 -0.72328 254 254 254
0.40773 -0.34267 -0.71638 254 254 254
0.40958 -0.34944 -0.70949 254 254 254
0.41142 -0.35622 -0.70260 254 254 254
0.41326 -0.36298 -0.69572 254 254 254
0.41510 -0.36974 -0.68884 254 254 254
0.41694 -0.37649 -0.68197 254 254 254
0.41877 -0.38324 -0.67511 254 254 254
0.42061 -0.38998 -0.66825 254 254 254
0.42244 -0.39672 -0.66140 254 254 254
0.42427 -0.40344 -0.65456 254 254 254
0.42610 -0.41017 -0.64772 254 254 254
0.42793 -0.41688 -0.64089 254 254 254
0.42975 -0.42359 -0.63407 254 254 254
0.43158 -0.43029 -0.62725 254 254 254
0.43340 -0.43699 -0.62044 254 254 254
0.43522 -0.44368 -0.61363 254 254 254
0.43704 -0.45036 -0.60683 254 254 254
0.43886 -0.45704 -0.60004 254 254 254
0.44067 -0.46371 -0.59325 254 254 254
0.44249 -0.47038 -0.58647 254 254 254
0.44430 -0.47704 -0.57970 254 254 254
0.44611 -0.48369 -0.57293 254 254 254
0.44792 -0.49034 -0.56617 254 254 254
0.44972 -0.49698 -0.55941 254 254 254
0.45153 -0.50362 -0.55267 254 254 254
0.45333 -0.51025 -0.54592 254 254 254
0.45514 -0.51687 -0.53919 254 254 254
0.45694 -0.52348 -0.53246 254 254 254
0.45873 -0.53009 -0.52573 254 254 254
0.46053 -0.53670 -0.51901 254 254 254
0.46233 -0.54330 -0.51230 254 254 254
0.46412 -0.54989 -0.50560 254 254 254
0.46591 -0.55648 -0.49890 254 254 254
0.46770 -0.56306 -0.49221 254 254 254
0.46949 -0.56963 -0.48552 254 254 254
0.47128 -0.57620 -0.47884 254 254 254
0.47485 -0.58932 -0.46549 253 252 245
0.38079 -0.29583 -0.76619 254 254 254
0.38265 -0.30262 -0.75928 254 254 254
0.38450 -0.30941 -0.75237 254 254 254
0.38636 -0.31619 -0.74547 254 254 254
0.38821 -0.32297 -0.73858 254 254 254
0.39006 -0.32974 -0.73169 254 254 254
0.39190 -0.33650 -0.72481 254 254 254
0.39375 -0.34326 -0.71794 254 254 254
0.39559 -0.35001 -0.71107 254 254 254
0.39743 -0.35675 -0.70421 254 254 254
0.39927 -0.36349 -0.69735 254 254 254
0.40111 -0.37022 -0.69050 254 254 254
0.40295 -0.37695 -0.68366 254 254 254
0.40478 -0.38367 -0.67683 254 254 254
0.40662 -0.39038 -0.67000 254 254 254
0.40845 -0.39709 -0.66317 254 254 254
0.41028 -0.40379 -0.65636 254 254 254
0.41211 -0.41048 -0.64955 254 254 254
0.41393 -0.41717 -0.64274 254 254 254
0.41576 -0.42385 -0.63595 254 254 254
0.41758 -0.43053 -0.62915 254 254 254
0.41940 -0.43720 -0.62237 254 254 254
0.42122 -0.44386 -0.61559 254 254 254
0.42304 -0.45052 -0.60882 254 254 254
0.42486 -0.45717 -0.60205 254 254 254
0.42667 -0.46381 -0.59529 254 254 254
0.42849 -0.47045 -0.58854 254 254 254
0.43030 -0.47709 -0.58179 254 254 254
0.43211 -0.48371 -0.57505 254 254 254
0.43391 -0.49033 -0.56831 254 254 254
0.43572 -0.49695 -0.56158 254 254 254
0.43753 -0.50356 -0.55486 254 254 254
0.43933 -0.51016 -0.54814 254 254 254
0.44113 -0.51675 -0.54143 254 254 254
0.44293 -0.52334 -0.53473 254 254 254
0.44473 -0.52993 -0.52803 254 254 254
0.44652 -0.53651 -0.52134 254 254 254
0.44832 -0.54308 -0.51465 254 254 254
0.45011 -0.54964 -0.50797 254 254 254
0.45190 -0.55620 -0.50130 254 254 254
0.45369 -0.56276 -0.49463 254 254 254
0.45548 -0.56931 -0.48797 254 254 254
0.45727 -0.57585 -0.48132 254 254 254
0.45905 -0.58238 -0.47467 254 254 254
0.46262 -0.59544 -0.46139 254 253 252
0.36879 -0.30338 -0.76066 254 254 254
0.37064 -0.31014 -0.75378 254 254 254
0.37249 -0.31689 -0.74690 254 254 254
0.37434 -0.32364 -0.74004 254 254 254
0.37619 -0.33038 -0.73318 254 254 254
0.37803 -0.33712 -0.72633 254 254 254
0.37988 -0.34384 -0.71948 254 254 254
0.38172 -0.35057 -0.71264 254 254 254
0.38356 -0.35728 -0.70580 254 254 254
0.38540 -0.36400 -0.69898 254 254 254
0.38724 -0.37070 -0.69215 254 254 254
0.38907 -0.37740 -0.68534 254 254 254
0.39091 -0.38409 -0.67853 254 254 254
0.39274 -0.39078 -0.67173 254 254 254
0.39457 -0.39746 -0.66493 254 254 254
0.39640 -0.40413 -0.65814 254 254 254
0.39823 -0.41080 -0.65136 254 254 254
0.40005 -0.41746 -0.64458 254 254 254
0.40188 -0.42411 -0.63781 254 254 254
0.40370 -0.43076 -0.63104 254 254 254
0.40552 -0.43740 -0.62428 254 254 254
0.40734 -0.44404 -0.61753 254 254 254
0.40916 -0.45067 -0.61079 254 254 254
0.41097 -0.45730 -0.60405 254 254 254
0.41278 -0.46391 -0.59731 254 254 254
0.41460 -0.47053 -0.59058 254 254 254
0.41641 -0.47713 -0.58386 254 254 254
0.41822 -0.48373 -0.57715 254 254 254
0.42002 -0.49033 -0.57044 254 254 254
0.42183 -0.49691 -0.56373 254 254 254
0.42363 -0.50350 -0.55704 254 254 254
0.42544 -0.51007 -0.55035 254 254 254
0.42724 -0.51664 -0.54366 254 254 254
0.42903 -0.52321 -0.53698 254 254 254
0.43083 -0.52976 -0.53031 254 254 254
0.43263 -0.53632 -0.52364 254 254 254
0.43442 -0.54286 -0.51698 254 254 254
0.43621 -0.54940 -0.51033 254 254 254
0.43800 -0.55594 -0.50368 254 254 254
0.43979 -0.56246 -0.49704 254 254 254
0.44158 -0.56899 -0.49040 254 254 254
0.44337 -0.57550 -0.48377 254 254 254
0.44515 -0.58201 -0.47715 254 254 254
0.44693 -0.58852 -0.47053 254 254 254
0.45049 -0.60151 -0.45732 254 254 252
0.35689 -0.31086 -0.75517 254 254 254
0.35874 -0.31758 -0.74833 254 254 254
0.36059 -0.32430 -0.74149 254 254 254
0.36243 -0.33102 -0.73465 254 254 254
0.36428 -0.33773 -0.72783 254 254 254
0.36612 -0.34443 -0.72101 254 254 254
0.36796 -0.35112 -0.71419 254 254 254
0.36980 -0.35781 -0.70739 254 254 254
0.37164 -0.36450 -0.70059 254 254 254
0.37348 -0.37117 -0.69379 254 254 254
0.37531 -0.37784 -0.68700 254 254 254
0.37714 -0.38451 -0.68022 254 254 254
0.37897 -0.39117 -0.67344 254 254 254
0.38080 -0.39782 -0.66667 254 254 254
0.38263 -0.40447 -0.65991 254 254 254
0.38446 -0.41111 -0.65315 254 254 254
0.38628 -0.41774 -0.64640 254 254 254
0.38811 -0.42437 -0.63966 254 254 254
0.38993 -0.43099 -0.63292 254 254 254
0.39175 -0.43761 -0.62619 254 254 254
0.39356 -0.44422 -0.61946 254 254 254
0.39538 -0.45082 -0.61274 254 254 254
0.39720 -0.45742 -0.60602 254 254 254
0.39901 -0.46401 -0.59932 254 254 254
0.40082 -0.47060 -0.59261 254 254 254
0.40263 -0.47718 -0.58592 254 254 254
0.40444 -0.48375 -0.57923 254 254 254
0.40624 -0.49032 -0.57255 254 254 254
0.40805 -0.49688 -0.56587 254 254 254
0.40985 -0.50344 -0.55920 254 254 254
0.41165 -0.50999 -0.55253 254 254 254
0.41345 -0.51653 -0.54587 254 254 254
0.41525 -0.52307 -0.53922 254 254 254
0.41705 -0.52960 -0.53257 254 254 254
0.41884 -0.53613 -0.52593 254 254 254
0.42063 -0.54265 -0.51930 254 254 254
0.42243 -0.54916 -0.51267 254 254 254
0.42422 -0.55567 -0.50605 254 254 254
0.42600 -0.56217 -0.49943 254 254 254
0.42779 -0.56867 -0.49282 254 254 254
0.42958 -0.57516 -0.48621 254 254 254
0.43136 -0.58164 -0.47961 254 254 254
0.43314 -0.58812 -0.47302 254 254 254
0.43492 -0.59459 -0.46644 254 254 254
0.43670 -0.60106 -0.45985 254 254 254
0.43848 -0.60752 -0.45328 254 254 253
0.34509 -0.31827 -0.74974 254 254 254
0.34694 -0.32496 -0.74292 254 254 254
0.34879 -0.33165 -0.73612 254 254 254
0.35063 -0.33833 -0.72932 254 254 254
0.35247 -0.34501 -0.72253 254 254 254
0.35431 -0.35167 -0.71574 254 254 254
0.35615 -0.35834 -0.70896 254 254 254
0.35799 -0.36499 -0.70218 254 254 254
0.35982 -0.37164 -0.69541 254 254 254
0.36166 -0.37829 -0.68865 254 254 254
0.36349 -0.38493 -0.68190 254 254 254
0.36532 -0.39156 -0.67515 254 254 254
0.36715 -0.39818 -0.66840 254 254 254
0.36897 -0.40480 -0.66167 254 254 254
0.37080 -0.41142 -0.65493 254 254 254
0.37262 -0.41802 -0.64821 254 254 254
0.37445 -0.42463 -0.64149 254 254 254
0.37627 -0.43122 -0.63478 254 254 254
0.37808 -0.43781 -0.62807 254 254 254
0.37990 -0.44440 -0.62137 254 254 254
0.38172 -0.45097 -0.61468 254 254 254
0.38353 -0.45754 -0.60799 254 254 254
0.38534 -0.46411 -0.60131 254 254 254
0.38715 -0.47067 -0.59463 254 254 254
0.38896 -0.47722 -0.58796 254 254 254
0.39077 -0.48377 -0.58129 254 254 254
0.39257 -0.49031 -0.57464 254 254 254
0.39438 -0.49685 -0.56799 254 254 254
0.39618 -0.50338 -0.56134 254 254 254
0.39798 -0.50990 -0.55470 254 254 254
0.39978 -0.51642 -0.54807 254 254 254
0.40158 -0.52293 -0.54144 254 254 254
0.40337 -0.52944 -0.53482 254 254 254
0.40516 -0.53594 -0.52820 254 254 254
0.40696 -0.54243 -0.52159 254 254 254
0.40875 -0.54892 -0.51499 254 254 254
0.41054 -0.55540 -0.50839 254 254 254
0.41232 -0.56188 -0.50180 254 254 254
0.41411 -0.56835 -0.49521 254 254 254
0.41589 -0.57482 -0.48863 254 254 254
0.41768 -0.58127 -0.48206 254 254 254
0.41946 -0.58773 -0.47549 254 254 254
0.42124 -0.59418 -0.46893 254 254 254
0.42301 -0.60062 -0.46237 254 254 254
0.42479 -0.60705 -0.45582 254 254 254
0.42657 -0.61348 -0.44928 254 254 254
0.33341 -0.32562 -0.74435 254 254 254
0.33525 -0.33228 -0.73757 254 254 254
0.33709 -0.33893 -0.73080 254 254 254
0.33893 -0.34558 -0.72403 254 254 254
0.34077 -0.35222 -0.71727 254 254 254
0.34261 -0.35886 -0.71052 254 254 254
0.34445 -0.36549 -0.70377 254 254 254
0.34628 -0.37211 -0.69703 254 254 254
0.34811 -0.37873 -0.69029 254 254 254
0.34994 -0.38534 -0.68356 254 254 254
0.35177 -0.39194 -0.67684 254 254 254
0.35360 -0.39854 -0.67012 254 254 254
0.35543 -0.40514 -0.66341 254 254 254
0.35725 -0.41172 -0.65670 254 254 254
0.35907 -0.41831 -0.65000 254 254 254
0.36089 -0.42488 -0.64331 254 254 254
0.36271 -0.43145 -0.63662 254 254 254
0.36453 -0.43801 -0.62994 254 254 254
0.36635 -0.44457 -0.62327 254 254 254
0.36816 -0.45112 -0.61660 254 254 254
0.36997 -0.45767 -0.60994 254 254 254
0.37178 -0.46421 -0.60328 254 254 254
0.37359 -0.47074 -0.59663 254 254 254
0.37540 -0.47727 -0.58998 254 254 254
0.37721 -0.48379 -0.58334 254 254 254
0.37901 -0.49031 -0.57671 254 254 254
0.38081 -0.49682 -0.57009 254 254 254
0.38261 -0.50332 -0.56347 254 254 254
0.38441 -0.50982 -0.55685 254 254 254
0.38621 -0.51631 -0.55024 254 254 254
0.38801 -0.52280 -0.54364 254 254 254
0.38980 -0.52928 -0.53704 254 254 254
0.39160 -0.53575 -0.53045 254 254 254
0.39339 -0.54222 -0.52387 254 254 254
0.39518 -0.54868 -0.51729 254 254 254
0.39697 -0.55514 -0.51072 254 254 254
0.39875 -0.56159 -0.50415 254 254 254
0.40054 -0.56804 -0.49759 254 254 254
0.40232 -0.57448 -0.49103 254 254 254
0.40410 -0.58091 -0.48448 254 254 254
0.40588 -0.58734 -0.47794 254 254 254
0.40766 -0.59376 -0.47140 254 254 254
0.40944 -0.60018 -0.46487 254 254 254
0.41121 -0.60659 -0.45835 254 254 254
0.41299 -0.61299 -0.45183 254 254 254
0.41476 -0.61939 -0.44531 254 254 253
0.32182 -0.33290 -0.73901 254 254 254
0.32366 -0.33953 -0.73227 254 254 254
0.32550 -0.34615 -0.72553 254 254 254
0.32734 -0.35276 -0.71879 254 254 254
0.32918 -0.35937 -0.71206 254 254 254
0.33101 -0.36597 -0.70534 254 254 254
0.33284 -0.37257 -0.69862 254 254 254
0.33468 -0.37916 -0.69191 254 254 254
0.33650 -0.38575 -0.68521 254 254 254
0.33833 -0.39233 -0.67851 254 254 254
0.34016 -0.39890 -0.67182 254 254 254
0.34198 -0.40547 -0.66513 254 254 254
0.34381 -0.41203 -0.65845 254 254 254
0.34563 -0.41858 -0.65178 254 254 254
0.34745 -0.42513 -0.64511 254 254 254
0.34927 -0.43168 -0.63845 254 254 254
0.35108 -0.43821 -0.63180 254 254 254
0.35290 -0.44474 -0.62515 254 254 254
0.35471 -0.45127 -0.61850 254 254 254
0.35652 -0.45779 -0.61187 254 254 254
0.35833 -0.46430 -0.60524 254 254 254
0.36014 -0.47081 -0.59861 254 254 254
0.36195 -0.47731 -0.59199 254 254 254
0.36375 -0.48381 -0.58538 254 254 254
0.36556 -0.49030 -0.57877 254 254 254
0.36736 -0.49678 -0.57217 254 254 254
0.36916 -0.50326 -0.56557 254 254 254
0.37096 -0.50973 -0.55898 254 254 254
0.37275 -0.51620 -0.55240 254 254 254
0.37455 -0.52266 -0.54582 254 254 254
0.37634 -0.52912 -0.53925 254 254 254
0.37813 -0.53557 -0.53269 254 254 254
0.37992 -0.54201 -0.52613 254 254 254
0.38171 -0.54845 -0.51957 254 254 254
0.38350 -0.55488 -0.51302 254 254 254
0.38528 -0.56131 -0.50648 254 254 254
0.38707 -0.56773 -0.49995 254 254 254
0.38885 -0.57414 -0.49342 254 254 254
0.39063 -0.58055 -0.48689 254 254 254
0.39241 -0.58695 -0.48037 254 254 254
0.39419 -0.59335 -0.47386 254 254 254
0.39596 -0.59974 -0.46735 254 254 254
0.39774 -0.60613 -0.46085 254 254 254
0.39951 -0.61251 -0.45436 254 254 254
0.40128 -0.61888 -0.44787 254 254 254
0.40305 -0.62525 -0.44138 254 254 254
0.31034 -0.34012 -0.73372 254 254 254
0.31218 -0.34671 -0.72701 254 254 254
0.31401 -0.35330 -0.72030 254 254 254
0.31585 -0.35988 -0.71360 254 254 254
0.31768 -0.36646 -0.70690 254 254 254
0.31951 -0.37303 -0.70021 254 254 254
0.32134 -0.37960 -0.69352 254 254 254
0.32317 -0.38615 -0.68685 254 254 254
0.32500 -0.39271 -0.68017 254 254 254
0.32682 -0.39925 -0.67351 254 254 254
0.32865 -0.40580 -0.66685 254 254 254
0.33047 -0.41233 -0.66019 254 254 254
0.33229 -0.41886 -0.65355 254 254 254
0.33411 -0.42538 -0.64690 254 254 254
0.33593 -0.43190 -0.64027 254 254 254
0.33774 -0.43841 -0.63364 254 254 254
0.33955 -0.44492 -0.62701 254 254 254
0.34137 -0.45142 -0.62040 254 254 254
0.34318 -0.45791 -0.61378 254 254 254
0.34499 -0.46440 -0.60718 254 254 254
0.34679 -0.47088 -0.60058 254 254 254
0.34860 -0.47736 -0.59398 254 254 254
0.35040 -0.48383 -0.58740 254 254 254
0.35221 -0.49029 -0.58081 254 254 254
0.35401 -0.49675 -0.57424 254 254 254
0.35580 -0.50320 -0.56767 254 254 254
0.35760 -0.50965 -0.56110 254 254 254
0.35940 -0.51609 -0.55454 254 254 254
0.36119 -0.52253 -0.54799 254 254 254
0.36298 -0.52896 -0.54144 254 254 254
0.36478 -0.53538 -0.53490 254 254 254
0.36657 -0.54180 -0.52837 254 254 254
0.36835 -0.54821 -0.52184 254 254 254
0.37014 -0.55462 -0.51531 254 254 254
0.37192 -0.56102 -0.50880 254 254 254
0.37371 -0.56742 -0.50229 254 254 254
0.37549 -0.57381 -0.49578 254 254 254
0.37727 -0.58019 -0.48928 254 254 254
0.37905 -0.58657 -0.48278 254 254 254
0.38082 -0.59294 -0.47630 254 254 254
0.38260 -0.59931 -0.46981 254 254 254
0.38437 -0.60567 -0.46334 254 254 254
0.38614 -0.61203 -0.45687 254 254 254
0.38791 -0.61838 -0.45040 254 254 254
0.38968 -0.62472 -0.44394 254 254 254
0.39145 -0.63106 -0.43749 254 254 254
0.29896 -0.34727 -0.72848 254 254 254
0.30079 -0.35383 -0.72179 254 254 254
0.30263 -0.36039 -0.71512 254 254 254
0.30446 -0.36694 -0.70845 254 254 254
0.30629 -0.37349 -0.70178 254 254 254
0.30812 -0.38002 -0.69512 254 254 254
0.30995 -0.38656 -0.68847 254 254 254
0.31177 -0.39308 -0.68182 254 254 254
0.31359 -0.39961 -0.67518 254 254 254
0.31542 -0.40612 -0.66855 254 254 254
0.31724 -0.41263 -0.66192 254 254 254
0.31906 -0.41913 -0.65530 254 254 254
0.32087 -0.42563 -0.64868 254 254 254
0.32269 -0.43212 -0.64207 254 254 254
0.32450 -0.43861 -0.63547 254 254 254
0.32632 -0.44509 -0.62887 254 254 254
0.32813 -0.45156 -0.62227 254 254 254
0.32994 -0.45803 -0.61569 254 254 254
0.33174 -0.46449 -0.60911 254 254 254
0.33355 -0.47095 -0.60253 254 254 254
0.33536 -0.47740 -0.59596 254 254 254
0.33716 -0.48385 -0.58940 254 254 254
0.33896 -0.49029 -0.58284 254 254 254
0.34076 -0.49672 -0.57629 254 254 254
0.34256 -0.50315 -0.56974 254 254 254
0.34435 -0.50957 -0.56320 254 254 254
0.34615 -0.51599 -0.55667 254 254 254
0.34794 -0.52240 -0.55014 254 254 254
0.34973 -0.52880 -0.54362 254 254 254
0.35152 -0.53520 -0.53710 254 254 254
0.35331 -0.54159 -0.53059 254 254 254
0.35510 -0.54798 -0.52409 254 254 254
0.35688 -0.55436 -0.51759 254 254 254
0.35867 -0.56074 -0.51109 254 254 254
0.36045 -0.56711 -0.50461 254 254 254
0.36223 -0.57348 -0.49812 254 254 254
0.36401 -0.57984 -0.49165 254 254 254
0.36578 -0.58619 -0.48518 254 254 254
0.36756 -0.59254 -0.47871 254 254 254
0.36933 -0.59888 -0.47226 254 254 254
0.37111 -0.60522 -0.46580 254 254 254
0.37288 -0.61155 -0.45936 254 254 254
0.37465 -0.61787 -0.45291 254 254 254
0.37641 -0.62419 -0.44648 254 254 254
0.37818 -0.63051 -0.44005 254 254 254
0.37995 -0.63682 -0.43362 254 254 254
0.28584 -0.34783 -0.72994 254 254 254
0.28767 -0.35436 -0.72328 254 254 254
0.28951 -0.36089 -0.71663 254 254 254
0.29134 -0.36742 -0.70998 254 254 254
0.29317 -0.37394 -0.70334 254 254 254
0.29500 -0.38045 -0.69671 254 254 254
0.29682 -0.38696 -0.69008 254 254 254
0.29865 -0.39346 -0.68346 254 254 254
0.30047 -0.39995 -0.67685 254 254 254
0.30229 -0.40644 -0.67024 254 254 254
0.30411 -0.41293 -0.66363 254 254 254
0.30593 -0.41940 -0.65703 254 254 254
0.30774 -0.42588 -0.65044 254 254 254
0.30956 -0.43234 -0.64386 254 254 254
0.31137 -0.43880 -0.63728 254 254 254
0.31318 -0.44526 -0.63070 254 254 254
0.31499 -0.45171 -0.62414 254 254 254
0.31680 -0.45815 -0.61757 254 254 254
0.31861 -0.46459 -0.61102 254 254 254
0.32041 -0.47102 -0.60447 254 254 254
0.32221 -0.47745 -0.59792 254 254 254
0.32402 -0.48387 -0.59138 254 254 254
0.32582 -0.49028 -0.58485 254 254 254
0.32762 -0.49669 -0.57832 254 254 254
0.32941 -0.50309 -0.57180 254 254 254
0.33121 -0.50949 -0.56529 254 254 254
0.33300 -0.51588 -0.55878 254 254 254
0.33479 -0.52227 -0.55227 254 254 254
0.33658 -0.52865 -0.54578 254 254 254
0.33837 -0.53502 -0.53928 254 254 254
0.34016 -0.54139 -0.53280 254 254 254
0.34195 -0.54775 -0.52632 254 254 254
0.34373 -0.55411 -0.51984 254 254 254
0.34551 -0.56046 -0.51337 254 254 254
0.34729 -0.56681 -0.50691 254 254 254
0.34907 -0.57315 -0.50045 254 254 254
0.35085 -0.57948 -0.49400 254 254 254
0.35263 -0.58581 -0.48755 254 254 254
0.35440 -0.59214 -0.48111 254 254 254
0.35617 -0.59845 -0.47468 254 254 254
0.35794 -0.60477 -0.46825 254 254 254
0.35971 -0.61107 -0.46183 254 254 254
0.36148 -0.61738 -0.45541 254 254 254
0.36325 -0.62367 -0.44900 254 254 254
0.36501 -0.62996 -0.44259 254 254 254
0.36678 -0.63625 -0.43619 254 254 254
0.36854 -0.64252 -0.42979 254 254 254
0.27283 -0.34838 -0.73138 254 254 254
0.27466 -0.35489 -0.72475 254 254 254
0.27649 -0.36139 -0.71812 254 254 254
0.27832 -0.36789 -0.71150 254 254 254
0.28015 -0.37439 -0.70489 254 254 254
0.28198 -0.38087 -0.69828 254 254 254
0.28380 -0.38735 -0.69168 254 254 254
0.28562 -0.39383 -0.68508 254 254 254
0.28745 -0.40030 -0.67849 254 254 254
0.28926 -0.40676 -0.67191 254 254 254
0.29108 -0.41322 -0.66533 254 254 254
0.29290 -0.41967 -0.65876 254 254 254
0.29471 -0.42612 -0.65219 254 254 254
0.29653 -0.43256 -0.64563 254 254 254
0.30196 -0.45185 -0.62598 254 254 254
0.30377 -0.45827 -0.61945 254 254 254
0.30557 -0.46468 -0.61291 254 254 254
0.30737 -0.47109 -0.60639 254 254 254
0.30918 -0.47749 -0.59987 254 254 254
0.31098 -0.48388 -0.59335 254 254 254
0.31278 -0.49027 -0.58685 254 254 254
0.31457 -0.49666 -0.58034 254 254 254
0.31637 -0.50304 -0.57385 254 254 254
0.31816 -0.50941 -0.56736 254 254 254
0.31996 -0.51577 -0.56087 254 254 254
0.32175 -0.52214 -0.55439 254 254 254
0.32354 -0.52849 -0.54792 254 254 254
0.32532 -0.53484 -0.54145 254 254 254
0.32711 -0.54119 -0.53499 254 254 254
0.32889 -0.54752 -0.52853 254 254 254
0.33068 -0.55386 -0.52208 254 254 254
0.33246 -0.56018 -0.51563 254 254 254
0.33424 -0.56651 -0.50919 254 254 254
0.33602 -0.57282 -0.50276 254 254 254
0.33779 -0.57913 -0.49633 254 254 254
0.33957 -0.58544 -0.48991 254 254 254
0.34134 -0.59174 -0.48349 254 254 254
0.34311 -0.59803 -0.47708 254 254 254
0.34488 -0.60432 -0.47068 254 254 254
0.34665 -0.61060 -0.46428 254 254 254
0.34842 -0.61688 -0.45788 254 254 254
0.35019 -0.62315 -0.45149 254 254 254
0.35195 -0.62942 -0.44511 254 254 254
0.35371 -0.63568 -0.43873 254 254 254
0.35547 -0.64193 -0.43236 254 254 254
0.35723 -0.64818 -0.42600 254 254 254
0.25992 -0.34892 -0.73282 254 254 254
0.26175 -0.35541 -0.72621 254 254 254
0.26358 -0.36189 -0.71961 254 254 254
0.26541 -0.36836 -0.71302 254 254 254
0.26723 -0.37483 -0.70643 254 254 254
0.26906 -0.38129 -0.69984 254 254 254
0.27088 -0.38775 -0.69327 254 254 254
0.27270 -0.39420 -0.68670 254 254 254
0.27452 -0.40064 -0.68013 254 254 254
0.27634 -0.40708 -0.67357 254 254 254
0.27816 -0.41351 -0.66702 254 254 254
0.27997 -0.41994 -0.66047 254 254 254
0.28179 -0.42636 -0.65393 254 254 254
0.28360 -0.43278 -0.64739 254 254 254
0.29264 -0.46477 -0.61480 254 254 254
0.29444 -0.47116 -0.60830 254 254 254
0.29624 -0.47753 -0.60180 254 254 254
0.29804 -0.48390 -0.59531 254 254 254
0.29984 -0.49027 -0.58883 254 254 254
0.30163 -0.49663 -0.58235 254 254 254
0.30343 -0.50298 -0.57587 254 254 254
0.30522 -0.50933 -0.56941 254 254 254
0.30701 -0.51567 -0.56295 254 254 254
0.30880 -0.52201 -0.55649 254 254 254
0.31059 -0.52834 -0.55004 254 254 254
0.31237 -0.53466 -0.54360 254 254 254
0.31416 -0.54098 -0.53716 254 254 254
0.31594 -0.54730 -0.53073 254 254 254
0.31772 -0.55361 -0.52430 254 254 254
0.31951 -0.55991 -0.51788 254 254 254
0.32128 -0.56621 -0.51146 254 254 254
0.32306 -0.57250 -0.50505 254 254 254
0.32484 -0.57879 -0.49865 254 254 254
0.32661 -0.58507 -0.49225 254 254 254
0.32838 -0.59134 -0.48586 254 254 254
0.33015 -0.59761 -0.47947 254 254 254
0.33192 -0.60388 -0.47309 254 254 254
0.33369 -0.61014 -0.46671 254 254 254
0.33546 -0.61639 -0.46034 254 254 254
0.33722 -0.62264 -0.45397 254 254 254
0.33898 -0.62888 -0.44761 254 254 254
0.34075 -0.63512 -0.44126 254 254 254
0.34251 -0.64135 -0.43491 254 254 254
0.34426 -0.64757 -0.42857 254 254 254
0.34602 -0.65380 -0.42223 254 254 254
0.24710 -0.34947 -0.73424 254 254 254
0.24893 -0.35593 -0.72766 254 254 254
0.25076 -0.36238 -0.72109 254 254 254
0.25259 -0.36883 -0.71452 254 254 254
0.25441 -0.37527 -0.70795 254 254 254
0.25624 -0.38171 -0.70139 254 254 254
0.25806 -0.38814 -0.69484 254 254 254
0.25988 -0.39456 -0.68829 254 254 254
0.26170 -0.40098 -0.68175 254 254 254
0.26352 -0.40740 -0.67522 254 254 254
0.26533 -0.41380 -0.66869 254 254 254
0.26715 -0.42021 -0.66217 254 254 254
0.26896 -0.42660 -0.65565 254 254 254
0.27077 -0.43300 -0.64914 254 254 254
0.28160 -0.47122 -0.61019 254 254 254
0.28340 -0.47757 -0.60372 254 254 254
0.28520 -0.48392 -0.59725 254 254 254
0.28699 -0.49026 -0.59079 254 254 254
0.28879 -0.49660 -0.58434 254 254 254
0.29058 -0.50292 -0.57789 254 254 254
0.29237 -0.50925 -0.57144 254 254 254
0.29416 -0.51557 -0.56501 254 254 254
0.29595 -0.52188 -0.55858 254 254 254
0.29774 -0.52819 -0.55215 254 254 254
0.29953 -0.53449 -0.54573 254 254 254
0.30131 -0.54078 -0.53931 254 254 254
0.30309 -0.54707 -0.53291 254 254 254
0.30487 -0.55336 -0.52650 254 254 254
0.30665 -0.55964 -0.52010 254 254 254
0.30843 -0.56591 -0.51371 254 254 254
0.31020 -0.57218 -0.50733 254 254 254
0.31198 -0.57844 -0.50094 254 254 254
0.31375 -0.58470 -0.49457 254 254 254
0.31552 -0.59095 -0.48820 254 254 254
0.31729 -0.59720 -0.48183 254 254 254
0.31906 -0.60344 -0.47548 254 254 254
0.32083 -0.60967 -0.46912 254 254 254
0.32259 -0.61590 -0.46278 254 254 254
0.32436 -0.62213 -0.45643 254 254 254
0.32612 -0.62835 -0.45010 254 254 254
0.32788 -0.63456 -0.44377 254 254 254
0.32964 -0.64077 -0.43744 254 254 254
0.33140 -0.64697 -0.43112 254 254 254
0.33315 -0.65317 -0.42481 254 254 254
0.33491 -0.65936 -0.41850 254 254 254
0.33666 -0.66555 -0.41220 254 254 254
0.23439 -0.35001 -0.73566 254 254 254
0.23622 -0.35644 -0.72910 254 254 254
0.23805 -0.36287 -0.72255 254 254 254
0.23987 -0.36929 -0.71600 254 254 254
0.24170 -0.37571 -0.70946 254 254 254
0.24352 -0.38212 -0.70293 254 254 254
0.24534 -0.38853 -0.69640 254 254 254
0.24716 -0.39493 -0.68988 254 254 254
0.24898 -0.40132 -0.68336 254 254 254
0.25079 -0.40771 -0.67685 254 254 254
0.25261 -0.41409 -0.67035 254 254 254
0.25442 -0.42047 -0.66385 254 254 254
0.25623 -0.42684 -0.65736 254 254 254
0.25804 -0.43321 -0.65087 254 254 254
0.27066 -0.47762 -0.60562 254 254 254
0.27246 -0.48394 -0.59918 254 254 254
0.27425 -0.49025 -0.59274 254 254 254
0.27605 -0.49656 -0.58631 254 254 254
0.27784 -0.50287 -0.57988 254 254 254
0.27963 -0.50917 -0.57347 254 254 254
0.28142 -0.51546 -0.56705 254 254 254
0.28320 -0.52175 -0.56064 254 254 254
0.28499 -0.52803 -0.55424 254 254 254
0.28677 -0.53431 -0.54784 254 254 254
0.28856 -0.54058 -0.54145 254 254 254
0.29034 -0.54685 -0.53507 254 254 254
0.29212 -0.55311 -0.52869 254 254 254
0.29390 -0.55937 -0.52231 254 254 254
0.29567 -0.56562 -0.51594 254 254 254
0.29745 -0.57186 -0.50958 254 254 254
0.29922 -0.57810 -0.50322 254 254 254
0.30099 -0.58433 -0.49687 254 254 254
0.30276 -0.59056 -0.49053 254 254 254
0.30453 -0.59678 -0.48418 254 254 254
0.30630 -0.60300 -0.47785 254 254 254
0.30806 -0.60921 -0.47152 254 254 254
0.30983 -0.61542 -0.46519 254 254 254
0.31159 -0.62162 -0.45888 254 254 254
0.31335 -0.62782 -0.45256 254 254 254
0.31511 -0.63401 -0.44625 254 254 254
0.31687 -0.64019 -0.43995 254 254 254
0.31862 -0.64637 -0.43365 254 254 254
0.32038 -0.65254 -0.42736 254 254 254
0.32213 -0.65871 -0.42108 254 254 254
0.32388 -0.66488 -0.41480 254 254 254
0.32563 -0.67103 -0.40852 254 254 254
0.22178 -0.35054 -0.73706 254 254 254
0.22360 -0.35695 -0.73053 254 254 254
0.22543 -0.36335 -0.72400 254 254 254
0.22725 -0.36975 -0.71748 254 254 254
0.22908 -0.37614 -0.71097 254 254 254
0.23090 -0.38253 -0.70446 254 254 254
0.23272 -0.38891 -0.69795 254 254 254
0.23453 -0.39529 -0.69146 254 254 254
0.23635 -0.40166 -0.68496 254 254 254
0.23816 -0.40802 -0.67848 254 254 254
0.23998 -0.41438 -0.67200 254 254 254
0.24179 -0.42073 -0.66552 254 254 254
0.24360 -0.42708 -0.65905 254 254 254
0.24541 -0.43342 -0.65259 254 254 254
0.24721 -0.43976 -0.64613 254 254 254
0.25981 -0.48396 -0.60109 254 254 254
0.26161 -0.49025 -0.59467 254 254 254
0.26340 -0.49653 -0.58827 254 254 254
0.26519 -0.50282 -0.58187 254 254 254
0.26698 -0.50909 -0.57547 254 254 254
0.26877 -0.51536 -0.56908 254 254 254
0.27055 -0.52163 -0.56270 254 254 254
0.27234 -0.52788 -0.55632 254 254 254
0.27412 -0.53414 -0.54994 254 254 254
0.27590 -0.54039 -0.54358 254 254 254
0.27768 -0.54663 -0.53721 254 254 254
0.27946 -0.55287 -0.53086 254 254 254
0.28124 -0.55910 -0.52451 254 254 254
0.28301 -0.56532 -0.51816 254 254 254
0.28479 -0.57154 -0.51182 254 254 254
0.28656 -0.57776 -0.50549 254 254 254
0.28833 -0.58397 -0.49916 254 254 254
0.29010 -0.59017 -0.49283 254 254 254
0.29186 -0.59637 -0.48652 254 254 254
0.29363 -0.60257 -0.48020 254 254 254
0.29539 -0.60876 -0.47390 254 254 254
0.29716 -0.61494 -0.46759 254 254 254
0.29892 -0.62112 -0.46130 254 254 254
0.30068 -0.62729 -0.45501 254 254 254
0.30244 -0.63346 -0.44872 254 254 254
0.30419 -0.63962 -0.44244 254 254 254
0.30595 -0.64577 -0.43617 254 254 254
0.30770 -0.65193 -0.42990 254 254 254
0.30945 -0.65807 -0.42364 254 254 254
0.31120 -0.66421 -0.41738 254 254 254
0.31295 -0.67035 -0.41113 254 254 254
0.31470 -0.67648 -0.40488 254 254 254
0.20926 -0.35107 -0.73845 254 254 254
0.21109 -0.35745 -0.73194 254 254 254
0.21291 -0.36383 -0.72544 254 254 254
0.21473 -0.37021 -0.71895 254 254 254
0.21655 -0.37657 -0.71245 254 254 254
0.21837 -0.38294 -0.70597 254 254 254
0.22019 -0.38929 -0.69949 254 254 254
0.22201 -0.39564 -0.69302 254 254 254
0.22382 -0.40199 -0.68655 254 254 254
0.22563 -0.40833 -0.68009 254 254 254
0.22745 -0.41466 -0.67363 254 254 254
0.22926 -0.42099 -0.66718 254 254 254
0.23106 -0.42731 -0.66074 254 254 254
0.23287 -0.43363 -0.65430 254 254 254
0.23468 -0.43994 -0.64786 254 254 254
0.23648 -0.44625 -0.64143 254 254 254
0.24906 -0.49024 -0.59659 254 254 254
0.25085 -0.49650 -0.59021 254 254 254
0.25264 -0.50276 -0.58383 254 254 254
0.25443 -0.50901 -0.57746 254 254 254
0.25621 -0.51526 -0.57109 254 254 254
0.25800 -0.52150 -0.56473 254 254 254
0.25978 -0.52774 -0.55838 254 254 254
0.26156 -0.53397 -0.55203 254 254 254
0.26334 -0.54019 -0.54568 254 254 254
0.26512 -0.54641 -0.53934 254 254 254
0.26690 -0.55262 -0.53301 254 254 254
0.26867 -0.55883 -0.52668 254 254 254
0.27045 -0.56503 -0.52036 254 254 254
0.27222 -0.57123 -0.51404 254 254 254
0.27399 -0.57742 -0.50773 254 254 254
0.27576 -0.58361 -0.50143 254 254 254
0.27753 -0.58979 -0.49513 254 254 254
0.27929 -0.59597 -0.48883 254 254 254
0.28106 -0.60214 -0.48254 254 254 254
0.28282 -0.60830 -0.47626 254 254 254
0.28458 -0.61446 -0.46998 254 254 254
0.28634 -0.62062 -0.46370 254 254 254
0.28810 -0.62677 -0.45744 254 254 254
0.28986 -0.63291 -0.45117 254 254 254
0.29161 -0.63905 -0.44492 254 254 254
0.29337 -0.64518 -0.43866 254 254 254
0.29512 -0.65131 -0.43242 254 254 254
0.29687 -0.65743 -0.42618 254 254 254
0.29862 -0.66355 -0.41994 254 254 254
0.30037 -0.66966 -0.41371 254 254 254
0.30211 -0.67577 -0.40749 254 254 254
0.30386 -0.68187 -0.40127 254 254 254
0.30560 -0.68797 -0.39505 254 254 254
0.19684 -0.35160 -0.73983 254 254 254
0.19866 -0.35796 -0.73335 254 254 254
0.20048 -0.36431 -0.72687 254 254 254
0.20231 -0.37066 -0.72040 254 254 254
0.20413 -0.37700 -0.71393 254 254 254
0.20594 -0.38334 -0.70747 254 254 254
0.20776 -0.38967 -0.70102 254 254 254
0.20957 -0.39600 -0.69457 254 254 254
0.21139 -0.40232 -0.68812 254 254 254
0.21320 -0.40863 -0.68169 254 254 254
0.21501 -0.41494 -0.67525 254 254 254
0.21682 -0.42125 -0.66883 254 254 254
0.21862 -0.42755 -0.66241 254 254 254
0.22043 -0.43384 -0.65599 254 254 254
0.22223 -0.44013 -0.64958 254 254 254
0.22403 -0.44641 -0.64318 254 254 254
0.22584 -0.45269 -0.63678 254 254 254
0.23839 -0.49647 -0.59214 254 254 254
0.24018 -0.50271 -0.58579 254 254 254
0.24197 -0.50894 -0.57944 254 254 254
0.24375 -0.51516 -0.57309 254 254 254
0.24554 -0.52138 -0.56676 254 254 254
0.24732 -0.52759 -0.56042 254 254 254
0.24910 -0.53379 -0.55410 254 254 254
0.25088 -0.53999 -0.54777 254 254 254
0.25265 -0.54619 -0.54146 254 254 254
0.25443 -0.55238 -0.53515 254 254 254
0.25620 -0.55857 -0.52884 254 254 254
0.25798 -0.56475 -0.52254 254 254 254
0.25975 -0.57092 -0.51625 254 254 254
0.26152 -0.57709 -0.50996 254 254 254
0.26329 -0.58325 -0.50368 254 254 254
0.26505 -0.58941 -0.49740 254 254 254
0.26682 -0.59556 -0.49113 254 254 254
0.26858 -0.60171 -0.48486 254 254 254
0.27034 -0.60785 -0.47860 254 254 254
0.27210 -0.61399 -0.47234 254 254 254
0.27386 -0.62012 -0.46609 254 254 254
0.27562 -0.62625 -0.45985 254 254 254
0.27737 -0.63237 -0.45361 254 254 254
0.27913 -0.63849 -0.44737 254 254 254
0.28088 -0.64460 -0.44114 254 254 254
0.28263 -0.65070 -0.43492 254 254 254
0.28438 -0.65680 -0.42870 254 254 254
0.28613 -0.66290 -0.42249 254 254 254
0.28788 -0.66899 -0.41628 254 254 254
0.28962 -0.67507 -0.41007 254 254 254
0.29137 -0.68115 -0.40388 254 254 254
0.29311 -0.68722 -0.39769 254 254 254
0.29485 -0.69329 -0.39150 254 254 254
0.18451 -0.35212 -0.74120 254 254 254
0.18633 -0.35845 -0.73474 254 254 254
0.18815 -0.36478 -0.72829 254 254 254
0.18997 -0.37111 -0.72184 254 254 254
0.19179 -0.37743 -0.71540 254 254 254
0.19361 -0.38374 -0.70896 254 254 254
0.19542 -0.39005 -0.70253 254 254 254
0.19724 -0.39635 -0.69611 254 254 254
0.19905 -0.40265 -0.68969 254 254 254
0.20086 -0.40894 -0.68327 254 254 254
0.20267 -0.41522 -0.67686 254 254 254
0.20447 -0.42150 -0.67046 254 254 254
0.20628 -0.42778 -0.66406 254 254 254
0.20808 -0.43405 -0.65767 254 254 254
0.20988 -0.44031 -0.65128 254 254 254
0.21168 -0.44657 -0.64490 254 254 254
0.21348 -0.45282 -0.63853 254 254 254
0.22782 -0.50265 -0.58772 254 254 254
0.22961 -0.50886 -0.58140 254 254 254
0.23139 -0.51506 -0.57508 254 254 254
0.23317 -0.52125 -0.56876 254 254 254
0.23495 -0.52744 -0.56245 254 254 254
0.23673 -0.53362 -0.55615 254 254 254
0.23851 -0.53980 -0.54985 254 254 254
0.24028 -0.54597 -0.54356 254 254 254
0.24206 -0.55214 -0.53727 254 254 254
0.24383 -0.55830 -0.53099 254 254 254
0.24560 -0.56446 -0.52471 254 254 254
0.24737 -0.57061 -0.51844 254 254 254
0.24914 -0.57676 -0.51217 254 254 254
0.25091 -0.58290 -0.50591 254 254 254
0.25267 -0.58903 -0.49966 254 254 254
0.25443 -0.59516 -0.49341 254 254 254
0.25620 -0.60129 -0.48716 254 254 254
0.25796 -0.60741 -0.48092 254 254 254
0.25972 -0.61352 -0.47469 254 254 254
0.26147 -0.61963 -0.46846 254 254 254
0.26323 -0.62573 -0.46224 254 254 254
0.26498 -0.63183 -0.45602 254 254 254
0.26674 -0.63793 -0.44981 254 254 254
0.26849 -0.64401 -0.44360 254 254 254
0.27024 -0.65010 -0.43740 254 254 254
0.27199 -0.65617 -0.43120 254 254 254
0.27373 -0.66225 -0.42501 254 254 254
0.27548 -0.66831 -0.41882 254 254 254
0.27722 -0.67438 -0.41264 254 254 254
0.27897 -0.68043 -0.40647 254 254 254
0.28071 -0.68649 -0.40030 254 254 254
0.28245 -0.69253 -0.39413 254 254 254
0.28419 -0.69857 -0.38797 254 254 254
0.17228 -0.35264 -0.74256 254 254 254
0.17410 -0.35895 -0.73613 254 254 254
0.17592 -0.36525 -0.72970 254 254 254
0.17774 -0.37155 -0.72327 254 254 254
0.17955 -0.37785 -0.71686 254 254 254
0.18137 -0.38414 -0.71044 254 254 254
0.18318 -0.39042 -0.70404 254 254 254
0.18499 -0.39670 -0.69763 254 254 254
0.18680 -0.40297 -0.69124 254 254 254
0.18861 -0.40924 -0.68485 254 254 254
0.19042 -0.41550 -0.67846 254 254 254
0.19222 -0.42176 -0.67208 254 254 254
0.19403 -0.42801 -0.66571 254 254 254
0.19583 -0.43425 -0.65934 254 254 254
0.19763 -0.44049 -0.65298 254 254 254
0.19943 -0.44673 -0.64662 254 254 254
0.20123 -0.45296 -0.64027 254 254 254
0.20302 -0.45918 -0.63392 254 254 254
0.21733 -0.50878 -0.58334 254 254 254
0.21912 -0.51496 -0.57705 254 254 254
0.22090 -0.52113 -0.57075 254 254 254
0.22268 -0.52730 -0.56447 254 254 254
0.22445 -0.53346 -0.55819 254 254 254
0.22623 -0.53961 -0.55191 254 254 254
0.22800 -0.54576 -0.54564 254 254 254
0.22978 -0.55190 -0.53937 254 254 254
0.23155 -0.55804 -0.53311 254 254 254
0.23332 -0.56418 -0.52686 254 254 254
0.23509 -0.57030 -0.52061 254 254 254
0.23685 -0.57643 -0.51437 254 254 254
0.23862 -0.58255 -0.50813 254 254 254
0.24038 -0.58866 -0.50190 254 254 254
0.24214 -0.59477 -0.49567 254 254 254
0.24391 -0.60087 -0.48945 254 254 254
0.24566 -0.60696 -0.48323 254 254 254
0.24742 -0.61306 -0.47702 254 254 254
0.24918 -0.61914 -0.47081 254 254 254
0.25093 -0.62522 -0.46461 254 254 254
0.25269 -0.63130 -0.45841 254 254 254
0.25444 -0.63737 -0.45222 254 254 254
0.25619 -0.64344 -0.44604 254 254 254
0.25794 -0.64950 -0.43986 254 254 254
0.25968 -0.65555 -0.43369 254 254 254
0.26143 -0.66160 -0.42752 254 254 254
0.26317 -0.66765 -0.42135 254 254 254
0.26492 -0.67369 -0.41519 254 254 254
0.26666 -0.67972 -0.40904 254 254 254
0.26840 -0.68575 -0.40289 254 254 254
0.27014 -0.69178 -0.39675 254 254 254
0.27187 -0.69780 -0.39061 254 254 254
0.27361 -0.70381 -0.38448 254 254 254
0.27534 -0.70982 -0.37835 254 254 254
0.16014 -0.35315 -0.74391 254 254 254
0.16196 -0.35944 -0.73750 254 254 254
0.16377 -0.36572 -0.73110 254 254 254
0.16559 -0.37199 -0.72470 254 254 254
0.16740 -0.37827 -0.71830 254 254 254
0.16922 -0.38453 -0.71191 254 254 254
0.17103 -0.39079 -0.70553 254 254 254
0.17284 -0.39705 -0.69915 254 254 254
0.17465 -0.40329 -0.69278 254 254 254
0.17645 -0.40954 -0.68641 254 254 254
0.17826 -0.41578 -0.68005 254 254 254
0.18006 -0.42201 -0.67369 254 254 254
0.18187 -0.42824 -0.66734 254 254 254
0.18367 -0.43446 -0.66099 254 254 254
0.18547 -0.44068 -0.65465 254 254 254
0.18726 -0.44689 -0.64832 254 254 254
0.18906 -0.45309 -0.64199 254 254 254
0.19085 -0.45929 -0.63567 254 254 254
0.19265 -0.46549 -0.62935 254 254 254
0.20515 -0.50871 -0.58527 254 254 254
0.20694 -0.51486 -0.57900 254 254 254
0.20871 -0.52101 -0.57273 254 254 254
0.21049 -0.52715 -0.56647 254 254 254
0.21227 -0.53329 -0.56021 254 254 254
0.21404 -0.53942 -0.55395 254 254 254
0.21582 -0.54555 -0.54771 254 254 254
0.21759 -0.55167 -0.54146 254 254 254
0.21936 -0.55778 -0.53523 254 254 254
0.22113 -0.56389 -0.52899 254 254 254
0.22289 -0.57000 -0.52277 254 254 254
0.22466 -0.57610 -0.51655 254 254 254
0.22642 -0.58220 -0.51033 254 254 254
0.22818 -0.58829 -0.50412 254 254 254
0.22995 -0.59437 -0.49791 254 254 254
0.23170 -0.60045 -0.49171 254 254 254
0.23346 -0.60652 -0.48552 254 254 254
0.23522 -0.61259 -0.47933 254 254 254
0.23697 -0.61866 -0.47315 254 254 254
0.23873 -0.62472 -0.46697 254 254 254
0.24048 -0.63077 -0.46079 254 254 254
0.24223 -0.63682 -0.45462 254 254 254
0.24398 -0.64286 -0.44846 254 254 254
0.24573 -0.64890 -0.44230 254 254 254
0.24747 -0.65493 -0.43615 254 254 254
0.24922 -0.66096 -0.43000 254 254 254
0.25096 -0.66698 -0.42386 254 254 254
0.25270 -0.67300 -0.41772 254 254 254
0.25444 -0.67902 -0.41159 254 254 254
0.25618 -0.68502 -0.40547 254 254 254
0.25792 -0.69103 -0.39934 254 254 254
0.25965 -0.69702 -0.39323 254 254 254
0.26139 -0.70302 -0.38712 254 254 254
0.26312 -0.70900 -0.38101 254 254 254
0.26485 -0.71499 -0.37491 254 254 254
0.14809 -0.35366 -0.74525 254 254 254
0.14990 -0.35992 -0.73887 254 254 254
0.15172 -0.36618 -0.73248 254 254 254
0.15354 -0.37243 -0.72611 254 254 254
0.15535 -0.37868 -0.71973 254 254 254
0.15716 -0.38492 -0.71337 254 254 254
0.15897 -0.39116 -0.70701 254 254 254
0.16078 -0.39739 -0.70065 254 254 254
0.16259 -0.40361 -0.69430 254 254 254
0.16439 -0.40983 -0.68796 254 254 254
0.16619 -0.41605 -0.68162 254 254 254
0.16800 -0.42226 -0.67529 254 254 254
0.16980 -0.42846 -0.66896 254 254 254
0.17160 -0.43466 -0.66264 254 254 254
0.17339 -0.44085 -0.65632 254 254 254
0.17519 -0.44704 -0.65001 254 254 254
0.17698 -0.45323 -0.64370 254 254 254
0.17878 -0.45940 -0.63740 254 254 254
0.18057 -0.46558 -0.63111 254 254 254
0.18236 -0.47174 -0.62482 254 254 254
0.19485 -0.51476 -0.58094 254 254 254
0.19662 -0.52089 -0.57469 254 254 254
0.19840 -0.52701 -0.56845 254 254 254
0.20017 -0.53312 -0.56221 254 254 254
0.20195 -0.53923 -0.55598 254 254 254
0.20372 -0.54533 -0.54976 254 254 254
0.20549 -0.55143 -0.54354 254 254 254
0.20726 -0.55753 -0.53732 254 254 254
0.20902 -0.56361 -0.53111 254 254 254
0.21079 -0.56970 -0.52491 254 254 254
0.21255 -0.57578 -0.51871 254 254 254
0.21432 -0.58185 -0.51251 254 254 254
0.21608 -0.58792 -0.50633 254 254 254
0.21784 -0.59398 -0.50014 254 254 254
0.21960 -0.60004 -0.49396 254 254 254
0.22135 -0.60609 -0.48779 254 254 254
0.22311 -0.61213 -0.48162 254 254 254
0.22486 -0.61818 -0.47546 254 254 254
0.22661 -0.62421 -0.46931 254 254 254
0.22836 -0.63025 -0.46315 254 254 254
0.23011 -0.63627 -0.45701 254 254 254
0.23186 -0.64229 -0.45087 254 254 254
0.23361 -0.64831 -0.44473 254 254 254
0.23535 -0.65432 -0.43860 254 254 254
0.23709 -0.66033 -0.43247 254 254 254
0.23884 -0.66633 -0.42635 254 254 254
0.24058 -0.67232 -0.42024 254 254 254
0.24232 -0.67831 -0.41413 254 254 254
0.24405 -0.68430 -0.40802 254 254 254
0.24579 -0.69028 -0.40192 254 254 254
0.24752 -0.69626 -0.39583 254 254 254
0.24926 -0.70223 -0.38974 254 254 254
0.25099 -0.70819 -0.38365 254 254 254
0.25272 -0.71415 -0.37757 254 254 254
0.25445 -0.72011 -0.37150 254 254 254
0.13613 -0.35417 -0.74658 254 254 254
0.13794 -0.36041 -0.74022 254 254 254
0.13976 -0.36664 -0.73386 254 254 254
0.14157 -0.37287 -0.72751 254 254 254
0.14338 -0.37909 -0.72116 254 254 254
0.14519 -0.38531 -0.71481 254 254 254
0.14700 -0.39152 -0.70848 254 254 254
0.14881 -0.39773 -0.70215 254 254 254
0.15061 -0.40393 -0.69582 254 254 254
0.15242 -0.41013 -0.68950 254 254 254
0.15422 -0.41632 -0.68318 254 254 254
0.15602 -0.42251 -0.67687 254 254 254
0.15782 -0.42869 -0.67057 254 254 254
0.15962 -0.43486 -0.66427 254 254 254
0.16141 -0.44103 -0.65797 254 254 254
0.16321 -0.44720 -0.65168 254 254 254
0.16500 -0.45336 -0.64540 254 254 254
0.16679 -0.45951 -0.63912 254 254 254
0.16858 -0.46566 -0.63285 254 254 254
0.17037 -0.47181 -0.62658 254 254 254
0.18462 -0.52077 -0.57664 254 254 254
0.18640 -0.52686 -0.57042 254 254 254
0.18817 -0.53296 -0.56421 254 254 254
0.18994 -0.53904 -0.55800 254 254 254
0.19171 -0.54512 -0.55179 254 254 254
0.19348 -0.55120 -0.54560 254 254 254
0.19525 -0.55727 -0.53940 254 254 254
0.19701 -0.56334 -0.53321 254 254 254
0.19878 -0.56940 -0.52703 254 254 254
0.20054 -0.57545 -0.52086 254 254 254
0.20230 -0.58150 -0.51468 254 254 254
0.20406 -0.58755 -0.50852 254 254 254
0.20582 -0.59359 -0.50236 254 254 254
0.20757 -0.59962 -0.49620 254 254 254
0.20933 -0.60565 -0.49005 254 254 254
