ply
format ascii 1.0
element face 0
property list uchar int vertex_indices
element vertex 1236
property float x
property float y
property float z
property uchar diffuse_red
property uchar diffuse_green
property uchar diffuse_blue
end_header
0.05188 -0.50199 -0.61325 254 254 254
0.05370 -0.50786 -0.60736 254 254 254
0.05552 -0.51372 -0.60148 254 254 254
0.05733 -0.51957 -0.59559 254 254 254
0.05915 -0.52542 -0.58971 254 254 254
0.06096 -0.53127 -0.58384 254 254 254
0.07182 -0.56626 -0.54869 254 254 254
0.07363 -0.57207 -0.54284 254 254 254
0.07543 -0.57788 -0.53700 254 254 254
0.07723 -0.58369 -0.53117 254 254 254
0.07903 -0.58950 -0.52533 254 254 254
0.08083 -0.59530 -0.51951 254 254 254
0.08263 -0.60109 -0.51368 254 254 254
0.08443 -0.60688 -0.50786 254 254 254
0.08623 -0.61267 -0.50205 254 254 254
0.08802 -0.61846 -0.49624 254 254 254
0.08981 -0.62423 -0.49043 254 254 254
0.09161 -0.63001 -0.48463 254 254 254
0.09340 -0.63578 -0.47883 254 254 254
0.09519 -0.64155 -0.47304 254 254 254
0.09698 -0.64731 -0.46725 254 254 254
0.09876 -0.65307 -0.46146 254 254 254
0.10055 -0.65882 -0.45568 254 254 254
0.10233 -0.66457 -0.44990 254 254 254
0.10412 -0.67032 -0.44413 254 254 254
0.10590 -0.67606 -0.43836 254 254 254
-0.00677 -0.34855 -0.76919 254 254 254
-0.00492 -0.35450 -0.76320 254 254 254
-0.00307 -0.36045 -0.75722 254 254 254
-0.00122 -0.36640 -0.75125 254 254 254
0.01720 -0.42561 -0.69175 254 254 254
0.01903 -0.43151 -0.68583 254 254 254
0.02086 -0.43740 -0.67990 254 254 254
0.02269 -0.44329 -0.67399 254 254 254
0.02452 -0.44917 -0.66807 254 254 254
0.02635 -0.45505 -0.66216 254 254 254
0.02818 -0.46093 -0.65626 254 254 254
0.03001 -0.46680 -0.65036 254 254 254
0.03183 -0.47267 -0.64446 254 254 254
0.03365 -0.47853 -0.63857 254 254 254
0.03548 -0.48439 -0.63268 254 254 254
0.03730 -0.49025 -0.62680 254 254 254
0.03912 -0.49610 -0.62092 254 254 254
0.04094 -0.50194 -0.61504 254 254 254
0.04275 -0.50779 -0.60917 254 254 254
0.04457 -0.51362 -0.60331 254 254 254
0.04638 -0.51946 -0.59744 254 254 254
0.04820 -0.52529 -0.59159 254 254 254
0.05001 -0.53111 -0.58573 254 254 254
0.05182 -0.53694 -0.57988 254 254 254
0.05363 -0.54275 -0.57404 254 254 254
0.06085 -0.56598 -0.55070 254 254 254
0.06265 -0.57178 -0.54487 254 254 254
0.06446 -0.57757 -0.53905 254 254 254
0.06626 -0.58336 -0.53323 254 254 254
0.06805 -0.58914 -0.52742 254 254 254
0.06985 -0.59492 -0.52161 254 254 254
0.07165 -0.60070 -0.51581 254 254 254
0.07344 -0.60647 -0.51001 254 254 254
0.07524 -0.61223 -0.50422 254 254 254
0.07703 -0.61800 -0.49842 254 254 254
0.07882 -0.62376 -0.49264 254 254 254
0.08061 -0.62951 -0.48685 254 254 254
0.08240 -0.63526 -0.48108 254 254 254
0.08419 -0.64101 -0.47530 254 254 254
0.08597 -0.64675 -0.46953 254 254 254
0.08776 -0.65249 -0.46376 254 254 254
0.08954 -0.65822 -0.45800 254 254 254
0.09132 -0.66396 -0.45224 254 254 254
0.09310 -0.66968 -0.44649 254 254 254
0.09488 -0.67540 -0.44074 254 254 254
-0.01572 -0.35498 -0.76447 254 254 254
-0.01387 -0.36090 -0.75852 254 254 254
-0.01203 -0.36683 -0.75256 254 254 254
0.00269 -0.41406 -0.70509 254 254 254
0.00453 -0.41995 -0.69918 254 254 254
0.00636 -0.42583 -0.69327 254 254 254
0.00819 -0.43170 -0.68736 254 254 254
0.01002 -0.43758 -0.68146 254 254 254
0.01185 -0.44344 -0.67556 254 254 254
0.01368 -0.44931 -0.66967 254 254 254
0.01551 -0.45517 -0.66378 254 254 254
0.01733 -0.46102 -0.65790 254 254 254
0.01915 -0.46687 -0.65202 254 254 254
0.02098 -0.47272 -0.64614 254 254 254
0.02280 -0.47856 -0.64027 254 254 254
0.02462 -0.48440 -0.63440 254 254 254
0.02644 -0.49024 -0.62854 254 254 254
0.02825 -0.49607 -0.62268 254 254 254
0.03007 -0.50189 -0.61682 254 254 254
0.03188 -0.50772 -0.61097 254 254 254
0.03370 -0.51353 -0.60512 254 254 254
0.03551 -0.51935 -0.59928 254 254 254
0.03732 -0.52516 -0.59344 254 254 254
0.03913 -0.53096 -0.58761 254 254 254
0.04094 -0.53676 -0.58178 254 254 254
0.04274 -0.54256 -0.57595 254 254 254
0.04455 -0.54835 -0.57013 254 254 254
0.04635 -0.55414 -0.56431 254 254 254
0.04816 -0.55993 -0.55850 254 254 254
0.04996 -0.56571 -0.55269 254 254 254
0.05176 -0.57148 -0.54689 254 254 254
0.05356 -0.57725 -0.54109 254 254 254
0.05535 -0.58302 -0.53529 254 254 254
0.05715 -0.58879 -0.52950 254 254 254
0.05895 -0.59455 -0.52371 254 254 254
0.06074 -0.60030 -0.51792 254 254 254
0.06253 -0.60605 -0.51214 254 254 254
0.06432 -0.61180 -0.50637 254 254 254
0.06611 -0.61754 -0.50060 254 254 254
0.06790 -0.62328 -0.49483 254 254 254
0.06969 -0.62902 -0.48906 254 254 254
0.07148 -0.63475 -0.48331 254 254 254
0.07326 -0.64048 -0.47755 254 254 254
0.07504 -0.64620 -0.47180 254 254 254
0.07683 -0.65192 -0.46605 254 254 254
0.07861 -0.65763 -0.46031 254 254 254
0.08039 -0.66334 -0.45457 254 254 254
0.08217 -0.66905 -0.44883 254 254 254
-0.02460 -0.36135 -0.75980 254 254 254
-0.02276 -0.36725 -0.75386 254 254 254
-0.02092 -0.37315 -0.74794 254 254 254
-0.01173 -0.40258 -0.71836 254 254 254
-0.00989 -0.40845 -0.71246 254 254 254
-0.00806 -0.41432 -0.70656 254 254 254
-0.00623 -0.42018 -0.70066 254 254 254
-0.00440 -0.42604 -0.69477 254 254 254
-0.00257 -0.43190 -0.68889 254 254 254
-0.00074 -0.43775 -0.68301 254 254 254
0.00109 -0.44360 -0.67713 254 254 254
0.00291 -0.44944 -0.67126 254 254 254
0.00473 -0.45528 -0.66539 254 254 254
0.00656 -0.46112 -0.65952 254 254 254
0.00838 -0.46695 -0.65366 254 254 254
0.01020 -0.47277 -0.64781 254 254 254
0.01202 -0.47860 -0.64195 254 254 254
0.01383 -0.48441 -0.63611 254 254 254
0.01565 -0.49023 -0.63026 254 254 254
0.01746 -0.49604 -0.62442 254 254 254
0.01928 -0.50184 -0.61859 254 254 254
0.02109 -0.50765 -0.61276 254 254 254
0.02290 -0.51344 -0.60693 254 254 254
0.02471 -0.51924 -0.60111 254 254 254
0.02652 -0.52503 -0.59529 254 254 254
0.02832 -0.53081 -0.58947 254 254 254
0.03013 -0.53659 -0.58366 254 254 254
0.03193 -0.54237 -0.57786 254 254 254
0.03374 -0.54814 -0.57206 254 254 254
0.03554 -0.55391 -0.56626 254 254 254
0.03734 -0.55967 -0.56046 254 254 254
0.03914 -0.56543 -0.55467 254 254 254
0.04094 -0.57119 -0.54889 254 254 254
0.04273 -0.57694 -0.54311 254 254 254
0.04453 -0.58269 -0.53733 254 254 254
0.04632 -0.58843 -0.53156 254 254 254
0.04812 -0.59417 -0.52579 254 254 254
0.04991 -0.59991 -0.52002 254 254 254
0.05170 -0.60564 -0.51426 254 254 254
0.05349 -0.61137 -0.50851 254 254 254
0.05527 -0.61709 -0.50275 254 254 254
0.05706 -0.62281 -0.49700 254 254 254
0.05884 -0.62853 -0.49126 254 254 254
0.06063 -0.63424 -0.48552 254 254 254
0.06241 -0.63994 -0.47978 254 254 254
0.06419 -0.64565 -0.47405 254 254 254
0.06597 -0.65135 -0.46832 254 254 254
0.06775 -0.65704 -0.46260 254 254 254
0.06953 -0.66273 -0.45688 254 254 254
-0.03342 -0.36768 -0.75516 254 254 254
-0.03158 -0.37355 -0.74925 254 254 254
-0.02974 -0.37943 -0.74334 254 254 254
-0.02790 -0.38530 -0.73745 254 254 254
-0.02607 -0.39116 -0.73155 254 254 254
-0.02423 -0.39702 -0.72566 254 254 254
-0.02240 -0.40288 -0.71977 254 254 254
-0.02057 -0.40873 -0.71389 254 254 254
-0.01874 -0.41458 -0.70801 254 254 254
-0.01691 -0.42042 -0.70214 254 254 254
-0.01508 -0.42626 -0.69627 254 254 254
-0.01325 -0.43210 -0.69040 254 254 254
-0.01143 -0.43793 -0.68454 254 254 254
-0.00960 -0.44375 -0.67868 254 254 254
-0.00778 -0.44958 -0.67283 254 254 254
-0.00596 -0.45539 -0.66698 254 254 254
-0.00414 -0.46121 -0.66114 254 254 254
-0.00232 -0.46702 -0.65530 254 254 254
-0.00051 -0.47283 -0.64946 254 254 254
0.00131 -0.47863 -0.64363 254 254 254
0.00313 -0.48443 -0.63780 254 254 254
0.00494 -0.49022 -0.63198 254 254 254
0.00675 -0.49601 -0.62616 254 254 254
0.00856 -0.50179 -0.62034 254 254 254
0.01037 -0.50758 -0.61453 254 254 254
0.01218 -0.51335 -0.60872 254 254 254
0.01399 -0.51913 -0.60292 254 254 254
0.01579 -0.52489 -0.59712 254 254 254
0.01760 -0.53066 -0.59133 254 254 254
0.01940 -0.53642 -0.58553 254 254 254
0.02120 -0.54218 -0.57975 254 254 254
0.02300 -0.54793 -0.57397 254 254 254
0.02480 -0.55368 -0.56819 254 254 254
0.02660 -0.55942 -0.56241 254 254 254
0.02840 -0.56516 -0.55664 254 254 254
0.03019 -0.57090 -0.55088 254 254 254
0.03199 -0.57663 -0.54511 254 254 254
0.03378 -0.58236 -0.53936 254 254 254
0.03557 -0.58808 -0.53360 254 254 254
0.03736 -0.59380 -0.52785 254 254 254
0.03915 -0.59952 -0.52211 254 254 254
0.04094 -0.60523 -0.51637 254 254 254
0.04272 -0.61094 -0.51063 254 254 254
0.04451 -0.61664 -0.50489 254 254 254
0.04629 -0.62234 -0.49917 254 254 254
0.04808 -0.62804 -0.49344 254 254 254
0.04986 -0.63373 -0.48772 254 254 254
0.05164 -0.63942 -0.48200 254 254 254
0.05342 -0.64510 -0.47629 254 254 254
0.05519 -0.65078 -0.47058 254 254 254
0.05697 -0.65646 -0.46487 254 254 254
0.05875 -0.66213 -0.45917 254 254 254
-0.04216 -0.37395 -0.75055 254 254 254
-0.04033 -0.37981 -0.74467 254 254 254
-0.03849 -0.38565 -0.73879 254 254 254
-0.03666 -0.39150 -0.73291 254 254 254
-0.03483 -0.39734 -0.72704 254 254 254
-0.03300 -0.40317 -0.72118 254 254 254
-0.03117 -0.40900 -0.71531 254 254 254
-0.02934 -0.41483 -0.70946 254 254 254
-0.02751 -0.42066 -0.70360 254 254 254
-0.02569 -0.42647 -0.69775 254 254 254
-0.02386 -0.43229 -0.69191 254 254 254
-0.02204 -0.43810 -0.68606 254 254 254
-0.02022 -0.44391 -0.68023 254 254 254
-0.01840 -0.44971 -0.67439 254 254 254
-0.01658 -0.45551 -0.66857 254 254 254
-0.01476 -0.46130 -0.66274 254 254 254
-0.01295 -0.46709 -0.65692 254 254 254
-0.01113 -0.47288 -0.65110 254 254 254
-0.00932 -0.47866 -0.64529 254 254 254
-0.00751 -0.48444 -0.63948 254 254 254
-0.00570 -0.49021 -0.63368 254 254 254
-0.00389 -0.49598 -0.62788 254 254 254
-0.00208 -0.50175 -0.62208 254 254 254
-0.00027 -0.50751 -0.61629 254 254 254
0.00153 -0.51326 -0.61050 254 254 254
0.00334 -0.51902 -0.60472 254 254 254
0.00514 -0.52477 -0.59894 254 254 254
0.00694 -0.53051 -0.59316 254 254 254
0.00874 -0.53625 -0.58739 254 254 254
0.01054 -0.54199 -0.58163 254 254 254
0.01234 -0.54772 -0.57586 254 254 254
0.01414 -0.55345 -0.57010 254 254 254
0.01593 -0.55917 -0.56435 254 254 254
0.01773 -0.56489 -0.55860 254 254 254
0.01952 -0.57061 -0.55285 254 254 254
0.02131 -0.57632 -0.54711 254 254 254
0.02310 -0.58203 -0.54137 254 254 254
0.02489 -0.58774 -0.53563 254 254 254
0.02668 -0.59344 -0.52990 254 254 254
0.02847 -0.59913 -0.52418 254 254 254
0.03025 -0.60483 -0.51845 254 254 254
0.03204 -0.61051 -0.51274 254 254 254
0.03382 -0.61620 -0.50702 254 254 254
0.03560 -0.62188 -0.50131 254 254 254
0.03738 -0.62755 -0.49561 254 254 254
0.03916 -0.63323 -0.48990 254 254 254
0.04094 -0.63890 -0.48420 254 254 254
0.04271 -0.64456 -0.47851 254 254 254
0.04449 -0.65022 -0.47282 254 254 254
0.04626 -0.65588 -0.46713 254 254 254
-0.05084 -0.38018 -0.74598 254 254 254
-0.04901 -0.38601 -0.74012 254 254 254
-0.04718 -0.39183 -0.73427 254 254 254
-0.04535 -0.39765 -0.72842 254 254 254
-0.04352 -0.40347 -0.72257 254 254 254
-0.04169 -0.40928 -0.71673 254 254 254
-0.03987 -0.41509 -0.71089 254 254 254
-0.03805 -0.42089 -0.70506 254 254 254
-0.03622 -0.42669 -0.69923 254 254 254
-0.03440 -0.43248 -0.69340 254 254 254
-0.03258 -0.43827 -0.68758 254 254 254
-0.03076 -0.44406 -0.68176 254 254 254
-0.02895 -0.44984 -0.67595 254 254 254
-0.02713 -0.45562 -0.67014 254 254 254
-0.02531 -0.46139 -0.66433 254 254 254
-0.02350 -0.46716 -0.65853 254 254 254
-0.02169 -0.47293 -0.65273 254 254 254
-0.01988 -0.47869 -0.64694 254 254 254
-0.01807 -0.48445 -0.64115 254 254 254
-0.01626 -0.49020 -0.63537 254 254 254
-0.01445 -0.49595 -0.62959 254 254 254
-0.01265 -0.50170 -0.62381 254 254 254
-0.01084 -0.50744 -0.61804 254 254 254
-0.00904 -0.51317 -0.61227 254 254 254
-0.00724 -0.51891 -0.60651 254 254 254
-0.00544 -0.52464 -0.60075 254 254 254
-0.00364 -0.53036 -0.59499 254 254 254
-0.00184 -0.53608 -0.58924 254 254 254
-0.00004 -0.54180 -0.58349 254 254 254
0.00175 -0.54751 -0.57775 254 254 254
0.00355 -0.55322 -0.57201 254 254 254
0.00534 -0.55893 -0.56627 254 254 254
0.00713 -0.56463 -0.56054 254 254 254
0.00892 -0.57033 -0.55481 254 254 254
0.01071 -0.57602 -0.54909 254 254 254
0.01250 -0.58171 -0.54337 254 254 254
0.01429 -0.58739 -0.53765 254 254 254
0.01607 -0.59307 -0.53194 254 254 254
0.01786 -0.59875 -0.52623 254 254 254
0.01964 -0.60442 -0.52053 254 254 254
0.02142 -0.61009 -0.51483 254 254 254
0.02320 -0.61576 -0.50913 254 254 254
0.02498 -0.62142 -0.50344 254 254 254
0.02676 -0.62707 -0.49776 254 254 254
0.02854 -0.63273 -0.49207 254 254 254
0.03031 -0.63838 -0.48639 254 254 254
0.03209 -0.64402 -0.48072 254 254 254
0.03386 -0.64966 -0.47505 254 254 254
0.03563 -0.65530 -0.46938 254 254 254
-0.05945 -0.38636 -0.74145 254 254 254
-0.05762 -0.39217 -0.73561 254 254 254
-0.05580 -0.39796 -0.72978 254 254 254
-0.05397 -0.40376 -0.72396 254 254 254
-0.05215 -0.40955 -0.71813 254 254 254
-0.05033 -0.41534 -0.71231 254 254 254
-0.04850 -0.42112 -0.70650 254 254 254
-0.04668 -0.42690 -0.70069 254 254 254
-0.04487 -0.43267 -0.69488 254 254 254
-0.04305 -0.43844 -0.68908 254 254 254
-0.04123 -0.44421 -0.68328 254 254 254
-0.03942 -0.44997 -0.67749 254 254 254
-0.03760 -0.45573 -0.67170 254 254 254
-0.03579 -0.46148 -0.66591 254 254 254
-0.03398 -0.46723 -0.66013 254 254 254
-0.03217 -0.47298 -0.65435 254 254 254
-0.03036 -0.47872 -0.64858 254 254 254
-0.02856 -0.48446 -0.64281 254 254 254
-0.02675 -0.49019 -0.63705 254 254 254
-0.02495 -0.49592 -0.63129 254 254 254
-0.02314 -0.50165 -0.62553 254 254 254
-0.02134 -0.50737 -0.61978 254 254 254
-0.01954 -0.51309 -0.61403 254 254 254
-0.01774 -0.51880 -0.60828 254 254 254
-0.01594 -0.52451 -0.60254 254 254 254
-0.01414 -0.53022 -0.59680 254 254 254
-0.01235 -0.53592 -0.59107 254 254 254
-0.01055 -0.54161 -0.58534 254 254 254
-0.00876 -0.54731 -0.57962 254 254 254
-0.00697 -0.55300 -0.57390 254 254 254
-0.00518 -0.55868 -0.56818 254 254 254
-0.00339 -0.56436 -0.56247 254 254 254
-0.00160 -0.57004 -0.55676 254 254 254
0.00018 -0.57571 -0.55105 254 254 254
0.00197 -0.58138 -0.54535 254 254 254
0.00375 -0.58705 -0.53966 254 254 254
0.00554 -0.59271 -0.53396 254 254 254
0.00732 -0.59837 -0.52828 254 254 254
0.00910 -0.60402 -0.52259 254 254 254
0.01088 -0.60967 -0.51691 254 254 254
0.01266 -0.61532 -0.51123 254 254 254
0.01443 -0.62096 -0.50556 254 254 254
0.01621 -0.62660 -0.49989 254 254 254
0.01798 -0.63223 -0.49423 254 254 254
0.01976 -0.63786 -0.48857 254 254 254
0.02153 -0.64349 -0.48291 254 254 254
0.02330 -0.64911 -0.47726 254 254 254
-0.06800 -0.39250 -0.73695 254 254 254
-0.06617 -0.39827 -0.73114 254 254 254
-0.06435 -0.40405 -0.72533 254 254 254
-0.06253 -0.40982 -0.71953 254 254 254
-0.06071 -0.41559 -0.71373 254 254 254
-0.05889 -0.42135 -0.70793 254 254 254
-0.05707 -0.42711 -0.70214 254 254 254
-0.05526 -0.43286 -0.69636 254 254 254
-0.05344 -0.43861 -0.69057 254 254 254
-0.05163 -0.44436 -0.68480 254 254 254
-0.04982 -0.45010 -0.67902 254 254 254
-0.04801 -0.45584 -0.67325 254 254 254
-0.04620 -0.46157 -0.66748 254 254 254
-0.04439 -0.46730 -0.66172 254 254 254
-0.04258 -0.47303 -0.65596 254 254 254
-0.04078 -0.47875 -0.65021 254 254 254
-0.03897 -0.48447 -0.64446 254 254 254
-0.03717 -0.49018 -0.63871 254 254 254
-0.03537 -0.49589 -0.63297 254 254 254
-0.03356 -0.50160 -0.62723 254 254 254
-0.03177 -0.50730 -0.62150 254 254 254
-0.02997 -0.51300 -0.61577 254 254 254
-0.02817 -0.51869 -0.61004 254 254 254
-0.02637 -0.52438 -0.60432 254 254 254
-0.02458 -0.53007 -0.59860 254 254 254
-0.02279 -0.53575 -0.59289 254 254 254
-0.02100 -0.54143 -0.58718 254 254 254
-0.01920 -0.54710 -0.58148 254 254 254
-0.01742 -0.55277 -0.57577 254 254 254
-0.01563 -0.55844 -0.57008 254 254 254
-0.01384 -0.56410 -0.56438 254 254 254
-0.01205 -0.56976 -0.55869 254 254 254
-0.01027 -0.57541 -0.55301 254 254 254
-0.00849 -0.58106 -0.54732 254 254 254
-0.00670 -0.58671 -0.54165 254 254 254
-0.00492 -0.59235 -0.53597 254 254 254
-0.00315 -0.59799 -0.53030 254 254 254
-0.00137 -0.60362 -0.52464 254 254 254
0.00041 -0.60925 -0.51897 254 254 254
0.00219 -0.61488 -0.51332 254 254 254
0.00396 -0.62050 -0.50766 254 254 254
0.00573 -0.62612 -0.50201 254 254 254
0.00751 -0.63174 -0.49637 254 254 254
0.00928 -0.63735 -0.49072 254 254 254
0.01105 -0.64296 -0.48509 254 254 254
-0.07648 -0.39858 -0.73248 254 254 254
-0.07466 -0.40434 -0.72670 254 254 254
-0.07284 -0.41009 -0.72091 254 254 254
-0.07102 -0.41584 -0.71513 254 254 254
-0.06921 -0.42158 -0.70936 254 254 254
-0.06739 -0.42732 -0.70359 254 254 254
-0.06558 -0.43305 -0.69782 254 254 254
-0.06377 -0.43878 -0.69206 254 254 254
-0.06195 -0.44451 -0.68630 254 254 254
-0.06015 -0.45023 -0.68054 254 254 254
-0.05834 -0.45595 -0.67479 254 254 254
-0.05653 -0.46166 -0.66904 254 254 254
-0.05472 -0.46737 -0.66330 254 254 254
-0.05292 -0.47308 -0.65756 254 254 254
-0.05112 -0.47878 -0.65183 254 254 254
-0.04931 -0.48448 -0.64610 254 254 254
-0.04751 -0.49017 -0.64037 254 254 254
-0.04571 -0.49587 -0.63465 254 254 254
-0.04392 -0.50155 -0.62893 254 254 254
-0.04212 -0.50723 -0.62321 254 254 254
-0.04032 -0.51291 -0.61750 254 254 254
-0.03853 -0.51859 -0.61180 254 254 254
-0.03674 -0.52426 -0.60609 254 254 254
-0.03494 -0.52992 -0.60039 254 254 254
-0.03315 -0.53559 -0.59470 254 254 254
-0.03136 -0.54124 -0.58901 254 254 254
-0.02958 -0.54690 -0.58332 254 254 254
-0.02779 -0.55255 -0.57764 254 254 254
-0.02600 -0.55820 -0.57196 254 254 254
-0.02422 -0.56384 -0.56628 254 254 254
-0.02244 -0.56948 -0.56061 254 254 254
-0.02065 -0.57511 -0.55495 254 254 254
-0.01887 -0.58074 -0.54928 254 254 254
-0.01709 -0.58637 -0.54362 254 254 254
-0.01532 -0.59199 -0.53797 254 254 254
-0.01354 -0.59761 -0.53232 254 254 254
-0.01176 -0.60323 -0.52667 254 254 254
-0.00999 -0.60884 -0.52103 254 254 254
-0.00822 -0.61445 -0.51539 254 254 254
-0.00644 -0.62005 -0.50975 254 254 254
-0.00467 -0.62565 -0.50412 254 254 254
-0.00290 -0.63125 -0.49849 254 254 254
-0.00113 -0.63684 -0.49287 254 254 254
0.00063 -0.64243 -0.48725 254 254 254
-0.08489 -0.40462 -0.72805 254 254 254
-0.08308 -0.41035 -0.72229 254 254 254
-0.08126 -0.41608 -0.71653 254 254 254
-0.07945 -0.42180 -0.71077 254 254 254
-0.07764 -0.42752 -0.70502 254 254 254
-0.07583 -0.43324 -0.69927 254 254 254
-0.07402 -0.43895 -0.69353 254 254 254
-0.07221 -0.44466 -0.68779 254 254 254
-0.07040 -0.45036 -0.68205 254 254 254
-0.06860 -0.45606 -0.67632 254 254 254
-0.06679 -0.46175 -0.67059 254 254 254
-0.06499 -0.46744 -0.66487 254 254 254
-0.06319 -0.47313 -0.65915 254 254 254
-0.06139 -0.47881 -0.65343 254 254 254
-0.05959 -0.48449 -0.64772 254 254 254
-0.05779 -0.49017 -0.64201 254 254 254
-0.05599 -0.49584 -0.63631 254 254 254
-0.05420 -0.50150 -0.63061 254 254 254
-0.05240 -0.50717 -0.62491 254 254 254
-0.05061 -0.51283 -0.61922 254 254 254
-0.04882 -0.51848 -0.61353 254 254 254
-0.04703 -0.52413 -0.60785 254 254 254
-0.04524 -0.52978 -0.60217 254 254 254
-0.04345 -0.53542 -0.59649 254 254 254
-0.04166 -0.54106 -0.59082 254 254 254
-0.03988 -0.54670 -0.58515 254 254 254
-0.03809 -0.55233 -0.57949 254 254 254
-0.03631 -0.55796 -0.57383 254 254 254
-0.03453 -0.56358 -0.56817 254 254 254
-0.03275 -0.56920 -0.56252 254 254 254
-0.03097 -0.57482 -0.55687 254 254 254
-0.02919 -0.58043 -0.55123 254 254 254
-0.02741 -0.58604 -0.54559 254 254 254
-0.02564 -0.59164 -0.53995 254 254 254
-0.02386 -0.59724 -0.53432 254 254 254
-0.02209 -0.60284 -0.52869 254 254 254
-0.02032 -0.60843 -0.52306 254 254 254
-0.01855 -0.61402 -0.51744 254 254 254
-0.01678 -0.61960 -0.51182 254 254 254
-0.01501 -0.62518 -0.50621 254 254 254
-0.01324 -0.63076 -0.50060 254 254 254
-0.01147 -0.63633 -0.49500 254 254 254
-0.09325 -0.41062 -0.72365 254 254 254
-0.09143 -0.41633 -0.71791 254 254 254
-0.08962 -0.42203 -0.71218 254 254 254
-0.08781 -0.42773 -0.70644 254 254 254
-0.08601 -0.43342 -0.70072 254 254 254
-0.08420 -0.43912 -0.69499 254 254 254
-0.08239 -0.44480 -0.68927 254 254 254
-0.08059 -0.45049 -0.68355 254 254 254
-0.07879 -0.45616 -0.67784 254 254 254
-0.07698 -0.46184 -0.67213 254 254 254
-0.07518 -0.46751 -0.66643 254 254 254
-0.07338 -0.47318 -0.66073 254 254 254
-0.07159 -0.47884 -0.65503 254 254 254
-0.06979 -0.48450 -0.64934 254 254 254
-0.06799 -0.49016 -0.64365 254 254 254
-0.06620 -0.49581 -0.63796 254 254 254
-0.06441 -0.50146 -0.63228 254 254 254
-0.06262 -0.50710 -0.62660 254 254 254
-0.06082 -0.51274 -0.62093 254 254 254
-0.05904 -0.51838 -0.61526 254 254 254
-0.05725 -0.52401 -0.60960 254 254 254
-0.05546 -0.52964 -0.60393 254 254 254
-0.05367 -0.53526 -0.59828 254 254 254
-0.05189 -0.54088 -0.59262 254 254 254
-0.05011 -0.54650 -0.58697 254 254 254
-0.04833 -0.55211 -0.58133 254 254 254
-0.04654 -0.55772 -0.57569 254 254 254
-0.04477 -0.56332 -0.57005 254 254 254
-0.04299 -0.56892 -0.56441 254 254 254
-0.04121 -0.57452 -0.55878 254 254 254
-0.03943 -0.58011 -0.55316 254 254 254
-0.03766 -0.58570 -0.54754 254 254 254
-0.03589 -0.59129 -0.54192 254 254 254
-0.03411 -0.59687 -0.53630 254 254 254
-0.03234 -0.60245 -0.53069 254 254 254
-0.03057 -0.60802 -0.52509 254 254 254
-0.02881 -0.61359 -0.51948 254 254 254
-0.02704 -0.61916 -0.51388 254 254 254
-0.02527 -0.62472 -0.50829 254 254 254
-0.02351 -0.63028 -0.50270 254 254 254
-0.10154 -0.41657 -0.71929 254 254 254
-0.09973 -0.42225 -0.71357 254 254 254
-0.09792 -0.42793 -0.70786 254 254 254
-0.09612 -0.43361 -0.70215 254 254 254
-0.09431 -0.43928 -0.69644 254 254 254
-0.09251 -0.44495 -0.69074 254 254 254
-0.09071 -0.45061 -0.68504 254 254 254
-0.08891 -0.45627 -0.67935 254 254 254
-0.08711 -0.46193 -0.67366 254 254 254
-0.08531 -0.46758 -0.66797 254 254 254
-0.08351 -0.47323 -0.66229 254 254 254
-0.08172 -0.47887 -0.65661 254 254 254
-0.07992 -0.48451 -0.65094 254 254 254
-0.07813 -0.49015 -0.64527 254 254 254
-0.07634 -0.49578 -0.63960 254 254 254
-0.07455 -0.50141 -0.63394 254 254 254
-0.07276 -0.50703 -0.62828 254 254 254
-0.07097 -0.51266 -0.62263 254 254 254
-0.06918 -0.51827 -0.61698 254 254 254
-0.06740 -0.52389 -0.61133 254 254 254
-0.06561 -0.52949 -0.60569 254 254 254
-0.06383 -0.53510 -0.60005 254 254 254
-0.06205 -0.54070 -0.59441 254 254 254
-0.06027 -0.54630 -0.58878 254 254 254
-0.05849 -0.55189 -0.58315 254 254 254
-0.05671 -0.55748 -0.57753 254 254 254
-0.05493 -0.56307 -0.57191 254 254 254
-0.05316 -0.56865 -0.56630 254 254 254
-0.05138 -0.57423 -0.56068 254 254 254
-0.04961 -0.57980 -0.55508 254 254 254
-0.04784 -0.58537 -0.54947 254 254 254
-0.04607 -0.59094 -0.54387 254 254 254
-0.04430 -0.59650 -0.53828 254 254 254
-0.04253 -0.60206 -0.53268 254 254 254
-0.04076 -0.60762 -0.52710 254 254 254
-0.03900 -0.61317 -0.52151 254 254 254
-0.03723 -0.61871 -0.51593 254 254 254
-0.03547 -0.62426 -0.51035 254 254 254
-0.03371 -0.62980 -0.50478 254 254 254
-0.10976 -0.42248 -0.71496 254 254 254
-0.10796 -0.42814 -0.70926 254 254 254
-0.10616 -0.43379 -0.70357 254 254 254
-0.10436 -0.43944 -0.69789 254 254 254
-0.10256 -0.44509 -0.69220 254 254 254
-0.10076 -0.45074 -0.68652 254 254 254
-0.09896 -0.45638 -0.68085 254 254 254
-0.09716 -0.46201 -0.67518 254 254 254
-0.09537 -0.46765 -0.66951 254 254 254
-0.09357 -0.47328 -0.66385 254 254 254
-0.09178 -0.47890 -0.65819 254 254 254
-0.08999 -0.48452 -0.65253 254 254 254
-0.08820 -0.49014 -0.64688 254 254 254
-0.08641 -0.49575 -0.64123 254 254 254
-0.08462 -0.50136 -0.63559 254 254 254
-0.08283 -0.50697 -0.62995 254 254 254
-0.08105 -0.51257 -0.62431 254 254 254
-0.07926 -0.51817 -0.61868 254 254 254
-0.07748 -0.52376 -0.61305 254 254 254
-0.07570 -0.52935 -0.60743 254 254 254
-0.07392 -0.53494 -0.60181 254 254 254
-0.07214 -0.54052 -0.59619 254 254 254
-0.07036 -0.54610 -0.59058 254 254 254
-0.06858 -0.55168 -0.58497 254 254 254
-0.06681 -0.55725 -0.57936 254 254 254
-0.06503 -0.56281 -0.57376 254 254 254
-0.06326 -0.56838 -0.56817 254 254 254
-0.06149 -0.57394 -0.56257 254 254 254
-0.05972 -0.57949 -0.55698 254 254 254
-0.05795 -0.58504 -0.55140 254 254 254
-0.05618 -0.59059 -0.54581 254 254 254
-0.05441 -0.59614 -0.54024 254 254 254
-0.05265 -0.60168 -0.53466 254 254 254
-0.05088 -0.60721 -0.52909 254 254 254
-0.04912 -0.61275 -0.52353 254 254 254
-0.04736 -0.61827 -0.51796 254 254 254
-0.04560 -0.62380 -0.51240 254 254 254
-0.11793 -0.42834 -0.71066 254 254 254
-0.11613 -0.43397 -0.70499 254 254 254
-0.11433 -0.43961 -0.69932 254 254 254
-0.11253 -0.44524 -0.69365 254 254 254
-0.11074 -0.45086 -0.68799 254 254 254
-0.10894 -0.45648 -0.68234 254 254 254
-0.10715 -0.46210 -0.67668 254 254 254
-0.10536 -0.46772 -0.67104 254 254 254
-0.10356 -0.47333 -0.66539 254 254 254
-0.10177 -0.47893 -0.65975 254 254 254
-0.09999 -0.48453 -0.65411 254 254 254
-0.09820 -0.49013 -0.64848 254 254 254
-0.09641 -0.49573 -0.64285 254 254 254
-0.09463 -0.50132 -0.63722 254 254 254
-0.09284 -0.50690 -0.63160 254 254 254
-0.09106 -0.51249 -0.62599 254 254 254
-0.08928 -0.51807 -0.62037 254 254 254
-0.08750 -0.52364 -0.61476 254 254 254
-0.08572 -0.52921 -0.60916 254 254 254
-0.08394 -0.53478 -0.60355 254 254 254
-0.08216 -0.54034 -0.59796 254 254 254
-0.08039 -0.54590 -0.59236 254 254 254
-0.07861 -0.55146 -0.58677 254 254 254
-0.07684 -0.55701 -0.58118 254 254 254
-0.07507 -0.56256 -0.57560 254 254 254
-0.07330 -0.56811 -0.57002 254 254 254
-0.07153 -0.57365 -0.56445 254 254 254
-0.06976 -0.57918 -0.55887 254 254 254
-0.06799 -0.58472 -0.55331 254 254 254
-0.06623 -0.59025 -0.54774 254 254 254
-0.06446 -0.59577 -0.54218 254 254 254
-0.06270 -0.60129 -0.53663 254 254 254
-0.06094 -0.60681 -0.53107 254 254 254
-0.05918 -0.61233 -0.52553 254 254 254
-0.05742 -0.61784 -0.51998 254 254 254
-0.12604 -0.43415 -0.70639 254 254 254
-0.12424 -0.43977 -0.70074 254 254 254
-0.12245 -0.44538 -0.69509 254 254 254
-0.12065 -0.45099 -0.68945 254 254 254
-0.11886 -0.45659 -0.68382 254 254 254
-0.11707 -0.46219 -0.67818 254 254 254
-0.11528 -0.46778 -0.67255 254 254 254
-0.11349 -0.47337 -0.66692 254 254 254
-0.11170 -0.47896 -0.66130 254 254 254
-0.10992 -0.48454 -0.65568 254 254 254
-0.10813 -0.49012 -0.65007 254 254 254
-0.10635 -0.49570 -0.64446 254 254 254
-0.10456 -0.50127 -0.63885 254 254 254
-0.10278 -0.50684 -0.63325 254 254 254
-0.10100 -0.51240 -0.62765 254 254 254
-0.09922 -0.51796 -0.62205 254 254 254
-0.09744 -0.52352 -0.61646 254 254 254
-0.09567 -0.52907 -0.61087 254 254 254
-0.09389 -0.53462 -0.60529 254 254 254
-0.09212 -0.54017 -0.59971 254 254 254
-0.09035 -0.54571 -0.59413 254 254 254
-0.08857 -0.55125 -0.58856 254 254 254
-0.08680 -0.55678 -0.58299 254 254 254
-0.08503 -0.56231 -0.57743 254 254 254
-0.08327 -0.56784 -0.57187 254 254 254
-0.08150 -0.57336 -0.56631 254 254 254
-0.07973 -0.57888 -0.56075 254 254 254
-0.07797 -0.58439 -0.55521 254 254 254
-0.07620 -0.58990 -0.54966 254 254 254
-0.07444 -0.59541 -0.54412 254 254 254
-0.07268 -0.60091 -0.53858 254 254 254
-0.07092 -0.60641 -0.53304 254 254 254
-0.06916 -0.61191 -0.52751 254 254 254
-0.06741 -0.61740 -0.52199 254 254 254
-0.13408 -0.43993 -0.70215 254 254 254
-0.13229 -0.44552 -0.69653 254 254 254
-0.13050 -0.45111 -0.69090 254 254 254
-0.12871 -0.45669 -0.68528 254 254 254
-0.12692 -0.46227 -0.67967 254 254 254
-0.12513 -0.46785 -0.67406 254 254 254
-0.12335 -0.47342 -0.66845 254 254 254
-0.12156 -0.47899 -0.66284 254 254 254
-0.11978 -0.48455 -0.65724 254 254 254
-0.11800 -0.49011 -0.65165 254 254 254
-0.11621 -0.49567 -0.64605 254 254 254
-0.11443 -0.50123 -0.64047 254 254 254
-0.11266 -0.50677 -0.63488 254 254 254
-0.11088 -0.51232 -0.62930 254 254 254
-0.10910 -0.51786 -0.62372 254 254 254
-0.10733 -0.52340 -0.61815 254 254 254
-0.10555 -0.52893 -0.61258 254 254 254
-0.10378 -0.53447 -0.60701 254 254 254
-0.10201 -0.53999 -0.60145 254 254 254
-0.10024 -0.54551 -0.59589 254 254 254
-0.09847 -0.55103 -0.59034 254 254 254
-0.09670 -0.55655 -0.58479 254 254 254
-0.09493 -0.56206 -0.57924 254 254 254
-0.09317 -0.56757 -0.57370 254 254 254
-0.09140 -0.57307 -0.56816 254 254 254
-0.08964 -0.57857 -0.56262 254 254 254
-0.08788 -0.58407 -0.55709 254 254 254
-0.08612 -0.58956 -0.55156 254 254 254
-0.08436 -0.59505 -0.54604 254 254 254
-0.08260 -0.60054 -0.54052 254 254 254
-0.08084 -0.60602 -0.53500 254 254 254
-0.07908 -0.61150 -0.52949 254 254 254
-0.14207 -0.44566 -0.69795 254 254 254
-0.14028 -0.45123 -0.69234 254 254 254
-0.13849 -0.45680 -0.68674 254 254 254
-0.13671 -0.46236 -0.68115 254 254 254
-0.13492 -0.46791 -0.67555 254 254 254
-0.13314 -0.47347 -0.66996 254 254 254
-0.13136 -0.47902 -0.66438 254 254 254
-0.12958 -0.48456 -0.65879 254 254 254
-0.12780 -0.49011 -0.65322 254 254 254
-0.12602 -0.49565 -0.64764 254 254 254
-0.12424 -0.50118 -0.64207 254 254 254
-0.12246 -0.50671 -0.63650 254 254 254
-0.12069 -0.51224 -0.63094 254 254 254
-0.11891 -0.51776 -0.62538 254 254 254
-0.11714 -0.52328 -0.61983 254 254 254
-0.11537 -0.52880 -0.61427 254 254 254
-0.11360 -0.53431 -0.60873 254 254 254
-0.11183 -0.53982 -0.60318 254 254 254
-0.11006 -0.54532 -0.59764 254 254 254
-0.10830 -0.55082 -0.59210 254 254 254
-0.10653 -0.55632 -0.58657 254 254 254
-0.10477 -0.56181 -0.58104 254 254 254
-0.10300 -0.56730 -0.57552 254 254 254
-0.10124 -0.57279 -0.57000 254 254 254
-0.09948 -0.57827 -0.56448 254 254 254
-0.09772 -0.58375 -0.55896 254 254 254
-0.09596 -0.58923 -0.55345 254 254 254
-0.09420 -0.59470 -0.54795 254 254 254
-0.09245 -0.60016 -0.54244 254 254 254
-0.09069 -0.60563 -0.53694 254 254 254
-0.08894 -0.61109 -0.53145 254 254 254
-0.15000 -0.45135 -0.69377 254 254 254
-0.14821 -0.45690 -0.68819 254 254 254
-0.14643 -0.46244 -0.68261 254 254 254
-0.14465 -0.46798 -0.67704 254 254 254
-0.14287 -0.47352 -0.67147 254 254 254
-0.14109 -0.47905 -0.66590 254 254 254
-0.13931 -0.48457 -0.66033 254 254 254
-0.13753 -0.49010 -0.65477 254 254 254
-0.13575 -0.49562 -0.64922 254 254 254
-0.13398 -0.50113 -0.64366 254 254 254
-0.13221 -0.50665 -0.63812 254 254 254
-0.13043 -0.51216 -0.63257 254 254 254
-0.12866 -0.51766 -0.62703 254 254 254
-0.12689 -0.52316 -0.62149 254 254 254
-0.12512 -0.52866 -0.61596 254 254 254
-0.12336 -0.53415 -0.61043 254 254 254
-0.12159 -0.53964 -0.60490 254 254 254
-0.11982 -0.54513 -0.59938 254 254 254
-0.11806 -0.55061 -0.59386 254 254 254
-0.11630 -0.55609 -0.58834 254 254 254
-0.11453 -0.56157 -0.58283 254 254 254
-0.11277 -0.56704 -0.57732 254 254 254
-0.11101 -0.57251 -0.57182 254 254 254
-0.10926 -0.57797 -0.56632 254 254 254
-0.10750 -0.58343 -0.56082 254 254 254
-0.10574 -0.58889 -0.55533 254 254 254
-0.10399 -0.59434 -0.54984 254 254 254
-0.10223 -0.59979 -0.54436 254 254 254
-0.10048 -0.60524 -0.53888 254 254 254
-0.15787 -0.45700 -0.68963 254 254 254
-0.15609 -0.46253 -0.68407 254 254 254
-0.15431 -0.46805 -0.67851 254 254 254
-0.15253 -0.47356 -0.67296 254 254 254
-0.15075 -0.47908 -0.66741 254 254 254
-0.14898 -0.48458 -0.66186 254 254 254
-0.14720 -0.49009 -0.65632 254 254 254
-0.14543 -0.49559 -0.65078 254 254 254
-0.14366 -0.50109 -0.64525 254 254 254
-0.14188 -0.50658 -0.63972 254 254 254
-0.14011 -0.51208 -0.63419 254 254 254
-0.13835 -0.51756 -0.62867 254 254 254
-0.13658 -0.52305 -0.62315 254 254 254
-0.13481 -0.52852 -0.61763 254 254 254
-0.13305 -0.53400 -0.61212 254 254 254
-0.13128 -0.53947 -0.60661 254 254 254
-0.12952 -0.54494 -0.60110 254 254 254
-0.12776 -0.55041 -0.59560 254 254 254
-0.12600 -0.55587 -0.59010 254 254 254
-0.12424 -0.56132 -0.58461 254 254 254
-0.12248 -0.56678 -0.57912 254 254 254
-0.12072 -0.57223 -0.57363 254 254 254
-0.11897 -0.57767 -0.56815 254 254 254
-0.11721 -0.58312 -0.56267 254 254 254
-0.11546 -0.58856 -0.55720 254 254 254
-0.11371 -0.59399 -0.55173 254 254 254
-0.11196 -0.59942 -0.54626 254 254 254
-0.16568 -0.46261 -0.68552 254 254 254
-0.16390 -0.46811 -0.67998 254 254 254
-0.16213 -0.47361 -0.67444 254 254 254
-0.16035 -0.47910 -0.66891 254 254 254
-0.15858 -0.48459 -0.66338 254 254 254
-0.15681 -0.49008 -0.65786 254 254 254
-0.15504 -0.49557 -0.65234 254 254 254
-0.15327 -0.50105 -0.64682 254 254 254
-0.15150 -0.50652 -0.64131 254 254 254
-0.14973 -0.51199 -0.63580 254 254 254
-0.14796 -0.51746 -0.63029 254 254 254
-0.14620 -0.52293 -0.62479 254 254 254
-0.14444 -0.52839 -0.61929 254 254 254
-0.14267 -0.53385 -0.61380 254 254 254
-0.14091 -0.53930 -0.60830 254 254 254
-0.13915 -0.54475 -0.60282 254 254 254
-0.13739 -0.55020 -0.59733 254 254 254
-0.13563 -0.55564 -0.59185 254 254 254
-0.13388 -0.56108 -0.58638 254 254 254
-0.13212 -0.56652 -0.58090 254 254 254
-0.13037 -0.57195 -0.57544 254 254 254
-0.12861 -0.57738 -0.56997 254 254 254
-0.12686 -0.58280 -0.56451 254 254 254
-0.12511 -0.58822 -0.55905 254 254 254
-0.12336 -0.59364 -0.55360 254 254 254
-0.12161 -0.59906 -0.54815 254 254 254
-0.17344 -0.46817 -0.68143 254 254 254
-0.17166 -0.47366 -0.67592 254 254 254
-0.16989 -0.47913 -0.67040 254 254 254
-0.16812 -0.48460 -0.66489 254 254 254
-0.16635 -0.49007 -0.65938 254 254 254
-0.16458 -0.49554 -0.65388 254 254 254
-0.16282 -0.50100 -0.64838 254 254 254
-0.16105 -0.50646 -0.64289 254 254 254
-0.15928 -0.51191 -0.63739 254 254 254
-0.15752 -0.51737 -0.63191 254 254 254
-0.15576 -0.52281 -0.62642 254 254 254
-0.15400 -0.52826 -0.62094 254 254 254
-0.15224 -0.53370 -0.61546 254 254 254
-0.15048 -0.53913 -0.60999 254 254 254
-0.14872 -0.54456 -0.60452 254 254 254
-0.14696 -0.54999 -0.59905 254 254 254
-0.14521 -0.55542 -0.59359 254 254 254
-0.14345 -0.56084 -0.58813 254 254 254
-0.14170 -0.56626 -0.58268 254 254 254
-0.13995 -0.57167 -0.57722 254 254 254
-0.13820 -0.57708 -0.57178 254 254 254
-0.13645 -0.58249 -0.56633 254 254 254
-0.13470 -0.58789 -0.56089 254 254 254
-0.13295 -0.59329 -0.55545 254 254 254
-0.18114 -0.47370 -0.67738 254 254 254
-0.17937 -0.47916 -0.67188 254 254 254
-0.17760 -0.48461 -0.66639 254 254 254
-0.17583 -0.49007 -0.66090 254 254 254
-0.17407 -0.49551 -0.65542 254 254 254
-0.17230 -0.50096 -0.64993 254 254 254
-0.17054 -0.50640 -0.64446 254 254 254
-0.16878 -0.51183 -0.63898 254 254 254
-0.16701 -0.51727 -0.63351 254 254 254
-0.16525 -0.52270 -0.62804 254 254 254
-0.16350 -0.52812 -0.62258 254 254 254
-0.16174 -0.53354 -0.61712 254 254 254
-0.15998 -0.53896 -0.61166 254 254 254
-0.15823 -0.54438 -0.60621 254 254 254
-0.15647 -0.54979 -0.60076 254 254 254
-0.15472 -0.55520 -0.59532 254 254 254
-0.15297 -0.56060 -0.58987 254 254 254
-0.15122 -0.56600 -0.58444 254 254 254
-0.14947 -0.57140 -0.57900 254 254 254
-0.14772 -0.57679 -0.57357 254 254 254
-0.14597 -0.58218 -0.56814 254 254 254
-0.14423 -0.58757 -0.56272 254 254 254
-0.14248 -0.59295 -0.55730 254 254 254
-0.18878 -0.47919 -0.67336 254 254 254
-0.18701 -0.48462 -0.66788 254 254 254
-0.18525 -0.49006 -0.66241 254 254 254
-0.18349 -0.49549 -0.65694 254 254 254
-0.18172 -0.50091 -0.65148 254 254 254
-0.17996 -0.50634 -0.64602 254 254 254
-0.17820 -0.51176 -0.64056 254 254 254
-0.17645 -0.51717 -0.63510 254 254 254
-0.17469 -0.52258 -0.62965 254 254 254
-0.17293 -0.52799 -0.62421 254 254 254
-0.17118 -0.53340 -0.61877 254 254 254
-0.16942 -0.53880 -0.61333 254 254 254
-0.16767 -0.54419 -0.60789 254 254 254
-0.16592 -0.54959 -0.60246 254 254 254
-0.16417 -0.55498 -0.59703 254 254 254
-0.16242 -0.56036 -0.59161 254 254 254
-0.16067 -0.56575 -0.58619 254 254 254
-0.15893 -0.57113 -0.58077 254 254 254
-0.15718 -0.57650 -0.57535 254 254 254
-0.15544 -0.58187 -0.56994 254 254 254
-0.15369 -0.58724 -0.56454 254 254 254
-0.19637 -0.48463 -0.66936 254 254 254
-0.19461 -0.49005 -0.66391 254 254 254
-0.19285 -0.49546 -0.65846 254 254 254
-0.19109 -0.50087 -0.65301 254 254 254
-0.18933 -0.50628 -0.64756 254 254 254
-0.18757 -0.51168 -0.64212 254 254 254
-0.18582 -0.51707 -0.63669 254 254 254
-0.18406 -0.52247 -0.63126 254 254 254
-0.18231 -0.52786 -0.62583 254 254 254
-0.18056 -0.53325 -0.62040 254 254 254
-0.17880 -0.53863 -0.61498 254 254 254
-0.17705 -0.54401 -0.60956 254 254 254
-0.17531 -0.54939 -0.60415 254 254 254
-0.17356 -0.55476 -0.59873 254 254 254
-0.17181 -0.56013 -0.59333 254 254 254
-0.17007 -0.56549 -0.58792 254 254 254
-0.16832 -0.57085 -0.58252 254 254 254
-0.16658 -0.57621 -0.57713 254 254 254
-0.16484 -0.58157 -0.57173 254 254 254
-0.20390 -0.49004 -0.66539 254 254 254
-0.20214 -0.49544 -0.65996 254 254 254
-0.20039 -0.50083 -0.65453 254 254 254
-0.19863 -0.50622 -0.64910 254 254 254
-0.19688 -0.51160 -0.64368 254 254 254
-0.19513 -0.51698 -0.63826 254 254 254
-0.19337 -0.52236 -0.63285 254 254 254
-0.19162 -0.52773 -0.62743 254 254 254
-0.18987 -0.53310 -0.62203 254 254 254
-0.18812 -0.53846 -0.61662 254 254 254
-0.18638 -0.54383 -0.61122 254 254 254
-0.18463 -0.54919 -0.60582 254 254 254
-0.18289 -0.55454 -0.60043 254 254 254
-0.18114 -0.55989 -0.59504 254 254 254
-0.17940 -0.56524 -0.58965 254 254 254
-0.17766 -0.57059 -0.58427 254 254 254
-0.17592 -0.57593 -0.57889 254 254 254
-0.17418 -0.58126 -0.57351 254 254 254
-0.21138 -0.49541 -0.66146 254 254 254
-0.20963 -0.50078 -0.65604 254 254 254
-0.20788 -0.50615 -0.65063 254 254 254
-0.20612 -0.51152 -0.64523 254 254 254
-0.20437 -0.51688 -0.63982 254 254 254
-0.20262 -0.52224 -0.63443 254 254 254
-0.20088 -0.52760 -0.62903 254 254 254
-0.19913 -0.53295 -0.62364 254 254 254
-0.19738 -0.53830 -0.61825 254 254 254
-0.19564 -0.54365 -0.61287 254 254 254
-0.19389 -0.54899 -0.60749 254 254 254
-0.19215 -0.55432 -0.60211 254 254 254
-0.19041 -0.55966 -0.59674 254 254 254
-0.18867 -0.56499 -0.59137 254 254 254
-0.18693 -0.57032 -0.58600 254 254 254
-0.18519 -0.57564 -0.58064 254 254 254
-0.21881 -0.50074 -0.65754 254 254 254
-0.21706 -0.50610 -0.65215 254 254 254
-0.21531 -0.51144 -0.64676 254 254 254
-0.21356 -0.51679 -0.64138 254 254 254
-0.21182 -0.52213 -0.63600 254 254 254
-0.21007 -0.52747 -0.63062 254 254 254
-0.20833 -0.53281 -0.62524 254 254 254
-0.20658 -0.53814 -0.61987 254 254 254
-0.20484 -0.54346 -0.61450 254 254 254
-0.20310 -0.54879 -0.60914 254 254 254
-0.20136 -0.55411 -0.60378 254 254 254
-0.19962 -0.55943 -0.59842 254 254 254
-0.19788 -0.56474 -0.59307 254 254 254
-0.19615 -0.57005 -0.58772 254 254 254
-0.19441 -0.57536 -0.58237 254 254 254
-0.22619 -0.50604 -0.65366 254 254 254
-0.22444 -0.51137 -0.64829 254 254 254
-0.22269 -0.51670 -0.64292 254 254 254
-0.22095 -0.52202 -0.63756 254 254 254
-0.21921 -0.52734 -0.63219 254 254 254
-0.21746 -0.53266 -0.62684 254 254 254
-0.21572 -0.53797 -0.62148 254 254 254
-0.21398 -0.54329 -0.61613 254 254 254
-0.21225 -0.54859 -0.61078 254 254 254
-0.21051 -0.55390 -0.60544 254 254 254
-0.20877 -0.55920 -0.60010 254 254 254
-0.20704 -0.56449 -0.59476 254 254 254
-0.20530 -0.56979 -0.58943 254 254 254
-0.23351 -0.51129 -0.64981 254 254 254
-0.23177 -0.51660 -0.64445 254 254 254
-0.23002 -0.52191 -0.63911 254 254 254
-0.22828 -0.52722 -0.63376 254 254 254
-0.22654 -0.53252 -0.62842 254 254 254
-0.22481 -0.53781 -0.62308 254 254 254
-0.22307 -0.54311 -0.61775 254 254 254
-0.22133 -0.54840 -0.61242 254 254 254
-0.21960 -0.55369 -0.60709 254 254 254
-0.21786 -0.55897 -0.60177 254 254 254
-0.21613 -0.56425 -0.59645 254 254 254
-0.24078 -0.51651 -0.64598 254 254 254
-0.23904 -0.52180 -0.64065 254 254 254
-0.23730 -0.52709 -0.63532 254 254 254
-0.23557 -0.53237 -0.62999 254 254 254
-0.23383 -0.53765 -0.62467 254 254 254
-0.23210 -0.54293 -0.61935 254 254 254
-0.23036 -0.54820 -0.61404 254 254 254
-0.22863 -0.55347 -0.60873 254 254 254
-0.22690 -0.55874 -0.60342 254 254 254
-0.22517 -0.56401 -0.59812 254 254 254
-0.24800 -0.52169 -0.64218 254 254 254
-0.24626 -0.52696 -0.63686 254 254 254
-0.24453 -0.53223 -0.63156 254 254 254
-0.24280 -0.53749 -0.62625 254 254 254
-0.24107 -0.54275 -0.62095 254 254 254
-0.23933 -0.54801 -0.61565 254 254 254
-0.23761 -0.55327 -0.61036 254 254 254
-0.23588 -0.55852 -0.60507 254 254 254
-0.25517 -0.52684 -0.63840 254 254 254
-0.25344 -0.53209 -0.63311 254 254 254
-0.25171 -0.53734 -0.62782 254 254 254
-0.24998 -0.54258 -0.62254 254 254 254
-0.24825 -0.54782 -0.61725 254 254 254
-0.24652 -0.55306 -0.61198 254 254 254
-0.24480 -0.55829 -0.60670 254 254 254
-0.26229 -0.53195 -0.63465 254 254 254
-0.26056 -0.53718 -0.62938 254 254 254
-0.25883 -0.54241 -0.62411 254 254 254
-0.25711 -0.54763 -0.61885 254 254 254
-0.25538 -0.55285 -0.61358 254 254 254
-0.26936 -0.53702 -0.63093 254 254 254
-0.26764 -0.54223 -0.62568 254 254 254
-0.26591 -0.54744 -0.62043 254 254 254
-0.27638 -0.54206 -0.62723 254 254 254
-0.27466 -0.54725 -0.62200 254 254 254
1.54350 -0.43786 -0.43992 254 254 254
1.52356 -0.45318 -0.42906 254 254 252
1.52601 -0.46138 -0.42147 254 254 252
1.50386 -0.46832 -0.41834 253 252 248
1.50629 -0.47648 -0.41079 253 253 250
1.50871 -0.48464 -0.40324 254 253 254
1.48438 -0.48329 -0.40774 252 249 245
1.48679 -0.49140 -0.40023 253 253 250
1.48920 -0.49951 -0.39272 253 253 254
1.27365 -0.31110 -0.58871 254 254 245
1.27594 -0.31885 -0.58153 253 253 247
1.27823 -0.32661 -0.57436 253 253 246
1.25180 -0.31080 -0.59194 253 254 246
1.25408 -0.31851 -0.58481 254 254 248
1.25635 -0.32622 -0.57767 254 254 250
1.25863 -0.33394 -0.57054 254 254 250
1.26091 -0.34165 -0.56340 254 254 250
1.23247 -0.31817 -0.58804 254 253 246
1.23473 -0.32584 -0.58095 254 254 247
1.23699 -0.33351 -0.57385 254 253 248
1.23925 -0.34118 -0.56676 254 254 250
1.24151 -0.34885 -0.55966 254 254 253
1.24377 -0.35653 -0.55256 254 254 254
1.21783 -0.34072 -0.57008 254 254 252
1.22008 -0.34835 -0.56302 254 254 253
1.22233 -0.35598 -0.55596 254 254 254
1.22458 -0.36361 -0.54890 254 254 254
0.98906 -0.98186 -0.03378 250 249 251
0.99106 -0.98877 -0.02740 251 249 251
0.96922 -0.97137 -0.04576 251 249 251
0.97120 -0.97824 -0.03941 251 249 251
0.94760 -0.95416 -0.06392 250 249 251
0.94957 -0.96098 -0.05761 250 249 251
0.95154 -0.96781 -0.05130 251 249 251
0.95352 -0.97464 -0.04499 251 249 251
0.92620 -0.93712 -0.08190 250 249 251
0.92816 -0.94391 -0.07563 250 249 251
0.93012 -0.95070 -0.06935 250 249 250
0.93208 -0.95749 -0.06307 251 249 251
0.93405 -0.96429 -0.05680 251 249 251
0.90697 -0.92701 -0.09346 250 249 250
0.90892 -0.93376 -0.08722 250 249 249
0.91087 -0.94052 -0.08097 250 249 251
0.91282 -0.94728 -0.07473 250 249 251
0.91477 -0.95404 -0.06848 250 249 251
0.91672 -0.96080 -0.06223 251 249 251
0.88600 -0.91028 -0.11111 250 249 250
0.88794 -0.91700 -0.10490 250 249 250
0.88988 -0.92372 -0.09869 250 249 250
0.89181 -0.93044 -0.09248 250 249 250
0.89375 -0.93717 -0.08626 250 249 250
0.89569 -0.94389 -0.08005 250 249 251
0.89763 -0.95062 -0.07384 250 249 251
0.86524 -0.89372 -0.12858 250 249 250
0.86716 -0.90041 -0.12240 250 249 250
0.86909 -0.90709 -0.11623 250 249 250
0.87102 -0.91378 -0.11005 250 249 250
0.87294 -0.92047 -0.10387 250 249 250
0.87487 -0.92716 -0.09769 250 249 250
0.87680 -0.93385 -0.09150 250 249 250
0.87873 -0.94054 -0.08532 250 249 251
0.88066 -0.94723 -0.07914 250 249 251
0.84468 -0.87733 -0.14588 250 249 250
0.84660 -0.88398 -0.13973 250 249 250
0.84851 -0.89063 -0.13359 250 249 250
0.85043 -0.89728 -0.12744 250 249 250
0.85235 -0.90393 -0.12129 250 249 250
0.85426 -0.91059 -0.11514 250 249 250
0.85618 -0.91724 -0.10899 250 249 250
0.85810 -0.92390 -0.10284 250 249 250
0.86001 -0.93056 -0.09669 250 249 250
0.86193 -0.93722 -0.09054 250 249 250
0.86385 -0.94388 -0.08439 251 249 252
0.82434 -0.86110 -0.16300 250 249 250
0.82624 -0.86771 -0.15689 250 249 250
0.82814 -0.87433 -0.15077 250 249 250
0.83005 -0.88095 -0.14466 250 249 250
0.83195 -0.88757 -0.13854 250 249 250
0.83386 -0.89419 -0.13243 250 249 250
0.83576 -0.90081 -0.12631 250 249 250
0.83767 -0.90743 -0.12019 250 249 250
0.83957 -0.91405 -0.11407 250 249 250
0.84148 -0.92068 -0.10795 250 249 250
0.84339 -0.92730 -0.10183 250 249 250
0.84529 -0.93393 -0.09571 250 249 251
0.80419 -0.84503 -0.17995 250 249 250
0.80608 -0.85161 -0.17387 250 249 250
0.80798 -0.85820 -0.16779 250 249 250
0.80987 -0.86478 -0.16171 250 249 250
0.81176 -0.87136 -0.15562 250 249 250
0.81366 -0.87795 -0.14954 250 249 250
0.81555 -0.88454 -0.14345 250 249 250
0.81745 -0.89112 -0.13737 250 249 250
0.81934 -0.89771 -0.13128 250 249 250
0.82124 -0.90430 -0.12519 250 249 250
0.82313 -0.91089 -0.11910 250 249 250
0.82503 -0.91748 -0.11301 250 249 250
0.82692 -0.92408 -0.10692 250 249 250
0.82882 -0.93067 -0.10083 250 249 251
0.78613 -0.83567 -0.19069 250 249 250
0.78801 -0.84222 -0.18464 250 249 250
0.78989 -0.84877 -0.17858 250 249 250
0.79178 -0.85532 -0.17253 250 249 250
0.79366 -0.86187 -0.16648 250 249 250
0.79554 -0.86842 -0.16043 250 249 250
0.79742 -0.87498 -0.15437 250 249 250
0.79931 -0.88153 -0.14831 250 249 250
0.80119 -0.88809 -0.14226 250 249 250
0.80308 -0.89464 -0.13620 250 249 250
0.80496 -0.90120 -0.13014 250 249 250
0.80685 -0.90776 -0.12408 250 249 250
0.80873 -0.91432 -0.11802 250 249 250
0.81062 -0.92088 -0.11196 250 249 250
0.76637 -0.81989 -0.20734 250 249 251
0.76824 -0.82640 -0.20132 250 249 251
0.77011 -0.83292 -0.19530 250 249 251
0.77198 -0.83943 -0.18928 250 249 251
0.77386 -0.84595 -0.18325 250 249 250
0.77573 -0.85247 -0.17723 250 249 250
0.77760 -0.85899 -0.17121 250 249 250
0.77947 -0.86551 -0.16518 250 249 250
0.78135 -0.87203 -0.15916 250 249 250
0.78322 -0.87856 -0.15313 250 249 250
0.78509 -0.88508 -0.14710 250 249 250
0.78697 -0.89161 -0.14107 250 249 250
0.78884 -0.89813 -0.13504 250 249 250
0.79072 -0.90466 -0.12901 250 249 250
0.79259 -0.91119 -0.12298 250 249 250
0.79447 -0.91772 -0.11695 250 249 250
0.74680 -0.80426 -0.22382 250 249 251
0.74866 -0.81074 -0.21783 250 249 251
0.75052 -0.81722 -0.21184 250 249 251
0.75239 -0.82370 -0.20585 250 249 250
0.75425 -0.83019 -0.19986 250 249 251
0.75611 -0.83668 -0.19387 250 249 251
0.75797 -0.84316 -0.18788 250 249 251
0.75983 -0.84965 -0.18189 250 249 250
0.76169 -0.85614 -0.17589 250 249 251
0.76356 -0.86263 -0.16989 250 249 251
0.76542 -0.86912 -0.16390 250 249 250
0.76728 -0.87561 -0.15790 250 249 250
0.76915 -0.88210 -0.15190 250 249 251
0.77101 -0.88860 -0.14590 250 249 251
0.77287 -0.89509 -0.13990 250 249 251
0.77474 -0.90159 -0.13390 250 249 251
0.77660 -0.90809 -0.12790 250 249 251
0.77847 -0.91459 -0.12189 250 249 251
0.72928 -0.79523 -0.23419 251 249 251
0.73113 -0.80168 -0.22823 251 249 251
0.73298 -0.80813 -0.22227 251 249 251
0.73483 -0.81458 -0.21631 250 249 251
0.73668 -0.82103 -0.21035 250 249 251
0.73853 -0.82749 -0.20439 250 249 251
0.74038 -0.83394 -0.19842 250 249 251
0.74223 -0.84040 -0.19246 250 249 251
0.74409 -0.84686 -0.18650 250 249 251
0.74594 -0.85331 -0.18053 250 249 251
0.74779 -0.85977 -0.17456 250 249 251
0.74964 -0.86623 -0.16859 250 249 251
0.75150 -0.87269 -0.16263 250 249 251
0.75335 -0.87916 -0.15666 250 249 250
0.75520 -0.88562 -0.15068 250 249 251
0.75706 -0.89208 -0.14471 250 249 251
0.75891 -0.89855 -0.13874 250 249 251
0.76077 -0.90501 -0.13277 250 249 251
0.71008 -0.77987 -0.25039 251 249 251
0.71192 -0.78629 -0.24446 251 249 251
0.71376 -0.79270 -0.23853 251 249 251
0.71560 -0.79912 -0.23260 251 249 251
0.71744 -0.80554 -0.22667 251 249 251
0.71928 -0.81196 -0.22074 251 249 251
0.72112 -0.81839 -0.21480 251 249 250
0.72296 -0.82481 -0.20887 250 249 251
0.72481 -0.83123 -0.20293 250 249 251
0.72665 -0.83766 -0.19700 250 249 251
0.72849 -0.84409 -0.19106 250 249 251
0.73033 -0.85051 -0.18512 250 249 251
0.73217 -0.85694 -0.17919 250 249 251
0.73402 -0.86337 -0.17325 250 249 251
0.73586 -0.86980 -0.16731 250 249 251
0.73770 -0.87623 -0.16136 250 249 251
0.73955 -0.88267 -0.15542 250 249 251
0.74139 -0.88910 -0.14948 250 249 251
0.74324 -0.89553 -0.14353 250 249 251
0.74508 -0.90197 -0.13759 250 249 251
0.69107 -0.76466 -0.26643 251 250 251
0.69290 -0.77104 -0.26053 251 250 251
0.69473 -0.77743 -0.25463 251 250 251
0.69656 -0.78382 -0.24873 251 250 251
0.69839 -0.79020 -0.24283 251 249 251
0.70022 -0.79659 -0.23693 251 249 251
0.70205 -0.80298 -0.23102 251 249 251
0.70388 -0.80937 -0.22512 251 249 250
0.70571 -0.81577 -0.21921 251 249 251
0.70754 -0.82216 -0.21331 251 249 251
0.70937 -0.82855 -0.20740 250 249 251
0.71121 -0.83495 -0.20149 250 249 251
0.71304 -0.84134 -0.19559 250 249 251
0.71487 -0.84774 -0.18968 250 249 251
0.71670 -0.85414 -0.18377 250 249 251
0.71854 -0.86054 -0.17785 250 249 251
0.72037 -0.86694 -0.17194 250 249 250
0.72220 -0.87334 -0.16603 250 249 250
0.72404 -0.87974 -0.16011 250 249 250
0.72587 -0.88615 -0.15420 250 249 251
0.72771 -0.89255 -0.14828 250 249 251
0.72954 -0.89895 -0.14237 250 249 251
0.67224 -0.74959 -0.28231 252 250 251
0.67406 -0.75595 -0.27644 252 250 251
0.67588 -0.76230 -0.27057 251 250 251
0.67770 -0.76866 -0.26470 251 250 251
0.67952 -0.77501 -0.25883 251 250 251
0.68134 -0.78137 -0.25296 251 250 251
0.68316 -0.78773 -0.24709 251 250 251
