ply
format ascii 1.0
element face 0
property list uchar int vertex_indices
element vertex 1319
property float x
property float y
property float z
property uchar diffuse_red
property uchar diffuse_green
property uchar diffuse_blue
end_header
0.78989 -0.72410 -0.28521 254 254 254
0.79247 -0.73175 -0.27744 254 254 254
0.79504 -0.73938 -0.26968 254 254 254
0.79761 -0.74701 -0.26192 254 254 254
0.80018 -0.75463 -0.25418 254 254 254
0.80275 -0.76225 -0.24643 254 254 254
0.80531 -0.76985 -0.23870 254 254 254
0.80787 -0.77745 -0.23097 254 254 254
0.81043 -0.78505 -0.22325 254 254 254
0.81299 -0.79263 -0.21554 254 254 254
0.81554 -0.80022 -0.20783 254 254 254
0.81809 -0.80779 -0.20013 254 254 254
0.82064 -0.81535 -0.19243 254 254 254
0.82319 -0.82291 -0.18475 254 254 254
0.82574 -0.83047 -0.17707 254 254 254
0.82828 -0.83801 -0.16940 254 254 254
0.83082 -0.84555 -0.16173 254 254 254
0.83336 -0.85308 -0.15407 254 254 254
0.83589 -0.86061 -0.14642 254 254 254
0.83843 -0.86813 -0.13878 254 254 254
0.84096 -0.87564 -0.13114 254 254 254
0.84349 -0.88315 -0.12351 254 254 254
0.84602 -0.89064 -0.11588 254 254 254
0.84854 -0.89814 -0.10827 254 254 254
0.85106 -0.90562 -0.10066 254 254 254
0.85358 -0.91310 -0.09305 254 254 254
0.85610 -0.92057 -0.08546 254 254 254
0.85862 -0.92804 -0.07787 254 254 254
0.71174 -0.54978 -0.46548 254 254 254
0.71436 -0.55754 -0.45758 254 254 254
0.71699 -0.56530 -0.44969 254 254 254
0.71961 -0.57306 -0.44180 254 254 254
0.72223 -0.58080 -0.43393 254 254 254
0.72484 -0.58854 -0.42606 254 254 254
0.72746 -0.59627 -0.41820 254 254 254
0.73007 -0.60400 -0.41034 254 254 254
0.73268 -0.61171 -0.40249 254 254 254
0.73529 -0.61942 -0.39465 254 254 254
0.73789 -0.62713 -0.38682 254 254 254
0.74049 -0.63482 -0.37899 254 254 254
0.74309 -0.64251 -0.37117 254 254 254
0.74569 -0.65019 -0.36336 254 254 254
0.74829 -0.65787 -0.35556 254 254 254
0.75088 -0.66554 -0.34776 254 254 254
0.75347 -0.67320 -0.33997 254 254 254
0.75606 -0.68085 -0.33218 254 254 254
0.75864 -0.68850 -0.32441 254 254 254
0.76123 -0.69614 -0.31664 254 254 254
0.76381 -0.70377 -0.30888 254 254 254
0.76639 -0.71140 -0.30112 254 254 254
0.76896 -0.71902 -0.29337 254 254 254
0.77154 -0.72663 -0.28563 254 254 254
0.77411 -0.73424 -0.27790 254 254 254
0.77668 -0.74183 -0.27017 254 254 254
0.77925 -0.74943 -0.26245 254 254 254
0.78181 -0.75701 -0.25474 254 254 254
0.78437 -0.76459 -0.24703 254 254 254
0.78693 -0.77216 -0.23933 254 254 254
0.78949 -0.77972 -0.23164 254 254 254
0.79205 -0.78728 -0.22395 254 254 254
0.79460 -0.79483 -0.21627 254 254 254
0.79715 -0.80238 -0.20860 254 254 254
0.79970 -0.80991 -0.20094 254 254 254
0.80225 -0.81745 -0.19328 254 254 254
0.80479 -0.82497 -0.18563 254 254 254
0.80733 -0.83249 -0.17798 254 254 254
0.80987 -0.84000 -0.17034 254 254 254
0.81241 -0.84750 -0.16271 254 254 254
0.81494 -0.85500 -0.15509 254 254 254
0.81748 -0.86249 -0.14747 254 254 254
0.82001 -0.86997 -0.13986 254 254 254
0.82254 -0.87745 -0.13226 254 254 254
0.82506 -0.88492 -0.12466 254 254 254
0.82759 -0.89238 -0.11708 254 254 254
0.83011 -0.89984 -0.10949 254 254 254
0.83263 -0.90729 -0.10192 254 254 254
0.83514 -0.91473 -0.09435 254 254 254
0.83766 -0.92216 -0.08679 254 254 254
0.69627 -0.56086 -0.45719 254 254 254
0.69888 -0.56858 -0.44934 254 254 254
0.70150 -0.57630 -0.44149 254 254 254
0.70412 -0.58401 -0.43365 254 254 254
0.70673 -0.59171 -0.42582 254 254 254
0.70934 -0.59940 -0.41799 254 254 254
0.71195 -0.60709 -0.41017 254 254 254
0.71455 -0.61477 -0.40236 254 254 254
0.71716 -0.62244 -0.39456 254 254 254
0.71976 -0.63011 -0.38676 254 254 254
0.72236 -0.63776 -0.37897 254 254 254
0.72495 -0.64542 -0.37119 254 254 254
0.72755 -0.65306 -0.36341 254 254 254
0.73014 -0.66070 -0.35565 254 254 254
0.73273 -0.66833 -0.34788 254 254 254
0.73531 -0.67596 -0.34013 254 254 254
0.73790 -0.68357 -0.33238 254 254 254
0.74048 -0.69118 -0.32464 254 254 254
0.74306 -0.69879 -0.31691 254 254 254
0.74564 -0.70638 -0.30918 254 254 254
0.74821 -0.71397 -0.30146 254 254 254
0.75078 -0.72156 -0.29375 254 254 254
0.75335 -0.72913 -0.28604 254 254 254
0.75592 -0.73670 -0.27834 254 254 254
0.75849 -0.74426 -0.27065 254 254 254
0.76105 -0.75182 -0.26297 254 254 254
0.76361 -0.75937 -0.25529 254 254 254
0.76617 -0.76691 -0.24762 254 254 254
0.76873 -0.77445 -0.23995 254 254 254
0.77128 -0.78197 -0.23230 254 254 254
0.77383 -0.78950 -0.22465 254 254 254
0.77638 -0.79701 -0.21700 254 254 254
0.77893 -0.80452 -0.20937 254 254 254
0.78148 -0.81202 -0.20174 254 254 254
0.78402 -0.81952 -0.19411 254 254 254
0.78656 -0.82701 -0.18650 254 254 254
0.78910 -0.83449 -0.17889 254 254 254
0.79163 -0.84196 -0.17128 254 254 254
0.79417 -0.84943 -0.16369 254 254 254
0.79670 -0.85689 -0.15610 254 254 254
0.79923 -0.86435 -0.14852 254 254 254
0.80176 -0.87179 -0.14094 254 254 254
0.80428 -0.87923 -0.13337 254 254 254
0.80680 -0.88667 -0.12581 254 254 254
0.80932 -0.89410 -0.11826 254 254 254
0.81184 -0.90152 -0.11071 254 254 254
0.81436 -0.90893 -0.10317 254 254 254
0.81687 -0.91634 -0.09563 254 254 254
0.68095 -0.57183 -0.44899 254 254 254
0.68356 -0.57951 -0.44118 254 254 254
0.68618 -0.58718 -0.43338 254 254 254
0.68878 -0.59485 -0.42558 254 254 254
0.69139 -0.60250 -0.41779 254 254 254
0.69399 -0.61015 -0.41001 254 254 254
0.69660 -0.61779 -0.40224 254 254 254
0.69919 -0.62543 -0.39447 254 254 254
0.70179 -0.63306 -0.38671 254 254 254
0.70439 -0.64068 -0.37895 254 254 254
0.70698 -0.64830 -0.37121 254 254 254
0.70957 -0.65590 -0.36347 254 254 254
0.71216 -0.66351 -0.35573 254 254 254
0.71474 -0.67110 -0.34801 254 254 254
0.71732 -0.67869 -0.34029 254 254 254
0.71990 -0.68627 -0.33258 254 254 254
0.72248 -0.69384 -0.32487 254 254 254
0.72506 -0.70141 -0.31717 254 254 254
0.72763 -0.70897 -0.30948 254 254 254
0.73020 -0.71653 -0.30180 254 254 254
0.73277 -0.72407 -0.29412 254 254 254
0.73534 -0.73161 -0.28645 254 254 254
0.73790 -0.73915 -0.27879 254 254 254
0.74047 -0.74667 -0.27113 254 254 254
0.74302 -0.75419 -0.26348 254 254 254
0.74558 -0.76171 -0.25584 254 254 254
0.74814 -0.76921 -0.24820 254 254 254
0.75069 -0.77671 -0.24057 254 254 254
0.75324 -0.78420 -0.23295 254 254 254
0.75579 -0.79169 -0.22534 254 254 254
0.75834 -0.79917 -0.21773 254 254 254
0.76088 -0.80664 -0.21012 254 254 254
0.76342 -0.81411 -0.20253 254 254 254
0.76596 -0.82157 -0.19494 254 254 254
0.76850 -0.82902 -0.18736 254 254 254
0.77103 -0.83647 -0.17978 254 254 254
0.77356 -0.84391 -0.17222 254 254 254
0.77609 -0.85134 -0.16465 254 254 254
0.77862 -0.85877 -0.15710 254 254 254
0.78115 -0.86619 -0.14955 254 254 254
0.78367 -0.87360 -0.14201 254 254 254
0.78619 -0.88101 -0.13447 254 254 254
0.78871 -0.88841 -0.12695 254 254 254
0.79123 -0.89580 -0.11943 254 254 254
0.79374 -0.90319 -0.11191 254 254 254
0.79625 -0.91057 -0.10440 254 254 254
0.66579 -0.58269 -0.44087 254 254 254
0.66840 -0.59033 -0.43311 254 254 254
0.67100 -0.59795 -0.42535 254 254 254
0.67361 -0.60557 -0.41759 254 254 254
0.67621 -0.61319 -0.40985 254 254 254
0.67880 -0.62079 -0.40211 254 254 254
0.68140 -0.62839 -0.39438 254 254 254
0.68399 -0.63599 -0.38665 254 254 254
0.68658 -0.64357 -0.37893 254 254 254
0.68917 -0.65115 -0.37122 254 254 254
0.69176 -0.65872 -0.36352 254 254 254
0.69434 -0.66629 -0.35582 254 254 254
0.69692 -0.67384 -0.34813 254 254 254
0.69950 -0.68140 -0.34045 254 254 254
0.70208 -0.68894 -0.33277 254 254 254
0.70465 -0.69648 -0.32510 254 254 254
0.70722 -0.70401 -0.31744 254 254 254
0.70979 -0.71154 -0.30978 254 254 254
0.71236 -0.71905 -0.30213 254 254 254
0.71493 -0.72656 -0.29449 254 254 254
0.71749 -0.73407 -0.28686 254 254 254
0.72005 -0.74157 -0.27923 254 254 254
0.72261 -0.74906 -0.27161 254 254 254
0.72516 -0.75654 -0.26399 254 254 254
0.72772 -0.76402 -0.25638 254 254 254
0.73027 -0.77149 -0.24878 254 254 254
0.73282 -0.77896 -0.24119 254 254 254
0.73536 -0.78641 -0.23360 254 254 254
0.73791 -0.79386 -0.22602 254 254 254
0.74045 -0.80131 -0.21844 254 254 254
0.74299 -0.80875 -0.21088 254 254 254
0.74553 -0.81618 -0.20331 254 254 254
0.74806 -0.82360 -0.19576 254 254 254
0.75060 -0.83102 -0.18821 254 254 254
0.75313 -0.83843 -0.18067 254 254 254
0.75566 -0.84584 -0.17314 254 254 254
0.75818 -0.85324 -0.16561 254 254 254
0.76071 -0.86063 -0.15809 254 254 254
0.76323 -0.86801 -0.15058 254 254 254
0.76575 -0.87539 -0.14307 254 254 254
0.76827 -0.88276 -0.13557 254 254 254
0.77078 -0.89013 -0.12807 254 254 254
0.77330 -0.89749 -0.12058 254 254 254
0.77581 -0.90484 -0.11310 254 254 254
0.64818 -0.58585 -0.44057 254 254 254
0.65079 -0.59345 -0.43284 254 254 254
0.65339 -0.60104 -0.42511 254 254 254
0.65599 -0.60862 -0.41740 254 254 254
0.65858 -0.61620 -0.40969 254 254 254
0.66117 -0.62376 -0.40198 254 254 254
0.66377 -0.63133 -0.39429 254 254 254
0.66635 -0.63888 -0.38660 254 254 254
0.66894 -0.64643 -0.37891 254 254 254
0.67153 -0.65398 -0.37124 254 254 254
0.67411 -0.66151 -0.36357 254 254 254
0.67669 -0.66904 -0.35591 254 254 254
0.67926 -0.67656 -0.34825 254 254 254
0.68184 -0.68408 -0.34060 254 254 254
0.68441 -0.69159 -0.33296 254 254 254
0.68698 -0.69909 -0.32533 254 254 254
0.68955 -0.70659 -0.31770 254 254 254
0.69212 -0.71408 -0.31008 254 254 254
0.69468 -0.72156 -0.30247 254 254 254
0.69724 -0.72903 -0.29486 254 254 254
0.69980 -0.73650 -0.28726 254 254 254
0.70236 -0.74397 -0.27966 254 254 254
0.70491 -0.75142 -0.27208 254 254 254
0.70746 -0.75887 -0.26450 254 254 254
0.71001 -0.76631 -0.25692 254 254 254
0.71256 -0.77375 -0.24935 254 254 254
0.71511 -0.78118 -0.24179 254 254 254
0.71765 -0.78860 -0.23424 254 254 254
0.72019 -0.79602 -0.22669 254 254 254
0.72273 -0.80343 -0.21915 254 254 254
0.72527 -0.81083 -0.21162 254 254 254
0.72780 -0.81823 -0.20409 254 254 254
0.73033 -0.82562 -0.19657 254 254 254
0.73286 -0.83300 -0.18906 254 254 254
0.73539 -0.84038 -0.18155 254 254 254
0.73791 -0.84775 -0.17405 254 254 254
0.74044 -0.85511 -0.16656 254 254 254
0.74296 -0.86247 -0.15907 254 254 254
0.74548 -0.86982 -0.15159 254 254 254
0.74799 -0.87717 -0.14412 254 254 254
0.75051 -0.88450 -0.13665 254 254 254
0.75302 -0.89184 -0.12919 254 254 254
0.63334 -0.59653 -0.43257 254 254 254
0.63593 -0.60409 -0.42488 254 254 254
0.63853 -0.61163 -0.41720 254 254 254
0.64112 -0.61918 -0.40953 254 254 254
0.64371 -0.62671 -0.40186 254 254 254
0.64629 -0.63424 -0.39420 254 254 254
0.64888 -0.64176 -0.38654 254 254 254
0.65146 -0.64927 -0.37890 254 254 254
0.65404 -0.65678 -0.37126 254 254 254
0.65662 -0.66428 -0.36362 254 254 254
0.65920 -0.67177 -0.35599 254 254 254
0.66177 -0.67926 -0.34837 254 254 254
0.66434 -0.68674 -0.34076 254 254 254
0.66691 -0.69421 -0.33315 254 254 254
0.66947 -0.70168 -0.32555 254 254 254
0.67204 -0.70914 -0.31796 254 254 254
0.67460 -0.71659 -0.31037 254 254 254
0.67716 -0.72404 -0.30279 254 254 254
0.67972 -0.73148 -0.29522 254 254 254
0.68227 -0.73892 -0.28765 254 254 254
0.68483 -0.74634 -0.28010 254 254 254
0.68738 -0.75376 -0.27254 254 254 254
0.68992 -0.76118 -0.26500 254 254 254
0.69247 -0.76859 -0.25746 254 254 254
0.69501 -0.77599 -0.24992 254 254 254
0.69756 -0.78338 -0.24240 254 254 254
0.70010 -0.79077 -0.23488 254 254 254
0.70263 -0.79815 -0.22736 254 254 254
0.70517 -0.80553 -0.21986 254 254 254
0.70770 -0.81290 -0.21236 254 254 254
0.71023 -0.82026 -0.20486 254 254 254
0.71276 -0.82762 -0.19738 254 254 254
0.71529 -0.83496 -0.18990 254 254 254
0.71781 -0.84231 -0.18242 254 254 254
0.72033 -0.84964 -0.17496 254 254 254
0.72285 -0.85697 -0.16750 254 254 254
0.72537 -0.86430 -0.16004 254 254 254
0.72788 -0.87161 -0.15260 254 254 254
0.73039 -0.87893 -0.14515 254 254 254
0.73291 -0.88623 -0.13772 254 254 254
0.61864 -0.60711 -0.42465 254 254 254
0.62123 -0.61462 -0.41701 254 254 254
0.62381 -0.62213 -0.40937 254 254 254
0.62640 -0.62963 -0.40173 254 254 254
0.62898 -0.63712 -0.39411 254 254 254
0.63156 -0.64460 -0.38649 254 254 254
0.63414 -0.65208 -0.37888 254 254 254
0.63672 -0.65955 -0.37127 254 254 254
0.63929 -0.66702 -0.36367 254 254 254
0.64186 -0.67448 -0.35608 254 254 254
0.64443 -0.68193 -0.34849 254 254 254
0.64700 -0.68937 -0.34091 254 254 254
0.64956 -0.69681 -0.33334 254 254 254
0.65213 -0.70424 -0.32578 254 254 254
0.65469 -0.71167 -0.31822 254 254 254
0.65724 -0.71909 -0.31067 254 254 254
0.65980 -0.72650 -0.30312 254 254 254
0.66235 -0.73391 -0.29558 254 254 254
0.66490 -0.74131 -0.28805 254 254 254
0.66745 -0.74870 -0.28052 254 254 254
0.67000 -0.75609 -0.27300 254 254 254
0.67254 -0.76347 -0.26549 254 254 254
0.67509 -0.77084 -0.25799 254 254 254
0.67763 -0.77821 -0.25049 254 254 254
0.68016 -0.78557 -0.24299 254 254 254
0.68270 -0.79292 -0.23551 254 254 254
0.68523 -0.80027 -0.22803 254 254 254
0.68776 -0.80761 -0.22056 254 254 254
0.69029 -0.81494 -0.21309 254 254 254
0.69282 -0.82227 -0.20563 254 254 254
0.69534 -0.82959 -0.19818 254 254 254
0.69787 -0.83691 -0.19073 254 254 254
0.70039 -0.84422 -0.18329 254 254 254
0.70290 -0.85152 -0.17585 254 254 254
0.70542 -0.85882 -0.16843 254 254 254
0.70793 -0.86611 -0.16101 254 254 254
0.71045 -0.87339 -0.15359 254 254 254
0.71295 -0.88067 -0.14618 254 254 254
0.61698 -0.65487 -0.37886 254 254 254
0.61955 -0.66230 -0.37129 254 254 254
0.62212 -0.66973 -0.36372 254 254 254
0.62469 -0.67716 -0.35616 254 254 254
0.62725 -0.68457 -0.34861 254 254 254
0.62981 -0.69198 -0.34107 254 254 254
0.63237 -0.69939 -0.33353 254 254 254
0.63493 -0.70679 -0.32600 254 254 254
0.63749 -0.71418 -0.31847 254 254 254
0.64004 -0.72156 -0.31095 254 254 254
0.64260 -0.72894 -0.30344 254 254 254
0.64514 -0.73631 -0.29594 254 254 254
0.64769 -0.74368 -0.28844 254 254 254
0.65024 -0.75103 -0.28095 254 254 254
0.65278 -0.75839 -0.27346 254 254 254
0.65532 -0.76573 -0.26598 254 254 254
0.65786 -0.77307 -0.25851 254 254 254
0.66040 -0.78040 -0.25104 254 254 254
0.66293 -0.78773 -0.24359 254 254 254
0.66546 -0.79505 -0.23613 254 254 254
0.66799 -0.80236 -0.22869 254 254 254
0.67052 -0.80967 -0.22125 254 254 254
0.67304 -0.81697 -0.21381 254 254 254
0.67557 -0.82427 -0.20639 254 254 254
0.67809 -0.83156 -0.19897 254 254 254
0.68060 -0.83884 -0.19155 254 254 254
0.68312 -0.84611 -0.18415 254 254 254
0.68564 -0.85338 -0.17674 254 254 254
0.68815 -0.86064 -0.16935 254 254 254
0.69066 -0.86790 -0.16196 254 254 254
0.69316 -0.87515 -0.15458 254 254 254
0.58709 -0.62052 -0.41663 254 254 254
0.60254 -0.66503 -0.37130 254 254 254
0.60510 -0.67242 -0.36377 254 254 254
0.60766 -0.67981 -0.35625 254 254 254
0.61023 -0.68720 -0.34873 254 254 254
0.61278 -0.69457 -0.34122 254 254 254
0.61534 -0.70194 -0.33371 254 254 254
0.61790 -0.70930 -0.32622 254 254 254
0.62045 -0.71666 -0.31873 254 254 254
0.62300 -0.72401 -0.31124 254 254 254
0.62555 -0.73136 -0.30376 254 254 254
0.62809 -0.73869 -0.29629 254 254 254
0.63063 -0.74602 -0.28883 254 254 254
0.63318 -0.75335 -0.28137 254 254 254
0.63571 -0.76067 -0.27391 254 254 254
0.63825 -0.76798 -0.26647 254 254 254
0.64079 -0.77528 -0.25903 254 254 254
0.64332 -0.78258 -0.25160 254 254 254
0.64585 -0.78988 -0.24417 254 254 254
0.64838 -0.79716 -0.23675 254 254 254
0.65090 -0.80444 -0.22934 254 254 254
0.65342 -0.81172 -0.22193 254 254 254
0.65595 -0.81898 -0.21453 254 254 254
0.65846 -0.82624 -0.20714 254 254 254
0.66098 -0.83350 -0.19975 254 254 254
0.66350 -0.84075 -0.19237 254 254 254
0.66601 -0.84799 -0.18499 254 254 254
0.66852 -0.85523 -0.17763 254 254 254
0.67103 -0.86246 -0.17026 254 254 254
0.57026 -0.62343 -0.41644 254 254 254
0.57283 -0.63083 -0.40890 254 254 254
0.58824 -0.67509 -0.36382 254 254 254
0.59080 -0.68245 -0.35633 254 254 254
0.59335 -0.68979 -0.34885 254 254 254
0.59591 -0.69714 -0.34137 254 254 254
0.59846 -0.70447 -0.33390 254 254 254
0.60101 -0.71180 -0.32643 254 254 254
0.60356 -0.71912 -0.31898 254 254 254
0.60610 -0.72644 -0.31152 254 254 254
0.60865 -0.73375 -0.30408 254 254 254
0.61119 -0.74105 -0.29664 254 254 254
0.61373 -0.74835 -0.28921 254 254 254
0.61627 -0.75564 -0.28178 254 254 254
0.61880 -0.76293 -0.27436 254 254 254
0.62133 -0.77020 -0.26695 254 254 254
0.62386 -0.77748 -0.25955 254 254 254
0.62639 -0.78474 -0.25215 254 254 254
0.62892 -0.79200 -0.24475 254 254 254
0.63144 -0.79925 -0.23737 254 254 254
0.63396 -0.80650 -0.22998 254 254 254
0.63648 -0.81374 -0.22261 254 254 254
0.63900 -0.82098 -0.21524 254 254 254
0.64152 -0.82820 -0.20788 254 254 254
0.64403 -0.83543 -0.20053 254 254 254
0.64654 -0.84264 -0.19318 254 254 254
0.64905 -0.84985 -0.18584 254 254 254
0.65156 -0.85705 -0.17850 254 254 254
0.55614 -0.63368 -0.40875 254 254 254
0.55871 -0.64104 -0.40125 254 254 254
0.56128 -0.64839 -0.39376 254 254 254
0.57152 -0.67773 -0.36387 254 254 254
0.57408 -0.68506 -0.35641 254 254 254
0.57663 -0.69237 -0.34896 254 254 254
0.57918 -0.69968 -0.34152 254 254 254
0.58173 -0.70698 -0.33408 254 254 254
0.58427 -0.71428 -0.32665 254 254 254
0.58682 -0.72156 -0.31922 254 254 254
0.58936 -0.72885 -0.31181 254 254 254
0.59190 -0.73612 -0.30439 254 254 254
0.59444 -0.74339 -0.29699 254 254 254
0.59697 -0.75066 -0.28959 254 254 254
0.59951 -0.75791 -0.28220 254 254 254
0.60204 -0.76517 -0.27481 254 254 254
0.60457 -0.77241 -0.26743 254 254 254
0.60709 -0.77965 -0.26006 254 254 254
0.60962 -0.78688 -0.25269 254 254 254
0.61214 -0.79411 -0.24533 254 254 254
0.61466 -0.80133 -0.23797 254 254 254
0.61718 -0.80854 -0.23063 254 254 254
0.61969 -0.81575 -0.22328 254 254 254
0.62221 -0.82295 -0.21595 254 254 254
0.62472 -0.83015 -0.20862 254 254 254
0.62723 -0.83734 -0.20130 254 254 254
0.62973 -0.84452 -0.19398 254 254 254
0.63224 -0.85170 -0.18667 254 254 254
0.54217 -0.64382 -0.40113 254 254 254
0.54473 -0.65114 -0.39368 254 254 254
0.54729 -0.65846 -0.38623 254 254 254
0.54985 -0.66576 -0.37878 254 254 254
0.55240 -0.67306 -0.37135 254 254 254
0.55496 -0.68035 -0.36392 254 254 254
0.55751 -0.68764 -0.35649 254 254 254
0.56006 -0.69492 -0.34908 254 254 254
0.56260 -0.70220 -0.34166 254 254 254
0.56515 -0.70947 -0.33426 254 254 254
0.56769 -0.71673 -0.32686 254 254 254
0.57023 -0.72398 -0.31947 254 254 254
0.57277 -0.73123 -0.31208 254 254 254
0.57530 -0.73848 -0.30470 254 254 254
0.57783 -0.74571 -0.29733 254 254 254
0.58037 -0.75294 -0.28997 254 254 254
0.58289 -0.76017 -0.28261 254 254 254
0.58542 -0.76739 -0.27525 254 254 254
0.58795 -0.77460 -0.26790 254 254 254
0.59047 -0.78180 -0.26056 254 254 254
0.59299 -0.78900 -0.25323 254 254 254
0.59551 -0.79620 -0.24590 254 254 254
0.59802 -0.80338 -0.23858 254 254 254
0.60054 -0.81057 -0.23126 254 254 254
0.60305 -0.81774 -0.22395 254 254 254
0.60556 -0.82491 -0.21665 254 254 254
0.60807 -0.83207 -0.20935 254 254 254
0.61057 -0.83923 -0.20206 254 254 254
0.61307 -0.84638 -0.19478 254 254 254
0.53088 -0.66115 -0.38618 254 254 254
0.53344 -0.66842 -0.37877 254 254 254
0.53599 -0.67569 -0.37136 254 254 254
0.53854 -0.68295 -0.36397 254 254 254
0.54108 -0.69020 -0.35657 254 254 254
0.54363 -0.69745 -0.34919 254 254 254
0.54617 -0.70469 -0.34181 254 254 254
0.54871 -0.71193 -0.33444 254 254 254
0.55125 -0.71916 -0.32707 254 254 254
0.55378 -0.72638 -0.31971 254 254 254
0.55632 -0.73360 -0.31236 254 254 254
0.55885 -0.74081 -0.30501 254 254 254
0.56138 -0.74801 -0.29767 254 254 254
0.56390 -0.75521 -0.29034 254 254 254
0.56643 -0.76240 -0.28301 254 254 254
0.56895 -0.76959 -0.27569 254 254 254
0.57147 -0.77677 -0.26837 254 254 254
0.57399 -0.78394 -0.26106 253 254 253
0.57651 -0.79111 -0.25376 253 254 252
0.57902 -0.79827 -0.24647 254 254 254
0.58153 -0.80542 -0.23917 254 254 254
0.58404 -0.81257 -0.23189 254 254 254
0.58655 -0.81971 -0.22461 254 254 254
0.58906 -0.82685 -0.21734 254 254 254
0.59156 -0.83398 -0.21008 254 254 254
0.59406 -0.84110 -0.20282 254 254 254
0.51717 -0.67106 -0.37875 254 254 254
0.51972 -0.67830 -0.37138 254 254 254
0.52226 -0.68552 -0.36401 254 254 254
0.52480 -0.69275 -0.35665 254 254 254
0.52734 -0.69996 -0.34930 254 254 254
0.52988 -0.70717 -0.34196 254 254 254
0.53242 -0.71437 -0.33462 254 254 254
0.53495 -0.72157 -0.32728 254 254 254
0.53748 -0.72876 -0.31995 254 254 254
0.54001 -0.73594 -0.31263 254 254 254
0.54254 -0.74312 -0.30532 254 254 254
0.54507 -0.75029 -0.29801 254 254 254
0.54759 -0.75745 -0.29071 254 254 254
0.55011 -0.76461 -0.28341 254 254 254
0.55263 -0.77177 -0.27612 254 254 254
0.55514 -0.77891 -0.26884 254 253 253
0.55766 -0.78606 -0.26156 254 251 250
0.56017 -0.79319 -0.25429 252 253 247
0.56268 -0.80032 -0.24703 253 253 252
0.56519 -0.80744 -0.23977 254 254 254
0.56770 -0.81456 -0.23251 254 254 254
0.57020 -0.82167 -0.22527 254 254 254
0.57270 -0.82877 -0.21803 254 254 254
0.48830 -0.63759 -0.41552 254 254 254
0.49085 -0.64482 -0.40815 254 254 254
0.50105 -0.67368 -0.37873 254 254 254
0.50359 -0.68088 -0.37139 254 254 254
0.50613 -0.68808 -0.36406 254 254 254
0.50867 -0.69526 -0.35673 254 254 254
0.51120 -0.70245 -0.34941 254 254 254
0.51374 -0.70962 -0.34210 254 254 254
0.51627 -0.71679 -0.33479 254 254 254
0.51880 -0.72395 -0.32749 254 254 254
0.52133 -0.73111 -0.32019 254 254 254
0.52385 -0.73826 -0.31291 254 254 254
0.52637 -0.74541 -0.30562 254 254 254
0.52890 -0.75255 -0.29835 254 254 254
0.53141 -0.75968 -0.29108 254 254 254
0.53393 -0.76681 -0.28381 254 254 254
0.53645 -0.77393 -0.27655 254 254 254
0.53896 -0.78104 -0.26930 254 254 254
0.54147 -0.78815 -0.26206 254 253 253
0.54398 -0.79526 -0.25482 254 252 250
0.54648 -0.80235 -0.24758 253 253 248
0.54899 -0.80944 -0.24035 254 254 254
0.55149 -0.81653 -0.23313 254 254 254
0.55399 -0.82361 -0.22592 254 254 254
0.47234 -0.64034 -0.41534 254 254 254
0.47489 -0.64754 -0.40800 254 254 254
0.47743 -0.65474 -0.40067 254 254 254
0.47998 -0.66192 -0.39335 254 254 254
0.48252 -0.66910 -0.38603 254 254 254
0.48506 -0.67628 -0.37871 254 254 254
0.48760 -0.68344 -0.37141 254 254 254
0.49014 -0.69060 -0.36411 254 254 254
0.49267 -0.69776 -0.35681 254 254 254
0.49520 -0.70491 -0.34952 254 254 254
0.49773 -0.71205 -0.34224 254 254 254
0.50026 -0.71919 -0.33497 254 254 254
0.50279 -0.72632 -0.32770 254 254 254
0.50531 -0.73345 -0.32043 254 254 254
0.50783 -0.74057 -0.31317 254 254 254
0.51035 -0.74768 -0.30592 254 254 254
0.51287 -0.75479 -0.29868 254 254 254
0.51538 -0.76189 -0.29144 254 254 254
0.51789 -0.76898 -0.28421 254 254 254
0.52040 -0.77607 -0.27698 254 254 254
0.52291 -0.78316 -0.26976 254 254 254
0.52542 -0.79023 -0.26254 254 254 254
0.52792 -0.79730 -0.25534 254 254 254
0.53042 -0.80437 -0.24813 254 254 253
0.53292 -0.81143 -0.24094 254 254 253
0.53542 -0.81848 -0.23375 254 254 254
0.45906 -0.65024 -0.40786 254 254 254
0.46160 -0.65740 -0.40056 254 254 254
0.46414 -0.66456 -0.39327 254 254 254
0.46668 -0.67171 -0.38598 254 254 254
0.46922 -0.67885 -0.37870 254 254 254
0.47175 -0.68598 -0.37142 254 254 254
0.47428 -0.69311 -0.36415 254 254 254
0.47681 -0.70024 -0.35689 254 254 254
0.47934 -0.70735 -0.34963 254 254 254
0.49446 -0.74993 -0.30622 254 254 254
0.49698 -0.75701 -0.29901 254 254 254
0.49949 -0.76408 -0.29180 254 254 254
0.50199 -0.77114 -0.28460 254 254 254
0.50450 -0.77820 -0.27740 254 254 254
0.50700 -0.78525 -0.27021 254 254 254
0.50951 -0.79229 -0.26303 254 254 254
0.51201 -0.79933 -0.25585 254 254 254
0.51450 -0.80637 -0.24868 254 254 254
0.51700 -0.81340 -0.24151 254 254 254
0.44337 -0.65292 -0.40771 254 254 254
0.44591 -0.66005 -0.40045 254 254 254
0.44845 -0.66717 -0.39318 254 254 254
0.45098 -0.67429 -0.38593 254 254 254
0.45351 -0.68140 -0.37868 254 254 254
0.45604 -0.68850 -0.37144 254 254 254
0.45857 -0.69560 -0.36420 254 254 254
0.46109 -0.70269 -0.35697 254 254 254
0.46362 -0.70977 -0.34974 254 254 254
0.48373 -0.76624 -0.29216 254 254 254
0.48623 -0.77328 -0.28499 254 254 254
0.48873 -0.78030 -0.27782 254 254 254
0.49123 -0.78732 -0.27066 254 254 254
0.49373 -0.79434 -0.26351 254 254 254
0.49623 -0.80135 -0.25636 254 254 254
0.49872 -0.80835 -0.24922 254 254 254
0.43035 -0.66267 -0.40034 254 254 254
0.43288 -0.66976 -0.39311 254 254 254
0.43541 -0.67684 -0.38588 254 254 254
0.43794 -0.68392 -0.37866 254 254 254
0.44047 -0.69099 -0.37145 254 254 254
0.44299 -0.69806 -0.36424 254 254 254
0.44551 -0.70512 -0.35704 254 254 254
0.44803 -0.71217 -0.34985 254 254 254
0.47060 -0.77540 -0.28537 254 254 254
0.47310 -0.78239 -0.27824 254 254 254
0.47560 -0.78938 -0.27111 254 254 254
0.47809 -0.79636 -0.26399 254 254 254
0.41746 -0.67233 -0.39303 254 254 254
0.41998 -0.67938 -0.38583 254 254 254
0.42250 -0.68643 -0.37865 254 254 254
0.42502 -0.69347 -0.37146 254 254 254
0.42754 -0.70050 -0.36429 254 254 254
0.43006 -0.70753 -0.35712 254 254 254
0.43257 -0.71455 -0.34996 254 254 254
0.43509 -0.72157 -0.34280 254 254 254
0.45761 -0.78446 -0.27865 254 254 254
0.46010 -0.79142 -0.27155 254 254 254
0.40216 -0.67488 -0.39295 254 254 254
0.40468 -0.68190 -0.38579 254 254 254
0.40720 -0.68891 -0.37863 254 254 254
0.40971 -0.69592 -0.37148 254 254 254
0.41223 -0.70292 -0.36433 254 254 254
0.41474 -0.70992 -0.35719 254 254 254
0.41725 -0.71691 -0.35006 254 254 254
0.41976 -0.72390 -0.34293 254 254 254
0.42227 -0.73088 -0.33581 254 254 254
0.44224 -0.78652 -0.27906 254 254 254
0.38951 -0.68439 -0.38574 254 254 254
0.39202 -0.69137 -0.37861 254 254 254
0.39454 -0.69835 -0.37149 254 254 254
0.39704 -0.70533 -0.36438 254 254 254
0.39955 -0.71229 -0.35727 254 254 254
0.40206 -0.71925 -0.35017 254 254 254
0.40456 -0.72621 -0.34307 254 254 254
0.40706 -0.73316 -0.33598 254 254 254
0.40956 -0.74010 -0.32889 254 254 254
0.37698 -0.69382 -0.37860 254 254 254
0.37948 -0.70076 -0.37151 254 254 254
0.38199 -0.70771 -0.36442 254 254 254
0.38449 -0.71464 -0.35734 254 254 254
0.38699 -0.72157 -0.35027 254 254 254
0.38949 -0.72850 -0.34320 254 254 254
0.39199 -0.73542 -0.33614 254 254 254
0.39449 -0.74233 -0.32909 254 254 254
0.39698 -0.74924 -0.32204 254 254 254
0.39947 -0.75614 -0.31499 254 254 254
0.40196 -0.76304 -0.30796 254 254 254
0.40445 -0.76993 -0.30092 254 254 254
0.40693 -0.77682 -0.29390 254 254 254
0.36456 -0.70316 -0.37152 254 254 254
0.36706 -0.71007 -0.36446 254 254 254
0.36956 -0.71697 -0.35742 254 254 254
0.37206 -0.72387 -0.35037 254 254 254
0.37455 -0.73077 -0.34334 254 254 254
0.37704 -0.73766 -0.33630 254 254 254
0.37954 -0.74454 -0.32928 254 254 254
0.38202 -0.75142 -0.32226 254 254 254
0.38451 -0.75829 -0.31525 254 254 254
0.38700 -0.76516 -0.30824 254 254 254
0.38948 -0.77202 -0.30123 254 254 254
0.35226 -0.71241 -0.36451 254 254 254
0.35475 -0.71928 -0.35749 254 254 254
0.35725 -0.72616 -0.35048 254 254 254
0.35974 -0.73302 -0.34347 254 254 254
0.36222 -0.73988 -0.33647 254 254 254
0.36471 -0.74673 -0.32947 254 254 254
0.36720 -0.75358 -0.32248 254 254 254
0.36968 -0.76043 -0.31549 254 254 254
0.34007 -0.72158 -0.35756 254 254 254
0.34256 -0.72842 -0.35058 254 254 254
0.34504 -0.73525 -0.34360 254 254 254
0.34753 -0.74208 -0.33663 254 254 254
0.35001 -0.74891 -0.32966 254 254 254
0.35249 -0.75573 -0.32270 254 254 254
0.32799 -0.73066 -0.35068 254 254 254
0.33047 -0.73747 -0.34373 254 254 254
0.33295 -0.74427 -0.33678 254 254 254
0.33543 -0.75106 -0.32985 254 254 254
0.31602 -0.73966 -0.34386 254 254 254
0.31850 -0.74643 -0.33694 254 254 254
2.79976 -1.80970 0.36184 106 90 77
2.80856 -1.82271 0.34668 104 88 79
2.81743 -1.83584 0.33139 104 89 82
2.82638 -1.84908 0.31596 104 89 79
2.56916 -1.73675 0.31664 101 84 72
2.59727 -1.75003 0.31493 101 83 71
2.62574 -1.76346 0.31319 98 82 62
2.65456 -1.77707 0.31143 99 83 76
2.80429 -1.84775 0.30229 102 87 72
2.83541 -1.86244 0.30040 104 86 76
2.52112 -1.72264 0.30544 100 86 65
2.54871 -1.73571 0.30367 102 86 69
2.57664 -1.74895 0.30188 101 85 62
2.60492 -1.76236 0.30007 101 86 70
2.63356 -1.77593 0.29823 100 87 69
2.66255 -1.78967 0.29637 100 86 74
2.69192 -1.80359 0.29448 103 86 72
2.72166 -1.81769 0.29258 102 85 70
2.75178 -1.83197 0.29064 105 86 76
2.78230 -1.84643 0.28868 104 85 84
2.81321 -1.86108 0.28670 101 84 77
2.84453 -1.87593 0.28469 103 85 73
2.39454 -1.67100 0.29977 119 83 102
2.47384 -1.70874 0.29443 101 85 61
2.50092 -1.72163 0.29260 103 87 71
2.52833 -1.73468 0.29076 102 86 66
2.55608 -1.74788 0.28889 103 87 67
2.58418 -1.76126 0.28700 101 87 65
2.61263 -1.77479 0.28508 102 87 74
2.64144 -1.78850 0.28314 100 87 74
2.67061 -1.80239 0.28118 100 86 74
2.70015 -1.81645 0.27919 102 87 73
2.73008 -1.83069 0.27717 101 87 72
2.76039 -1.84511 0.27513 102 85 75
2.79109 -1.85973 0.27306 101 84 80
2.82220 -1.87453 0.27097 100 84 74
2.85372 -1.88953 0.26885 100 84 75
2.34945 -1.65787 0.28907 122 85 104
2.37510 -1.67012 0.28727 71 54 74
2.40105 -1.68252 0.28543 80 67 79
2.42731 -1.69507 0.28358 95 83 72
2.45389 -1.70777 0.28171 100 85 80
2.48080 -1.72063 0.27981 104 85 78
2.50804 -1.73365 0.27789 103 85 76
2.53561 -1.74682 0.27595 102 86 79
2.56352 -1.76016 0.27398 102 86 74
2.59179 -1.77366 0.27198 101 86 74
2.62041 -1.78734 0.26997 98 87 78
2.64939 -1.80119 0.26792 98 85 73
2.67874 -1.81521 0.26585 99 86 66
2.70846 -1.82941 0.26376 100 87 79
2.73857 -1.84380 0.26163 99 85 74
2.76907 -1.85838 0.25948 101 84 79
2.79997 -1.87314 0.25730 100 83 82
2.83128 -1.88810 0.25509 98 83 70
2.86300 -1.90326 0.25286 100 83 73
2.30507 -1.64494 0.27855 119 86 117
2.33025 -1.65702 0.27669 66 50 80
2.35573 -1.66925 0.27481 70 59 68
2.46076 -1.71963 0.26707 98 85 76
2.48782 -1.73262 0.26507 100 85 76
2.51521 -1.74576 0.26305 100 85 73
2.54295 -1.75907 0.26101 99 86 71
2.57103 -1.77254 0.25894 102 86 78
2.59946 -1.78618 0.25684 101 85 81
2.62825 -1.79999 0.25472 97 85 76
2.65740 -1.81398 0.25257 99 83 75
2.68693 -1.82815 0.25039 99 82 72
2.71684 -1.84250 0.24819 97 84 74
2.74714 -1.85703 0.24595 98 83 71
2.77783 -1.87176 0.24369 101 82 73
2.80893 -1.88667 0.24140 101 82 76
2.84043 -1.90179 0.23908 102 83 72
2.87236 -1.91711 0.23672 101 84 73
2.26136 -1.63220 0.26818 122 81 101
2.28610 -1.64412 0.26628 64 41 65
2.31112 -1.65617 0.26435 69 51 75
2.44080 -1.71864 0.25437 92 85 67
2.46768 -1.73159 0.25231 98 84 73
2.49490 -1.74470 0.25021 101 83 75
2.52245 -1.75798 0.24809 100 82 71
2.55035 -1.77141 0.24595 99 83 72
2.57859 -1.78502 0.24377 99 84 77
2.60719 -1.79880 0.24157 99 84 76
2.63616 -1.81275 0.23934 98 83 66
2.66549 -1.82688 0.23709 99 81 66
2.69520 -1.84119 0.23480 98 82 73
2.72530 -1.85569 0.23248 95 86 72
2.75579 -1.87038 0.23014 97 83 68
2.78667 -1.88526 0.22776 99 84 63
2.81796 -1.90033 0.22535 101 85 70
2.84967 -1.91561 0.22291 102 85 75
2.88180 -1.93108 0.22044 102 86 78
2.24262 -1.63142 0.25603 79 50 71
2.26719 -1.64330 0.25405 76 49 67
2.44762 -1.73057 0.23959 91 83 64
2.47466 -1.74365 0.23742 98 82 73
2.50204 -1.75689 0.23523 103 81 68
2.52975 -1.77030 0.23300 100 81 61
2.55781 -1.78387 0.23075 98 82 69
2.58623 -1.79761 0.22848 98 81 74
2.61500 -1.81153 0.22617 97 81 70
2.64414 -1.82562 0.22383 95 81 66
2.67365 -1.83990 0.22147 95 81 65
2.70355 -1.85436 0.21907 96 83 72
2.73383 -1.86901 0.21664 96 82 71
2.76451 -1.88384 0.21418 96 80 72
2.79559 -1.89888 0.21169 97 82 70
2.82708 -1.91411 0.20916 99 83 68
2.85900 -1.92955 0.20660 99 82 71
2.89134 -1.94519 0.20401 101 82 74
2.22394 -1.63063 0.24391 74 55 56
2.45451 -1.74260 0.22468 93 82 68
2.48170 -1.75581 0.22241 96 83 78
2.50924 -1.76918 0.22011 97 81 75
2.53711 -1.78272 0.21779 96 81 66
2.56534 -1.79643 0.21543 96 81 73
2.59392 -1.81031 0.21305 97 80 77
2.62287 -1.82437 0.21063 97 80 68
2.65219 -1.83861 0.20819 95 79 68
2.68188 -1.85303 0.20571 95 80 70
2.71196 -1.86764 0.20320 95 81 77
2.74244 -1.88244 0.20066 96 79 72
2.77331 -1.89743 0.19808 97 79 72
2.80459 -1.91262 0.19547 96 80 75
2.83628 -1.92802 0.19283 96 82 68
2.86840 -1.94361 0.19015 97 81 69
2.90096 -1.95942 0.18743 97 80 72
2.46145 -1.75474 0.20964 93 80 75
2.48880 -1.76807 0.20727 95 82 78
2.51650 -1.78158 0.20487 95 80 77
2.54454 -1.79525 0.20244 94 79 71
2.57293 -1.80910 0.19998 94 79 72
2.60169 -1.82312 0.19748 96 79 69
2.63081 -1.83732 0.19496 96 79 66
2.66031 -1.85171 0.19240 99 78 62
2.69019 -1.86628 0.18981 96 79 64
2.72045 -1.88104 0.18719 96 79 68
2.75112 -1.89599 0.18453 97 79 62
2.78219 -1.91114 0.18183 99 79 67
2.81367 -1.92649 0.17911 96 79 69
2.84557 -1.94205 0.17634 95 80 67
2.87790 -1.95781 0.17354 95 80 70
2.91067 -1.97379 0.17070 96 79 74
2.16295 -1.61739 0.22197 90 77 69
2.46845 -1.76697 0.19448 93 81 78
2.49596 -1.78044 0.19201 95 80 76
2.52382 -1.79408 0.18950 95 77 77
2.55203 -1.80789 0.18696 94 76 66
2.58059 -1.82188 0.18439 94 77 61
2.60952 -1.83604 0.18179 95 80 67
2.63882 -1.85039 0.17915 94 78 76
2.66850 -1.86492 0.17648 95 77 62
2.69856 -1.87964 0.17377 94 77 61
2.72902 -1.89455 0.17103 94 79 64
2.75988 -1.90966 0.16826 95 78 65
2.79115 -1.92497 0.16544 95 78 64
2.82283 -1.94049 0.16259 94 77 59
2.85494 -1.95621 0.15970 95 78 62
2.88748 -1.97214 0.15677 96 78 67
2.92047 -1.98829 0.15381 96 78 75
2.14463 -1.61664 0.21006 96 83 73
2.16832 -1.62829 0.20785 95 81 67
2.44817 -1.76587 0.18174 93 81 63
2.47550 -1.77931 0.17919 94 79 70
2.50318 -1.79291 0.17661 97 79 70
2.53120 -1.80669 0.17399 96 78 70
2.55958 -1.82064 0.17135 97 79 65
2.58832 -1.83477 0.16867 95 79 69
2.61742 -1.84908 0.16595 93 79 68
2.64690 -1.86357 0.16320 94 76 71
2.67676 -1.87825 0.16042 93 74 62
2.70702 -1.89312 0.15759 91 73 58
2.73767 -1.90819 0.15473 93 77 60
2.76872 -1.92346 0.15184 93 78 68
2.80019 -1.93893 0.14890 95 77 74
2.83208 -1.95461 0.14593 95 77 62
2.86440 -1.97050 0.14291 94 79 60
2.89715 -1.98660 0.13985 96 79 64
2.93036 -2.00293 0.13676 95 79 68
2.08009 -1.59304 0.20266 92 79 67
2.10310 -1.60440 0.20044 95 83 66
2.12637 -1.61589 0.19819 96 84 67
2.14991 -1.62751 0.19591 96 83 67
2.17373 -1.63927 0.19361 94 80 64
2.40115 -1.75153 0.17164 99 80 61
2.42797 -1.76477 0.16905 96 79 64
2.45513 -1.77818 0.16643 94 79 67
2.48262 -1.79175 0.16377 95 80 70
2.51046 -1.80549 0.16108 93 79 73
2.53865 -1.81941 0.15836 94 79 64
2.56720 -1.83350 0.15560 96 78 50
2.59611 -1.84777 0.15281 93 78 64
2.62539 -1.86223 0.14998 91 78 63
2.65505 -1.87687 0.14711 92 77 64
2.68510 -1.89170 0.14421 91 75 62
2.71554 -1.90673 0.14127 91 74 59
2.74639 -1.92195 0.13829 95 75 61
2.77764 -1.93738 0.13527 93 77 62
2.80931 -1.95302 0.13221 92 78 58
2.84141 -1.96886 0.12911 94 78 59
2.87394 -1.98492 0.12596 94 79 58
2.90692 -2.00120 0.12278 93 79 67
2.06219 -1.59235 0.19096 97 84 75
2.08506 -1.60368 0.18867 96 86 68
2.10818 -1.61514 0.18636 96 85 62
2.13158 -1.62674 0.18402 98 83 64
2.15524 -1.63847 0.18166 98 80 72
2.17918 -1.65033 0.17927 97 79 71
2.20340 -1.66234 0.17685 94 78 68
2.22790 -1.67448 0.17440 91 78 72
2.25270 -1.68677 0.17192 90 79 69
2.27779 -1.69921 0.16941 91 80 66
2.30318 -1.71180 0.16687 93 80 71
2.32888 -1.72453 0.16430 93 80 69
2.35488 -1.73742 0.16170 93 80 67
2.38121 -1.75047 0.15907 95 80 70
2.40786 -1.76368 0.15641 96 81 70
2.43483 -1.77705 0.15371 94 80 75
2.46215 -1.79059 0.15098 92 80 71
2.48980 -1.80430 0.14822 95 77 75
2.51781 -1.81818 0.14542 89 77 77
2.54616 -1.83223 0.14259 91 78 69
2.57488 -1.84647 0.13972 92 78 59
2.60397 -1.86089 0.13681 91 77 62
2.63343 -1.87549 0.13386 89 76 63
2.66328 -1.89028 0.13088 91 76 64
2.69351 -1.90527 0.12786 93 75 64
2.72415 -1.92046 0.12480 93 74 64
2.75519 -1.93584 0.12169 93 76 68
2.78664 -1.95143 0.11855 91 76 71
2.81852 -1.96723 0.11536 92 78 64
2.85083 -1.98325 0.11213 94 80 67
2.88357 -1.99948 0.10886 94 80 63
2.02189 -1.58047 0.18162 97 83 75
2.04435 -1.59165 0.17930 97 83 79
2.06708 -1.60296 0.17695 98 82 83
2.09006 -1.61440 0.17458 96 83 75
2.11331 -1.62597 0.17218 96 83 68
2.13682 -1.63767 0.16975 99 82 69
2.16061 -1.64951 0.16729 100 80 71
2.18468 -1.66149 0.16480 100 79 70
2.20902 -1.67361 0.16229 98 79 70
2.23366 -1.68587 0.15974 95 79 75
2.25859 -1.69828 0.15717 93 79 75
2.28382 -1.71083 0.15456 94 80 73
2.30935 -1.72354 0.15192 95 80 77
2.33519 -1.73640 0.14925 95 79 76
2.36134 -1.74942 0.14655 95 80 70
2.38782 -1.76259 0.14382 94 81 71
2.41462 -1.77593 0.14105 95 80 73
2.44175 -1.78944 0.13825 95 79 75
2.46923 -1.80311 0.13541 93 80 70
2.49704 -1.81696 0.13253 92 78 73
2.52521 -1.83098 0.12962 91 76 77
2.55374 -1.84517 0.12668 93 75 78
2.58263 -1.85955 0.12369 93 75 70
2.61190 -1.87412 0.12067 93 76 62
2.64154 -1.88887 0.11761 93 76 57
2.67157 -1.90382 0.11450 92 77 65
2.70200 -1.91896 0.11136 93 77 70
2.73283 -1.93431 0.10818 91 76 69
2.76407 -1.94985 0.10495 93 77 72
2.79573 -1.96561 0.10168 92 78 71
2.82781 -1.98158 0.09836 91 79 66
2.86033 -1.99776 0.09500 94 79 66
1.98217 -1.56877 0.17242 96 83 69
2.00425 -1.57980 0.17006 97 84 63
2.02658 -1.59096 0.16768 97 85 66
2.04916 -1.60225 0.16527 96 84 73
2.07200 -1.61366 0.16284 99 81 75
2.09510 -1.62520 0.16037 98 81 69
2.11847 -1.63688 0.15788 97 83 67
2.14211 -1.64869 0.15536 97 83 71
2.16602 -1.66064 0.15281 96 82 70
2.19022 -1.67274 0.15023 96 80 69
2.21469 -1.68497 0.14761 96 79 72
2.23946 -1.69735 0.14497 95 79 76
2.26453 -1.70987 0.14230 93 79 78
2.28990 -1.72255 0.13959 92 79 76
2.31557 -1.73538 0.13685 92 78 71
2.34155 -1.74837 0.13408 93 79 69
2.36786 -1.76151 0.13127 94 80 71
2.39448 -1.77482 0.12843 94 81 72
2.42144 -1.78829 0.12556 95 80 71
2.44873 -1.80193 0.12265 96 78 69
2.47636 -1.81574 0.11970 94 79 65
2.50435 -1.82972 0.11671 92 79 68
2.53269 -1.84388 0.11369 90 77 71
2.56138 -1.85823 0.11063 91 74 68
2.59045 -1.87275 0.10753 93 75 70
2.61990 -1.88747 0.10439 94 77 65
2.64973 -1.90237 0.10120 94 77 62
2.67995 -1.91748 0.09798 92 78 67
2.71056 -1.93278 0.09471 92 77 68
2.74159 -1.94828 0.09140 92 75 72
2.77303 -1.96399 0.08805 94 76 75
2.80489 -1.97992 0.08465 92 78 70
2.83719 -1.99606 0.08121 91 77 63
1.94304 -1.55723 0.16335 96 82 62
1.96474 -1.56812 0.16097 98 84 68
1.98668 -1.57914 0.15855 97 84 74
2.00887 -1.59027 0.15611 97 85 67
2.03131 -1.60153 0.15364 96 85 69
2.05401 -1.61292 0.15114 96 84 72
2.07696 -1.62444 0.14861 97 81 72
2.10018 -1.63609 0.14606 96 82 68
2.12367 -1.64788 0.14347 96 83 66
2.14744 -1.65980 0.14085 96 83 67
2.17148 -1.67187 0.13821 94 82 66
2.19580 -1.68407 0.13553 94 81 64
2.22041 -1.69642 0.13282 96 80 68
2.24532 -1.70892 0.13008 95 79 75
2.27052 -1.72156 0.12731 94 79 79
2.29603 -1.73436 0.12450 92 79 76
2.32184 -1.74732 0.12166 93 79 70
2.34797 -1.76043 0.11878 94 79 69
2.37443 -1.77371 0.11587 95 79 73
2.40120 -1.78714 0.11292 94 79 76
2.42832 -1.80075 0.10994 93 78 78
2.45577 -1.81452 0.10692 93 77 75
2.48356 -1.82847 0.10386 92 78 75
2.51171 -1.84260 0.10076 92 78 73
2.54022 -1.85690 0.09762 90 78 74
2.56910 -1.87139 0.09444 90 77 69
2.59834 -1.88607 0.09122 93 78 69
2.62797 -1.90093 0.08796 93 78 68
2.65798 -1.91599 0.08466 92 78 74
2.68839 -1.93125 0.08131 93 78 76
2.71921 -1.94672 0.07792 92 78 69
2.75043 -1.96238 0.07448 91 77 67
2.78207 -1.97826 0.07100 92 75 71
2.81414 -1.99436 0.06747 91 75 69
1.90447 -1.54587 0.15442 95 83 71
1.92580 -1.55662 0.15200 95 83 74
1.94736 -1.56748 0.14955 96 82 71
1.96917 -1.57847 0.14707 97 83 69
1.99122 -1.58958 0.14457 98 84 75
2.01353 -1.60082 0.14204 97 84 71
2.03608 -1.61218 0.13948 96 85 69
2.05889 -1.62368 0.13689 96 82 65
2.08197 -1.63530 0.13427 95 81 70
2.10531 -1.64707 0.13163 96 80 71
2.12892 -1.65896 0.12895 96 81 65
2.15281 -1.67100 0.12624 96 82 60
2.17697 -1.68318 0.12349 96 82 62
2.20143 -1.69550 0.12072 96 80 66
2.22617 -1.70797 0.11791 96 80 70
2.25121 -1.72058 0.11507 97 79 75
2.27656 -1.73335 0.11219 96 78 78
2.30220 -1.74628 0.10928 94 78 76
2.32817 -1.75936 0.10633 93 78 72
2.35445 -1.77260 0.10335 94 77 70
2.38105 -1.78600 0.10033 93 78 70
2.40798 -1.79957 0.09728 93 79 71
2.43525 -1.81331 0.09418 92 78 72
2.46287 -1.82723 0.09105 92 76 77
2.49083 -1.84132 0.08787 93 78 78
2.51914 -1.85558 0.08466 92 78 76
2.54782 -1.87004 0.08141 93 78 76
2.57687 -1.88467 0.07811 93 78 71
2.60630 -1.89950 0.07477 94 79 68
2.63611 -1.91452 0.07139 93 79 65
2.66631 -1.92974 0.06796 92 78 76
2.69692 -1.94516 0.06449 94 76 80
2.72793 -1.96078 0.06097 93 76 74
2.75935 -1.97662 0.05740 91 75 68
2.79120 -1.99266 0.05379 89 74 68
2.82348 -2.00893 0.05012 86 69 64
1.80490 -1.50352 0.15281 98 85 75
1.88742 -1.54527 0.14316 97 82 69
1.90862 -1.55600 0.14068 97 83 69
1.93005 -1.56684 0.13817 98 81 76
1.95172 -1.57781 0.13564 98 81 71
1.97364 -1.58890 0.13308 97 82 65
1.99580 -1.60011 0.13049 97 83 73
2.01822 -1.61145 0.12787 97 83 75
2.04089 -1.62292 0.12522 99 82 70
2.06381 -1.63452 0.12254 98 80 70
2.08701 -1.64626 0.11982 96 80 76
2.11047 -1.65813 0.11708 95 81 74
2.13421 -1.67014 0.11431 95 82 71
2.15822 -1.68228 0.11150 97 82 71
2.18252 -1.69458 0.10866 97 81 70
2.20710 -1.70702 0.10578 95 80 70
2.23198 -1.71960 0.10288 95 80 71
2.25716 -1.73234 0.09993 95 80 74
2.28264 -1.74524 0.09695 95 79 77
2.30844 -1.75829 0.09394 94 78 77
2.33454 -1.77149 0.09088 93 78 73
2.36097 -1.78487 0.08779 92 76 70
2.38773 -1.79840 0.08467 92 78 70
2.41482 -1.81211 0.08150 91 79 71
2.44225 -1.82599 0.07829 93 79 69
2.47002 -1.84004 0.07504 94 79 75
2.49815 -1.85427 0.07176 93 79 80
2.52664 -1.86869 0.06843 91 78 77
2.55549 -1.88328 0.06505 91 78 76
2.58472 -1.89807 0.06163 92 78 72
2.61433 -1.91305 0.05817 95 79 70
2.64433 -1.92823 0.05467 94 78 66
2.67472 -1.94361 0.05111 92 78 73
2.70552 -1.95919 0.04751 92 75 75
2.73672 -1.97498 0.04386 89 74 68
2.76835 -1.99098 0.04017 87 73 62
2.80041 -2.00720 0.03642 84 67 59
2.83291 -2.02364 0.03262 83 62 57
1.82898 -1.52362 0.13693 97 80 72
1.84959 -1.53410 0.13445 97 79 68
1.87043 -1.54468 0.13194 99 82 77
1.89150 -1.55539 0.12940 98 84 70
1.91280 -1.56621 0.12684 98 84 67
1.93434 -1.57715 0.12425 99 83 69
1.95612 -1.58822 0.12163 97 83 68
1.97814 -1.59940 0.11898 98 82 68
2.00042 -1.61072 0.11629 97 81 75
2.02294 -1.62216 0.11358 97 82 77
2.04573 -1.63374 0.11084 96 81 61
2.06877 -1.64545 0.10807 97 79 67
2.09209 -1.65729 0.10526 97 80 71
2.11567 -1.66927 0.10242 97 81 68
2.13953 -1.68140 0.09955 97 82 68
2.16368 -1.69366 0.09664 96 82 70
2.18810 -1.70607 0.09370 96 81 72
2.21282 -1.71863 0.09073 94 80 72
2.23784 -1.73134 0.08772 94 81 70
2.26316 -1.74420 0.08467 94 81 72
2.28878 -1.75722 0.08159 93 79 77
2.31472 -1.77040 0.07846 94 78 75
2.34097 -1.78374 0.07530 95 76 68
2.36755 -1.79724 0.07211 92 76 66
2.39446 -1.81091 0.06887 92 77 65
2.42171 -1.82475 0.06559 92 80 68
2.44930 -1.83877 0.06227 94 80 67
2.47724 -1.85297 0.05890 94 79 70
2.50554 -1.86734 0.05550 92 79 77
2.53420 -1.88190 0.05205 92 79 74
2.56323 -1.89665 0.04855 91 79 74
2.59264 -1.91159 0.04501 91 79 75
2.62243 -1.92673 0.04143 93 79 77
2.65262 -1.94206 0.03779 92 78 68
2.68320 -1.95760 0.03411 90 76 66
2.71419 -1.97334 0.03038 87 73 65
2.74560 -1.98930 0.02660 84 69 62
2.77744 -2.00548 0.02277 82 67 57
2.80971 -2.02187 0.01889 81 64 53
2.84242 -2.03849 0.01495 82 62 53
1.83279 -1.53353 0.12332 96 81 67
1.85350 -1.54409 0.12076 98 81 62
1.87444 -1.55477 0.11817 98 82 71
1.89561 -1.56557 0.11554 98 83 61
1.91702 -1.57649 0.11289 99 84 57
1.93866 -1.58754 0.11021 98 84 64
1.96055 -1.59870 0.10750 96 85 68
1.98268 -1.60999 0.10476 99 83 70
2.00507 -1.62141 0.10199 98 81 71
2.02771 -1.63296 0.09919 97 81 72
2.05061 -1.64464 0.09635 97 81 63
2.07377 -1.65646 0.09348 98 79 67
2.09721 -1.66842 0.09058 97 80 70
2.12092 -1.68051 0.08765 97 82 68
2.14491 -1.69275 0.08467 96 83 69
2.16918 -1.70513 0.08167 96 82 71
2.19374 -1.71766 0.07863 96 80 76
2.21859 -1.73034 0.07555 95 80 74
2.24374 -1.74317 0.07244 95 79 69
2.26920 -1.75616 0.06928 94 80 69
2.29497 -1.76930 0.06609 93 79 72
2.32105 -1.78261 0.06286 94 78 73
2.34746 -1.79608 0.05959 94 77 71
2.37419 -1.80972 0.05628 94 76 71
2.40126 -1.82352 0.05293 95 78 69
2.42867 -1.83750 0.04954 93 81 71
2.45642 -1.85166 0.04610 93 80 72
2.48453 -1.86600 0.04262 91 78 74
2.51299 -1.88052 0.03910 92 78 76
2.54183 -1.89523 0.03553 93 78 73
2.57104 -1.91013 0.03191 92 78 74
2.60063 -1.92523 0.02824 92 79 77
2.63060 -1.94052 0.02453 90 78 76
2.66098 -1.95602 0.02077 88 74 69
2.69176 -1.97172 0.01696 85 69 68
2.72295 -1.98763 0.01310 79 66 65
2.75457 -2.00376 0.00918 80 65 64
2.78661 -2.02011 0.00521 80 64 58
2.81909 -2.03668 0.00119 81 64 51
2.85202 -2.05347 -0.00289 81 65 48
1.83663 -1.54351 0.10962 96 82 68
1.85744 -1.55417 0.10697 97 81 70
1.87848 -1.56494 0.10429 99 82 74
1.89975 -1.57584 0.10158 101 81 67
1.92126 -1.58686 0.09884 100 82 71
1.94301 -1.59800 0.09607 97 84 70
1.96501 -1.60927 0.09327 97 84 73
1.98725 -1.62066 0.09044 98 84 77
2.00975 -1.63219 0.08758 97 83 73
2.03251 -1.64384 0.08468 98 82 74
2.05553 -1.65564 0.08175 97 81 73
2.07881 -1.66756 0.07878 97 80 75
2.10237 -1.67963 0.07578 98 80 74
2.12621 -1.69184 0.07275 97 80 74
2.15032 -1.70419 0.06968 96 81 73
2.17472 -1.71669 0.06657 96 81 71
2.19942 -1.72934 0.06343 97 80 70
2.22441 -1.74214 0.06025 96 80 63
2.24970 -1.75510 0.05703 96 79 63
2.27530 -1.76821 0.05377 95 80 69
2.30121 -1.78149 0.05047 95 80 72
2.32744 -1.79492 0.04713 94 78 74
2.35400 -1.80853 0.04375 94 77 75
2.38089 -1.82230 0.04033 94 76 73
2.40811 -1.83624 0.03686 94 77 70
2.43568 -1.85037 0.03335 92 79 72
2.46360 -1.86467 0.02980 93 79 77
2.49187 -1.87915 0.02620 91 79 82
2.52051 -1.89382 0.02255 93 78 82
2.54952 -1.90868 0.01886 94 77 74
2.57891 -1.92374 0.01512 92 77 72
2.60869 -1.93899 0.01132 89 76 72
2.63885 -1.95444 0.00748 85 73 68
2.66942 -1.97010 0.00359 83 66 66
2.70040 -1.98597 -0.00035 81 65 67
2.73179 -2.00205 -0.00435 78 64 68
2.76361 -2.01835 -0.00840 80 63 65
2.79587 -2.03487 -0.01251 79 65 61
2.82856 -2.05162 -0.01667 79 64 57
2.86172 -2.06860 -0.02089 79 65 45
1.86141 -1.56431 0.09307 97 83 73
1.88255 -1.57519 0.09031 98 83 75
1.90393 -1.58618 0.08751 98 82 66
1.92554 -1.59730 0.08468 98 82 68
1.94740 -1.60854 0.08182 95 83 67
1.96950 -1.61991 0.07893 97 83 67
1.99186 -1.63141 0.07601 97 83 77
2.01447 -1.64305 0.07305 98 82 78
2.03735 -1.65481 0.07006 100 81 80
2.06049 -1.66671 0.06703 99 81 77
2.08389 -1.67875 0.06397 97 81 77
2.10758 -1.69093 0.06087 98 81 76
2.13154 -1.70326 0.05774 96 80 75
2.15578 -1.71573 0.05456 95 79 70
2.18031 -1.72835 0.05135 96 80 68
2.20514 -1.74112 0.04811 97 80 69
2.23027 -1.75404 0.04482 97 80 66
2.25570 -1.76713 0.04149 95 80 69
2.28144 -1.78037 0.03813 95 79 76
2.30750 -1.79377 0.03472 96 79 78
2.33388 -1.80734 0.03127 95 78 79
2.36059 -1.82108 0.02777 93 78 77
2.38764 -1.83499 0.02423 93 77 70
2.41502 -1.84908 0.02065 93 78 67
2.44275 -1.86334 0.01702 92 79 68
2.47084 -1.87779 0.01335 92 78 73
2.49928 -1.89242 0.00963 92 79 79
2.52810 -1.90724 0.00586 92 77 80
2.55729 -1.92225 0.00204 92 75 74
2.58686 -1.93746 -0.00183 88 71 68
2.61682 -1.95287 -0.00575 83 67 65
2.64717 -1.96849 -0.00972 80 66 63
2.67794 -1.98431 -0.01374 80 63 61
2.70911 -2.00035 -0.01782 79 64 66
2.74071 -2.01660 -0.02195 79 65 73
2.77274 -2.03308 -0.02614 81 65 64
2.80521 -2.04978 -0.03039 78 63 59
2.83813 -2.06671 -0.03470 78 63 57
2.87150 -2.08387 -0.03906 79 62 46
1.88665 -1.58551 0.07622 99 82 75
1.90813 -1.59660 0.07333 96 83 68
1.92985 -1.60782 0.07041 97 84 70
1.95182 -1.61917 0.06746 96 84 68
1.97404 -1.63064 0.06448 99 83 69
1.99651 -1.64225 0.06146 99 81 75
2.01923 -1.65399 0.05841 98 81 74
2.04223 -1.66586 0.05532 99 81 68
2.06548 -1.67788 0.05219 98 81 72
2.08901 -1.69003 0.04903 96 82 79
2.11282 -1.70233 0.04584 97 81 78
2.13691 -1.71477 0.04260 97 80 77
2.16128 -1.72736 0.03932 97 80 71
2.18595 -1.74010 0.03601 97 81 69
2.21091 -1.75299 0.03266 99 81 71
2.23618 -1.76604 0.02926 98 81 72
2.26175 -1.77925 0.02583 96 81 74
2.28764 -1.79262 0.02235 95 80 76
2.31385 -1.80616 0.01883 96 78 75
2.34038 -1.81986 0.01527 95 78 76
2.36724 -1.83374 0.01166 95 79 74
2.39445 -1.84779 0.00800 94 80 66
2.42199 -1.86202 0.00430 93 80 62
2.44989 -1.87642 0.00055 92 80 65
2.47814 -1.89102 -0.00324 92 78 69
2.50676 -1.90580 -0.00709 90 78 71
2.53575 -1.92077 -0.01098 86 75 70
2.56512 -1.93594 -0.01493 86 70 64
2.59487 -1.95131 -0.01892 84 65 57
2.62502 -1.96688 -0.02297 81 62 51
2.65557 -1.98266 -0.02708 79 61 70
2.68653 -1.99865 -0.03124 79 63 60
2.71791 -2.01486 -0.03545 79 65 59
2.74972 -2.03129 -0.03972 80 65 68
2.78196 -2.04794 -0.04405 83 62 61
2.81464 -2.06482 -0.04845 80 60 55
2.84778 -2.08194 -0.05290 79 60 54
2.88138 -2.09929 -0.05741 78 60 48
1.91237 -1.60711 0.05905 98 82 71
1.93420 -1.61843 0.05604 98 84 76
1.95627 -1.62988 0.05299 97 84 67
1.97860 -1.64146 0.04991 98 83 72
2.00119 -1.65317 0.04680 99 82 74
2.02403 -1.66502 0.04365 98 82 72
2.04714 -1.67701 0.04046 97 82 66
2.07052 -1.68913 0.03724 97 82 68
2.09417 -1.70140 0.03398 97 82 70
2.11811 -1.71381 0.03068 98 81 75
2.14232 -1.72637 0.02734 98 80 79
2.16683 -1.73908 0.02396 98 80 75
2.19163 -1.75195 0.02054 98 81 71
2.21673 -1.76497 0.01708 98 82 77
2.24214 -1.77814 0.01358 96 81 79
