ply
format ascii 1.0
element face 0
property list uchar int vertex_indices
element vertex 1266
property float x
property float y
property float z
property uchar diffuse_red
property uchar diffuse_green
property uchar diffuse_blue
end_header
0.72478 -2.88252 -0.56942 198 205 202
0.72812 -2.89207 -0.56062 196 202 203
0.73147 -2.90162 -0.55183 188 194 198
0.73481 -2.91117 -0.54304 191 197 202
0.73815 -2.92072 -0.53425 199 206 209
0.74148 -2.93026 -0.52547 194 199 202
0.74482 -2.93980 -0.51669 188 195 197
0.74816 -2.94934 -0.50791 191 201 199
0.75149 -2.95887 -0.49913 193 198 200
0.75483 -2.96840 -0.49036 187 190 199
0.75816 -2.97793 -0.48159 183 188 195
0.76149 -2.98745 -0.47282 187 193 195
0.76483 -2.99698 -0.46405 187 192 192
0.76816 -3.00649 -0.45529 182 186 186
0.77149 -3.01601 -0.44653 181 188 190
0.77481 -3.02552 -0.43777 179 186 187
0.77814 -3.03503 -0.42902 176 181 176
0.78147 -3.04454 -0.42027 178 176 170
0.78479 -3.05404 -0.41152 170 173 169
0.78812 -3.06354 -0.40277 169 176 173
0.79144 -3.07304 -0.39403 179 182 180
0.79476 -3.08254 -0.38529 180 182 185
0.79808 -3.09203 -0.37655 184 187 184
0.80140 -3.10152 -0.36782 174 184 183
0.80472 -3.11100 -0.35908 154 168 181
0.80804 -3.12049 -0.35035 155 168 183
0.81135 -3.12997 -0.34163 174 184 183
0.81467 -3.13944 -0.33290 182 199 179
0.81798 -3.14892 -0.32418 181 187 184
0.82130 -3.15839 -0.31546 174 176 180
0.82461 -3.16786 -0.30675 152 150 162
0.82792 -3.17732 -0.29803 160 170 182
0.83123 -3.18678 -0.28932 169 182 185
0.83454 -3.19624 -0.28061 162 167 162
0.83785 -3.20570 -0.27191 153 156 165
0.84116 -3.21515 -0.26321 163 170 176
0.84446 -3.22460 -0.25451 172 178 186
0.84777 -3.23405 -0.24581 169 174 181
0.85107 -3.24350 -0.23712 166 182 183
0.85438 -3.25294 -0.22842 171 189 170
0.85768 -3.26238 -0.21974 172 181 172
0.86098 -3.27181 -0.21105 154 152 176
0.86428 -3.28124 -0.20237 162 164 183
0.86758 -3.29067 -0.19369 173 179 186
0.87088 -3.30010 -0.18501 175 181 181
0.87417 -3.30952 -0.17633 170 170 165
0.87747 -3.31895 -0.16766 173 176 169
0.88076 -3.32836 -0.15899 173 182 173
0.88735 -3.34719 -0.14166 165 172 173
0.89064 -3.35660 -0.13300 149 152 162
0.89393 -3.36601 -0.12434 148 149 158
0.89722 -3.37541 -0.11568 162 173 174
0.90051 -3.38481 -0.10703 163 174 167
0.90380 -3.39421 -0.09838 160 170 158
0.90709 -3.40360 -0.08973 159 173 166
0.91037 -3.41299 -0.08108 167 177 171
0.91366 -3.42238 -0.07244 171 180 171
0.91694 -3.43177 -0.06380 170 180 177
0.92022 -3.44115 -0.05516 183 191 184
0.92351 -3.45053 -0.04653 174 179 171
0.92679 -3.45991 -0.03790 163 166 159
0.93007 -3.46928 -0.02927 158 168 164
0.93334 -3.47865 -0.02064 161 166 156
0.93662 -3.48802 -0.01202 147 157 155
0.93990 -3.49738 -0.00340 145 157 157
0.95627 -3.54417 0.03967 173 179 176
0.95954 -3.55351 0.04828 159 165 171
0.96280 -3.56286 0.05688 154 158 158
0.96607 -3.57220 0.06548 153 156 171
0.96934 -3.58154 0.07407 155 163 163
0.97261 -3.59088 0.08267 157 164 156
0.97587 -3.60021 0.09126 172 185 181
0.97914 -3.60954 0.09985 167 177 170
0.98240 -3.61887 0.10844 159 166 162
0.98566 -3.62819 0.11702 149 156 150
0.98892 -3.63751 0.12560 159 165 169
0.99218 -3.64683 0.13418 167 174 168
0.99544 -3.65615 0.14276 152 165 151
0.99870 -3.66546 0.15133 156 164 163
1.00196 -3.67477 0.15990 173 177 173
1.00521 -3.68408 0.16847 175 178 174
1.00847 -3.69338 0.17703 170 175 170
1.01172 -3.70268 0.18559 175 180 175
1.01498 -3.71198 0.19415 171 177 172
1.01823 -3.72128 0.20271 160 168 164
1.02148 -3.73057 0.21127 156 161 160
1.02473 -3.73986 0.21982 152 158 155
1.02798 -3.74915 0.22837 153 158 161
1.03123 -3.75843 0.23691 156 160 160
1.03447 -3.76771 0.24546 155 164 152
1.03772 -3.77699 0.25400 155 164 149
1.04097 -3.78627 0.26254 156 153 152
1.04421 -3.79554 0.27107 156 156 161
1.04745 -3.80481 0.27961 152 161 157
1.05069 -3.81407 0.28814 144 150 146
1.05394 -3.82334 0.29667 147 154 154
1.05718 -3.83260 0.30519 150 161 158
1.06041 -3.84186 0.31371 155 165 158
1.06365 -3.85111 0.32223 167 174 172
1.06689 -3.86037 0.33075 166 173 168
1.07013 -3.86962 0.33927 170 176 161
1.07336 -3.87886 0.34778 177 179 165
1.07660 -3.88811 0.35629 173 175 169
1.07983 -3.89735 0.36479 170 177 172
1.08306 -3.90658 0.37330 170 177 168
1.08629 -3.91582 0.38180 165 175 161
1.08952 -3.92505 0.39030 154 164 151
0.59032 -2.54241 -0.88377 192 197 195
0.59369 -2.55204 -0.87491 193 196 198
0.59706 -2.56167 -0.86604 187 190 196
0.60043 -2.57130 -0.85718 184 190 194
0.60380 -2.58092 -0.84832 190 196 194
0.60717 -2.59054 -0.83947 192 198 196
0.61054 -2.60016 -0.83061 190 195 195
0.61390 -2.60977 -0.82176 195 200 198
0.61727 -2.61938 -0.81291 196 198 194
0.62063 -2.62899 -0.80407 196 201 201
0.62400 -2.63860 -0.79523 196 202 205
0.62736 -2.64820 -0.78639 196 200 199
0.63072 -2.65780 -0.77755 196 200 203
0.63408 -2.66739 -0.76872 203 208 207
0.63744 -2.67698 -0.75989 199 206 202
0.64079 -2.68657 -0.75106 196 207 202
0.64415 -2.69616 -0.74223 194 201 195
0.64751 -2.70574 -0.73341 198 204 194
0.65086 -2.71532 -0.72459 193 201 195
0.65421 -2.72490 -0.71578 188 195 192
0.65756 -2.73448 -0.70696 188 196 197
0.66092 -2.74405 -0.69815 194 197 198
0.66427 -2.75362 -0.68934 196 198 201
0.66761 -2.76318 -0.68054 193 199 197
0.67096 -2.77274 -0.67173 192 197 196
0.67431 -2.78230 -0.66293 193 198 199
0.67766 -2.79186 -0.65414 192 199 198
0.68100 -2.80141 -0.64534 189 197 201
0.68434 -2.81096 -0.63655 192 200 204
0.68769 -2.82051 -0.62776 191 198 202
0.69103 -2.83006 -0.61897 189 194 200
0.69437 -2.83960 -0.61019 192 200 200
0.69771 -2.84914 -0.60141 187 193 195
0.70105 -2.85867 -0.59263 185 189 193
0.70438 -2.86820 -0.58385 189 195 201
0.70772 -2.87773 -0.57508 196 204 207
0.71106 -2.88726 -0.56631 192 200 208
0.71439 -2.89678 -0.55754 190 195 211
0.71772 -2.90630 -0.54878 190 199 205
0.72106 -2.91582 -0.54002 196 200 205
0.72439 -2.92534 -0.53126 203 207 210
0.72772 -2.93485 -0.52250 200 206 206
0.73105 -2.94436 -0.51375 184 189 194
0.73437 -2.95386 -0.50500 178 184 189
0.73770 -2.96336 -0.49625 181 186 193
0.74103 -2.97286 -0.48751 180 183 196
0.74435 -2.98236 -0.47876 179 182 194
0.74768 -2.99185 -0.47002 184 187 196
0.75100 -3.00134 -0.46129 185 193 195
0.75432 -3.01083 -0.45255 180 188 187
0.75764 -3.02032 -0.44382 182 189 184
0.76096 -3.02980 -0.43509 184 192 185
0.76428 -3.03928 -0.42637 177 186 185
0.76760 -3.04875 -0.41764 177 186 183
0.77091 -3.05823 -0.40892 170 178 173
0.77423 -3.06770 -0.40020 166 173 170
0.77754 -3.07716 -0.39149 174 179 178
0.78086 -3.08663 -0.38278 175 182 178
0.78417 -3.09609 -0.37407 180 185 173
0.78748 -3.10555 -0.36536 172 172 171
0.79079 -3.11500 -0.35666 159 163 172
0.79410 -3.12445 -0.34795 164 171 176
0.79741 -3.13390 -0.33926 172 176 184
0.80072 -3.14335 -0.33056 179 188 188
0.80402 -3.15279 -0.32187 175 166 185
0.80733 -3.16223 -0.31318 170 173 176
0.81063 -3.17167 -0.30449 153 157 167
0.81394 -3.18111 -0.29580 150 166 171
0.81724 -3.19054 -0.28712 181 197 189
0.82054 -3.19997 -0.27844 185 195 186
0.82384 -3.20939 -0.26976 178 188 188
0.82714 -3.21881 -0.26109 168 174 174
0.83044 -3.22823 -0.25242 176 178 182
0.83373 -3.23765 -0.24375 172 174 180
0.83703 -3.24706 -0.23508 163 171 177
0.84032 -3.25648 -0.22642 164 171 168
0.84362 -3.26588 -0.21776 174 182 170
0.84691 -3.27529 -0.20910 144 146 158
0.85020 -3.28469 -0.20044 159 165 169
0.85349 -3.29409 -0.19179 169 176 174
0.85678 -3.30349 -0.18314 163 171 172
0.86007 -3.31288 -0.17449 169 180 179
0.86336 -3.32227 -0.16585 176 188 186
0.86665 -3.33166 -0.15721 178 188 181
0.86993 -3.34104 -0.14857 172 182 173
0.87650 -3.35980 -0.13130 156 157 159
0.87978 -3.36918 -0.12266 155 159 166
0.88306 -3.37855 -0.11404 165 175 181
0.88634 -3.38792 -0.10541 168 175 169
0.88962 -3.39729 -0.09679 166 172 162
0.89290 -3.40665 -0.08817 162 167 165
0.89618 -3.41602 -0.07955 170 172 173
0.89946 -3.42537 -0.07093 171 173 173
0.90273 -3.43473 -0.06232 166 168 173
0.90601 -3.44408 -0.05371 181 187 187
0.90928 -3.45343 -0.04510 174 173 168
0.91255 -3.46278 -0.03650 162 163 155
0.91582 -3.47212 -0.02790 159 168 164
0.91909 -3.48146 -0.01930 155 159 155
0.92236 -3.49080 -0.01070 150 157 158
0.92563 -3.50014 -0.00211 149 159 159
0.94196 -3.54677 0.04082 166 168 171
0.94522 -3.55609 0.04940 156 165 162
0.94848 -3.56540 0.05797 154 164 168
0.95174 -3.57471 0.06655 150 158 175
0.95500 -3.58402 0.07512 163 167 171
0.95826 -3.59333 0.08368 161 170 168
0.96152 -3.60263 0.09225 165 174 164
0.96477 -3.61193 0.10081 163 172 159
0.96803 -3.62123 0.10937 161 163 154
0.97128 -3.63053 0.11793 147 155 150
0.97454 -3.63982 0.12648 150 155 156
0.97779 -3.64911 0.13503 153 160 157
0.98104 -3.65839 0.14358 144 160 148
0.98429 -3.66768 0.15213 162 173 173
0.98754 -3.67696 0.16067 180 183 170
0.99079 -3.68623 0.16921 176 178 170
0.99403 -3.69551 0.17775 161 163 166
0.99728 -3.70478 0.18628 161 167 169
1.00052 -3.71405 0.19482 160 165 169
1.00377 -3.72331 0.20335 155 155 159
1.00701 -3.73258 0.21187 154 156 153
1.01025 -3.74184 0.22040 151 155 152
1.01350 -3.75110 0.22892 152 159 163
1.01674 -3.76035 0.23744 157 165 162
1.01997 -3.76960 0.24596 155 163 151
1.02321 -3.77885 0.25447 150 148 141
1.02645 -3.78810 0.26298 152 142 149
1.02969 -3.79734 0.27149 163 162 161
1.03292 -3.80658 0.28000 162 167 149
1.03616 -3.81582 0.28850 150 152 136
1.03939 -3.82505 0.29700 146 152 146
1.04262 -3.83428 0.30550 144 157 150
1.04585 -3.84351 0.31400 146 155 144
1.05554 -3.87118 0.33947 160 168 159
1.05877 -3.88040 0.34795 162 170 160
1.06199 -3.88961 0.35644 154 162 149
1.06522 -3.89883 0.36492 154 164 145
1.06844 -3.90803 0.37340 159 168 160
1.07167 -3.91724 0.38187 157 164 158
0.57026 -2.52904 -0.89734 184 191 183
0.57363 -2.53865 -0.88849 187 192 187
0.57699 -2.54825 -0.87965 194 200 195
0.58036 -2.55785 -0.87081 195 201 198
0.58372 -2.56745 -0.86198 193 196 197
0.58708 -2.57705 -0.85315 193 198 198
0.59044 -2.58664 -0.84432 194 200 195
0.59380 -2.59623 -0.83549 193 199 194
0.59716 -2.60581 -0.82667 192 198 196
0.60051 -2.61539 -0.81784 192 196 195
0.60387 -2.62497 -0.80903 190 192 190
0.60723 -2.63455 -0.80021 191 193 195
0.61058 -2.64412 -0.79140 196 201 205
0.61393 -2.65369 -0.78259 200 205 206
0.61729 -2.66326 -0.77378 200 203 206
0.62064 -2.67282 -0.76497 204 207 206
0.62399 -2.68238 -0.75617 201 205 202
0.62733 -2.69194 -0.74737 197 199 199
0.63068 -2.70150 -0.73858 191 197 196
0.63403 -2.71105 -0.72978 194 198 195
0.63738 -2.72060 -0.72099 197 201 198
0.64072 -2.73014 -0.71220 196 202 196
0.64406 -2.73969 -0.70342 193 200 197
0.64741 -2.74923 -0.69464 194 198 194
0.65075 -2.75876 -0.68586 194 197 200
0.65409 -2.76830 -0.67708 190 196 195
0.65743 -2.77783 -0.66830 194 199 198
0.66077 -2.78736 -0.65953 199 205 203
0.66410 -2.79688 -0.65076 191 196 195
0.66744 -2.80641 -0.64200 191 194 192
0.67077 -2.81592 -0.63323 194 196 197
0.67411 -2.82544 -0.62447 193 197 197
0.67744 -2.83495 -0.61572 189 192 197
0.68077 -2.84446 -0.60696 196 203 208
0.68410 -2.85397 -0.59821 188 197 198
0.68743 -2.86348 -0.58946 188 197 196
0.69076 -2.87298 -0.58071 186 196 199
0.69409 -2.88248 -0.57197 195 202 203
0.69742 -2.89197 -0.56322 196 203 207
0.70074 -2.90146 -0.55449 193 196 212
0.70407 -2.91095 -0.54575 197 202 208
0.70739 -2.92044 -0.53702 202 204 207
0.71072 -2.92992 -0.52829 199 201 204
0.71404 -2.93940 -0.51956 191 195 197
0.71736 -2.94888 -0.51083 184 189 190
0.72068 -2.95836 -0.50211 183 187 185
0.72400 -2.96783 -0.49339 177 183 187
0.72731 -2.97730 -0.48467 164 174 190
0.73063 -2.98676 -0.47596 167 177 191
0.73395 -2.99623 -0.46725 180 188 195
0.73726 -3.00569 -0.45854 181 189 199
0.74057 -3.01514 -0.44983 177 189 194
0.74389 -3.02460 -0.44113 186 196 188
0.74720 -3.03405 -0.43243 193 199 189
0.75051 -3.04350 -0.42373 178 188 190
0.75382 -3.05294 -0.41504 172 181 187
0.75712 -3.06238 -0.40634 172 181 178
0.76043 -3.07182 -0.39765 176 186 179
0.76374 -3.08126 -0.38897 175 184 182
0.76704 -3.09069 -0.38028 178 184 177
0.77035 -3.10012 -0.37160 174 182 173
0.77365 -3.10955 -0.36292 169 175 174
0.77695 -3.11897 -0.35424 159 164 167
0.78025 -3.12840 -0.34557 162 163 171
0.78355 -3.13781 -0.33690 165 174 184
0.78685 -3.14723 -0.32823 174 181 195
0.79015 -3.15664 -0.31957 170 165 190
0.79345 -3.16605 -0.31090 171 180 184
0.79674 -3.17546 -0.30224 168 173 179
0.80004 -3.18486 -0.29359 163 178 167
0.80333 -3.19427 -0.28493 177 198 189
0.80662 -3.20366 -0.27628 174 179 187
0.80992 -3.21306 -0.26763 172 184 186
0.81321 -3.22245 -0.25898 167 182 178
0.81650 -3.23184 -0.25034 167 175 179
0.81979 -3.24123 -0.24170 166 173 178
0.82307 -3.25061 -0.23306 161 167 172
0.82636 -3.25999 -0.22442 160 163 161
0.82964 -3.26937 -0.21579 174 186 175
0.83293 -3.27874 -0.20716 151 161 159
0.83621 -3.28812 -0.19853 157 170 162
0.83950 -3.29749 -0.18991 173 187 168
0.84278 -3.30685 -0.18128 165 175 166
0.84606 -3.31622 -0.17266 163 174 175
0.84934 -3.32558 -0.16405 169 180 179
0.85262 -3.33493 -0.15543 174 183 183
0.85589 -3.34429 -0.14682 172 180 174
0.85917 -3.35364 -0.13821 175 183 172
0.86572 -3.37233 -0.12100 161 165 174
0.86899 -3.38168 -0.11240 163 168 170
0.87227 -3.39102 -0.10380 159 164 166
0.87554 -3.40035 -0.09521 147 153 162
0.87881 -3.40969 -0.08661 142 152 163
0.88208 -3.41902 -0.07802 164 174 175
0.88535 -3.42835 -0.06944 177 178 179
0.88861 -3.43767 -0.06085 168 168 173
0.89188 -3.44700 -0.05227 176 183 180
0.89514 -3.45632 -0.04369 174 176 169
0.89841 -3.46563 -0.03511 164 168 161
0.90167 -3.47495 -0.02654 166 173 167
0.90493 -3.48426 -0.01796 163 170 163
0.90820 -3.49357 -0.00939 159 167 166
0.91146 -3.50287 -0.00083 162 170 169
0.92449 -3.54006 0.03341 173 177 180
0.92774 -3.54935 0.04196 166 163 168
0.93100 -3.55864 0.05051 151 163 151
0.93425 -3.56793 0.05906 155 162 162
0.94400 -3.59577 0.08469 166 171 165
0.94725 -3.60504 0.09323 153 156 145
0.95050 -3.61431 0.10176 148 155 152
0.95375 -3.62358 0.11030 145 152 151
0.95699 -3.63284 0.11883 153 162 157
0.96024 -3.64211 0.12735 160 172 160
0.96348 -3.65137 0.13588 159 167 161
0.96673 -3.66062 0.14440 147 160 150
0.96997 -3.66988 0.15292 166 179 171
0.97321 -3.67913 0.16143 179 182 160
0.97645 -3.68838 0.16995 173 173 161
0.97969 -3.69762 0.17846 155 153 158
0.98293 -3.70686 0.18697 157 163 165
0.98616 -3.71610 0.19547 154 158 162
0.98940 -3.72534 0.20398 152 146 148
0.99264 -3.73457 0.21248 156 153 146
0.99587 -3.74380 0.22097 157 153 149
0.99910 -3.75303 0.22947 153 150 156
1.00234 -3.76226 0.23796 155 159 158
1.00557 -3.77148 0.24645 158 168 156
1.00880 -3.78070 0.25494 154 155 146
1.01203 -3.78992 0.26343 153 151 152
1.01525 -3.79913 0.27191 165 173 166
1.01848 -3.80834 0.28039 169 179 159
1.02171 -3.81755 0.28886 161 167 150
1.02493 -3.82675 0.29734 151 154 144
1.02816 -3.83596 0.30581 143 147 138
1.03138 -3.84516 0.31428 146 151 140
1.03460 -3.85435 0.32275 146 153 154
1.04104 -3.87274 0.33967 163 167 154
1.04426 -3.88193 0.34813 169 172 160
1.04748 -3.89111 0.35659 161 166 143
1.05070 -3.90030 0.36504 153 160 136
1.05391 -3.90948 0.37349 156 166 158
1.05713 -3.91865 0.38194 164 168 162
0.55368 -2.52533 -0.90200 188 191 188
0.55704 -2.53491 -0.89319 191 195 188
0.56039 -2.54449 -0.88437 193 195 189
0.56375 -2.55406 -0.87556 191 193 191
0.56710 -2.56363 -0.86675 191 194 193
0.57046 -2.57319 -0.85794 196 197 197
0.57381 -2.58276 -0.84914 200 203 201
0.57716 -2.59232 -0.84034 198 205 200
0.58051 -2.60187 -0.83154 196 201 196
0.58386 -2.61143 -0.82274 196 200 200
0.58721 -2.62098 -0.81395 197 200 200
0.59056 -2.63052 -0.80516 195 197 196
0.59390 -2.64007 -0.79637 194 196 196
0.59725 -2.64961 -0.78759 195 200 201
0.60059 -2.65915 -0.77881 201 205 205
0.60394 -2.66869 -0.77003 202 205 206
0.60728 -2.67822 -0.76125 204 207 205
0.61062 -2.68775 -0.75248 198 200 201
0.61396 -2.69727 -0.74371 190 191 198
0.61730 -2.70680 -0.73494 184 191 196
0.62064 -2.71632 -0.72618 194 199 199
0.62398 -2.72584 -0.71741 204 207 204
0.62731 -2.73535 -0.70865 196 202 200
0.63065 -2.74486 -0.69990 192 202 196
0.63398 -2.75437 -0.69114 195 203 196
0.63731 -2.76388 -0.68239 197 202 204
0.64065 -2.77338 -0.67364 195 201 200
0.64398 -2.78288 -0.66490 201 206 204
0.64731 -2.79238 -0.65615 196 200 205
0.65064 -2.80187 -0.64741 188 193 199
0.65396 -2.81137 -0.63868 193 196 195
0.65729 -2.82085 -0.62994 197 203 200
0.66062 -2.83034 -0.62121 198 200 196
0.66394 -2.83982 -0.61248 197 201 200
0.66726 -2.84930 -0.60375 200 203 207
0.67059 -2.85878 -0.59503 192 198 195
0.67391 -2.86825 -0.58631 190 193 194
0.67723 -2.87772 -0.57759 186 192 198
0.68055 -2.88719 -0.56887 197 200 202
0.68387 -2.89665 -0.56016 204 210 207
0.68718 -2.90611 -0.55145 201 210 211
0.69050 -2.91557 -0.54274 202 208 210
0.69382 -2.92503 -0.53403 206 210 210
0.69713 -2.93448 -0.52533 195 199 204
0.70044 -2.94393 -0.51663 184 187 192
0.70376 -2.95338 -0.50793 185 187 189
0.70707 -2.96282 -0.49924 187 192 190
0.71038 -2.97226 -0.49055 178 189 188
0.71369 -2.98170 -0.48186 169 184 185
0.71699 -2.99114 -0.47317 177 193 189
0.72030 -3.00057 -0.46449 188 199 193
0.72361 -3.01000 -0.45581 187 190 193
0.72691 -3.01943 -0.44713 182 185 194
0.73022 -3.02885 -0.43846 187 195 194
0.73352 -3.03827 -0.42978 189 194 191
0.73682 -3.04769 -0.42111 171 182 188
0.74012 -3.05710 -0.41244 162 176 185
0.74342 -3.06651 -0.40378 167 178 186
0.74672 -3.07592 -0.39512 180 193 197
0.75002 -3.08533 -0.38646 184 193 192
0.75332 -3.09473 -0.37780 186 193 183
0.75661 -3.10413 -0.36915 177 186 181
0.75991 -3.11353 -0.36050 168 180 181
0.76320 -3.12292 -0.35185 173 180 182
0.76649 -3.13231 -0.34320 176 177 185
0.76978 -3.14170 -0.33456 161 164 173
0.77308 -3.15109 -0.32592 172 173 180
0.77636 -3.16047 -0.31728 179 186 190
0.77965 -3.16985 -0.30865 167 173 185
0.78294 -3.17923 -0.30001 167 172 178
0.78623 -3.18860 -0.29138 170 185 173
0.78951 -3.19797 -0.28276 171 181 184
0.79280 -3.20734 -0.27413 173 176 188
0.79608 -3.21670 -0.26551 172 176 182
0.79936 -3.22607 -0.25689 168 181 175
0.80265 -3.23543 -0.24828 160 168 176
0.80593 -3.24478 -0.23966 158 170 174
0.80921 -3.25414 -0.23105 168 179 176
0.81248 -3.26349 -0.22244 169 172 164
0.81576 -3.27283 -0.21384 171 181 175
0.81904 -3.28218 -0.20523 163 167 159
0.82231 -3.29152 -0.19663 170 180 167
0.82559 -3.30086 -0.18804 176 183 166
0.82886 -3.31020 -0.17944 157 165 165
0.83213 -3.31953 -0.17085 157 169 178
0.83540 -3.32886 -0.16226 168 182 179
0.83867 -3.33819 -0.15367 166 172 175
0.84194 -3.34751 -0.14509 162 172 170
0.84521 -3.35683 -0.13651 175 188 177
0.84848 -3.36615 -0.12793 178 187 185
0.85501 -3.38478 -0.11078 168 168 159
0.85828 -3.39409 -0.10220 164 171 159
0.86154 -3.40340 -0.09364 150 158 158
0.86480 -3.41270 -0.08507 139 147 155
0.86806 -3.42200 -0.07651 157 169 168
0.87132 -3.43130 -0.06795 171 178 175
0.87458 -3.44060 -0.05939 165 170 165
0.87784 -3.44989 -0.05083 160 170 164
0.88110 -3.45918 -0.04228 156 163 165
0.88435 -3.46847 -0.03373 157 161 163
0.88761 -3.47775 -0.02518 162 171 167
0.89086 -3.48703 -0.01664 162 172 165
0.89412 -3.49631 -0.00810 154 161 165
0.89737 -3.50559 0.00044 147 151 164
0.90062 -3.51486 0.00898 158 170 175
0.91037 -3.54266 0.03457 161 162 165
0.91361 -3.55192 0.04310 161 151 159
0.91686 -3.56118 0.05162 151 161 158
0.92984 -3.59819 0.08569 166 165 150
0.93308 -3.60743 0.09420 150 153 145
0.93632 -3.61667 0.10271 153 161 156
0.93956 -3.62591 0.11122 152 165 161
0.94279 -3.63515 0.11972 166 169 157
0.94603 -3.64438 0.12822 164 166 157
0.94927 -3.65361 0.13672 159 163 150
0.95250 -3.66284 0.14521 147 159 142
0.95574 -3.67206 0.15370 160 173 160
0.95897 -3.68129 0.16219 165 168 155
0.96220 -3.69050 0.17068 166 170 156
0.96543 -3.69972 0.17916 155 159 160
0.96866 -3.70893 0.18765 166 177 170
0.97189 -3.71814 0.19613 165 174 164
0.97512 -3.72735 0.20460 155 161 155
0.97835 -3.73656 0.21308 151 154 148
0.98157 -3.74576 0.22155 147 148 145
0.98480 -3.75496 0.23002 144 144 149
0.98802 -3.76415 0.23848 150 155 154
0.99125 -3.77335 0.24695 159 168 161
0.99447 -3.78254 0.25541 162 168 161
0.99769 -3.79172 0.26387 160 164 156
1.00091 -3.80091 0.27232 155 160 153
1.00413 -3.81009 0.28077 157 166 158
1.00735 -3.81927 0.28922 162 171 161
1.01057 -3.82845 0.29767 156 160 147
1.01378 -3.83762 0.30612 146 147 133
1.01700 -3.84679 0.31456 147 149 137
1.02021 -3.85596 0.32300 149 158 151
1.02664 -3.87429 0.33987 166 174 161
1.02985 -3.88344 0.34831 174 178 164
1.03306 -3.89260 0.35674 171 172 159
1.03627 -3.90176 0.36516 164 167 160
1.03948 -3.91091 0.37359 160 167 167
1.04269 -3.92005 0.38201 166 174 162
0.53719 -2.52165 -0.90664 184 190 188
0.54054 -2.53120 -0.89785 185 191 188
0.54389 -2.54074 -0.88906 190 196 189
0.54724 -2.55029 -0.88027 194 199 192
0.55059 -2.55983 -0.87149 193 196 195
0.55394 -2.56936 -0.86271 194 196 197
0.55728 -2.57890 -0.85393 197 197 199
0.56062 -2.58843 -0.84516 199 202 202
0.56397 -2.59796 -0.83638 197 204 203
0.56731 -2.60748 -0.82762 198 204 201
0.57065 -2.61701 -0.81885 201 204 204
0.57399 -2.62653 -0.81008 204 208 207
0.57733 -2.63604 -0.80132 204 206 205
0.58067 -2.64556 -0.79256 198 202 201
0.58400 -2.65507 -0.78381 196 202 204
0.58734 -2.66457 -0.77505 203 208 209
0.59068 -2.67408 -0.76630 201 206 207
0.59401 -2.68358 -0.75756 199 204 205
0.59734 -2.69308 -0.74881 199 202 202
0.60067 -2.70257 -0.74007 186 188 201
0.60400 -2.71207 -0.73133 181 192 200
0.60733 -2.72156 -0.72259 196 205 205
0.61066 -2.73104 -0.71386 200 207 207
0.61399 -2.74053 -0.70513 189 194 197
0.61732 -2.75001 -0.69640 186 195 189
0.62064 -2.75949 -0.68767 194 201 199
0.62397 -2.76896 -0.67895 203 213 211
0.62729 -2.77843 -0.67023 203 210 203
0.63061 -2.78790 -0.66151 205 208 203
0.63393 -2.79737 -0.65280 195 196 203
0.63725 -2.80683 -0.64408 196 201 205
0.64057 -2.81629 -0.63537 200 208 207
0.64389 -2.82575 -0.62667 200 208 204
0.64721 -2.83521 -0.61796 199 201 197
0.65053 -2.84466 -0.60926 200 207 206
0.65384 -2.85411 -0.60056 193 200 206
0.65715 -2.86355 -0.59187 188 192 191
0.66047 -2.87299 -0.58317 182 188 187
0.66378 -2.88243 -0.57448 181 188 195
0.66709 -2.89187 -0.56579 190 195 205
0.67040 -2.90131 -0.55711 197 207 209
0.67371 -2.91074 -0.54843 196 203 205
0.67702 -2.92016 -0.53975 194 201 203
0.68033 -2.92959 -0.53107 199 206 205
0.68363 -2.93901 -0.52240 195 200 202
0.68694 -2.94843 -0.51372 185 187 192
0.69024 -2.95785 -0.50505 189 192 191
0.69354 -2.96726 -0.49639 192 201 193
0.69684 -2.97667 -0.48772 189 200 193
0.70015 -2.98608 -0.47906 188 199 191
0.70345 -2.99548 -0.47040 190 200 193
0.70674 -3.00489 -0.46175 190 198 195
0.71004 -3.01429 -0.45310 189 194 194
0.71334 -3.02368 -0.44445 187 193 194
0.71663 -3.03307 -0.43580 184 193 195
0.71993 -3.04246 -0.42715 177 183 190
0.72322 -3.05185 -0.41851 166 173 180
0.72651 -3.06124 -0.40987 167 178 179
0.72981 -3.07062 -0.40123 172 181 189
0.73310 -3.08000 -0.39260 181 191 200
0.73639 -3.08937 -0.38397 180 188 195
0.73967 -3.09874 -0.37534 175 187 181
0.74296 -3.10811 -0.36671 176 188 179
0.74625 -3.11748 -0.35809 174 187 179
0.74953 -3.12684 -0.34947 176 180 175
0.75282 -3.13621 -0.34085 175 172 178
0.75610 -3.14556 -0.33223 160 164 168
0.75938 -3.15492 -0.32362 170 180 184
0.76267 -3.16427 -0.31501 176 185 187
0.76595 -3.17362 -0.30640 160 165 172
0.76923 -3.18297 -0.29780 174 188 166
0.77250 -3.19231 -0.28920 174 174 166
0.77578 -3.20165 -0.28060 168 172 172
0.77906 -3.21099 -0.27200 177 182 195
0.78233 -3.22033 -0.26341 169 177 176
0.78561 -3.22966 -0.25481 173 177 170
0.78888 -3.23899 -0.24622 171 176 167
0.79215 -3.24831 -0.23764 155 165 161
0.80196 -3.27628 -0.21190 163 167 168
0.80523 -3.28559 -0.20332 165 173 170
0.80850 -3.29490 -0.19475 164 175 175
0.81177 -3.30421 -0.18618 159 163 152
0.81503 -3.31352 -0.17761 151 150 143
0.81830 -3.32282 -0.16904 163 164 171
0.82156 -3.33212 -0.16048 177 179 181
0.82482 -3.34142 -0.15192 176 178 173
0.82808 -3.35071 -0.14336 163 170 165
0.83134 -3.36001 -0.13481 161 172 178
0.83460 -3.36930 -0.12626 174 185 186
0.83786 -3.37858 -0.11771 179 188 181
0.84437 -3.39715 -0.10062 172 179 162
0.84763 -3.40642 -0.09208 161 170 158
0.85088 -3.41570 -0.08354 155 163 160
0.85414 -3.42497 -0.07500 168 174 170
0.85739 -3.43424 -0.06647 168 175 174
0.86064 -3.44351 -0.05794 166 177 164
0.86389 -3.45277 -0.04941 169 175 160
0.86714 -3.46203 -0.04088 163 169 160
0.87039 -3.47129 -0.03236 155 159 147
0.87363 -3.48054 -0.02384 150 161 151
0.87688 -3.48979 -0.01532 159 168 157
0.88013 -3.49904 -0.00681 149 149 156
0.88337 -3.50829 0.00171 141 142 150
0.88661 -3.51753 0.01022 156 163 166
0.88985 -3.52677 0.01872 163 166 169
0.89310 -3.53601 0.02723 159 157 153
0.89634 -3.54525 0.03573 156 162 152
0.89958 -3.55448 0.04423 150 144 142
0.90281 -3.56371 0.05273 156 165 161
0.91899 -3.60981 0.09517 156 161 158
0.92222 -3.61902 0.10365 159 168 157
0.92545 -3.62823 0.11213 160 166 156
0.92868 -3.63744 0.12061 163 164 150
0.93191 -3.64664 0.12908 162 166 160
0.93514 -3.65584 0.13755 164 166 157
0.93837 -3.66504 0.14602 156 164 159
0.94159 -3.67424 0.15449 159 174 168
0.94482 -3.68343 0.16295 157 167 158
0.94804 -3.69262 0.17141 155 163 150
0.95127 -3.70181 0.17987 147 157 156
0.95449 -3.71099 0.18832 159 172 163
0.95771 -3.72017 0.19677 161 172 166
0.96093 -3.72935 0.20522 151 159 162
0.96415 -3.73853 0.21367 143 147 152
0.96737 -3.74770 0.22212 139 144 145
0.97059 -3.75687 0.23056 140 145 147
0.97380 -3.76604 0.23900 148 153 151
0.97702 -3.77520 0.24744 155 158 156
0.98023 -3.78436 0.25587 155 156 159
0.98345 -3.79352 0.26430 153 153 152
0.98666 -3.80268 0.27273 145 146 139
0.98987 -3.81183 0.28116 139 145 138
0.99308 -3.82098 0.28958 139 147 143
0.99629 -3.83013 0.29800 142 151 142
0.99950 -3.83927 0.30642 146 155 138
1.00271 -3.84841 0.31484 150 155 139
1.00591 -3.85755 0.32325 155 163 149
1.01553 -3.88495 0.34848 162 169 164
1.01873 -3.89408 0.35688 162 166 164
1.02193 -3.90321 0.36528 159 166 167
1.02513 -3.91233 0.37368 161 166 167
1.02833 -3.92145 0.38208 162 168 156
0.52081 -2.51798 -0.91125 184 187 188
0.52415 -2.52750 -0.90248 184 191 189
0.52749 -2.53702 -0.89372 185 192 190
0.53083 -2.54654 -0.88496 190 196 190
0.53417 -2.55605 -0.87620 194 200 193
0.53751 -2.56556 -0.86745 197 201 201
0.54085 -2.57506 -0.85870 200 203 205
0.54419 -2.58457 -0.84995 201 202 202
0.54752 -2.59407 -0.84120 194 200 200
0.55086 -2.60356 -0.83246 188 194 200
0.55419 -2.61306 -0.82372 193 199 200
0.55752 -2.62255 -0.81498 203 207 204
0.56086 -2.63204 -0.80624 205 208 208
0.56419 -2.64152 -0.79751 204 206 206
0.56751 -2.65101 -0.78878 201 205 201
0.57084 -2.66049 -0.78005 197 204 204
0.57417 -2.66996 -0.77133 201 205 207
0.57750 -2.67944 -0.76260 198 205 208
0.58082 -2.68891 -0.75388 195 203 209
0.58415 -2.69838 -0.74517 201 206 208
0.58747 -2.70784 -0.73645 194 196 204
0.59079 -2.71730 -0.72774 192 199 202
0.59411 -2.72676 -0.71903 200 206 206
0.59743 -2.73622 -0.71033 193 199 205
0.60075 -2.74567 -0.70162 190 196 196
0.60407 -2.75512 -0.69292 192 198 188
0.60739 -2.76457 -0.68422 195 203 199
0.61070 -2.77401 -0.67553 201 207 208
0.61402 -2.78346 -0.66684 198 206 203
0.61733 -2.79289 -0.65815 199 202 202
0.62065 -2.80233 -0.64946 194 199 204
0.62396 -2.81176 -0.64078 200 205 203
0.62727 -2.82119 -0.63209 195 202 201
0.63058 -2.83062 -0.62342 197 200 200
0.63389 -2.84004 -0.61474 197 201 198
0.63719 -2.84946 -0.60607 194 201 201
0.64050 -2.85888 -0.59739 194 201 203
0.64381 -2.86830 -0.58873 191 197 200
0.64711 -2.87771 -0.58006 182 190 192
0.65042 -2.88712 -0.57140 184 193 196
0.65372 -2.89653 -0.56274 192 200 203
0.65702 -2.90593 -0.55408 192 204 208
0.66032 -2.91533 -0.54543 190 193 197
0.66362 -2.92473 -0.53677 187 194 198
0.66692 -2.93412 -0.52812 190 199 206
0.67022 -2.94351 -0.51948 197 203 207
0.67351 -2.95290 -0.51083 192 197 198
0.67681 -2.96229 -0.50219 193 202 198
0.68010 -2.97167 -0.49355 192 201 195
0.68340 -2.98105 -0.48492 188 194 193
0.68669 -2.99043 -0.47628 188 193 195
0.68998 -2.99980 -0.46765 190 188 195
0.69327 -3.00918 -0.45902 183 183 194
0.69656 -3.01854 -0.45040 174 181 192
0.69985 -3.02791 -0.44178 174 184 190
0.70314 -3.03727 -0.43316 173 184 186
0.70642 -3.04663 -0.42454 165 177 184
0.70971 -3.05599 -0.41592 168 178 181
0.71299 -3.06534 -0.40731 180 188 185
0.71628 -3.07470 -0.39870 185 193 194
0.71956 -3.08404 -0.39010 183 189 192
0.72284 -3.09339 -0.38149 180 185 190
0.72612 -3.10273 -0.37289 173 184 180
0.72940 -3.11207 -0.36429 174 185 175
0.73268 -3.12141 -0.35570 182 190 180
0.73595 -3.13074 -0.34710 176 186 173
0.73923 -3.14007 -0.33851 171 177 177
0.74251 -3.14940 -0.32992 173 182 181
0.74578 -3.15873 -0.32134 172 184 180
0.74905 -3.16805 -0.31275 168 181 181
0.75233 -3.17737 -0.30417 157 166 167
0.75560 -3.18669 -0.29560 184 194 187
0.75887 -3.19600 -0.28702 191 194 186
0.76214 -3.20531 -0.27845 176 175 171
0.76540 -3.21462 -0.26988 168 180 178
0.76867 -3.22393 -0.26131 153 167 157
0.77194 -3.23323 -0.25275 171 181 168
0.78825 -3.27970 -0.20997 158 161 166
0.79151 -3.28898 -0.20142 169 177 179
0.79477 -3.29826 -0.19287 180 186 181
0.79803 -3.30754 -0.18433 179 181 172
0.80129 -3.31682 -0.17579 174 175 172
0.80454 -3.32609 -0.16725 176 185 184
0.80780 -3.33537 -0.15871 185 195 195
0.81105 -3.34463 -0.15018 186 196 190
0.81431 -3.35390 -0.14165 169 183 172
0.81756 -3.36316 -0.13312 155 169 170
0.82081 -3.37242 -0.12460 162 174 173
0.82406 -3.38168 -0.11608 168 178 177
0.82731 -3.39093 -0.10756 166 171 181
0.83056 -3.40018 -0.09904 172 175 173
0.83380 -3.40943 -0.09052 171 176 166
0.83705 -3.41868 -0.08201 164 172 169
0.84030 -3.42792 -0.07350 170 178 175
0.84354 -3.43716 -0.06500 169 178 175
0.84678 -3.44639 -0.05649 167 177 171
0.85003 -3.45563 -0.04799 175 184 174
0.85327 -3.46486 -0.03949 172 178 165
0.85651 -3.47409 -0.03100 158 166 147
0.85975 -3.48331 -0.02250 145 158 143
0.86298 -3.49254 -0.01401 151 165 149
0.86622 -3.50176 -0.00552 142 147 154
0.86946 -3.51097 0.00296 134 146 148
0.87269 -3.52019 0.01145 148 157 159
0.87593 -3.52940 0.01993 166 176 183
0.87916 -3.53861 0.02840 165 162 160
0.88239 -3.54781 0.03688 168 177 163
0.88562 -3.55702 0.04535 163 172 163
0.90176 -3.60299 0.08768 150 155 157
0.90499 -3.61217 0.09613 154 159 151
0.90821 -3.62136 0.10459 152 162 157
0.91144 -3.63054 0.11304 161 166 163
0.91466 -3.63972 0.12149 164 167 156
0.91788 -3.64889 0.12994 166 171 171
0.92110 -3.65806 0.13838 169 171 163
0.92432 -3.66723 0.14682 147 157 163
0.92754 -3.67640 0.15526 150 159 168
0.93076 -3.68556 0.16370 150 159 156
0.93397 -3.69472 0.17213 142 154 141
0.93719 -3.70388 0.18056 146 162 151
0.94040 -3.71304 0.18899 156 167 158
0.94362 -3.72219 0.19742 156 161 155
0.94683 -3.73134 0.20584 152 149 151
0.95004 -3.74048 0.21426 148 150 150
0.95325 -3.74963 0.22268 147 148 147
0.95646 -3.75877 0.23110 148 152 152
0.95967 -3.76791 0.23951 153 161 157
0.96288 -3.77704 0.24792 157 164 153
0.96608 -3.78618 0.25633 152 153 151
0.96929 -3.79531 0.26474 146 143 148
0.97249 -3.80443 0.27314 146 150 144
0.97570 -3.81356 0.28154 143 151 138
0.97890 -3.82268 0.28994 135 140 134
0.98210 -3.83180 0.29833 134 141 139
0.98530 -3.84091 0.30673 138 148 140
0.98850 -3.85003 0.31512 142 149 141
0.99170 -3.85914 0.32351 148 155 150
0.99490 -3.86825 0.33189 152 155 146
0.99810 -3.87735 0.34027 151 147 144
1.00449 -3.89555 0.35703 161 167 160
1.00768 -3.90465 0.36541 161 168 165
1.01087 -3.91374 0.37378 164 167 162
1.01407 -3.92283 0.38215 162 165 155
0.48783 -2.46683 -0.95957 186 191 187
0.49117 -2.47634 -0.95082 185 186 188
0.49451 -2.48584 -0.94207 187 187 186
0.49785 -2.49534 -0.93332 193 194 184
0.50119 -2.50484 -0.92457 190 192 184
0.50452 -2.51434 -0.91583 186 189 189
0.50786 -2.52383 -0.90709 189 192 192
0.51119 -2.53332 -0.89835 192 197 195
0.51452 -2.54281 -0.88962 191 194 195
0.51786 -2.55229 -0.88089 192 193 192
0.52119 -2.56177 -0.87216 194 198 192
0.52452 -2.57125 -0.86343 193 195 194
0.52785 -2.58073 -0.85471 193 193 197
0.53118 -2.59020 -0.84599 195 196 198
0.53450 -2.59967 -0.83727 191 197 198
0.53783 -2.60914 -0.82855 185 193 198
0.54115 -2.61860 -0.81984 187 193 198
0.54448 -2.62806 -0.81113 196 203 201
0.54780 -2.63752 -0.80242 200 204 203
0.55112 -2.64697 -0.79372 200 201 202
0.55444 -2.65642 -0.78501 200 204 201
0.55776 -2.66587 -0.77632 193 200 202
0.56108 -2.67532 -0.76762 192 197 202
0.56440 -2.68476 -0.75892 196 205 208
0.56772 -2.69420 -0.75023 199 206 211
0.57103 -2.70364 -0.74154 201 206 212
0.57435 -2.71307 -0.73286 199 204 207
0.57766 -2.72251 -0.72417 201 208 208
0.58098 -2.73193 -0.71549 203 207 208
0.58429 -2.74136 -0.70682 198 203 206
0.58760 -2.75078 -0.69814 198 204 200
0.59091 -2.76020 -0.68947 196 202 191
0.59422 -2.76962 -0.68080 191 200 196
0.59752 -2.77903 -0.67213 191 195 199
0.60083 -2.78844 -0.66347 195 204 203
0.60414 -2.79785 -0.65480 198 200 202
0.60744 -2.80726 -0.64615 192 193 197
0.61074 -2.81666 -0.63749 191 193 198
0.61405 -2.82606 -0.62883 183 188 196
0.61735 -2.83546 -0.62018 193 202 209
0.62065 -2.84485 -0.61154 203 212 209
0.62395 -2.85424 -0.60289 200 206 204
0.62725 -2.86363 -0.59425 199 202 203
0.63054 -2.87301 -0.58561 195 198 202
0.63384 -2.88239 -0.57697 188 193 199
0.63714 -2.89177 -0.56833 190 195 200
0.64043 -2.90115 -0.55970 199 207 204
0.64372 -2.91052 -0.55107 197 202 204
0.64702 -2.91989 -0.54244 197 202 203
0.65031 -2.92926 -0.53382 190 202 208
0.65360 -2.93863 -0.52520 188 199 213
0.65689 -2.94799 -0.51658 193 206 212
0.66018 -2.95735 -0.50796 190 201 202
0.66346 -2.96670 -0.49935 188 196 197
0.66675 -2.97606 -0.49074 188 194 193
0.67003 -2.98541 -0.48213 188 196 194
0.67332 -2.99475 -0.47352 189 198 198
0.67660 -3.00410 -0.46492 194 197 203
0.67988 -3.01344 -0.45632 185 186 199
0.68316 -3.02278 -0.44772 164 167 187
0.68644 -3.03211 -0.43912 163 171 186
0.68972 -3.04145 -0.43053 172 184 186
0.69300 -3.05078 -0.42194 173 183 183
0.69628 -3.06010 -0.41335 171 178 177
0.69956 -3.06943 -0.40477 172 179 176
0.70283 -3.07875 -0.39619 180 190 182
0.70610 -3.08807 -0.38761 182 189 187
0.70938 -3.09738 -0.37903 186 191 194
0.71265 -3.10670 -0.37046 185 193 192
0.71592 -3.11601 -0.36189 177 192 192
0.71919 -3.12531 -0.35332 179 191 191
0.72246 -3.13462 -0.34475 186 196 187
0.72573 -3.14392 -0.33619 181 193 187
0.72900 -3.15322 -0.32763 187 186 187
0.73226 -3.16251 -0.31907 176 176 182
0.73553 -3.17180 -0.31051 172 177 181
0.73879 -3.18109 -0.30196 165 170 167
0.74205 -3.19038 -0.29341 173 175 171
0.74532 -3.19967 -0.28486 187 192 189
0.74858 -3.20895 -0.27632 181 189 177
0.75184 -3.21823 -0.26777 166 179 177
0.75510 -3.22750 -0.25923 145 164 163
0.75835 -3.23677 -0.25070 152 170 167
0.78113 -3.30160 -0.19101 166 181 176
0.78438 -3.31085 -0.18249 172 179 170
0.78763 -3.32010 -0.17398 170 178 171
0.79088 -3.32935 -0.16547 172 182 180
0.79413 -3.33859 -0.15696 181 191 194
0.79737 -3.34783 -0.14845 177 181 187
0.80062 -3.35706 -0.13995 161 164 172
0.80386 -3.36630 -0.13145 156 165 169
0.80710 -3.37553 -0.12295 163 177 171
0.81035 -3.38475 -0.11445 163 176 176
0.81359 -3.39398 -0.10596 152 160 180
0.81683 -3.40320 -0.09747 157 168 177
0.82007 -3.41242 -0.08898 168 180 172
0.82331 -3.42163 -0.08050 158 165 170
0.82654 -3.43085 -0.07202 157 166 167
0.82978 -3.44006 -0.06354 162 168 166
0.83301 -3.44927 -0.05506 158 161 164
0.83625 -3.45847 -0.04658 155 158 166
0.83948 -3.46767 -0.03811 157 161 165
0.84271 -3.47687 -0.02964 157 163 164
0.84594 -3.48607 -0.02118 154 162 162
0.84917 -3.49526 -0.01271 149 162 155
0.85240 -3.50445 -0.00425 148 159 158
0.85563 -3.51364 0.00421 151 160 151
0.85886 -3.52283 0.01267 145 151 148
0.86209 -3.53201 0.02112 164 170 178
0.86531 -3.54119 0.02957 168 170 170
0.86854 -3.55036 0.03802 170 177 173
0.88786 -3.60537 0.08866 154 151 151
0.89108 -3.61452 0.09709 140 147 149
0.89429 -3.62368 0.10552 144 152 162
0.89751 -3.63283 0.11394 165 176 179
0.90072 -3.64198 0.12237 166 173 177
0.90394 -3.65112 0.13079 167 178 178
0.90715 -3.66027 0.13921 163 166 166
0.91036 -3.66941 0.14762 136 146 155
0.91357 -3.67854 0.15603 144 150 155
0.91678 -3.68768 0.16444 152 160 155
0.91999 -3.69681 0.17285 143 154 142
0.92320 -3.70594 0.18126 150 163 156
0.92640 -3.71507 0.18966 157 169 164
0.92961 -3.72419 0.19806 156 163 156
0.93282 -3.73331 0.20646 156 161 153
0.93602 -3.74243 0.21485 153 158 157
0.93922 -3.75155 0.22325 150 154 151
0.94242 -3.76066 0.23164 146 151 149
0.94562 -3.76977 0.24002 150 159 154
0.94882 -3.77887 0.24841 158 166 150
0.95202 -3.78798 0.25679 156 159 144
0.95522 -3.79708 0.26517 148 147 141
0.95842 -3.80618 0.27355 148 153 149
0.96161 -3.81527 0.28192 151 156 151
0.96481 -3.82437 0.29029 150 152 148
0.96800 -3.83346 0.29866 146 150 149
0.97120 -3.84255 0.30703 138 142 142
0.97439 -3.85163 0.31539 135 142 143
0.97758 -3.86071 0.32375 138 143 149
0.98077 -3.86979 0.33211 143 147 146
0.98396 -3.87887 0.34047 148 149 147
0.98715 -3.88794 0.34882 148 149 151
0.99352 -3.90608 0.36553 163 167 163
0.99670 -3.91515 0.37387 165 166 159
0.47168 -2.46335 -0.96400 186 191 185
0.47501 -2.47283 -0.95527 191 195 190
0.47834 -2.48230 -0.94655 189 194 189
0.48167 -2.49178 -0.93782 185 193 189
0.48500 -2.50125 -0.92910 186 193 187
0.48833 -2.51072 -0.92039 185 190 190
0.49166 -2.52018 -0.91167 187 192 196
0.49499 -2.52964 -0.90296 193 199 197
0.49831 -2.53910 -0.89425 198 201 199
0.50164 -2.54856 -0.88554 197 198 199
0.50496 -2.55801 -0.87684 196 199 197
0.50829 -2.56746 -0.86814 195 199 195
0.51161 -2.57691 -0.85944 191 193 191
0.51493 -2.58636 -0.85074 188 190 190
0.51825 -2.59580 -0.84205 190 192 196
0.52157 -2.60524 -0.83336 193 199 199
0.52488 -2.61467 -0.82467 192 200 201
0.52820 -2.62410 -0.81599 190 197 200
0.53152 -2.63354 -0.80731 190 197 198
0.53483 -2.64296 -0.79863 196 199 200
0.53814 -2.65239 -0.78995 202 205 206
0.54146 -2.66181 -0.78128 204 207 207
0.54477 -2.67123 -0.77260 193 197 204
0.54808 -2.68064 -0.76394 190 198 205
0.55139 -2.69005 -0.75527 196 204 206
0.55470 -2.69946 -0.74661 200 207 206
0.55800 -2.70887 -0.73794 198 202 209
0.56131 -2.71828 -0.72929 198 205 206
0.56462 -2.72768 -0.72063 199 207 207
0.56792 -2.73707 -0.71198 201 207 209
0.57122 -2.74647 -0.70333 202 209 209
0.57453 -2.75586 -0.69468 206 213 207
0.57783 -2.76525 -0.68604 200 205 197
0.58113 -2.77464 -0.67739 188 195 195
0.58443 -2.78402 -0.66875 195 197 201
0.58773 -2.79340 -0.66012 199 204 205
0.59102 -2.80278 -0.65148 201 203 207
0.59432 -2.81215 -0.64285 198 199 200
0.59761 -2.82153 -0.63422 189 192 203
0.60091 -2.83090 -0.62560 188 197 206
0.60420 -2.84026 -0.61697 193 202 210
0.60749 -2.84963 -0.60835 198 204 208
0.61078 -2.85899 -0.59973 194 201 203
0.61407 -2.86834 -0.59112 189 196 199
0.61736 -2.87770 -0.58250 191 195 196
0.62065 -2.88705 -0.57389 190 195 195
0.62394 -2.89640 -0.56529 187 195 199
0.62723 -2.90575 -0.55668 194 203 207
0.63051 -2.91509 -0.54808 198 207 208
0.63379 -2.92443 -0.53948 202 212 211
0.63708 -2.93377 -0.53088 193 203 208
0.64036 -2.94310 -0.52229 192 201 210
0.64364 -2.95243 -0.51370 194 207 208
0.64692 -2.96176 -0.50511 186 195 196
0.65020 -2.97109 -0.49652 177 185 193
0.65348 -2.98041 -0.48794 182 195 204
0.65675 -2.98973 -0.47936 187 202 207
0.66003 -2.99905 -0.47078 180 189 196
0.66331 -3.00836 -0.46220 181 187 198
0.66658 -3.01767 -0.45363 183 193 199
0.66985 -3.02698 -0.44506 173 180 183
0.67312 -3.03629 -0.43649 170 179 181
0.67640 -3.04559 -0.42792 176 191 192
0.67967 -3.05489 -0.41936 179 188 191
0.68293 -3.06419 -0.41080 175 181 178
0.68620 -3.07348 -0.40224 172 183 177
0.68947 -3.08278 -0.39369 174 183 182
0.69273 -3.09206 -0.38514 177 181 181
0.69600 -3.10135 -0.37659 178 176 177
0.69926 -3.11063 -0.36804 173 183 188
0.70253 -3.11991 -0.35950 169 183 193
0.70579 -3.12919 -0.35095 174 187 190
0.70905 -3.13847 -0.34241 178 192 190
0.71231 -3.14774 -0.33388 181 194 192
0.71557 -3.15701 -0.32534 186 193 196
0.71883 -3.16627 -0.31681 180 188 197
0.72208 -3.17554 -0.30828 176 179 185
0.72534 -3.18480 -0.29976 184 194 182
0.72859 -3.19405 -0.29123 186 190 187
0.73185 -3.20331 -0.28271 189 195 187
0.73510 -3.21256 -0.27420 174 187 178
0.73835 -3.22181 -0.26568 162 172 181
0.74160 -3.23106 -0.25717 154 159 163
0.74485 -3.24030 -0.24866 153 156 164
0.77082 -3.31414 -0.18067 166 172 162
0.77406 -3.32336 -0.17218 164 172 163
0.77730 -3.33258 -0.16370 166 181 182
0.78054 -3.34179 -0.15521 169 184 190
0.78378 -3.35100 -0.14673 167 178 177
0.78701 -3.36021 -0.13826 150 161 164
0.79025 -3.36941 -0.12978 149 158 167
0.79348 -3.37861 -0.12131 171 180 181
0.79672 -3.38781 -0.11284 188 196 189
0.79995 -3.39700 -0.10438 179 184 186
0.80318 -3.40620 -0.09591 166 176 177
0.80642 -3.41539 -0.08745 161 173 169
0.80965 -3.42457 -0.07899 149 158 164
0.81287 -3.43376 -0.07054 152 160 162
0.81610 -3.44294 -0.06208 158 163 166
0.81933 -3.45212 -0.05363 152 158 165
0.82256 -3.46129 -0.04519 154 159 165
0.82578 -3.47047 -0.03674 160 165 165
0.82901 -3.47964 -0.02830 155 164 163
0.83223 -3.48881 -0.01986 153 167 167
0.83545 -3.49797 -0.01142 156 177 167
0.83867 -3.50713 -0.00298 160 173 176
0.84189 -3.51629 0.00545 178 182 179
0.84511 -3.52545 0.01388 166 171 174
0.84833 -3.53460 0.02231 155 160 166
0.85155 -3.54375 0.03073 157 163 162
0.85476 -3.55290 0.03916 148 158 153
0.88046 -3.62598 0.10644 157 159 158
0.88367 -3.63511 0.11484 159 163 166
0.88687 -3.64423 0.12324 160 170 171
0.89008 -3.65334 0.13163 166 179 170
0.89328 -3.66246 0.14003 159 165 168
0.89649 -3.67157 0.14842 147 146 152
0.89969 -3.68068 0.15680 149 150 146
0.90289 -3.68978 0.16519 154 162 164
0.90609 -3.69889 0.17357 151 158 164
0.90929 -3.70799 0.18195 152 158 164
0.91249 -3.71709 0.19032 155 167 167
0.91569 -3.72618 0.19870 150 153 153
0.91889 -3.73527 0.20707 153 158 155
0.92208 -3.74436 0.21544 152 154 157
0.92528 -3.75345 0.22380 157 158 151
0.92847 -3.76253 0.23217 151 149 143
0.93166 -3.77162 0.24053 144 144 144
0.93486 -3.78069 0.24889 153 158 152
0.93805 -3.78977 0.25724 159 168 155
0.94124 -3.79884 0.26560 157 160 148
0.94443 -3.80791 0.27395 152 153 145
0.94762 -3.81698 0.28230 147 144 146
0.95080 -3.82605 0.29064 149 145 152
0.95399 -3.83511 0.29899 155 159 157
0.95717 -3.84417 0.30733 155 157 150
0.96036 -3.85322 0.31567 147 151 147
0.96354 -3.86228 0.32400 143 148 149
0.96672 -3.87133 0.33234 148 151 151
0.96991 -3.88038 0.34067 153 157 152
0.97309 -3.88942 0.34900 149 150 148
0.97627 -3.89847 0.35732 148 150 152
0.43898 -2.41258 -1.01195 185 187 177
0.44231 -2.42205 -1.00324 178 182 178
0.44564 -2.43151 -0.99453 173 180 179
0.44897 -2.44097 -0.98581 179 183 184
0.45230 -2.45043 -0.97711 183 187 189
0.45562 -2.45988 -0.96840 182 188 187
0.45895 -2.46934 -0.95970 185 191 188
0.46227 -2.47879 -0.95100 188 193 189
0.46560 -2.48823 -0.94230 187 194 185
0.46892 -2.49768 -0.93361 189 198 189
0.47224 -2.50712 -0.92491 192 198 192
0.47556 -2.51655 -0.91622 193 196 195
0.47888 -2.52599 -0.90754 195 197 199
0.48220 -2.53542 -0.89885 198 202 201
0.48552 -2.54485 -0.89017 200 203 202
0.48883 -2.55427 -0.88149 202 204 200
0.49215 -2.56370 -0.87282 202 207 200
0.49546 -2.57312 -0.86415 198 205 200
0.49878 -2.58253 -0.85547 195 199 199
0.50209 -2.59195 -0.84681 191 196 199
0.50540 -2.60136 -0.83814 193 197 200
0.50871 -2.61077 -0.82948 196 201 199
0.51202 -2.62017 -0.82082 195 200 198
0.51533 -2.62958 -0.81216 193 196 196
0.51863 -2.63898 -0.80351 191 193 194
0.52194 -2.64837 -0.79486 193 195 197
0.52525 -2.65777 -0.78621 201 206 208
0.52855 -2.66716 -0.77756 206 209 210
0.53185 -2.67655 -0.76892 204 207 205
0.53516 -2.68593 -0.76028 201 206 204
0.53846 -2.69531 -0.75164 199 203 202
0.54176 -2.70469 -0.74300 200 204 202
0.54506 -2.71407 -0.73437 196 202 203
0.54835 -2.72344 -0.72574 195 200 199
0.55165 -2.73281 -0.71711 195 198 201
0.55495 -2.74218 -0.70848 193 203 203
0.55824 -2.75155 -0.69986 195 203 204
0.56154 -2.76091 -0.69124 200 210 201
0.56483 -2.77027 -0.68262 200 206 198
0.56812 -2.77962 -0.67401 189 195 196
0.57141 -2.78898 -0.66540 200 205 207
0.57470 -2.79833 -0.65679 202 206 206
0.57799 -2.80768 -0.64818 200 198 207
0.58128 -2.81702 -0.63958 202 209 212
0.58457 -2.82636 -0.63098 195 201 210
0.58785 -2.83570 -0.62238 204 212 213
0.59114 -2.84504 -0.61378 203 209 208
0.59442 -2.85437 -0.60519 194 201 205
0.59770 -2.86370 -0.59660 187 192 196
0.60099 -2.87303 -0.58801 181 184 185
0.60427 -2.88235 -0.57942 193 197 194
0.60755 -2.89168 -0.57084 201 209 203
0.61082 -2.90100 -0.56226 194 203 202
0.61410 -2.91031 -0.55368 189 195 200
0.61738 -2.91963 -0.54511 193 206 207
0.62066 -2.92894 -0.53653 198 210 211
0.62393 -2.93824 -0.52796 191 199 199
0.62720 -2.94755 -0.51940 198 204 205
0.63048 -2.95685 -0.51083 195 201 202
0.63375 -2.96615 -0.50227 186 192 193
0.63702 -2.97545 -0.49371 182 187 192
0.64029 -2.98474 -0.48516 185 188 198
0.64356 -2.99403 -0.47660 186 194 201
0.64683 -3.00332 -0.46805 180 188 196
0.65009 -3.01260 -0.45950 179 193 199
0.65336 -3.02188 -0.45095 181 199 199
0.65662 -3.03116 -0.44241 178 188 185
0.65989 -3.04044 -0.43387 177 185 183
0.66315 -3.04971 -0.42533 182 194 201
0.66641 -3.05898 -0.41680 185 196 201
0.66967 -3.06825 -0.40826 179 185 182
0.67293 -3.07752 -0.39973 170 177 182
0.67619 -3.08678 -0.39120 168 177 189
0.67945 -3.09604 -0.38268 176 186 188
0.68271 -3.10529 -0.37416 179 191 184
0.68596 -3.11455 -0.36564 173 189 189
0.68922 -3.12380 -0.35712 171 184 178
0.69247 -3.13305 -0.34860 178 184 185
0.69572 -3.14229 -0.34009 181 196 196
0.69897 -3.15153 -0.33158 179 187 196
0.70223 -3.16077 -0.32308 177 190 200
0.70548 -3.17001 -0.31457 186 199 202
0.70872 -3.17924 -0.30607 174 186 187
0.71197 -3.18848 -0.29757 173 174 176
0.71522 -3.19770 -0.28907 182 185 185
0.71846 -3.20693 -0.28058 172 170 172
0.72171 -3.21615 -0.27209 155 167 172
0.72495 -3.22537 -0.26360 175 181 174
0.72820 -3.23459 -0.25511 167 171 165
0.73144 -3.24380 -0.24663 162 173 176
0.75410 -3.30822 -0.18732 172 179 167
0.75734 -3.31741 -0.17885 170 182 170
0.76057 -3.32660 -0.17039 163 174 158
0.76380 -3.33579 -0.16193 162 168 169
0.76703 -3.34497 -0.15348 167 180 183
0.77349 -3.36333 -0.13658 159 170 157
0.77672 -3.37251 -0.12813 162 170 161
0.77995 -3.38168 -0.11968 174 184 176
0.78317 -3.39085 -0.11124 177 183 183
0.78640 -3.40001 -0.10280 170 174 179
0.78962 -3.40918 -0.09436 160 170 170
0.79285 -3.41834 -0.08593 156 165 166
0.79607 -3.42750 -0.07750 162 170 168
0.79929 -3.43665 -0.06907 166 172 169
0.80251 -3.44580 -0.06064 165 168 171
0.80573 -3.45495 -0.05222 157 163 167
0.80895 -3.46410 -0.04379 156 159 165
0.81217 -3.47325 -0.03538 164 169 167
0.81538 -3.48239 -0.02696 157 165 161
0.81860 -3.49153 -0.01854 157 171 165
0.82181 -3.50066 -0.01013 155 167 167
0.82503 -3.50979 -0.00172 159 164 171
0.82824 -3.51892 0.00668 173 175 179
0.83145 -3.52805 0.01509 174 174 181
0.83466 -3.53718 0.02349 157 161 160
0.83787 -3.54630 0.03189 154 162 156
0.84108 -3.55542 0.04028 147 164 148
0.86671 -3.62827 0.10736 152 156 152
0.86991 -3.63737 0.11574 148 152 148
0.87311 -3.64646 0.12411 144 152 156
0.87631 -3.65555 0.13247 153 168 163
0.87950 -3.66463 0.14084 155 163 165
0.88270 -3.67372 0.14920 162 167 162
0.88590 -3.68280 0.15756 159 163 157
0.88909 -3.69188 0.16592 158 165 169
0.89228 -3.70095 0.17428 160 167 169
0.89547 -3.71002 0.18263 161 167 165
0.89867 -3.71909 0.19098 162 168 164
0.90186 -3.72816 0.19933 151 150 150
0.90504 -3.73722 0.20768 149 155 157
0.90823 -3.74629 0.21602 153 157 160
0.91142 -3.75534 0.22436 165 164 161
0.91461 -3.76440 0.23270 163 164 160
0.91779 -3.77345 0.24103 150 153 148
0.92098 -3.78250 0.24937 153 161 153
0.92416 -3.79155 0.25770 161 171 160
0.92734 -3.80060 0.26602 164 169 152
0.93052 -3.80964 0.27435 157 157 144
0.93370 -3.81868 0.28267 146 142 139
0.93688 -3.82771 0.29099 146 145 148
0.94006 -3.83675 0.29931 158 164 162
0.94324 -3.84578 0.30763 166 171 161
0.94642 -3.85481 0.31594 155 159 153
0.94959 -3.86383 0.32425 149 151 148
0.95277 -3.87286 0.33256 152 153 147
0.95594 -3.88188 0.34086 147 152 144
0.95911 -3.89090 0.34917 145 151 142
0.96228 -3.89991 0.35747 154 160 150
0.42638 -2.41872 -1.00751 187 194 191
0.42970 -2.42815 -0.99882 181 186 186
0.43302 -2.43759 -0.99014 174 181 184
0.43635 -2.44702 -0.98146 178 184 186
0.43966 -2.45644 -0.97277 182 187 190
0.44298 -2.46587 -0.96410 182 188 190
0.44630 -2.47529 -0.95542 185 193 189
0.44962 -2.48471 -0.94675 186 192 189
0.45293 -2.49412 -0.93808 185 191 188
0.45624 -2.50354 -0.92941 193 199 196
0.45956 -2.51295 -0.92075 203 206 203
0.46287 -2.52235 -0.91209 203 204 203
0.46618 -2.53176 -0.90343 200 202 202
0.46949 -2.54116 -0.89477 199 202 201
