ply
format ascii 1.0
element face 0
property list uchar int vertex_indices
element vertex 1290
property float x
property float y
property float z
property uchar diffuse_red
property uchar diffuse_green
property uchar diffuse_blue
end_header
0.67719 -4.26873 0.64395 154 150 128
0.67451 -4.27855 0.65235 143 136 127
0.67183 -4.28836 0.66075 133 131 128
0.66915 -4.29817 0.66915 147 147 131
0.66647 -4.30798 0.67755 148 144 131
0.66379 -4.31778 0.68594 140 138 132
0.66111 -4.32759 0.69433 147 144 138
0.65843 -4.33738 0.70272 157 152 139
0.65576 -4.34718 0.71110 150 139 131
0.65308 -4.35697 0.71948 139 126 125
0.65041 -4.36676 0.72786 137 131 131
0.64773 -4.37654 0.73624 137 131 127
0.64506 -4.38632 0.74461 132 130 124
0.64239 -4.39610 0.75298 130 135 131
0.63972 -4.40588 0.76135 142 144 128
0.63705 -4.41565 0.76972 148 150 130
0.63438 -4.42542 0.77808 148 148 134
0.63171 -4.43518 0.78644 137 128 123
0.62904 -4.44494 0.79480 132 131 129
0.62637 -4.45470 0.80315 136 124 119
0.62371 -4.46446 0.81150 134 116 118
0.62104 -4.47421 0.81985 134 132 134
0.61838 -4.48396 0.82820 136 128 136
0.61571 -4.49371 0.83654 136 136 137
0.61305 -4.50345 0.84488 128 125 120
0.61039 -4.51319 0.85322 123 124 121
0.60773 -4.52293 0.86155 136 132 123
0.60507 -4.53266 0.86989 132 133 118
0.60241 -4.54239 0.87822 132 131 121
0.59975 -4.55212 0.88654 128 126 111
0.59709 -4.56184 0.89487 125 117 97
0.59444 -4.57156 0.90319 116 113 105
0.59178 -4.58128 0.91151 122 131 120
0.58913 -4.59100 0.91982 117 105 101
0.58647 -4.60071 0.92814 121 114 93
0.58382 -4.61042 0.93645 118 113 109
0.58117 -4.62012 0.94476 101 96 88
0.57852 -4.62982 0.95306 122 136 115
0.57587 -4.63952 0.96136 124 127 118
0.82762 -3.66107 0.12182 149 153 139
0.81400 -3.71096 0.16454 159 155 152
0.78139 -3.83038 0.26677 147 143 134
0.77868 -3.84031 0.27527 141 141 144
0.77597 -3.85024 0.28377 143 144 138
0.72195 -4.04810 0.45315 140 132 129
0.71657 -4.06781 0.47003 142 137 131
0.71388 -4.07766 0.47846 146 153 144
0.71119 -4.08751 0.48689 153 154 141
0.70850 -4.09736 0.49532 146 139 130
0.70582 -4.10720 0.50375 138 133 128
0.70313 -4.11704 0.51217 132 134 126
0.70045 -4.12688 0.52059 131 138 120
0.69776 -4.13671 0.52901 135 136 127
0.69508 -4.14654 0.53743 142 144 132
0.69239 -4.15636 0.54584 150 148 131
0.68971 -4.16619 0.55425 141 137 131
0.68703 -4.17601 0.56266 128 130 125
0.68435 -4.18583 0.57106 129 127 117
0.68167 -4.19564 0.57946 130 120 112
0.67899 -4.20545 0.58786 130 126 117
0.67632 -4.21526 0.59626 139 142 126
0.67364 -4.22506 0.60465 147 148 127
0.67096 -4.23486 0.61304 135 137 119
0.66829 -4.24466 0.62143 128 135 122
0.66561 -4.25445 0.62981 139 148 131
0.66294 -4.26424 0.63819 149 154 124
0.66027 -4.27403 0.64657 148 146 126
0.65760 -4.28382 0.65495 144 144 137
0.65493 -4.29360 0.66332 148 150 143
0.65226 -4.30338 0.67169 147 144 137
0.64959 -4.31315 0.68006 140 140 134
0.64692 -4.32292 0.68843 138 141 142
0.64425 -4.33269 0.69679 132 130 128
0.64159 -4.34246 0.70515 127 124 109
0.63892 -4.35222 0.71351 131 128 116
0.63626 -4.36198 0.72186 136 141 135
0.63359 -4.37174 0.73022 136 137 139
0.63093 -4.38149 0.73857 139 136 128
0.62827 -4.39124 0.74691 143 144 122
0.62561 -4.40099 0.75526 140 137 116
0.62295 -4.41073 0.76360 145 140 123
0.62029 -4.42047 0.77194 154 153 137
0.61763 -4.43021 0.78027 143 136 119
0.61497 -4.43994 0.78860 143 145 129
0.61232 -4.44967 0.79693 141 131 118
0.60966 -4.45940 0.80526 132 118 111
0.60701 -4.46912 0.81359 132 126 117
0.60435 -4.47884 0.82191 130 122 117
0.60170 -4.48856 0.83023 126 121 121
0.59905 -4.49828 0.83855 115 107 93
0.59639 -4.50799 0.84686 112 119 101
0.59374 -4.51770 0.85517 142 143 129
0.59109 -4.52740 0.86348 140 136 121
0.58845 -4.53711 0.87178 136 136 131
0.58580 -4.54680 0.88009 133 128 117
0.58315 -4.55650 0.88839 122 122 111
0.58050 -4.56619 0.89669 116 120 118
0.57786 -4.57588 0.90498 121 127 128
0.57521 -4.58557 0.91327 118 120 110
0.57257 -4.59525 0.92156 119 120 107
0.56993 -4.60493 0.92985 114 103 114
0.56729 -4.61461 0.93814 118 115 106
0.56464 -4.62428 0.94642 121 133 121
0.79924 -3.70813 0.16020 156 155 153
0.76677 -3.82720 0.26213 147 146 139
0.76407 -3.83710 0.27060 143 156 143
0.70488 -4.05410 0.45638 133 132 126
0.62219 -4.35723 0.71590 142 142 131
0.61954 -4.36696 0.72423 142 136 139
0.61689 -4.37669 0.73255 145 141 131
0.61424 -4.38641 0.74088 145 145 124
0.61158 -4.39613 0.74920 145 138 122
0.60893 -4.40584 0.75751 144 136 125
0.60629 -4.41555 0.76583 143 136 116
0.60364 -4.42526 0.77414 135 137 103
0.60099 -4.43497 0.78245 142 150 137
0.59834 -4.44467 0.79076 146 149 135
0.59570 -4.45437 0.79906 140 131 115
0.59305 -4.46407 0.80736 144 148 139
0.59041 -4.47376 0.81566 138 138 125
0.58777 -4.48345 0.82395 131 126 112
0.58512 -4.49313 0.83225 126 120 104
0.58248 -4.50282 0.84054 126 128 114
0.57984 -4.51250 0.84883 131 137 126
0.57720 -4.52218 0.85711 130 123 122
0.57456 -4.53185 0.86539 128 124 121
0.57193 -4.54152 0.87367 127 121 113
0.56929 -4.55119 0.88195 117 105 116
0.56665 -4.56085 0.89022 136 134 117
0.56402 -4.57051 0.89849 130 125 120
0.56138 -4.58017 0.90676 126 120 107
0.55875 -4.58983 0.91503 122 121 111
0.55612 -4.59948 0.92329 123 126 118
0.55349 -4.60913 0.93155 136 141 132
0.69058 -4.05026 0.45120 134 136 128
0.59237 -4.41067 0.75976 151 153 123
0.58973 -4.42035 0.76805 137 144 133
0.58709 -4.43002 0.77633 137 136 139
0.58445 -4.43970 0.78461 145 145 140
0.58182 -4.44937 0.79289 132 121 113
0.57918 -4.45904 0.80117 131 124 120
0.57655 -4.46870 0.80945 132 127 119
0.57392 -4.47836 0.81772 131 124 104
0.57129 -4.48802 0.82599 125 121 111
0.56865 -4.49768 0.83425 124 115 119
0.56602 -4.50733 0.84252 114 114 121
0.56339 -4.51698 0.85078 121 123 118
0.56077 -4.52663 0.85904 126 122 113
0.55814 -4.53627 0.86729 132 120 112
0.55551 -4.54591 0.87555 117 106 117
0.55288 -4.55555 0.88380 129 130 123
0.55026 -4.56518 0.89205 126 124 109
0.54764 -4.57481 0.90029 109 108 96
0.54501 -4.58444 0.90853 113 116 110
0.54239 -4.59406 0.91677 134 142 111
0.53977 -4.60368 0.92501 121 98 120
0.57590 -4.41546 0.76199 142 140 130
0.57327 -4.42511 0.77025 131 134 133
0.57065 -4.43475 0.77851 130 131 129
0.56802 -4.44440 0.78677 106 108 108
0.56540 -4.45404 0.79502 108 113 104
0.56277 -4.46368 0.80327 127 131 116
0.56015 -4.47331 0.81152 132 133 111
0.55753 -4.48294 0.81976 119 121 114
0.55491 -4.49257 0.82801 129 129 116
0.55229 -4.50219 0.83625 125 114 119
0.54967 -4.51181 0.84449 120 117 113
0.54705 -4.52143 0.85272 114 115 104
0.54443 -4.53105 0.86095 124 119 107
0.53397 -4.56948 0.89386 116 123 109
0.53135 -4.57908 0.90208 123 129 119
0.52874 -4.58868 0.91029 146 145 135
0.54647 -4.46829 0.80536 140 132 115
0.54385 -4.47789 0.81358 115 119 106
0.54124 -4.48749 0.82180 130 132 126
0.53863 -4.49709 0.83002 128 117 109
0.53602 -4.50668 0.83823 121 115 108
0.53341 -4.51627 0.84644 113 112 114
0.53081 -4.52586 0.85465 133 128 110
0.51778 -4.57375 0.89566 136 152 133
0.51518 -4.58332 0.90385 133 124 131
0.53026 -4.47287 0.80743 132 137 126
0.52766 -4.48244 0.81563 123 121 112
0.52506 -4.49201 0.82382 126 128 102
0.52246 -4.50157 0.83201 129 122 102
0.51986 -4.51114 0.84020 140 135 150
0.51726 -4.52070 0.84839 139 128 121
0.50428 -4.56845 0.88928 130 139 134
0.50897 -4.49650 0.82583 125 121 112
0.50638 -4.50604 0.83399 135 126 123
0.50379 -4.51557 0.84216 130 120 106
0.49299 -4.50097 0.82782 119 120 112
0.37607 -4.50788 0.81952 113 105 110
0.37357 -4.51716 0.82747 116 107 105
0.37107 -4.52644 0.83542 115 120 122
0.37586 -4.45662 0.77388 122 123 118
0.37337 -4.46589 0.78182 123 127 120
0.37087 -4.47516 0.78976 127 122 104
0.36838 -4.48442 0.79770 110 113 102
0.36589 -4.49368 0.80563 125 124 114
0.36340 -4.50294 0.81356 108 97 120
0.36091 -4.51219 0.82148 121 128 103
0.35842 -4.52144 0.82941 124 121 111
0.35593 -4.53069 0.83733 121 114 118
0.39809 -4.32213 0.65696 127 126 122
0.38312 -4.37779 0.70463 111 113 114
0.38063 -4.38705 0.71257 116 120 108
0.37814 -4.39632 0.72051 123 118 126
0.37565 -4.40558 0.72844 125 119 124
0.37316 -4.41483 0.73637 130 130 122
0.37068 -4.42409 0.74429 101 105 97
0.36819 -4.43334 0.75222 117 123 126
0.36570 -4.44259 0.76014 113 104 113
0.36322 -4.45183 0.76806 106 100 99
0.36073 -4.46108 0.77598 113 117 111
0.35825 -4.47032 0.78389 121 121 107
0.35576 -4.47956 0.79181 118 119 116
0.35328 -4.48879 0.79972 122 128 129
0.35080 -4.49802 0.80763 115 115 123
0.34832 -4.50725 0.81553 131 138 125
0.34584 -4.51648 0.82343 127 126 114
0.34336 -4.52570 0.83133 119 119 122
0.34088 -4.53492 0.83923 128 132 129
0.33840 -4.54414 0.84713 120 112 113
0.38539 -4.31773 0.65147 130 127 106
0.38290 -4.32699 0.65940 132 132 124
0.38042 -4.33624 0.66733 125 125 123
0.37793 -4.34549 0.67526 127 127 117
0.37545 -4.35474 0.68318 112 108 100
0.37296 -4.36399 0.69110 117 117 114
0.37048 -4.37323 0.69902 116 118 122
0.36800 -4.38247 0.70693 124 130 118
0.36552 -4.39171 0.71485 124 122 114
0.36304 -4.40094 0.72276 122 126 117
0.36056 -4.41018 0.73066 115 120 113
0.35808 -4.41940 0.73857 96 104 93
0.35560 -4.42863 0.74647 100 105 111
0.35312 -4.43785 0.75437 104 104 103
0.35064 -4.44707 0.76227 101 103 97
0.34817 -4.45629 0.77017 106 113 109
0.34569 -4.46551 0.77806 112 118 106
0.34322 -4.47472 0.78595 115 110 97
0.34074 -4.48393 0.79384 120 114 104
0.33827 -4.49313 0.80173 116 113 112
0.33580 -4.50234 0.80961 123 133 110
0.33333 -4.51154 0.81749 115 120 106
0.33086 -4.52074 0.82537 111 99 105
0.32839 -4.52993 0.83325 107 92 90
0.32592 -4.53912 0.84112 113 111 106
0.32345 -4.54831 0.84899 118 126 102
0.37276 -4.31335 0.64602 126 132 111
0.37028 -4.32259 0.65393 119 116 111
0.36781 -4.33182 0.66183 117 113 101
0.36533 -4.34104 0.66974 124 118 115
0.36286 -4.35027 0.67764 119 114 98
0.36038 -4.35949 0.68554 116 107 102
0.35791 -4.36870 0.69343 118 115 117
0.35543 -4.37792 0.70133 126 120 114
0.35296 -4.38713 0.70922 123 113 107
0.35049 -4.39634 0.71711 118 118 114
0.34802 -4.40555 0.72499 120 123 113
0.34555 -4.41475 0.73288 107 110 93
0.34308 -4.42395 0.74076 108 103 97
0.30859 -4.55246 0.85085 109 115 122
0.30613 -4.56162 0.85870 114 117 125
0.36021 -4.30900 0.64059 128 126 123
0.35774 -4.31821 0.64848 122 118 117
0.35527 -4.32741 0.65636 114 115 111
0.35280 -4.33661 0.66425 119 122 120
0.35034 -4.34581 0.67213 116 117 116
0.29381 -4.55659 0.85269 114 108 120
0.35018 -4.29549 0.62733 127 124 121
0.34772 -4.30468 0.63520 133 131 130
0.34526 -4.31386 0.64307 136 132 132
0.33776 -4.29121 0.62199 121 127 116
0.33531 -4.30037 0.62984 116 114 123
0.30819 -4.25126 0.58278 112 110 106
0.29844 -4.23808 0.56985 117 119 115
0.29602 -4.24715 0.57762 113 108 110
0.28632 -4.23402 0.56473 120 123 115
0.28391 -4.24306 0.57249 119 122 113
0.27428 -4.22998 0.55965 123 115 111
0.27187 -4.23900 0.56738 119 114 116
0.26230 -4.22596 0.55460 119 112 112
0.25990 -4.23496 0.56231 112 104 118
0.25751 -4.24395 0.57001 115 112 126
0.25038 -4.22197 0.54957 116 114 117
0.24800 -4.23094 0.55726 110 110 117
0.24561 -4.23991 0.56495 108 110 120
0.23853 -4.21800 0.54457 120 118 116
0.23615 -4.22695 0.55224 113 114 112
0.23378 -4.23589 0.55990 106 110 115
0.23140 -4.24484 0.56757 107 112 119
0.43322 -3.43642 -0.12684 159 170 173
0.43079 -3.44558 -0.11899 176 182 175
0.22675 -4.21405 0.53960 123 127 122
0.22438 -4.22297 0.54725 116 117 107
0.22201 -4.23189 0.55489 108 110 107
0.21964 -4.24081 0.56254 110 113 117
0.42078 -3.43459 -0.13000 178 179 184
0.41835 -3.44373 -0.12218 183 187 179
0.21503 -4.21012 0.53465 113 113 114
0.21267 -4.21902 0.54228 114 117 108
0.21031 -4.22792 0.54991 117 122 106
0.20795 -4.23681 0.55753 117 120 112
0.13747 -4.50247 0.78521 122 124 122
0.13513 -4.51128 0.79276 112 109 111
0.13279 -4.52010 0.80032 102 96 90
0.40840 -3.43277 -0.13315 158 159 180
0.40599 -3.44188 -0.12535 178 183 178
0.40357 -3.45099 -0.11754 171 170 171
0.20102 -4.21509 0.53734 106 109 108
0.19867 -4.22396 0.54495 116 120 112
0.19631 -4.23283 0.55255 116 122 113
0.19396 -4.24170 0.56015 115 118 114
0.12841 -4.48900 0.77210 122 119 119
0.12608 -4.49779 0.77964 117 110 109
0.12375 -4.50658 0.78717 105 96 100
0.12142 -4.51537 0.79470 101 98 98
0.11909 -4.52416 0.80223 104 104 105
0.39610 -3.43096 -0.13628 156 153 166
0.39369 -3.44005 -0.12850 175 177 179
0.18709 -4.22003 0.54002 112 114 109
0.18475 -4.22888 0.54760 111 108 104
0.18240 -4.23772 0.55518 109 112 108
0.18006 -4.24657 0.56276 115 115 113
0.11475 -4.49313 0.77409 117 116 122
0.11243 -4.50190 0.78161 120 123 120
0.11010 -4.51067 0.78912 118 115 107
0.10778 -4.51943 0.79663 110 103 87
0.38146 -3.43822 -0.13163 170 177 182
0.17324 -4.22494 0.54268 118 108 101
0.17090 -4.23376 0.55024 104 97 102
0.09885 -4.50599 0.78357 117 119 109
0.09654 -4.51473 0.79106 109 109 93
0.36930 -3.43641 -0.13475 159 152 172
0.36691 -3.44544 -0.12701 175 184 190
0.36452 -3.45447 -0.11927 172 170 172
0.08766 -4.50134 0.77805 113 118 106
0.08536 -4.51006 0.78552 112 116 99
0.35720 -3.43461 -0.13785 149 149 166
0.35482 -3.44361 -0.13013 171 164 163
0.35244 -3.45262 -0.12241 163 152 155
0.07883 -4.48802 0.76510 125 122 102
0.07424 -4.50541 0.78001 111 113 106
0.06775 -4.48344 0.75966 125 121 114
0.39729 -3.18814 -0.35221 169 176 177
0.39491 -3.19717 -0.34447 156 160 180
0.05902 -4.47023 0.74682 125 121 138
0.38754 -3.17801 -0.36243 169 161 169
0.38517 -3.18702 -0.35471 154 155 173
0.38279 -3.19602 -0.34699 156 165 173
0.32366 -3.42032 -0.15472 165 169 171
0.32130 -3.42925 -0.14705 166 173 168
0.05032 -4.45709 0.73405 122 121 110
0.37785 -3.16793 -0.37260 174 168 166
0.37548 -3.17691 -0.36490 155 146 159
0.37311 -3.18590 -0.35719 151 153 174
0.37075 -3.19488 -0.34949 164 171 174
0.04168 -4.44401 0.72135 113 114 111
0.29769 -3.42573 -0.15311 150 160 171
0.17003 -3.91070 0.26265 141 137 127
0.16773 -3.91944 0.27015 129 129 128
0.03307 -4.43100 0.70870 120 130 128
0.03081 -4.43959 0.71607 127 133 125
0.02855 -4.44819 0.72344 125 131 124
0.02628 -4.45678 0.73080 129 138 129
0.28598 -3.42399 -0.15611 139 148 164
0.15876 -3.90767 0.25857 129 126 114
0.15646 -3.91640 0.26605 132 136 131
0.16815 -3.82625 0.18728 142 139 135
0.16586 -3.83497 0.19475 127 121 134
0.14983 -3.89596 0.24704 137 136 131
0.14754 -3.90467 0.25451 130 130 122
0.14525 -3.91337 0.26197 124 128 130
0.14297 -3.92207 0.26942 134 135 137
0.15692 -3.82346 0.18341 144 142 134
0.15464 -3.83216 0.19087 126 127 129
0.15235 -3.84086 0.19832 135 141 129
0.14550 -3.86694 0.22068 138 129 137
0.14322 -3.87563 0.22813 131 131 143
0.14094 -3.88431 0.23558 146 154 154
0.13866 -3.89300 0.24302 138 131 128
0.13638 -3.90168 0.25046 133 133 130
0.13410 -3.91035 0.25790 128 131 130
0.13182 -3.91903 0.26534 138 134 136
0.14576 -3.82069 0.17956 139 134 119
0.14348 -3.82937 0.18700 123 121 123
0.14120 -3.83804 0.19444 124 116 116
0.13438 -3.86405 0.21674 128 125 135
0.13210 -3.87272 0.22417 122 124 136
0.12983 -3.88138 0.23160 146 150 156
0.12756 -3.89004 0.23902 138 133 129
0.12528 -3.89870 0.24644 132 128 136
0.12301 -3.90736 0.25387 146 149 141
0.12074 -3.91601 0.26128 147 146 135
0.11877 -3.87847 0.22764 137 143 137
0.11651 -3.88710 0.23504 136 135 130
0.11424 -3.89574 0.24245 134 129 132
0.11198 -3.90437 0.24985 147 144 138
0.10972 -3.91300 0.25725 143 133 131
1.64938 -2.46619 1.34468 207 206 162
1.65126 -2.47610 1.33498 171 167 157
1.65315 -2.48607 1.32522 169 158 150
1.63939 -2.48878 1.33250 173 149 142
1.62571 -2.49148 1.33974 172 150 139
1.61211 -2.49416 1.34693 172 149 136
1.59859 -2.49683 1.35408 170 147 136
1.58515 -2.49948 1.36119 168 148 132
1.57178 -2.50212 1.36826 167 145 130
1.55850 -2.50474 1.37529 166 145 131
1.54529 -2.50735 1.38228 166 145 124
1.53216 -2.50994 1.38923 166 144 121
1.51910 -2.51251 1.39613 163 140 118
1.65505 -2.49610 1.31540 168 160 144
1.64124 -2.49879 1.32273 173 153 137
1.62751 -2.50147 1.33002 172 152 134
1.61387 -2.50413 1.33726 171 151 130
1.60030 -2.50678 1.34446 170 149 130
1.58681 -2.50941 1.35162 168 148 130
1.57341 -2.51202 1.35874 167 148 130
1.56008 -2.51462 1.36582 166 147 130
1.54683 -2.51721 1.37286 167 147 126
1.53365 -2.51978 1.37985 168 146 123
1.52055 -2.52233 1.38681 167 145 123
1.50753 -2.52487 1.39372 165 145 128
1.49458 -2.52740 1.40060 166 146 126
1.48170 -2.52991 1.40743 167 147 124
1.46890 -2.53240 1.41423 171 149 128
1.45617 -2.53489 1.42099 171 151 128
1.44352 -2.53735 1.42771 173 149 127
1.43093 -2.53981 1.43439 175 151 131
1.41842 -2.54225 1.44103 173 152 129
1.40598 -2.54468 1.44764 173 152 129
1.39360 -2.54709 1.45421 174 151 126
1.38130 -2.54949 1.46074 174 149 126
1.36906 -2.55188 1.46724 173 149 125
1.35690 -2.55425 1.47370 171 151 130
1.65696 -2.50619 1.30552 168 158 135
1.64310 -2.50886 1.31290 173 153 133
1.62933 -2.51152 1.32024 173 153 135
1.61564 -2.51416 1.32753 171 151 128
1.60202 -2.51678 1.33479 169 148 128
1.58849 -2.51939 1.34200 168 149 131
1.57504 -2.52198 1.34917 167 149 128
1.56167 -2.52456 1.35629 167 148 127
1.54837 -2.52713 1.36338 167 147 128
1.53515 -2.52967 1.37042 168 146 130
1.52201 -2.53221 1.37742 167 147 131
1.50894 -2.53473 1.38439 166 146 133
1.49595 -2.53723 1.39131 165 145 126
1.48303 -2.53972 1.39819 168 147 122
1.47019 -2.54220 1.40503 170 150 127
1.45742 -2.54466 1.41184 170 151 127
1.44473 -2.54711 1.41860 172 151 130
1.43210 -2.54954 1.42533 174 152 125
1.41955 -2.55196 1.43202 174 153 124
1.40707 -2.55437 1.43867 173 151 136
1.39465 -2.55676 1.44528 175 149 131
1.38231 -2.55914 1.45186 175 148 130
1.37004 -2.56151 1.45840 175 150 130
1.35783 -2.56386 1.46490 172 153 130
1.65888 -2.51635 1.29557 169 158 137
1.64498 -2.51899 1.30301 174 153 132
1.63116 -2.52163 1.31040 174 153 134
1.61742 -2.52425 1.31775 172 152 133
1.60376 -2.52685 1.32505 169 150 134
1.59018 -2.52944 1.33231 168 150 131
1.57668 -2.53201 1.33953 168 149 124
1.56326 -2.53456 1.34671 169 149 122
1.54992 -2.53711 1.35384 167 149 129
1.53666 -2.53963 1.36093 165 148 133
1.52347 -2.54214 1.36799 166 146 131
1.51037 -2.54464 1.37500 165 144 133
1.49733 -2.54713 1.38197 165 146 130
1.48437 -2.54959 1.38890 169 147 129
1.47149 -2.55205 1.39579 170 150 130
1.45868 -2.55449 1.40264 171 151 134
1.44594 -2.55692 1.40945 173 153 137
1.43328 -2.55933 1.41622 175 152 125
1.42068 -2.56173 1.42295 174 150 125
1.40816 -2.56412 1.42965 172 153 132
1.39571 -2.56649 1.43631 174 150 128
1.38333 -2.56885 1.44293 176 150 133
1.37102 -2.57119 1.44951 175 153 138
1.35878 -2.57352 1.45606 172 150 126
1.66082 -2.52656 1.28557 169 156 143
1.64687 -2.52919 1.29306 174 153 135
1.63300 -2.53180 1.30050 172 152 136
1.61921 -2.53439 1.30790 170 150 137
1.60550 -2.53698 1.31526 168 150 136
1.59188 -2.53954 1.32257 167 149 133
1.57834 -2.54209 1.32984 167 148 126
1.56487 -2.54462 1.33706 168 148 123
1.55149 -2.54714 1.34425 167 147 125
1.53818 -2.54965 1.35139 167 147 127
1.52495 -2.55214 1.35849 167 145 131
1.51180 -2.55462 1.36555 168 147 136
1.49872 -2.55708 1.37257 168 149 133
1.48572 -2.55953 1.37954 169 148 131
1.47279 -2.56196 1.38648 172 151 122
1.45994 -2.56438 1.39338 172 153 134
1.44716 -2.56678 1.40024 174 153 135
1.43446 -2.56918 1.40706 174 154 128
1.42182 -2.57155 1.41384 175 152 132
1.40926 -2.57392 1.42058 175 151 136
1.39677 -2.57627 1.42728 177 153 128
1.38435 -2.57861 1.43395 177 152 129
1.37200 -2.58093 1.44057 175 152 132
1.35972 -2.58325 1.44716 171 148 123
1.66277 -2.53684 1.27551 170 156 139
1.64876 -2.53945 1.28305 173 154 131
1.63485 -2.54203 1.29054 172 154 130
1.62101 -2.54461 1.29800 169 150 127
1.60726 -2.54716 1.30540 168 149 126
1.59359 -2.54971 1.31277 167 149 131
1.58000 -2.55223 1.32009 166 149 129
1.56649 -2.55475 1.32736 167 149 127
1.55306 -2.55724 1.33460 168 147 124
1.53971 -2.55973 1.34179 168 145 124
1.52643 -2.56220 1.34894 168 145 126
1.51324 -2.56465 1.35605 171 147 129
1.50012 -2.56709 1.36311 170 148 126
1.48707 -2.56952 1.37014 170 148 128
1.47410 -2.57193 1.37712 175 149 124
1.46121 -2.57433 1.38407 173 149 129
1.44839 -2.57671 1.39097 175 150 129
1.43564 -2.57908 1.39784 174 151 123
1.42297 -2.58144 1.40466 175 151 127
1.41037 -2.58378 1.41145 175 153 125
1.39784 -2.58611 1.41820 177 152 125
1.38538 -2.58843 1.42491 177 152 123
1.37299 -2.59073 1.43158 175 151 128
1.36067 -2.59302 1.43822 173 148 126
1.66473 -2.54718 1.26538 169 157 132
1.65067 -2.54976 1.27297 170 154 126
1.63671 -2.55233 1.28052 170 153 129
1.62283 -2.55488 1.28803 169 151 126
1.60903 -2.55742 1.29549 167 149 127
1.59531 -2.55993 1.30290 166 149 132
1.58167 -2.56244 1.31027 166 148 135
1.56812 -2.56493 1.31760 168 149 134
1.55464 -2.56740 1.32489 168 148 126
1.54124 -2.56987 1.33213 168 146 123
1.52793 -2.57231 1.33933 168 147 123
1.51468 -2.57474 1.34649 173 151 124
1.50152 -2.57716 1.35360 169 150 115
1.48844 -2.57957 1.36067 169 149 124
1.47542 -2.58196 1.36771 171 148 123
1.46249 -2.58433 1.37470 170 149 121
1.44963 -2.58669 1.38165 173 152 127
1.43684 -2.58904 1.38857 174 150 128
1.42413 -2.59138 1.39544 176 152 129
1.41148 -2.59370 1.40227 175 153 126
1.39892 -2.59601 1.40907 178 153 128
1.38642 -2.59830 1.41582 175 155 126
1.37399 -2.60059 1.42254 175 151 126
1.36163 -2.60286 1.42922 173 144 122
1.66670 -2.55759 1.25519 171 158 137
1.65260 -2.56015 1.26284 172 153 133
1.63858 -2.56269 1.27044 171 152 131
1.62465 -2.56522 1.27800 169 150 125
1.61080 -2.56773 1.28551 167 148 126
1.59704 -2.57023 1.29298 167 147 132
1.58335 -2.57271 1.30040 168 148 132
1.56975 -2.57517 1.30778 170 147 133
1.55623 -2.57763 1.31512 169 147 130
1.54279 -2.58007 1.32241 168 147 125
1.52943 -2.58249 1.32966 167 149 123
1.51614 -2.58490 1.33687 170 154 126
1.50294 -2.58729 1.34403 170 151 122
1.48981 -2.58968 1.35116 171 148 127
1.47675 -2.59204 1.35824 172 148 128
1.46377 -2.59440 1.36528 173 148 128
1.45087 -2.59674 1.37228 175 152 130
1.43804 -2.59906 1.37924 174 152 130
1.42529 -2.60138 1.38616 175 153 130
1.41261 -2.60368 1.39304 178 154 135
1.40000 -2.60597 1.39988 181 153 141
1.38746 -2.60824 1.40668 178 153 132
1.37499 -2.61050 1.41344 176 151 132
1.66868 -2.56806 1.24494 171 157 139
1.65453 -2.57060 1.25264 172 154 132
1.64047 -2.57312 1.26030 171 152 131
1.62649 -2.57562 1.26791 170 149 127
1.61259 -2.57811 1.27548 169 148 127
1.59878 -2.58058 1.28300 168 147 131
1.58505 -2.58304 1.29047 167 146 130
1.57140 -2.58548 1.29790 169 146 132
1.55783 -2.58791 1.30529 169 147 132
1.54435 -2.59033 1.31263 168 147 121
1.53094 -2.59273 1.31993 169 149 114
1.51761 -2.59511 1.32719 172 150 124
1.50436 -2.59749 1.33441 172 149 122
1.49118 -2.59985 1.34158 172 147 129
1.47809 -2.60219 1.34871 172 150 130
1.46507 -2.60452 1.35580 174 150 133
1.45212 -2.60684 1.36285 177 152 133
1.43925 -2.60914 1.36986 175 155 128
1.42646 -2.61144 1.37682 175 155 128
1.41373 -2.61371 1.38375 178 154 135
1.40108 -2.61598 1.39064 180 154 136
1.38851 -2.61823 1.39749 178 153 129
1.37600 -2.62047 1.40429 175 151 128
1.67068 -2.57860 1.23462 171 157 138
1.65648 -2.58111 1.24238 172 153 132
1.64236 -2.58360 1.25009 171 152 132
1.62833 -2.58608 1.25776 170 151 132
1.61439 -2.58855 1.26538 171 149 132
1.60053 -2.59100 1.27295 170 146 132
1.58675 -2.59343 1.28048 168 145 128
1.57306 -2.59585 1.28796 168 146 131
1.55944 -2.59826 1.29540 167 145 132
1.54591 -2.60065 1.30280 169 148 129
1.53246 -2.60303 1.31015 172 149 124
1.51908 -2.60539 1.31746 175 151 128
1.50579 -2.60774 1.32472 173 150 126
1.49257 -2.61008 1.33195 171 150 126
1.47943 -2.61240 1.33913 169 151 127
1.46637 -2.61471 1.34626 173 152 135
1.45338 -2.61700 1.35336 178 152 142
1.44047 -2.61929 1.36042 177 154 129
1.42763 -2.62155 1.36743 177 154 127
1.41487 -2.62381 1.37441 179 156 134
1.40218 -2.62605 1.38134 180 157 138
1.38956 -2.62828 1.38824 176 155 127
1.37701 -2.63050 1.39509 173 152 125
1.67269 -2.58920 1.22424 171 156 139
1.65844 -2.59169 1.23205 173 153 135
1.64427 -2.59416 1.23982 170 152 132
1.63019 -2.59661 1.24754 168 150 133
1.61620 -2.59905 1.25522 168 148 132
1.60229 -2.60148 1.26284 168 145 129
1.58847 -2.60389 1.27043 167 145 125
1.57472 -2.60629 1.27796 168 147 130
1.56106 -2.60867 1.28545 167 148 133
1.54748 -2.61104 1.29290 168 149 131
1.53399 -2.61339 1.30031 170 150 130
1.52057 -2.61573 1.30766 171 151 135
1.50723 -2.61806 1.31498 171 150 134
1.49397 -2.62037 1.32225 171 151 131
1.48078 -2.62267 1.32948 172 151 128
1.46768 -2.62496 1.33667 176 153 131
1.45465 -2.62723 1.34382 178 154 135
1.44169 -2.62949 1.35092 177 155 130
1.42881 -2.63173 1.35799 177 156 130
1.41601 -2.63397 1.36501 179 157 133
1.40328 -2.63619 1.37199 178 156 132
1.39062 -2.63839 1.37893 175 155 129
1.37803 -2.64059 1.38584 172 152 122
1.67471 -2.59987 1.21379 170 156 139
1.66041 -2.60233 1.22166 171 153 135
1.64619 -2.60478 1.22949 168 152 134
1.63206 -2.60721 1.23726 166 149 134
1.61802 -2.60963 1.24499 166 147 131
1.60407 -2.61203 1.25267 166 145 130
1.59019 -2.61441 1.26031 166 145 129
1.57640 -2.61679 1.26790 169 146 132
1.56269 -2.61914 1.27545 169 148 134
1.54907 -2.62149 1.28295 169 150 129
1.53552 -2.62382 1.29040 171 151 125
1.52206 -2.62613 1.29781 172 153 138
1.50868 -2.62844 1.30518 169 151 133
1.49537 -2.63073 1.31250 170 151 133
1.48214 -2.63300 1.31978 173 153 133
1.46899 -2.63526 1.32702 176 154 134
1.45592 -2.63751 1.33422 179 155 135
1.44292 -2.63975 1.34137 178 157 133
1.43000 -2.64197 1.34848 177 157 132
1.41716 -2.64418 1.35556 180 157 132
1.40438 -2.64638 1.36259 179 155 129
1.39169 -2.64856 1.36958 178 153 132
1.37906 -2.65073 1.37652 174 149 126
1.67674 -2.61061 1.20328 170 156 142
1.66239 -2.61305 1.21121 171 152 135
1.64812 -2.61547 1.21909 170 150 133
1.63395 -2.61787 1.22692 168 147 131
1.61986 -2.62026 1.23470 167 145 130
1.60585 -2.62264 1.24244 165 143 132
1.59193 -2.62500 1.25013 164 145 131
1.57809 -2.62735 1.25778 166 147 128
1.56433 -2.62968 1.26537 168 148 129
1.55066 -2.63200 1.27293 169 150 127
1.53707 -2.63431 1.28044 171 152 129
1.52356 -2.63660 1.28790 173 152 134
1.51013 -2.63888 1.29532 168 151 130
1.49678 -2.64114 1.30269 170 148 126
1.48351 -2.64340 1.31003 173 151 131
1.47032 -2.64563 1.31731 175 153 134
1.45720 -2.64786 1.32456 177 154 136
1.44416 -2.65007 1.33176 177 156 138
1.43120 -2.65227 1.33893 178 156 139
1.41831 -2.65446 1.34605 178 156 132
1.40550 -2.65663 1.35312 179 155 126
1.39276 -2.65879 1.36016 177 157 138
1.67879 -2.62142 1.19270 170 156 143
1.66438 -2.62383 1.20068 171 152 132
1.65007 -2.62622 1.20862 169 150 128
1.63584 -2.62860 1.21651 168 147 125
1.62170 -2.63097 1.22435 166 145 123
1.60764 -2.63332 1.23214 164 143 126
1.59367 -2.63566 1.23989 162 144 125
1.57979 -2.63798 1.24759 166 147 122
1.56599 -2.64029 1.25524 167 149 133
1.55227 -2.64258 1.26285 167 150 130
1.53863 -2.64486 1.27041 169 152 133
1.52507 -2.64713 1.27793 171 153 135
1.51160 -2.64938 1.28540 170 149 131
1.49820 -2.65163 1.29282 170 149 128
1.48489 -2.65385 1.30021 172 152 131
1.47165 -2.65607 1.30755 175 154 133
1.45849 -2.65827 1.31484 177 156 134
1.44541 -2.66046 1.32210 177 156 141
1.43240 -2.66263 1.32931 180 156 149
1.41947 -2.66480 1.33648 179 155 135
1.40662 -2.66695 1.34361 178 155 128
1.39384 -2.66908 1.35069 176 153 132
1.68085 -2.63229 1.18205 170 157 139
1.66639 -2.63468 1.19009 168 154 131
1.65203 -2.63704 1.19809 166 151 128
1.63775 -2.63940 1.20604 166 149 126
1.62356 -2.64174 1.21393 165 148 125
1.60945 -2.64406 1.22178 165 146 126
1.59543 -2.64638 1.22958 166 144 126
1.58150 -2.64867 1.23734 168 147 125
1.56765 -2.65096 1.24505 167 149 131
1.55388 -2.65323 1.25271 168 150 131
1.54020 -2.65548 1.26032 170 153 129
1.52659 -2.65773 1.26789 170 153 129
1.51307 -2.65996 1.27542 170 150 126
1.49963 -2.66217 1.28290 171 149 127
1.48627 -2.66437 1.29033 173 152 124
1.47299 -2.66656 1.29772 175 155 132
1.45979 -2.66874 1.30507 177 156 135
1.44666 -2.67091 1.31237 177 156 138
1.43361 -2.67306 1.31963 181 156 140
1.42064 -2.67520 1.32685 180 155 132
1.40774 -2.67732 1.33403 177 156 128
1.68292 -2.64323 1.17134 172 155 138
1.66841 -2.64559 1.17944 169 152 131
1.65400 -2.64793 1.18749 166 151 128
1.63966 -2.65026 1.19550 166 149 129
1.62542 -2.65258 1.20345 165 150 128
1.61127 -2.65488 1.21136 166 150 130
1.59720 -2.65716 1.21921 169 148 132
1.58322 -2.65943 1.22702 170 148 127
1.56932 -2.66169 1.23479 169 150 127
1.55550 -2.66394 1.24250 170 152 129
1.54177 -2.66617 1.25017 172 155 128
1.52812 -2.66839 1.25779 171 153 129
1.51456 -2.67059 1.26537 169 150 127
1.50107 -2.67278 1.27290 170 149 128
1.48766 -2.67496 1.28039 172 151 128
1.47434 -2.67712 1.28784 176 154 132
1.46109 -2.67928 1.29523 177 156 132
1.44792 -2.68142 1.30259 175 156 135
1.43483 -2.68354 1.30990 179 157 137
1.42182 -2.68566 1.31717 179 156 139
1.40888 -2.68776 1.32440 176 153 131
1.68501 -2.65425 1.16055 170 153 135
1.67045 -2.65658 1.16871 167 151 127
1.65598 -2.65889 1.17683 164 149 125
1.64160 -2.66120 1.18489 166 148 130
1.62730 -2.66348 1.19290 167 149 129
1.61310 -2.66576 1.20086 168 149 129
1.59898 -2.66802 1.20878 169 148 130
1.58495 -2.67026 1.21665 168 149 126
1.57100 -2.67250 1.22446 169 151 126
1.55714 -2.67471 1.23223 170 153 129
1.54336 -2.67692 1.23996 172 152 133
1.52966 -2.67911 1.24764 171 150 134
1.51605 -2.68129 1.25527 168 148 125
1.50252 -2.68346 1.26285 170 150 132
1.48907 -2.68561 1.27039 174 152 138
1.47570 -2.68775 1.27789 180 153 141
1.46240 -2.68988 1.28534 179 154 134
1.44919 -2.69199 1.29275 177 156 133
1.43606 -2.69409 1.30011 180 157 132
1.42300 -2.69618 1.30743 179 155 131
1.41002 -2.69826 1.31471 178 152 127
1.68711 -2.66533 1.14970 173 154 138
1.67249 -2.66764 1.15792 170 152 133
1.65797 -2.66992 1.16609 169 150 128
1.64354 -2.67220 1.17421 169 149 128
1.62919 -2.67446 1.18229 167 149 127
1.61494 -2.67671 1.19031 168 150 125
1.60077 -2.67894 1.19828 169 149 126
1.58669 -2.68116 1.20620 168 150 124
1.57269 -2.68337 1.21408 169 152 123
1.55878 -2.68556 1.22190 171 153 125
1.54495 -2.68774 1.22968 174 154 128
1.53121 -2.68990 1.23741 172 152 129
1.51755 -2.69206 1.24510 172 151 128
1.50397 -2.69420 1.25274 172 151 131
1.49048 -2.69632 1.26033 174 153 136
1.47706 -2.69844 1.26788 178 156 135
1.46372 -2.70054 1.27539 176 156 131
1.45047 -2.70263 1.28284 177 156 135
1.43729 -2.70471 1.29026 178 155 135
1.42419 -2.70677 1.29763 178 155 127
1.41116 -2.70883 1.30496 179 152 125
1.68922 -2.67649 1.13878 172 155 138
1.67455 -2.67876 1.14706 169 152 133
1.65998 -2.68102 1.15529 167 150 128
1.64549 -2.68327 1.16347 168 150 128
1.63110 -2.68551 1.17160 168 150 133
1.61679 -2.68773 1.17968 169 150 135
1.60257 -2.68993 1.18771 170 149 127
1.58844 -2.69213 1.19569 168 151 126
1.57439 -2.69430 1.20362 168 153 125
1.56044 -2.69647 1.21151 171 154 130
1.54656 -2.69862 1.21934 174 156 137
1.53277 -2.70076 1.22713 174 153 131
1.51906 -2.70289 1.23487 175 151 135
1.50544 -2.70500 1.24256 172 150 133
1.49190 -2.70711 1.25021 174 154 136
1.47843 -2.70919 1.25781 178 155 132
1.46505 -2.71127 1.26537 174 155 131
1.45175 -2.71334 1.27288 176 156 130
1.43853 -2.71539 1.28035 178 155 128
1.42538 -2.71743 1.28777 177 155 128
1.41232 -2.71945 1.29515 176 152 121
1.69135 -2.68771 1.12779 171 154 137
1.67663 -2.68996 1.13613 167 152 133
1.66200 -2.69220 1.14442 165 149 128
1.64746 -2.69442 1.15266 167 149 131
1.63301 -2.69662 1.16085 169 150 122
1.61865 -2.69881 1.16899 170 150 121
1.60438 -2.70099 1.17708 170 149 129
1.59020 -2.70316 1.18512 170 150 132
1.57611 -2.70531 1.19310 170 152 130
1.56210 -2.70745 1.20104 173 153 132
1.54818 -2.70958 1.20894 175 154 135
1.53434 -2.71169 1.21678 173 153 125
1.52058 -2.71379 1.22458 170 151 122
1.50691 -2.71588 1.23232 171 151 132
1.49332 -2.71795 1.24003 174 154 138
1.47982 -2.72002 1.24768 180 154 126
1.46639 -2.72207 1.25529 179 153 130
1.45304 -2.72411 1.26286 180 156 133
1.43978 -2.72613 1.27038 178 155 134
1.42659 -2.72814 1.27785 177 155 131
1.41348 -2.73015 1.28528 175 152 125
1.69349 -2.69901 1.11672 171 152 134
1.67871 -2.70123 1.12513 168 149 134
1.66403 -2.70344 1.13348 166 147 131
1.64944 -2.70563 1.14178 167 149 130
1.63494 -2.70781 1.15003 169 150 126
1.62053 -2.70997 1.15823 170 149 131
1.60621 -2.71213 1.16638 170 147 136
1.59198 -2.71426 1.17447 170 150 138
1.57783 -2.71639 1.18252 171 152 131
1.56377 -2.71850 1.19052 173 154 131
1.54980 -2.72060 1.19847 173 153 132
1.53592 -2.72269 1.20637 171 151 127
1.52211 -2.72476 1.21422 167 149 125
1.50840 -2.72682 1.22202 171 150 134
1.49476 -2.72887 1.22978 174 155 135
1.48121 -2.73091 1.23749 176 155 130
1.46773 -2.73293 1.24515 177 153 132
1.45434 -2.73494 1.25277 180 154 134
1.44103 -2.73694 1.26035 177 155 132
1.42780 -2.73893 1.26787 179 154 130
1.41465 -2.74090 1.27536 177 152 125
1.69564 -2.71039 1.10559 170 152 132
1.68081 -2.71258 1.11405 168 149 131
1.66608 -2.71475 1.12247 166 147 129
1.65143 -2.71692 1.13083 166 149 131
1.63688 -2.71907 1.13914 166 151 130
1.62242 -2.72121 1.14740 167 150 131
1.60805 -2.72333 1.15561 167 149 132
1.59376 -2.72544 1.16376 169 151 132
1.57957 -2.72754 1.17187 171 152 129
1.56546 -2.72962 1.17992 174 153 133
1.55144 -2.73169 1.18793 174 155 130
1.53750 -2.73375 1.19589 173 151 128
1.52365 -2.73580 1.20379 172 149 130
1.50989 -2.73783 1.21166 174 149 132
1.49621 -2.73985 1.21947 176 153 137
1.48261 -2.74186 1.22723 176 156 138
1.46909 -2.74386 1.23495 177 156 138
1.45565 -2.74584 1.24262 178 156 138
1.44230 -2.74782 1.25025 176 155 131
1.42902 -2.74978 1.25783 177 154 129
1.41582 -2.75173 1.26537 177 154 125
1.69781 -2.72183 1.09438 171 152 136
1.68293 -2.72399 1.10291 168 149 136
1.66814 -2.72614 1.11139 165 146 129
1.65344 -2.72828 1.11981 166 148 132
1.63883 -2.73040 1.12818 167 150 133
1.62432 -2.73251 1.13650 166 150 128
1.60989 -2.73460 1.14477 165 150 131
1.59556 -2.73668 1.15298 168 151 133
1.58131 -2.73875 1.16115 169 154 134
1.56716 -2.74081 1.16926 172 155 140
1.55309 -2.74285 1.17733 175 156 131
1.53910 -2.74488 1.18534 173 153 127
1.52520 -2.74690 1.19331 171 150 128
1.51139 -2.74891 1.20122 174 151 125
1.49766 -2.75090 1.20909 177 151 135
1.48401 -2.75289 1.21691 179 154 139
1.47045 -2.75486 1.22469 178 156 138
1.45697 -2.75681 1.23241 178 156 137
1.44357 -2.75876 1.24010 178 157 136
1.43025 -2.76070 1.24773 178 157 139
1.41700 -2.76262 1.25532 176 156 130
1.70000 -2.73336 1.08310 172 150 128
1.68505 -2.73549 1.09169 168 148 126
1.67021 -2.73761 1.10023 165 147 121
1.65546 -2.73971 1.10872 167 149 121
1.64080 -2.74180 1.11715 167 149 129
1.62623 -2.74388 1.12553 167 148 127
1.61175 -2.74595 1.13386 166 147 127
1.59737 -2.74800 1.14214 168 151 130
1.58307 -2.75004 1.15036 170 154 131
1.56886 -2.75207 1.15853 173 155 133
1.55474 -2.75409 1.16666 176 156 126
1.54071 -2.75609 1.17473 173 153 123
1.52676 -2.75808 1.18275 169 152 129
1.51290 -2.76006 1.19073 173 153 129
1.49912 -2.76202 1.19865 175 153 135
1.48543 -2.76398 1.20653 177 156 142
1.47182 -2.76592 1.21436 176 156 148
1.45829 -2.76785 1.22214 177 156 139
1.44485 -2.76977 1.22988 178 155 136
1.43148 -2.77168 1.23757 178 157 136
1.41819 -2.77358 1.24521 174 155 126
1.70219 -2.74495 1.07174 173 150 128
1.68720 -2.74705 1.08040 168 149 126
1.67229 -2.74914 1.08901 167 148 124
1.65749 -2.75122 1.09756 167 149 124
1.64278 -2.75328 1.10605 166 148 130
1.62815 -2.75533 1.11449 166 146 127
1.61363 -2.75737 1.12288 166 145 118
1.59919 -2.75939 1.13122 168 151 127
1.58484 -2.76140 1.13950 171 154 129
1.57058 -2.76340 1.14774 173 154 130
1.55641 -2.76539 1.15592 174 155 128
1.54233 -2.76736 1.16405 172 153 126
1.52833 -2.76933 1.17213 171 152 128
1.51442 -2.77128 1.18016 174 152 133
1.50060 -2.77321 1.18815 175 154 134
1.48686 -2.77514 1.19608 176 155 136
1.47320 -2.77706 1.20397 176 155 140
1.45962 -2.77896 1.21180 177 156 135
1.44613 -2.78085 1.21959 179 157 132
1.43272 -2.78273 1.22734 180 156 129
1.41939 -2.78460 1.23503 177 152 126
1.70440 -2.75663 1.06031 168 151 133
1.68935 -2.75870 1.06904 166 150 130
1.67439 -2.76076 1.07771 165 149 127
1.65953 -2.76280 1.08632 166 149 126
1.64477 -2.76484 1.09488 166 148 127
1.63009 -2.76685 1.10338 164 146 125
1.61551 -2.76886 1.11183 166 147 121
1.60102 -2.77086 1.12023 168 152 129
1.58662 -2.77284 1.12858 171 155 129
1.57231 -2.77481 1.13687 173 155 130
1.55809 -2.77677 1.14511 173 156 130
1.54396 -2.77871 1.15330 171 151 127
1.52991 -2.78064 1.16144 171 151 128
1.51595 -2.78257 1.16953 174 153 132
1.50208 -2.78448 1.17757 177 154 134
1.48829 -2.78637 1.18556 177 153 133
1.47459 -2.78826 1.19351 178 155 128
1.46097 -2.79013 1.20140 176 156 132
1.44743 -2.79200 1.20925 179 157 135
1.43397 -2.79385 1.21705 180 156 127
1.42059 -2.79569 1.22480 175 147 128
1.70663 -2.76838 1.04881 168 150 139
1.69152 -2.77042 1.05760 165 150 136
1.67651 -2.77245 1.06633 166 149 133
1.66159 -2.77446 1.07501 167 149 130
1.64677 -2.77646 1.08363 165 150 131
1.63204 -2.77845 1.09220 163 149 127
1.61741 -2.78043 1.10071 165 149 126
1.60286 -2.78239 1.10917 168 152 130
1.58841 -2.78435 1.11758 171 155 133
1.57405 -2.78629 1.12593 174 155 138
1.55978 -2.78821 1.13424 174 155 136
1.54560 -2.79013 1.14249 169 147 117
1.53150 -2.79203 1.15069 171 150 127
1.51749 -2.79393 1.15884 174 153 133
1.50357 -2.79581 1.16693 175 153 135
1.48973 -2.79768 1.17498 176 153 138
1.47598 -2.79953 1.18298 179 154 130
1.46231 -2.80138 1.19093 178 154 130
1.44873 -2.80322 1.19884 179 157 131
1.43523 -2.80504 1.20669 178 155 127
1.42181 -2.80685 1.21450 173 149 131
1.70887 -2.78021 1.03723 169 148 133
1.69370 -2.78221 1.04608 167 148 133
1.67864 -2.78421 1.05488 167 149 132
1.66366 -2.78620 1.06362 167 150 132
1.64879 -2.78817 1.07231 166 150 131
1.63400 -2.79013 1.08094 165 148 129
1.61931 -2.79207 1.08952 167 150 127
1.60472 -2.79401 1.09804 170 153 130
1.59021 -2.79593 1.10651 173 154 134
1.57580 -2.79784 1.11493 174 153 136
1.56148 -2.79974 1.12329 173 153 133
1.54724 -2.80162 1.13160 171 150 120
1.53310 -2.80350 1.13986 172 151 129
1.51904 -2.80536 1.14807 175 153 135
1.50507 -2.80721 1.15623 175 152 137
1.49119 -2.80905 1.16434 175 153 139
1.47739 -2.81088 1.17239 176 154 136
1.46367 -2.81270 1.18040 177 153 129
1.45004 -2.81450 1.18836 177 156 129
1.43649 -2.81630 1.19627 177 156 123
1.42303 -2.81808 1.20414 172 150 131
1.71113 -2.79211 1.02557 167 149 130
1.69590 -2.79409 1.03449 165 149 133
1.68078 -2.79606 1.04336 166 149 137
1.66575 -2.79801 1.05216 166 150 138
1.65082 -2.79995 1.06092 165 150 129
1.63598 -2.80188 1.06961 165 149 127
1.62124 -2.80379 1.07825 167 150 128
1.60659 -2.80569 1.08684 171 152 131
1.59203 -2.80759 1.09537 176 154 134
1.57756 -2.80947 1.10385 175 154 133
1.56319 -2.81133 1.11228 172 153 127
1.54890 -2.81319 1.12065 170 150 125
1.53471 -2.81503 1.12897 171 150 134
1.52060 -2.81687 1.13724 175 151 137
1.50658 -2.81869 1.14545 173 152 139
1.49265 -2.82050 1.15362 174 153 140
1.47880 -2.82230 1.16174 175 155 142
1.46504 -2.82408 1.16980 175 155 134
1.45136 -2.82586 1.17782 177 156 131
1.43777 -2.82763 1.18579 178 157 127
1.42425 -2.82938 1.19371 174 155 132
1.71340 -2.80410 1.01383 167 150 128
1.69812 -2.80604 1.02282 167 150 129
1.68293 -2.80798 1.03176 167 149 132
1.66785 -2.80990 1.04063 167 150 132
1.65286 -2.81181 1.04945 165 149 127
1.63797 -2.81370 1.05821 162 150 128
1.62317 -2.81559 1.06691 166 152 134
1.60847 -2.81746 1.07557 169 153 131
1.59386 -2.81932 1.08416 173 154 134
1.57934 -2.82117 1.09270 173 154 135
1.56491 -2.82300 1.10119 172 153 130
1.55057 -2.82483 1.10962 168 149 131
1.53633 -2.82664 1.11800 169 149 143
1.52217 -2.82845 1.12633 172 149 136
1.50810 -2.83024 1.13461 171 150 132
1.49412 -2.83202 1.14284 173 152 137
1.48022 -2.83379 1.15101 177 153 139
1.46641 -2.83554 1.15914 176 153 135
1.45269 -2.83729 1.16721 176 156 133
1.42549 -2.84076 1.18321 178 158 140
1.71568 -2.81616 1.00202 167 150 129
1.70034 -2.81808 1.01108 168 151 130
1.68510 -2.81998 1.02008 168 150 132
1.66996 -2.82187 1.02902 167 151 131
1.65492 -2.82374 1.03790 166 149 123
1.63997 -2.82561 1.04673 163 148 124
1.62512 -2.82746 1.05550 165 150 133
1.61036 -2.82930 1.06422 168 153 133
1.59569 -2.83113 1.07288 172 155 137
1.58112 -2.83295 1.08148 173 154 138
1.56664 -2.83475 1.09003 171 151 132
1.55226 -2.83654 1.09853 167 149 129
1.53796 -2.83833 1.10697 168 149 138
1.52375 -2.84010 1.11536 171 148 133
1.50963 -2.84186 1.12370 173 149 130
1.49560 -2.84361 1.13198 174 152 135
1.48166 -2.84535 1.14022 175 151 134
1.46780 -2.84708 1.14840 175 152 137
1.45402 -2.84879 1.15654 176 154 134
1.42673 -2.85220 1.17265 181 163 147
1.71798 -2.82831 0.99012 167 149 130
1.70259 -2.83019 0.99925 168 150 130
1.68729 -2.83206 1.00832 168 150 129
1.67209 -2.83392 1.01733 167 149 128
1.65699 -2.83576 1.02628 165 147 123
1.64198 -2.83759 1.03518 163 146 123
1.62707 -2.83941 1.04401 165 149 131
1.61226 -2.84122 1.05279 166 153 137
1.59754 -2.84301 1.06152 169 154 142
1.58292 -2.84480 1.07019 170 155 145
1.56839 -2.84657 1.07880 169 150 129
1.55395 -2.84834 1.08736 165 149 119
1.53960 -2.85009 1.09586 167 149 132
1.52534 -2.85183 1.10432 170 149 130
1.51117 -2.85356 1.11272 172 150 128
1.49709 -2.85528 1.12106 173 153 133
1.48310 -2.85698 1.12936 173 151 134
1.46919 -2.85868 1.13760 174 152 137
1.45537 -2.86037 1.14579 176 152 134
1.42798 -2.86371 1.16203 185 169 153
1.72030 -2.84054 0.97815 166 150 131
1.70484 -2.84239 0.98735 168 149 129
1.68949 -2.84422 0.99649 168 148 128
1.67423 -2.84604 1.00556 167 147 125
1.65907 -2.84785 1.01458 166 146 121
1.64401 -2.84965 1.02354 164 147 119
1.62905 -2.85144 1.03245 166 150 130
1.61418 -2.85321 1.04129 168 152 136
1.59941 -2.85498 1.05008 170 154 140
1.58473 -2.85673 1.05882 170 154 141
1.57014 -2.85847 1.06750 167 149 130
1.55565 -2.86020 1.07612 166 148 122
1.54125 -2.86192 1.08469 169 150 134
1.52694 -2.86363 1.09320 171 149 132
1.51272 -2.86533 1.10166 171 148 131
1.49859 -2.86702 1.11007 173 149 133
1.48455 -2.86870 1.11843 173 149 133
1.47059 -2.87036 1.12673 173 151 135
1.45672 -2.87202 1.13498 173 152 135
1.42924 -2.87530 1.15134 186 172 154
1.72263 -2.85285 0.96610 166 149 136
1.70712 -2.85467 0.97536 167 149 132
1.69170 -2.85647 0.98457 168 148 132
1.67638 -2.85825 0.99372 167 147 131
1.66117 -2.86003 1.00281 167 147 130
1.64605 -2.86179 1.01184 164 147 124
1.63103 -2.86355 1.02081 166 150 132
1.61611 -2.86529 1.02972 169 151 135
1.60128 -2.86702 1.03858 172 153 138
1.58655 -2.86874 1.04737 171 154 136
1.57191 -2.87045 1.05612 167 150 128
1.55737 -2.87215 1.06481 168 148 122
1.54291 -2.87384 1.07344 170 150 130
1.52855 -2.87551 1.08202 170 150 133
1.51428 -2.87718 1.09054 170 146 139
1.50010 -2.87884 1.09901 170 146 134
1.48601 -2.88048 1.10743 169 147 129
1.47200 -2.88212 1.11579 169 149 130
1.45808 -2.88374 1.12410 169 152 131
1.43050 -2.88696 1.14057 183 172 157
1.72498 -2.86525 0.95396 165 149 135
1.70940 -2.86703 0.96330 167 149 132
1.69393 -2.86879 0.97258 168 148 131
1.67855 -2.87055 0.98179 167 148 133
1.66328 -2.87229 0.99095 166 148 134
1.64811 -2.87402 1.00005 166 148 135
1.63303 -2.87574 1.00909 167 150 141
1.61805 -2.87745 1.01807 169 151 138
1.60317 -2.87914 1.02699 171 152 140
1.58838 -2.88083 1.03586 171 152 133
1.57369 -2.88251 1.04466 168 149 129
1.55909 -2.88417 1.05342 168 149 126
1.54459 -2.88583 1.06211 168 149 128
1.53017 -2.88747 1.07076 168 149 131
1.51585 -2.88911 1.07934 168 146 136
1.50162 -2.89073 1.08788 168 147 132
1.48747 -2.89234 1.09635 166 146 127
1.47342 -2.89395 1.10478 165 145 127
1.45945 -2.89554 1.11315 165 146 127
1.43178 -2.89870 1.12975 180 174 166
1.72735 -2.87773 0.94174 167 147 132
1.71171 -2.87947 0.95115 166 148 128
1.69617 -2.88120 0.96050 165 148 127
1.68074 -2.88292 0.96979 164 149 133
1.66541 -2.88463 0.97902 164 150 132
1.65017 -2.88632 0.98818 165 150 136
1.63504 -2.88801 0.99729 167 150 140
1.62001 -2.88968 1.00634 168 152 138
1.60507 -2.89135 1.01533 169 154 137
1.59023 -2.89300 1.02426 171 151 130
1.57548 -2.89464 1.03314 168 148 130
1.56083 -2.89628 1.04195 167 148 132
1.54627 -2.89790 1.05072 167 149 130
1.53180 -2.89951 1.05942 166 147 129
1.51743 -2.90111 1.06807 166 145 131
1.50315 -2.90270 1.07667 165 145 129
1.48895 -2.90428 1.08521 164 144 126
1.47485 -2.90585 1.09370 163 141 127
1.46083 -2.90741 1.10213 161 141 125
1.43306 -2.91051 1.11885 179 178 168
1.72973 -2.89029 0.92944 168 147 130
1.71403 -2.89200 0.93892 166 148 127
1.69843 -2.89369 0.94834 164 150 125
1.68294 -2.89538 0.95770 165 149 129
1.66755 -2.89705 0.96700 167 149 129
1.65226 -2.89871 0.97624 166 149 131
1.63707 -2.90036 0.98542 165 150 134
1.62197 -2.90200 0.99453 167 152 133
1.60698 -2.90363 1.00359 168 153 135
1.59208 -2.90525 1.01259 169 151 133
1.57728 -2.90686 1.02153 167 147 131
1.56258 -2.90846 1.03042 168 146 134
1.54796 -2.91005 1.03924 167 146 130
1.53345 -2.91162 1.04802 167 145 130
1.51902 -2.91319 1.05673 166 145 132
1.50468 -2.91475 1.06539 164 144 131
1.49044 -2.91630 1.07400 163 143 123
1.47628 -2.91783 1.08255 162 142 123
1.46222 -2.91936 1.09104 158 140 119
1.43435 -2.92239 1.10788 178 176 168
1.73212 -2.90294 0.91705 166 149 127
1.71636 -2.90461 0.92661 165 150 130
1.70071 -2.90627 0.93610 164 150 130
1.68515 -2.90792 0.94554 164 150 126
1.66970 -2.90956 0.95491 166 148 124
1.65435 -2.91118 0.96421 166 150 127
1.63911 -2.91280 0.97346 166 151 137
1.62396 -2.91440 0.98265 166 151 133
1.60891 -2.91600 0.99177 168 153 137
1.59395 -2.91758 1.00084 169 153 143
1.57910 -2.91916 1.00985 166 148 131
1.56434 -2.92072 1.01880 167 147 131
1.54967 -2.92227 1.02770 166 146 130
1.53510 -2.92382 1.03653 169 144 135
1.52062 -2.92535 1.04531 166 143 133
1.50623 -2.92688 1.05404 162 143 131
1.49194 -2.92839 1.06271 162 142 124
1.47773 -2.92990 1.07132 160 142 123
1.46362 -2.93139 1.07988 158 141 120
1.43565 -2.93435 1.09684 178 175 174
1.73454 -2.91568 0.90458 165 149 128
1.71871 -2.91731 0.91421 164 148 130
1.70300 -2.91894 0.92378 164 149 131
1.68738 -2.92055 0.93329 163 149 128
1.67187 -2.92215 0.94273 164 148 126
1.65646 -2.92374 0.95211 165 149 128
1.64116 -2.92532 0.96143 165 149 137
1.62595 -2.92689 0.97068 166 151 134
1.61084 -2.92845 0.97988 167 153 135
1.59583 -2.93000 0.98902 168 151 139
1.58092 -2.93153 0.99809 165 146 127
1.56611 -2.93306 1.00711 166 146 123
1.55139 -2.93458 1.01607 166 145 129
1.53676 -2.93609 1.02498 167 143 133
1.52223 -2.93759 1.03382 165 143 130
1.50779 -2.93908 1.04261 162 143 125
1.49344 -2.94056 1.05135 161 141 120
1.47919 -2.94203 1.06002 159 141 124
1.46502 -2.94350 1.06865 158 140 124
1.43696 -2.94639 1.08573 180 176 175
1.73697 -2.92851 0.89202 165 147 133
1.72108 -2.93010 0.90173 164 146 127
1.70530 -2.93169 0.91137 165 148 126
1.68963 -2.93326 0.92095 165 148 129
1.67406 -2.93483 0.93047 165 149 128
1.65859 -2.93638 0.93992 165 149 131
1.64322 -2.93792 0.94931 166 148 135
1.62796 -2.93946 0.95864 167 148 135
1.61279 -2.94098 0.96790 168 151 134
1.59773 -2.94249 0.97711 168 149 136
1.58276 -2.94400 0.98626 166 145 126
1.56789 -2.94549 0.99534 164 144 124
1.55312 -2.94697 1.00437 164 143 130
1.53844 -2.94845 1.01334 165 144 131
1.52385 -2.94991 1.02225 163 144 128
1.50936 -2.95137 1.03111 162 145 124
1.49496 -2.95281 1.03991 162 142 121
1.48065 -2.95425 1.04865 159 140 127
1.46644 -2.95568 1.05734 158 140 127
1.43827 -2.95851 1.07455 181 178 175
1.73941 -2.94142 0.87938 165 148 134
1.72346 -2.94298 0.88916 165 146 129
1.70762 -2.94453 0.89888 165 148 129
1.69189 -2.94606 0.90853 165 148 134
1.67626 -2.94759 0.91812 165 150 133
1.66073 -2.94911 0.92765 166 149 136
1.64530 -2.95061 0.93711 168 148 133
1.62998 -2.95211 0.94651 168 147 133
1.61476 -2.95360 0.95585 170 149 132
1.59964 -2.95507 0.96512 168 147 131
1.58461 -2.95654 0.97434 165 145 130
1.56969 -2.95800 0.98350 163 144 134
1.55486 -2.95945 0.99259 161 143 133
1.54012 -2.96089 1.00163 162 143 133
1.52548 -2.96232 1.01061 162 144 133
1.51094 -2.96374 1.01953 163 146 129
1.49649 -2.96515 1.02840 164 143 128
1.48213 -2.96655 1.03721 159 140 131
1.46786 -2.96794 1.04596 158 141 130
1.43960 -2.97070 1.06330 180 178 177
1.74188 -2.95443 0.86665 166 148 133
1.72587 -2.95594 0.87651 166 146 131
1.70996 -2.95745 0.88630 165 147 132
1.69416 -2.95895 0.89603 165 148 135
1.67847 -2.96044 0.90569 165 149 133
1.66288 -2.96192 0.91529 166 149 133
1.64740 -2.96339 0.92483 168 149 127
1.63202 -2.96485 0.93430 168 149 130
1.61674 -2.96630 0.94371 169 150 130
1.60156 -2.96774 0.95306 167 148 126
1.58648 -2.96917 0.96234 164 145 129
1.57149 -2.97059 0.97157 162 143 133
1.55661 -2.97200 0.98073 160 143 127
1.54182 -2.97341 0.98984 161 145 130
1.52713 -2.97480 0.99889 162 145 135
1.51253 -2.97618 1.00788 163 145 133
1.49803 -2.97756 1.01681 163 143 132
1.48361 -2.97893 1.02568 159 141 134
