ply
format ascii 1.0
element face 0
property list uchar int vertex_indices
element vertex 1448
property float x
property float y
property float z
property uchar diffuse_red
property uchar diffuse_green
property uchar diffuse_blue
end_header
-1.06945 -0.40007 0.99784 0 0 0
-1.08060 -0.40620 1.00218 255 255 255
-1.11032 -0.41827 1.00905 255 255 255
-1.12159 -0.42203 1.01060 255 255 255
-1.13352 -0.42603 1.01257 255 255 255
-1.14527 -0.43168 1.01486 255 255 255
-1.15545 -0.43801 1.01668 0 0 0
-1.16451 -0.44457 1.01994 0 0 0
-1.17361 -0.45143 1.02345 0 0 0
-1.18196 -0.45798 1.02630 0 0 0
-1.19105 -0.46402 1.02878 0 0 0
-1.19820 -0.47080 1.03088 0 0 0
-1.20491 -0.47692 1.03243 0 0 0
-1.21180 -0.48248 1.03424 0 0 0
-1.21783 -0.48799 1.03705 0 0 0
-1.22198 -0.49193 1.04068 0 0 0
-1.22630 -0.49734 1.04711 0 0 0
-1.23661 -0.50642 1.05948 0 0 0
-1.24169 -0.51354 1.06802 0 0 0
-1.24580 -0.52023 1.07591 0 0 0
-1.24833 -0.52645 1.08482 0 0 0
-1.25175 -0.53613 1.09552 0 0 0
-1.25526 -0.54499 1.10468 255 255 255
-1.25822 -0.55967 1.12191 255 255 255
-1.25663 -0.57836 1.14121 255 255 255
-1.25696 -0.58551 1.14929 255 255 255
-1.25567 -0.59045 1.15693 255 255 255
-1.25496 -0.59899 1.16582 255 255 255
-1.25424 -0.60436 1.17353 255 255 255
-1.25387 -0.60880 1.18118 0 0 0
-1.25369 -0.61538 1.18999 0 0 0
-1.25325 -0.61745 1.19536 0 0 0
-1.25301 -0.62083 1.20216 0 0 0
-1.25181 -0.62280 1.20723 0 0 0
-1.24714 -0.62746 1.21470 0 0 0
-1.24274 -0.62797 1.21873 0 0 0
-1.24237 -0.62415 1.22015 0 0 0
-1.24023 -0.62220 1.22300 0 0 0
-1.23758 -0.61915 1.22542 0 0 0
-1.23415 -0.61552 1.22582 0 0 0
-1.22986 -0.60846 1.22426 0 0 0
-1.22673 -0.59970 1.22217 0 0 0
-1.22224 -0.59102 1.21858 0 0 0
-1.21639 -0.58051 1.21332 0 0 0
-1.21113 -0.56990 1.20837 0 0 0
-1.20394 -0.55805 1.20099 0 0 0
-1.19656 -0.54369 1.19385 255 255 255
-1.19111 -0.53162 1.18901 255 255 255
-1.17725 -0.50546 1.17717 255 255 255
-1.17270 -0.49379 1.17396 255 255 255
-1.16695 -0.47965 1.16710 255 255 255
-1.16006 -0.46462 1.16146 0 0 0
-1.15671 -0.45312 1.15746 0 0 0
-1.14501 -0.42589 1.14499 0 0 0
-1.14134 -0.41204 1.13982 0 0 0
-1.13813 -0.39894 1.13316 0 0 0
-1.13446 -0.38329 1.12504 0 0 0
-1.13111 -0.37077 1.11716 0 0 0
-1.12600 -0.35785 1.10807 0 0 0
-1.11564 -0.33330 1.09073 0 0 0
-1.10938 -0.32005 1.08100 0 0 0
-1.10335 -0.30700 1.07084 0 0 0
-1.09781 -0.28666 1.04548 0 0 0
-1.09217 -0.27530 1.03305 0 0 0
-1.08632 -0.26698 1.02288 0 0 0
-1.07476 -0.25053 1.00419 0 0 0
-1.06862 -0.24253 0.99432 0 0 0
-1.06250 -0.23452 0.98582 255 255 255
-1.05186 -0.21974 0.96991 255 255 255
-1.04742 -0.21141 0.96196 255 255 255
-1.04346 -0.20486 0.95389 255 255 255
-1.03831 -0.19673 0.94520 255 255 255
-1.03471 -0.18872 0.93708 0 0 0
-1.03087 -0.18156 0.92884 0 0 0
-1.02647 -0.17260 0.92092 0 0 0
-1.02329 -0.16608 0.91483 0 0 0
-1.02082 -0.15909 0.90709 0 0 0
-1.01606 -0.15036 0.89852 0 0 0
-1.01220 -0.14331 0.89299 0 0 0
-1.01030 -0.13785 0.88702 0 0 0
-1.00919 -0.13028 0.87696 0 0 0
-1.00994 -0.12536 0.86883 0 0 0
-1.00934 -0.12070 0.86208 0 0 0
-1.00662 -0.11419 0.85481 0 0 0
-1.00384 -0.10721 0.84891 0 0 0
-1.00273 -0.10133 0.84414 0 0 0
-1.00121 -0.09665 0.84012 255 255 255
-0.99868 -0.09033 0.83522 255 255 255
-0.99534 -0.07889 0.82700 255 255 255
-0.99403 -0.07440 0.82417 255 255 255
-0.99257 -0.06946 0.82125 255 255 255
-0.99223 -0.06625 0.81904 255 255 255
-0.99194 -0.06241 0.81678 255 255 255
-0.99282 -0.06060 0.81587 255 255 255
-0.99469 -0.05945 0.81457 255 255 255
-0.99662 -0.05921 0.81347 255 255 255
-0.99960 -0.06167 0.81559 255 255 255
-1.00249 -0.06438 0.81619 255 255 255
-1.00635 -0.06798 0.81813 255 255 255
-1.01083 -0.07344 0.82135 0 0 0
-1.01498 -0.08094 0.82621 0 0 0
-1.01875 -0.08761 0.82984 0 0 0
-1.02184 -0.09555 0.83541 0 0 0
-1.02949 -0.11212 0.85062 0 0 0
-1.03264 -0.12087 0.85934 0 0 0
-1.03623 -0.12989 0.86861 0 0 0
-1.04312 -0.15029 0.88938 0 0 0
-1.04631 -0.16111 0.90086 0 0 0
-1.05238 -0.18524 0.92701 0 0 0
-1.05575 -0.19731 0.93960 0 0 0
-1.05833 -0.20982 0.95423 0 0 0
-1.06242 -0.23779 0.98584 0 0 0
-1.06469 -0.25104 1.00023 0 0 0
-1.06611 -0.26439 1.01577 0 0 0
-1.06783 -0.27845 1.03141 0 0 0
-1.06847 -0.29089 1.04737 255 255 255
-1.06976 -0.31749 1.07848 255 255 255
-1.07164 -0.33235 1.09221 255 255 255
-1.07183 -0.34376 1.10482 255 255 255
-1.07285 -0.35723 1.11686 255 255 255
-1.07290 -0.36869 1.12746 0 0 0
-1.07277 -0.38065 1.13785 0 0 0
-1.07246 -0.39158 1.14736 0 0 0
-1.07287 -0.40251 1.15587 0 0 0
-1.07284 -0.41177 1.16380 0 0 0
-1.07277 -0.42189 1.17128 0 0 0
-1.07253 -0.43076 1.17851 0 0 0
-1.07134 -0.43941 1.18664 0 0 0
-1.06961 -0.44969 1.19500 0 0 0
-1.06749 -0.46060 1.20338 0 0 0
-1.06633 -0.46955 1.21096 0 0 0
-1.06402 -0.47759 1.21805 0 0 0
-1.06156 -0.48458 1.22477 0 0 0
-1.06016 -0.49537 1.23213 0 0 0
-1.05966 -0.50292 1.23768 0 0 0
-1.05746 -0.51030 1.24469 255 255 255
-1.05311 -0.51891 1.25228 255 255 255
-1.04824 -0.52585 1.26020 255 255 255
-1.04159 -0.53494 1.27039 255 255 255
-1.03561 -0.54138 1.27876 255 255 255
-1.02891 -0.54630 1.28747 0 0 0
-1.02600 -0.55559 1.29495 0 0 0
-1.02273 -0.56292 1.30198 0 0 0
-1.01756 -0.56785 1.30967 0 0 0
-1.01392 -0.57527 1.31745 0 0 0
-1.01030 -0.58182 1.32476 0 0 0
-1.00514 -0.58825 1.33251 0 0 0
-1.00072 -0.59429 1.33966 0 0 0
-0.99703 -0.59866 1.34602 0 0 0
-0.99329 -0.60386 1.35282 0 0 0
-0.98941 -0.60971 1.35887 0 0 0
-0.98393 -0.61416 1.36457 0 0 0
-0.97708 -0.62140 1.37286 0 0 0
-0.97082 -0.62678 1.37953 0 0 0
-0.96341 -0.63298 1.38673 0 0 0
-0.95855 -0.63609 1.38931 0 0 0
-0.95258 -0.63954 1.39306 0 0 0
-0.94580 -0.64371 1.39663 0 0 0
-0.93912 -0.64682 1.39985 0 0 0
-0.93245 -0.64994 1.40283 0 0 0
-0.92672 -0.65191 1.40447 0 0 0
-0.92201 -0.65386 1.40555 0 0 0
-0.90964 -0.65560 1.40834 0 0 0
-0.90337 -0.65718 1.40938 255 255 255
-0.88839 -0.65488 1.40857 255 255 255
-0.88127 -0.65398 1.40777 255 255 255
-0.86663 -0.64738 1.40275 255 255 255
-0.85818 -0.64165 1.39899 255 255 255
-0.85008 -0.63561 1.39524 255 255 255
-0.84167 -0.63233 1.39175 255 255 255
-0.83253 -0.62686 1.38721 255 255 255
-0.82417 -0.61993 1.38268 0 0 0
-0.81579 -0.61223 1.37777 0 0 0
-0.80877 -0.60652 1.37236 0 0 0
-0.80185 -0.59935 1.36608 0 0 0
-0.79358 -0.59049 1.35987 0 0 0
-0.78724 -0.57989 1.35284 0 0 0
-0.78182 -0.57084 1.34564 0 0 0
-0.76753 -0.54631 1.33075 0 0 0
-0.76313 -0.53631 1.32233 0 0 0
-0.75773 -0.52740 1.31364 0 0 0
-0.75179 -0.51707 1.30522 0 0 0
-0.74689 -0.50739 1.29594 0 0 0
-0.73998 -0.48934 1.27692 0 0 0
-0.73578 -0.47850 1.26717 0 0 0
-0.73111 -0.46762 1.25809 0 0 0
-0.72712 -0.45719 1.24916 0 0 0
-0.72253 -0.44955 1.24034 0 0 0
-0.72147 -0.44051 1.22964 0 0 0
-0.71639 -0.43282 1.22131 255 255 255
-0.70474 -0.40749 1.19429 255 255 255
-0.69719 -0.39312 1.17731 255 255 255
-0.69424 -0.38449 1.16858 255 255 255
-0.68537 -0.36087 1.14454 255 255 255
-0.68222 -0.35534 1.13847 0 0 0
-0.68028 -0.34967 1.13190 0 0 0
-0.67850 -0.34183 1.12491 0 0 0
-0.67682 -0.33717 1.11802 0 0 0
-0.67491 -0.33077 1.11070 0 0 0
-0.67315 -0.32565 1.10327 0 0 0
-0.67063 -0.32054 1.09675 0 0 0
-0.66474 -0.30182 1.07668 0 0 0
-0.66136 -0.28859 1.06438 0 0 0
-0.65727 -0.26723 1.03854 0 0 0
-0.66177 -0.24905 1.01638 0 0 0
-0.66732 -0.23622 1.00558 0 0 0
-0.67165 -0.23319 1.00086 0 0 0
-0.67666 -0.23085 0.99609 0 0 0
-0.68221 -0.22838 0.99136 0 0 0
-0.68665 -0.22376 0.98635 255 255 255
-0.70009 -0.21421 0.97222 255 255 255
-0.70967 -0.21000 0.96208 255 255 255
-0.71241 -0.20683 0.95915 255 255 255
-0.71654 -0.20911 0.95758 255 255 255
-0.72096 -0.20356 0.95373 255 255 255
-0.72527 -0.20114 0.95150 255 255 255
-0.72988 -0.20785 0.95184 255 255 255
-0.73567 -0.20875 0.94946 0 0 0
-0.74107 -0.20229 0.94597 0 0 0
-0.74671 -0.20480 0.94521 0 0 0
-0.75197 -0.20371 0.94377 0 0 0
-0.75686 -0.19925 0.94150 0 0 0
-0.76371 -0.20179 0.94073 0 0 0
-0.77788 -0.20428 0.93808 0 0 0
-0.78517 -0.20795 0.93811 0 0 0
-0.79309 -0.21153 0.93780 0 0 0
-0.80068 -0.20972 0.93603 0 0 0
-0.80888 -0.21161 0.93576 0 0 0
-0.82428 -0.21323 0.93773 0 0 0
-0.84247 -0.22463 0.94339 0 0 0
-0.85092 -0.22200 0.94470 0 0 0
-0.85996 -0.23368 0.95046 0 0 0
-0.87606 -0.24162 0.95851 0 0 0
-0.88485 -0.24731 0.96271 0 0 0
-0.89352 -0.25724 0.96771 0 0 0
-0.90642 -0.26448 0.97713 0 0 0
-0.91458 -0.27407 0.98338 0 0 0
-0.92776 -0.28420 0.99856 0 0 0
-0.93639 -0.29448 1.00670 0 0 0
-0.94433 -0.29835 1.01294 0 0 0
-0.95795 -0.32019 1.02989 0 0 0
-0.96550 -0.32544 1.03575 0 0 0
-0.97247 -0.33146 1.04236 255 255 255
-1.00092 -0.36532 1.07359 255 255 255
-1.00708 -0.37562 1.08261 255 255 255
-1.01246 -0.38190 1.08989 255 255 255
-1.01742 -0.38735 1.09683 255 255 255
-1.02032 -0.39597 1.10647 0 0 0
-1.02223 -0.40521 1.11767 0 0 0
-1.02476 -0.41595 1.12994 0 0 0
-1.02902 -0.42578 1.14031 0 0 0
-1.03175 -0.43493 1.15086 0 0 0
-1.03532 -0.44428 1.16087 0 0 0
-1.03770 -0.45122 1.16983 0 0 0
-1.03864 -0.46065 1.18058 0 0 0
-1.03919 -0.46810 1.19119 0 0 0
-1.04096 -0.47306 1.19996 0 0 0
-1.04251 -0.48024 1.21019 0 0 0
-1.04427 -0.48779 1.22010 0 0 0
-1.04587 -0.49144 1.22878 0 0 0
-1.04656 -0.49654 1.23917 0 0 0
-1.04849 -0.50373 1.24907 0 0 0
-1.05099 -0.50626 1.25706 0 0 0
-1.05294 -0.50971 1.26551 255 255 255
-1.05706 -0.52685 1.29131 255 255 255
-1.05623 -0.53175 1.30094 255 255 255
-1.05464 -0.53741 1.31066 255 255 255
-1.05425 -0.54518 1.32061 255 255 255
-1.05330 -0.55196 1.32888 255 255 255
-1.05211 -0.55604 1.33691 255 255 255
-1.04966 -0.56208 1.34544 255 255 255
-1.04829 -0.56942 1.35329 0 0 0
-1.04672 -0.57420 1.35991 0 0 0
-1.04333 -0.57817 1.36772 0 0 0
-1.04163 -0.58039 1.37452 0 0 0
-1.04186 -0.58759 1.38040 0 0 0
-1.03933 -0.59239 1.38794 0 0 0
-1.03700 -0.59637 1.39448 0 0 0
-1.03608 -0.59926 1.40039 0 0 0
-1.03390 -0.60412 1.40810 0 0 0
-1.03215 -0.60774 1.41505 0 0 0
-1.03180 -0.61043 1.42060 0 0 0
-1.02915 -0.61460 1.42837 0 0 0
-1.02766 -0.61652 1.43457 0 0 0
-1.02661 -0.62185 1.44032 0 0 0
-1.02465 -0.62605 1.44747 0 0 0
-1.02103 -0.62860 1.45458 0 0 0
-1.01603 -0.63801 1.46831 0 0 0
-1.01344 -0.64035 1.47522 0 0 0
-1.01158 -0.64472 1.48169 0 0 0
-1.01007 -0.64732 1.48856 0 0 0
-1.00839 -0.64707 1.49531 0 0 0
-1.00695 -0.65366 1.50165 0 0 0
-1.00273 -0.65891 1.51002 0 0 0
-1.00062 -0.66074 1.51675 0 0 0
-1.00000 -0.66546 1.52276 0 0 0
-0.99630 -0.66967 1.53057 0 0 0
-0.99309 -0.67185 1.53741 0 0 0
-0.99304 -0.67690 1.54237 255 255 255
-0.98602 -0.68359 1.55560 255 255 255
-0.98293 -0.68690 1.56138 255 255 255
-0.97974 -0.68992 1.56741 255 255 255
-0.97699 -0.69416 1.57247 255 255 255
-0.97262 -0.70039 1.57898 255 255 255
-0.96679 -0.70407 1.58653 255 255 255
-0.96140 -0.70806 1.59251 255 255 255
-0.95831 -0.71477 1.59904 0 0 0
-0.95501 -0.71705 1.60470 0 0 0
-0.95275 -0.72053 1.60916 0 0 0
-0.94976 -0.72292 1.61357 0 0 0
-0.94517 -0.72481 1.62072 0 0 0
-0.94194 -0.73268 1.62652 0 0 0
-0.93734 -0.73523 1.63266 0 0 0
-0.93329 -0.73550 1.63941 0 0 0
-0.93190 -0.74070 1.64552 0 0 0
-0.92915 -0.74444 1.65178 0 0 0
-0.92767 -0.75568 1.66401 0 0 0
-0.92324 -0.76037 1.67109 0 0 0
-0.91934 -0.76735 1.67948 0 0 0
-0.91889 -0.77260 1.68470 0 0 0
-0.91296 -0.77655 1.69369 0 0 0
-0.90879 -0.78846 1.70932 0 0 0
-0.90331 -0.78767 1.71777 0 0 0
-0.89861 -0.79289 1.72767 0 0 0
-0.90035 -0.80128 1.73409 0 0 0
-0.89745 -0.80981 1.74267 0 0 0
-0.89431 -0.81201 1.75039 0 0 0
-0.89504 -0.81332 1.75607 0 0 0
-0.89065 -0.81595 1.76482 0 0 0
-0.88877 -0.81857 1.77135 0 0 0
-0.88920 -0.82407 1.77651 0 0 0
-0.88473 -0.83335 1.78336 0 0 0
-0.88260 -0.83815 1.79003 0 0 0
-0.88037 -0.84229 1.79485 0 0 0
-0.87658 -0.84589 1.80191 255 255 255
-0.86842 -0.85855 1.82434 255 255 255
-0.86609 -0.86360 1.83263 255 255 255
-0.86326 -0.86625 1.83914 255 255 255
-0.86238 -0.87102 1.84688 255 255 255
-0.86267 -0.87616 1.85311 255 255 255
-0.85969 -0.87956 1.85847 255 255 255
-0.85724 -0.88380 1.86555 255 255 255
-0.85382 -0.88639 1.87132 0 0 0
-0.85271 -0.89114 1.87589 0 0 0
-0.85140 -0.89645 1.87965 0 0 0
-0.84358 -0.89543 1.88511 0 0 0
-0.84130 -0.89992 1.89050 0 0 0
-0.84282 -0.90661 1.89459 0 0 0
-0.83654 -0.90769 1.89256 0 0 0
-0.83443 -0.91096 1.89323 0 0 0
-0.83517 -0.91482 1.89529 0 0 0
-0.83486 -0.91633 1.89388 0 0 0
-0.83277 -0.91698 1.89413 0 0 0
-0.83066 -0.91583 1.89591 0 0 0
-0.83141 -0.91507 1.89837 0 0 0
-0.83846 -0.92020 1.90012 0 0 0
-0.83863 -0.91811 1.90001 0 0 0
-0.84398 -0.91945 1.90462 0 0 0
-0.84724 -0.92181 1.90806 0 0 0
-0.85369 -0.92317 1.91816 0 0 0
-0.85794 -0.92622 1.92389 0 0 0
-0.86262 -0.92685 1.92726 0 0 0
-0.86976 -0.92857 1.93082 0 0 0
-0.87792 -0.93139 1.93185 0 0 0
-0.88476 -0.93183 1.93136 0 0 0
-0.89407 -0.93122 1.92142 0 0 0
-0.90274 -0.92903 1.91330 0 0 0
-0.91392 -0.92913 1.90847 0 0 0
-0.92311 -0.93055 1.90767 0 0 0
-0.93431 -0.93041 1.90343 0 0 0
-0.94437 -0.92844 1.89699 0 0 0
-0.95311 -0.92572 1.89006 0 0 0
-0.96321 -0.92337 1.88132 0 0 0
-0.97305 -0.92027 1.87047 0 0 0
-0.97908 -0.91433 1.85789 0 0 0
-0.98696 -0.90817 1.84562 0 0 0
-0.99710 -0.90283 1.83326 0 0 0
-1.00383 -0.89452 1.82178 0 0 0
-1.01181 -0.88592 1.81170 0 0 0
-1.02003 -0.87768 1.80167 0 0 0
-1.02857 -0.86778 1.79087 0 0 0
-1.03874 -0.85534 1.77886 0 0 0
-1.06318 -0.83381 1.75845 0 0 0
-1.07538 -0.81889 1.74084 0 0 0
-1.08469 -0.80369 1.72731 0 0 0
-1.09905 -0.79150 1.71502 0 0 0
-1.11427 -0.77976 1.70069 0 0 0
-1.13035 -0.74709 1.66791 0 0 0
-1.13798 -0.72902 1.64936 0 0 0
-1.14354 -0.71284 1.63344 0 0 0
-1.15451 -0.70061 1.61978 0 0 0
-1.16367 -0.68767 1.60769 0 0 0
-1.16818 -0.67241 1.59261 0 0 0
-1.17430 -0.65823 1.57866 0 0 0
-1.18227 -0.64733 1.56653 0 0 0
-1.18927 -0.61910 1.53785 0 0 0
-1.19334 -0.60711 1.52576 255 255 255
-1.20245 -0.57104 1.48547 255 255 255
-1.21255 -0.56582 1.47856 255 255 255
-1.21458 -0.55546 1.46142 255 255 255
-1.21434 -0.54326 1.44785 255 255 255
-1.22137 -0.53786 1.44059 255 255 255
-1.22259 -0.52858 1.42644 255 255 255
-1.22192 -0.51722 1.41391 0 0 0
-1.22705 -0.51079 1.40385 0 0 0
-1.22822 -0.50161 1.39079 0 0 0
-1.22590 -0.48923 1.37661 0 0 0
-1.23279 -0.48336 1.36662 0 0 0
-1.23255 -0.47403 1.35329 0 0 0
-1.22563 -0.45910 1.33964 0 0 0
-1.23041 -0.45265 1.33112 0 0 0
-1.23366 -0.44857 1.32031 0 0 0
-1.23264 -0.43924 1.30391 0 0 0
-1.23072 -0.42886 1.29156 0 0 0
-1.23573 -0.42412 1.28290 0 0 0
-1.23374 -0.41401 1.26690 0 0 0
-1.23169 -0.40431 1.25912 0 0 0
-1.23684 -0.40167 1.25174 0 0 0
-1.23859 -0.39662 1.23985 0 0 0
-1.23425 -0.38420 1.22585 0 0 0
-1.23700 -0.37914 1.21622 0 0 0
-1.23712 -0.37386 1.20545 0 0 0
-1.23451 -0.36581 1.19291 0 0 0
-1.23312 -0.36021 1.18209 255 255 255
-1.22911 -0.34218 1.15235 255 255 255
-1.22847 -0.33596 1.14537 255 255 255
-1.22599 -0.32819 1.13769 255 255 255
-1.22434 -0.32072 1.12692 255 255 255
-1.22177 -0.31293 1.11337 255 255 255
-1.22007 -0.30476 1.10541 255 255 255
-1.22029 -0.29854 1.09767 255 255 255
-1.21910 -0.29151 1.08602 0 0 0
-1.21454 -0.28262 1.07223 0 0 0
-1.21392 -0.27631 1.06295 0 0 0
-1.21452 -0.27234 1.05863 0 0 0
-1.21161 -0.26516 1.05158 0 0 0
-1.21111 -0.26065 1.04387 0 0 0
-1.21179 -0.25704 1.03869 0 0 0
-1.20758 -0.24818 1.02333 0 0 0
-1.20426 -0.24527 1.01201 0 0 0
-1.20387 -0.24388 1.00682 0 0 0
-1.20265 -0.24104 0.99905 0 0 0
-1.20425 -0.24210 0.99877 0 0 0
-1.20537 -0.24261 0.99961 0 0 0
-1.20881 -0.24488 1.00442 0 0 0
-1.21199 -0.24822 1.00691 0 0 0
-1.21792 -0.25347 1.01409 0 0 0
-1.22380 -0.25887 1.02262 0 0 0
-1.22858 -0.26465 1.03019 0 0 0
-1.23314 -0.27075 1.03887 0 0 0
-1.24121 -0.27927 1.05218 0 0 0
-1.24502 -0.28721 1.05685 0 0 0
-1.25133 -0.29707 1.06755 0 0 0
-1.25736 -0.30645 1.07909 0 0 0
-1.26147 -0.31578 1.08820 0 0 0
-1.26727 -0.32675 1.10142 0 0 0
-1.27208 -0.33786 1.11218 0 0 0
-1.27621 -0.34912 1.12179 0 0 0
-1.28072 -0.36116 1.13607 0 0 0
-1.28530 -0.37340 1.14694 0 0 0
-1.28863 -0.38540 1.15552 0 0 0
-1.29189 -0.39808 1.16518 0 0 0
-1.29691 -0.41149 1.17710 0 0 0
-1.30055 -0.42383 1.18718 0 0 0
-1.30439 -0.43618 1.19587 0 0 0
-1.30915 -0.44858 1.20696 0 0 0
-1.31192 -0.45971 1.21418 0 0 0
-1.31389 -0.46999 1.21980 0 0 0
-1.31857 -0.48231 1.23311 0 0 0
-1.32604 -0.50512 1.25989 0 0 0
-1.33037 -0.51648 1.27399 0 0 0
-1.33941 -0.54056 1.29626 0 0 0
-1.34305 -0.55195 1.30427 0 0 0
-1.34819 -0.56517 1.31766 0 0 0
-1.35545 -0.58810 1.34079 0 0 0
-1.36210 -0.60193 1.35933 0 0 0
-1.37174 -0.61978 1.38608 0 0 0
-1.37866 -0.63206 1.40455 0 0 0
-1.38389 -0.64457 1.41965 0 0 0
-1.38872 -0.65529 1.43515 0 0 0
-1.39293 -0.66880 1.44884 255 255 255
-1.40669 -0.71253 1.49228 255 255 255
-1.41428 -0.74379 1.52361 255 255 255
-1.41785 -0.75815 1.53892 255 255 255
-1.41952 -0.77260 1.55177 255 255 255
-1.42412 -0.78896 1.56835 0 0 0
-1.42803 -0.80473 1.58194 0 0 0
-1.43172 -0.82097 1.59733 0 0 0
-1.43513 -0.83721 1.61039 0 0 0
-1.44007 -0.86046 1.63594 0 0 0
-1.44291 -0.87353 1.65198 0 0 0
-1.44613 -0.88676 1.66613 0 0 0
-1.44761 -0.89944 1.67622 0 0 0
-1.44884 -0.91066 1.68715 0 0 0
-1.44935 -0.92125 1.70227 0 0 0
-1.44706 -0.94193 1.72013 0 0 0
-1.44598 -0.95329 1.73009 0 0 0
-1.44201 -0.96320 1.73612 0 0 0
-1.43854 -0.97484 1.74891 0 0 0
-1.43317 -0.98522 1.75995 0 0 0
-1.42653 -0.99485 1.76835 0 0 0
-1.41889 -1.00442 1.77690 0 0 0
-1.41170 -1.01578 1.78653 255 255 255
-1.38118 -1.03580 1.79259 255 255 255
-1.37268 -1.04283 1.80123 255 255 255
-1.36335 -1.04876 1.81156 255 255 255
-1.35562 -1.05733 1.82475 255 255 255
-1.34522 -1.06234 1.83160 255 255 255
-1.33433 -1.06824 1.83729 255 255 255
-1.32185 -1.07285 1.83986 255 255 255
-1.30936 -1.07768 1.84563 0 0 0
-1.29692 -1.08404 1.85175 0 0 0
-1.28302 -1.08555 1.85018 0 0 0
-1.27077 -1.09025 1.85977 0 0 0
-1.25953 -1.09708 1.86914 0 0 0
-1.24719 -1.10093 1.87391 0 0 0
-1.23693 -1.10634 1.88185 0 0 0
-1.22810 -1.11022 1.88975 0 0 0
-1.21979 -1.11412 1.90269 0 0 0
-1.21509 -1.12132 1.91881 0 0 0
-1.20987 -1.12943 1.93152 0 0 0
-1.20465 -1.13497 1.93579 0 0 0
-1.19967 -1.14289 1.94655 0 0 0
-1.19465 -1.15355 1.95979 0 0 0
-1.18998 -1.16421 1.96879 0 0 0
-1.18398 -1.17384 1.97619 0 0 0
-1.17759 -1.18441 1.98774 0 0 0
-1.17318 -1.19568 1.99868 0 0 0
-1.16988 -1.20666 2.01145 0 0 0
-1.16582 -1.21894 2.03199 0 0 0
-1.16480 -1.23068 2.05006 0 0 0
-1.16541 -1.24286 2.06495 0 0 0
-1.16558 -1.25811 2.08376 0 0 0
-1.16447 -1.27038 2.09740 0 0 0
-1.16444 -1.28179 2.10864 0 0 0
-1.16479 -1.29401 2.12566 255 255 255
-1.16736 -1.33324 2.18239 255 255 255
-1.17246 -1.36086 2.21786 255 255 255
-1.17635 -1.37546 2.23761 255 255 255
-1.17990 -1.39053 2.25634 255 255 255
-1.19259 -1.46365 2.32940 0 0 0
-1.19354 -1.47707 2.34520 0 0 0
-1.19461 -1.48904 2.35728 0 0 0
-1.20107 -1.51350 2.39045 0 0 0
-1.20201 -1.52840 2.40082 0 0 0
-1.20233 -1.54141 2.41257 0 0 0
-1.20226 -1.55205 2.42480 0 0 0
-1.20307 -1.56332 2.43800 0 0 0
-1.20464 -1.58329 2.46061 0 0 0
-1.20774 -1.59322 2.47170 0 0 0
-1.20940 -1.60314 2.47918 0 0 0
-1.21097 -1.61133 2.48753 0 0 0
-1.21366 -1.62060 2.49815 0 0 0
-1.21599 -1.62958 2.51243 0 0 0
-1.21820 -1.63522 2.51790 0 0 0
-1.21955 -1.63782 2.51967 0 0 0
-1.21751 -1.63007 2.51125 0 0 0
-1.22513 -1.65453 2.53642 0 0 0
-1.22895 -1.66313 2.54751 255 255 255
-1.23633 -1.69042 2.57876 255 255 255
-1.23511 -1.69941 2.58834 255 255 255
-1.23618 -1.70813 2.59677 255 255 255
-1.23754 -1.71773 2.60742 255 255 255
-1.23478 -1.72704 2.61648 255 255 255
-1.23455 -1.73542 2.62690 255 255 255
-1.24068 -1.74525 2.63695 255 255 255
-1.23656 -1.75363 2.64470 0 0 0
-1.23766 -1.76072 2.65427 0 0 0
-1.24641 -1.76954 2.66430 0 0 0
-1.23946 -1.77615 2.67019 0 0 0
-1.23665 -1.78354 2.67760 0 0 0
-1.23542 -1.78927 2.68435 0 0 0
-1.22863 -1.79662 2.69087 0 0 0
-1.22979 -1.80163 2.69711 0 0 0
-1.23739 -1.80791 2.70425 0 0 0
-1.23452 -1.81364 2.70980 0 0 0
-1.23324 -1.81913 2.71622 0 0 0
-1.23508 -1.82475 2.72325 0 0 0
-1.23539 -1.83023 2.72981 0 0 0
-1.23330 -1.83420 2.73430 0 0 0
-1.23550 -1.83866 2.73958 0 0 0
-1.23795 -1.84146 2.74335 0 0 0
-1.23601 -1.84442 2.74523 0 0 0
-1.23783 -1.84616 2.74712 0 0 0
-1.25050 -1.84649 2.74986 0 0 0
-1.25265 -1.84942 2.74966 0 0 0
-1.24618 -1.84936 2.74812 0 0 0
-1.25134 -1.84925 2.74766 0 0 0
-1.25954 -1.84892 2.74437 0 0 0
-1.26020 -1.84823 2.73899 0 0 0
-1.26473 -1.84474 2.73376 0 0 0
-1.28320 -1.83970 2.72795 0 0 0
-1.28913 -1.83582 2.71696 0 0 0
-1.28608 -1.82759 2.70516 0 0 0
-1.29956 -1.81852 2.69432 0 0 0
-1.30399 -1.81136 2.68044 0 0 0
-1.30599 -1.80021 2.66689 0 0 0
-1.31374 -1.78847 2.65224 0 0 0
-1.32812 -1.77517 2.63742 0 0 0
-1.33659 -1.75904 2.62097 0 0 0
-1.33600 -1.74414 2.60175 0 0 0
-1.34648 -1.72617 2.58296 0 0 0
-1.36111 -1.70677 2.56248 0 0 0
-1.37423 -1.68655 2.53982 0 0 0
-1.37850 -1.66634 2.51710 0 0 0
-1.39423 -1.64416 2.49339 0 0 0
-1.40829 -1.62214 2.47007 0 0 0
-1.41797 -1.59934 2.44707 0 0 0
-1.43760 -1.57643 2.42476 0 0 0
-1.44447 -1.55620 2.40228 0 0 0
-1.45217 -1.53417 2.38136 0 0 0
-1.46611 -1.51400 2.35936 0 0 0
-1.48370 -1.49428 2.33860 0 0 0
-1.49949 -1.47568 2.31926 0 0 0
-1.51295 -1.45870 2.29975 0 0 0
-1.52012 -1.44378 2.28027 0 0 0
-1.52762 -1.42758 2.26170 0 0 0
-1.53811 -1.41242 2.24315 0 0 0
-1.54238 -1.39665 2.22472 0 0 0
-1.55924 -1.38220 2.20915 0 0 0
-1.56150 -1.37034 2.19485 255 255 255
-1.57267 -1.34185 2.16652 255 255 255
-1.57972 -1.31688 2.14086 255 255 255
-1.57905 -1.30602 2.13073 255 255 255
-1.58660 -1.29265 2.11776 255 255 255
-1.58157 -1.28290 2.10649 255 255 255
-1.56911 -1.27399 2.09752 255 255 255
-1.56929 -1.26091 2.08336 0 0 0
-1.56796 -1.24900 2.07071 0 0 0
-1.55708 -1.24088 2.06096 0 0 0
-1.55070 -1.22888 2.04795 0 0 0
-1.54574 -1.21754 2.03277 0 0 0
-1.52892 -1.20854 2.02108 0 0 0
-1.51777 -1.19865 2.00652 0 0 0
-1.50758 -1.18628 1.98944 0 0 0
-1.49456 -1.17455 1.97363 0 0 0
-1.48230 -1.16251 1.95660 0 0 0
-1.47911 -1.14467 1.93452 0 0 0
-1.46295 -1.13237 1.91950 0 0 0
-1.44283 -1.11795 1.90608 0 0 0
-1.43149 -1.09987 1.88876 0 0 0
-1.42044 -1.08025 1.87221 0 0 0
-1.40615 -1.06426 1.85849 0 0 0
-1.39473 -1.04525 1.84460 0 0 0
-1.38660 -1.02686 1.82934 0 0 0
-1.38328 -1.00798 1.81494 0 0 0
-1.37804 -0.99188 1.80056 0 0 0
-1.35871 -0.98041 1.79547 0 0 0
-1.35065 -0.96595 1.78543 255 255 255
-1.32369 -0.91211 1.74401 255 255 255
-1.32188 -0.89977 1.73144 255 255 255
-1.32066 -0.88919 1.72073 255 255 255
-1.32088 -0.87852 1.70975 255 255 255
-1.30793 -0.86150 1.69586 255 255 255
-1.29696 -0.85264 1.68945 255 255 255
-1.29376 -0.84225 1.68082 255 255 255
-1.28992 -0.83083 1.67123 0 0 0
-1.28186 -0.82062 1.66257 0 0 0
-1.27446 -0.79831 1.64280 0 0 0
-1.27131 -0.78589 1.63140 0 0 0
-1.26660 -0.77376 1.62004 0 0 0
-1.26138 -0.74520 1.59516 0 0 0
-1.25913 -0.73060 1.58165 0 0 0
-1.25812 -0.71534 1.56775 0 0 0
-1.25986 -0.69889 1.55018 0 0 0
-1.25540 -0.68178 1.53579 0 0 0
-1.24747 -0.64688 1.50870 0 0 0
-1.24470 -0.63006 1.49685 0 0 0
-1.25137 -0.60701 1.47782 0 0 0
-1.24100 -0.57217 1.45003 0 0 0
-1.24421 -0.54985 1.43015 0 0 0
-1.22969 -0.51522 1.39857 0 0 0
-1.23002 -0.49331 1.37599 0 0 0
-1.22580 -0.47590 1.35665 255 255 255
-1.19492 -0.40904 1.29110 255 255 255
-1.16997 -0.36848 1.25406 255 255 255
-1.15417 -0.35845 1.24398 255 255 255
-1.14142 -0.34722 1.23007 255 255 255
-1.11632 -0.32776 1.20749 0 0 0
-1.10035 -0.31863 1.19813 0 0 0
-1.08005 -0.31112 1.19091 0 0 0
-1.06032 -0.30293 1.18463 0 0 0
-1.04392 -0.29487 1.17673 0 0 0
-1.02376 -0.28837 1.17205 0 0 0
-0.99786 -0.28152 1.16832 0 0 0
-0.97518 -0.27534 1.16477 0 0 0
-0.95364 -0.27013 1.15804 0 0 0
-0.92902 -0.26312 1.15599 0 0 0
-0.90618 -0.25724 1.15303 0 0 0
-0.87994 -0.25151 1.15144 0 0 0
-0.85368 -0.24450 1.15258 0 0 0
-0.82748 -0.23892 1.15335 0 0 0
-0.80436 -0.23202 1.15085 0 0 0
-0.78028 -0.22678 1.14982 255 255 255
-0.69635 -0.21703 1.15095 255 255 255
-0.64319 -0.21128 1.14543 255 255 255
-0.62454 -0.20839 1.14577 255 255 255
-0.60120 -0.20533 1.14215 255 255 255
-0.58164 -0.20136 1.14353 255 255 255
-0.55912 -0.19147 1.14599 255 255 255
-0.54500 -0.18693 1.14498 0 0 0
-0.52879 -0.18225 1.14464 0 0 0
-0.51225 -0.17673 1.14295 0 0 0
-0.49266 -0.17129 1.14204 0 0 0
-0.46455 -0.16149 1.14184 0 0 0
-0.45058 -0.15692 1.14291 0 0 0
-0.42554 -0.14575 1.14037 0 0 0
-0.40911 -0.14057 1.13826 0 0 0
-0.39687 -0.13435 1.13649 0 0 0
-0.38176 -0.12751 1.13309 0 0 0
-0.35470 -0.11036 1.12882 0 0 0
-0.32781 -0.09276 1.12434 0 0 0
-0.31299 -0.08264 1.12100 0 0 0
-0.28335 -0.06411 1.11671 0 0 0
-0.27502 -0.05603 1.11269 0 0 0
-0.26475 -0.04784 1.10976 0 0 0
-0.23966 -0.03238 1.10136 0 0 0
-0.22701 -0.02595 1.09592 0 0 0
-0.20563 -0.01105 1.08733 0 0 0
-0.19751 -0.00362 1.08511 0 0 0
-0.18762 0.00295 1.08181 0 0 0
-0.18024 0.00981 1.07954 255 255 255
-0.15753 0.03343 1.07151 255 255 255
-0.15256 0.04248 1.06627 255 255 255
-0.15213 0.04614 1.06502 255 255 255
-0.15436 0.04889 1.06515 255 255 255
-0.15664 0.05086 1.06373 255 255 255
-0.15988 0.05272 1.06402 255 255 255
-0.16613 0.05526 1.06453 255 255 255
-0.17384 0.05931 1.06099 255 255 255
-0.18122 0.06186 1.05962 255 255 255
-0.18963 0.06270 1.05925 255 255 255
-0.19831 0.06408 1.05716 255 255 255
-0.20584 0.06245 1.05461 255 255 255
-0.21476 0.06056 1.05197 0 0 0
-0.23982 0.05458 1.05293 0 0 0
-0.25109 0.04887 1.04992 0 0 0
-0.26614 0.04253 1.05082 0 0 0
-0.29558 0.02893 1.05318 0 0 0
-0.31192 0.02209 1.05757 0 0 0
-0.32519 0.01406 1.06063 0 0 0
-0.35513 0.00041 1.06633 0 0 0
-0.37465 -0.00515 1.07410 0 0 0
-0.38742 -0.01155 1.07412 0 0 0
-0.40267 -0.01716 1.07705 0 0 0
-0.43107 -0.02686 1.08290 0 0 0
-0.44467 -0.03178 1.08515 0 0 0
-0.45897 -0.03681 1.08842 0 0 0
-0.47040 -0.04164 1.08713 0 0 0
-0.48471 -0.04596 1.08875 0 0 0
-0.49961 -0.04984 1.09261 0 0 0
-0.52411 -0.05703 1.09301 0 0 0
-0.53641 -0.06122 1.09441 0 0 0
-0.54924 -0.06530 1.09528 0 0 0
-0.57616 -0.07467 1.09667 0 0 0
-0.59129 -0.07923 1.09832 0 0 0
-0.60205 -0.08362 1.09664 0 0 0
-0.62919 -0.09103 1.09805 0 0 0
-0.64175 -0.09370 1.09893 0 0 0
-0.66779 -0.09871 1.10102 0 0 0
-0.68281 -0.10061 1.10457 0 0 0
-0.70604 -0.10362 1.10510 0 0 0
-0.71812 -0.10428 1.10527 0 0 0
-0.74218 -0.10516 1.10564 0 0 0
-0.75390 -0.10505 1.10578 255 255 255
-0.82339 -0.10163 1.11161 255 255 255
-0.85426 -0.09688 1.11389 255 255 255
-0.89027 -0.08767 1.11638 255 255 255
-0.91144 -0.08251 1.11879 255 255 255
-0.93203 -0.07708 1.11798 255 255 255
-0.95355 -0.07076 1.11847 0 0 0
-0.97522 -0.06497 1.11998 0 0 0
-0.99661 -0.05877 1.12035 0 0 0
-1.03538 -0.04588 1.12163 0 0 0
-1.05536 -0.03987 1.11846 0 0 0
-1.07741 -0.03397 1.11620 0 0 0
-1.12247 -0.02261 1.11342 0 0 0
-1.14843 -0.01572 1.11242 0 0 0
-1.19484 -0.00121 1.10873 0 0 0
-1.22667 0.01005 1.11260 0 0 0
-1.24969 0.01850 1.11885 0 0 0
-1.28651 0.03846 1.13987 0 0 0
-1.30219 0.04811 1.15014 0 0 0
-1.31863 0.05975 1.16362 0 0 0
-1.33321 0.06764 1.17011 0 0 0
-1.36342 0.08396 1.17853 0 0 0
-1.37625 0.09091 1.18734 255 255 255
-1.43986 0.10828 1.21421 255 255 255
-1.46831 0.11010 1.22693 255 255 255
-1.48301 0.11022 1.23229 255 255 255
-1.49635 0.11016 1.23353 255 255 255
-1.51105 0.10992 1.24303 255 255 255
-1.52403 0.10799 1.25304 255 255 255
-1.53566 0.10399 1.26194 255 255 255
-1.56726 0.09794 1.27763 0 0 0
-1.58099 0.09235 1.28786 0 0 0
-1.59367 0.08360 1.29670 0 0 0
-1.62325 0.07179 1.31589 0 0 0
-1.63486 0.05847 1.32268 0 0 0
-1.67120 0.05147 1.33751 0 0 0
-1.68411 0.04141 1.34140 0 0 0
-1.70126 0.03585 1.34727 0 0 0
-1.71653 0.03179 1.36042 0 0 0
-1.74190 0.01348 1.38376 0 0 0
-1.76350 0.01549 1.39394 0 0 0
-1.79409 -0.00008 1.40823 0 0 0
-1.82171 -0.01149 1.42721 0 0 0
-1.83578 -0.02096 1.43293 0 0 0
-1.85666 -0.01734 1.44134 0 0 0
-1.86924 -0.02242 1.45382 0 0 0
-1.88294 -0.02926 1.45960 0 0 0
-1.89911 -0.03261 1.46666 0 0 0
-1.91096 -0.04440 1.47214 0 0 0
-1.92302 -0.05259 1.47842 0 0 0
-1.93764 -0.06181 1.48348 0 0 0
-1.95129 -0.06646 1.49205 255 255 255
-2.00863 -0.09280 1.51447 255 255 255
-2.03840 -0.10494 1.53084 255 255 255
-2.05255 -0.11165 1.53931 255 255 255
-2.06423 -0.11719 1.54517 255 255 255
-2.08041 -0.12240 1.55581 255 255 255
-2.09413 -0.12524 1.57083 255 255 255
-2.10649 -0.13035 1.57726 0 0 0
-2.12294 -0.13469 1.58503 0 0 0
-2.13695 -0.13946 1.58909 0 0 0
-2.15148 -0.14412 1.59246 0 0 0
-2.16727 -0.14932 1.60031 0 0 0
-2.18056 -0.15433 1.60591 0 0 0
-2.20778 -0.15940 1.61734 0 0 0
-2.22169 -0.16429 1.62630 0 0 0
-2.23351 -0.17102 1.63261 0 0 0
-2.26216 -0.17847 1.64517 0 0 0
-2.27332 -0.18340 1.65068 0 0 0
-2.28256 -0.18841 1.65348 0 0 0
-2.29412 -0.19213 1.65640 0 0 0
-2.31721 -0.20366 1.67713 0 0 0
-2.32734 -0.20885 1.68204 0 0 0
-2.33766 -0.21372 1.68417 0 0 0
-2.35719 -0.22057 1.70091 0 0 0
-2.36514 -0.22675 1.70444 0 0 0
-2.37605 -0.23121 1.70783 0 0 0
-2.39358 -0.24164 1.71753 0 0 0
-2.40219 -0.24664 1.71983 0 0 0
-2.41106 -0.24800 1.72833 0 0 0
-2.41920 -0.25300 1.73817 0 0 0
-2.42738 -0.25830 1.74163 0 0 0
-2.43501 -0.26155 1.75064 0 0 0
-2.44209 -0.26569 1.75196 0 0 0
-2.44981 -0.26873 1.75745 0 0 0
-2.45686 -0.27059 1.76885 0 0 0
-2.46602 -0.27713 1.78372 0 0 0
-2.46744 -0.27597 1.79554 0 0 0
-2.46888 -0.27896 1.79630 255 255 255
-2.46323 -0.27761 1.79997 255 255 255
-2.45835 -0.27405 1.79628 255 255 255
-2.45439 -0.27247 1.80137 255 255 255
-2.45342 -0.27757 1.78802 255 255 255
-2.43635 -0.26470 1.79960 255 255 255
-2.42913 -0.26436 1.79142 255 255 255
-2.41935 -0.26199 1.78828 255 255 255
-2.40390 -0.25157 1.79438 255 255 255
-2.39108 -0.24707 1.79047 255 255 255
-2.37784 -0.24598 1.77932 255 255 255
-2.36253 -0.23866 1.78128 255 255 255
-2.34544 -0.23193 1.77844 255 255 255
-2.32684 -0.22610 1.77199 0 0 0
-2.30805 -0.21757 1.77389 0 0 0
-2.28819 -0.21171 1.76763 0 0 0
-2.26458 -0.20175 1.76993 0 0 0
-2.24079 -0.19607 1.76149 0 0 0
-2.21793 -0.19019 1.75941 0 0 0
-2.19172 -0.18219 1.75718 0 0 0
-2.16620 -0.17604 1.75173 0 0 0
-2.14115 -0.17196 1.74241 0 0 0
-2.11138 -0.16135 1.74424 0 0 0
-2.08281 -0.15284 1.74049 0 0 0
-2.05479 -0.14606 1.73445 0 0 0
-2.02403 -0.13353 1.73861 0 0 0
-1.99516 -0.12460 1.73545 0 0 0
-1.97033 -0.12173 1.72275 0 0 0
-1.94111 -0.11132 1.72415 0 0 0
-1.91338 -0.10331 1.71874 0 0 0
-1.88714 -0.09260 1.72069 0 0 0
-1.86223 -0.08732 1.71329 0 0 0
-1.84030 -0.08311 1.70377 0 0 0
-1.81365 -0.06814 1.71600 0 0 0
-1.79034 -0.06313 1.70780 0 0 0
-1.76789 -0.05685 1.70559 0 0 0
-1.74302 -0.04708 1.70583 0 0 0
-1.71824 -0.03741 1.70334 0 0 0
-1.69720 -0.02919 1.70145 0 0 0
-1.67602 -0.01893 1.70049 0 0 0
-1.65651 -0.01141 1.69861 255 255 255
-1.60575 0.00796 1.69170 255 255 255
-1.58434 0.01432 1.68900 255 255 255
-1.56538 0.01889 1.68628 255 255 255
-1.55002 0.02357 1.68599 255 255 255
-1.53587 0.02765 1.68612 255 255 255
-1.52011 0.03041 1.68465 255 255 255
-1.50311 0.03003 1.68462 255 255 255
-1.48863 0.03059 1.68648 0 0 0
-1.45685 0.03007 1.69353 0 0 0
-1.44143 0.02866 1.69800 0 0 0
-1.42511 0.03007 1.70434 0 0 0
-1.40813 0.02755 1.70736 0 0 0
-1.38345 0.01813 1.72148 0 0 0
-1.36952 0.01258 1.73069 0 0 0
-1.35556 0.00460 1.73908 0 0 0
-1.34115 -0.00515 1.74854 0 0 0
-1.30559 -0.02281 1.77040 0 0 0
-1.29013 -0.03520 1.78015 0 0 0
-1.25758 -0.05851 1.80558 0 0 0
-1.23915 -0.07357 1.81679 0 0 0
-1.22267 -0.08666 1.83115 0 0 0
-1.20756 -0.09329 1.84366 0 0 0
-1.17958 -0.11295 1.87070 0 0 0
-1.16643 -0.12068 1.88182 0 0 0
-1.15465 -0.12953 1.89362 0 0 0
-1.14562 -0.13702 1.90531 0 0 0
-1.12373 -0.15061 1.92455 0 0 0
-1.11587 -0.15577 1.93481 0 0 0
-1.10860 -0.16525 1.93840 0 0 0
-1.10132 -0.17018 1.94942 0 0 0
-1.09384 -0.17761 1.95464 0 0 0
-1.08567 -0.18543 1.95900 0 0 0
-1.07589 -0.19075 1.96430 255 255 255
-1.04400 -0.20938 1.97955 255 255 255
-1.03321 -0.21322 1.98412 255 255 255
-1.03158 -0.21307 1.98868 255 255 255
-1.02586 -0.21535 1.98435 255 255 255
-1.01527 -0.21420 1.98793 255 255 255
-1.00457 -0.21499 1.98044 255 255 255
-0.99303 -0.21195 1.98193 255 255 255
-0.98654 -0.20632 1.98797 255 255 255
-0.97563 -0.20296 1.98436 255 255 255
-0.96495 -0.20094 1.97542 255 255 255
-0.95891 -0.19329 1.98029 0 0 0
-0.94808 -0.18486 1.98214 0 0 0
-0.93419 -0.17937 1.97469 0 0 0
-0.91188 -0.16504 1.96326 0 0 0
-0.90160 -0.15561 1.96116 0 0 0
-0.89031 -0.14444 1.96022 0 0 0
-0.87482 -0.13768 1.94803 0 0 0
-0.86103 -0.12913 1.94204 0 0 0
-0.83912 -0.10985 1.93160 0 0 0
-0.82695 -0.09782 1.92506 0 0 0
-0.81467 -0.08415 1.91559 0 0 0
-0.79929 -0.07519 1.90591 0 0 0
-0.78144 -0.06335 1.90085 0 0 0
-0.74680 -0.04280 1.88225 0 0 0
-0.72928 -0.03607 1.87091 0 0 0
-0.71760 -0.02034 1.86557 0 0 0
-0.70140 -0.00863 1.85587 0 0 0
-0.68441 0.00324 1.84939 0 0 0
-0.66771 0.01277 1.83853 0 0 0
-0.65063 0.01971 1.82859 0 0 0
-0.63216 0.02959 1.82092 0 0 0
-0.61660 0.04179 1.81776 0 0 0
-0.61660 0.04179 1.81776 255 255 255
-0.56025 0.07476 1.78560 255 255 255
-0.53539 0.09380 1.77055 255 255 255
-0.51292 0.10947 1.75473 255 255 255
-0.50390 0.12067 1.74841 255 255 255
-0.49502 0.12940 1.74072 255 255 255
-0.48593 0.13755 1.73472 0 0 0
-0.47581 0.14399 1.72828 0 0 0
-0.46747 0.15015 1.72159 0 0 0
-0.45657 0.16485 1.71210 0 0 0
-0.44762 0.16662 1.70856 0 0 0
-0.44595 0.17565 1.70071 0 0 0
-0.44785 0.17804 1.69710 0 0 0
-0.45272 0.18092 1.69363 0 0 0
-0.46070 0.18474 1.68989 0 0 0
-0.47782 0.18783 1.68534 0 0 0
-0.48833 0.18801 1.68330 0 0 0
-0.50008 0.18676 1.68121 0 0 0
-0.51519 0.18561 1.68131 0 0 0
-0.55237 0.18338 1.68101 0 0 0
-0.57383 0.18089 1.68223 0 0 0
-0.62435 0.18045 1.68485 0 0 0
-0.65070 0.17898 1.68357 0 0 0
-0.67817 0.17604 1.68661 0 0 0
-0.70862 0.17685 1.69011 0 0 0
-0.73933 0.17598 1.69017 0 0 0
-0.76524 0.16930 1.69141 0 0 0
-0.79756 0.16714 1.69291 0 0 0
-0.82863 0.16655 1.69328 0 0 0
-0.86037 0.16503 1.69436 0 0 0
-0.88811 0.16294 1.69460 0 0 0
-0.92075 0.16317 1.69527 0 0 0
-0.95414 0.16327 1.69296 0 0 0
-0.99025 0.16423 1.69109 0 0 0
-1.02284 0.16318 1.68798 0 0 0
-1.05093 0.16091 1.68607 0 0 0
-1.08058 0.16085 1.68594 0 0 0
-1.10438 0.15836 1.68463 0 0 0
-1.12920 0.15654 1.68372 0 0 0
-1.16004 0.15831 1.68266 0 0 0
-1.18263 0.16039 1.67729 255 255 255
-1.23404 0.15671 1.67066 255 255 255
-1.26240 0.15451 1.66705 255 255 255
-1.28812 0.15246 1.66428 255 255 255
-1.31122 0.15127 1.66275 255 255 255
-1.33153 0.15144 1.65920 255 255 255
-1.35255 0.15032 1.65576 0 0 0
-1.37034 0.14931 1.65255 0 0 0
-1.40475 0.14460 1.64450 0 0 0
-1.42238 0.14465 1.64017 0 0 0
-1.43877 0.14444 1.63607 0 0 0
-1.46489 0.14265 1.62500 0 0 0
-1.48200 0.14654 1.62175 0 0 0
-1.50703 0.15231 1.60947 0 0 0
-1.51917 0.15522 1.60341 0 0 0
-1.53110 0.16069 1.59876 0 0 0
-1.54693 0.16798 1.59463 0 0 0
-1.55420 0.17209 1.58701 0 0 0
-1.56498 0.17871 1.58273 0 0 0
-1.57966 0.18857 1.57951 0 0 0
-1.59266 0.19562 1.57068 0 0 0
-1.60763 0.20452 1.56334 0 0 0
-1.62530 0.21563 1.55653 0 0 0
-1.64104 0.22566 1.54736 0 0 0
-1.65420 0.23508 1.53742 0 0 0
-1.66986 0.24674 1.52987 0 0 0
-1.68891 0.26046 1.52450 0 0 0
-1.70050 0.26988 1.51384 0 0 0
-1.71644 0.28108 1.50479 0 0 0
-1.73777 0.29307 1.49294 0 0 0
-1.74883 0.29991 1.48433 255 255 255
-1.80194 0.32992 1.45186 255 255 255
-1.83658 0.34666 1.43310 255 255 255
-1.85567 0.35515 1.42286 255 255 255
-1.87315 0.36286 1.41193 255 255 255
-1.88797 0.36993 1.40210 255 255 255
-1.90351 0.37546 1.39271 0 0 0
-1.91861 0.38183 1.38483 0 0 0
-1.93467 0.38794 1.37710 0 0 0
-1.94715 0.39171 1.36864 0 0 0
-1.95731 0.39213 1.36337 0 0 0
-1.97260 0.39665 1.35727 0 0 0
-1.99230 0.40295 1.35025 0 0 0
-2.00004 0.40180 1.34723 0 0 0
-2.01095 0.40423 1.34150 0 0 0
-2.04002 0.41026 1.33231 0 0 0
-2.05489 0.41483 1.32593 0 0 0
-2.06774 0.41628 1.32220 0 0 0
-2.07939 0.41715 1.31940 0 0 0
-2.09592 0.42060 1.31645 0 0 0
-2.11971 0.42332 1.31128 0 0 0
-2.13439 0.42196 1.30909 0 0 0
-2.14900 0.41898 1.30956 0 0 0
-2.16903 0.41742 1.30338 0 0 0
-2.17710 0.40773 1.30848 0 0 0
-2.18988 0.40290 1.31271 0 0 0
-2.20983 0.40218 1.30981 0 0 0
-2.22645 0.39683 1.30895 0 0 0
-2.23751 0.39015 1.31448 0 0 0
-2.25763 0.38925 1.31063 0 0 0
-2.27534 0.38440 1.31074 0 0 0
-2.28809 0.37680 1.31703 0 0 0
-2.30222 0.37170 1.31894 0 0 0
-2.31738 0.36933 1.31960 255 255 255
-2.34530 0.36158 1.32558 255 255 255
-2.36645 0.35783 1.32526 255 255 255
-2.38835 0.35774 1.32374 255 255 255
-2.41258 0.35481 1.32077 255 255 255
-2.43275 0.35374 1.32244 255 255 255
-2.45060 0.35286 1.32168 255 255 255
-2.46941 0.35309 1.31972 255 255 255
-2.48535 0.35050 1.32167 255 255 255
-2.50140 0.34916 1.32249 0 0 0
-2.51970 0.34760 1.32268 0 0 0
-2.53548 0.34429 1.32450 0 0 0
-2.56062 0.34173 1.31869 0 0 0
-2.58017 0.33612 1.32075 0 0 0
-2.60526 0.33515 1.31843 0 0 0
-2.62590 0.33302 1.31905 0 0 0
-2.64583 0.32916 1.32090 0 0 0
-2.66738 0.32814 1.31928 0 0 0
-2.68294 0.32347 1.32148 0 0 0
-2.69940 0.32018 1.32267 0 0 0
-2.71823 0.31844 1.31965 0 0 0
-2.73735 0.31354 1.31415 0 0 0
-2.75232 0.30758 1.31631 0 0 0
-2.78766 0.30205 1.31393 0 0 0
-2.80390 0.29711 1.30985 0 0 0
-2.81427 0.28955 1.31744 0 0 0
-2.83642 0.28750 1.30976 0 0 0
-2.86255 0.28266 1.30539 0 0 0
-2.87668 0.28219 1.30027 0 0 0
-2.88976 0.27989 1.29419 0 0 0
-2.90524 0.27465 1.28930 0 0 0
-2.91080 0.27139 1.29037 0 0 0
-2.91516 0.27201 1.28813 0 0 0
-2.92269 0.27483 1.27959 0 0 0
-2.92115 0.27119 1.28545 0 0 0
-2.92849 0.27091 1.28370 0 0 0
-2.93146 0.27272 1.28054 0 0 0
-2.94033 0.27769 1.27600 0 0 0
-2.95167 0.28423 1.26141 0 0 0
-2.95031 0.28516 1.26557 0 0 0
-2.95889 0.28968 1.25746 0 0 0
-2.96170 0.28996 1.25166 0 0 0
-2.96488 0.29357 1.24828 0 0 0
-2.96675 0.29809 1.23983 0 0 0
-2.96777 0.29905 1.23832 0 0 0
-2.97221 0.30476 1.23013 0 0 0
-2.97473 0.31105 1.22542 0 0 0
-2.97820 0.31886 1.21421 0 0 0
-2.98242 0.32762 1.20692 0 0 0
-2.98631 0.33374 1.19624 0 0 0
-2.98784 0.33918 1.19357 0 0 0
-2.99171 0.35099 1.17852 255 255 255
-3.00067 0.36055 1.16839 255 255 255
-3.00741 0.38582 1.14729 255 255 255
-3.01124 0.38943 1.13917 255 255 255
-3.01582 0.39482 1.13123 255 255 255
-3.01974 0.40332 1.12424 255 255 255
-3.02241 0.41356 1.11752 255 255 255
-3.02722 0.42008 1.11180 255 255 255
-3.02976 0.42742 1.10561 255 255 255
-3.03307 0.43588 1.09347 255 255 255
-3.04152 0.43558 1.08740 255 255 255
-3.04596 0.44157 1.07794 255 255 255
-3.04689 0.45550 1.06447 0 0 0
-3.05641 0.45122 1.06422 0 0 0
-3.06257 0.45399 1.06117 0 0 0
-3.06999 0.45264 1.05504 0 0 0
-3.08239 0.44631 1.05402 0 0 0
-3.08744 0.45547 1.04260 0 0 0
-3.09470 0.45516 1.03834 0 0 0
-3.10874 0.44961 1.03675 0 0 0
-3.13236 0.45517 1.03483 0 0 0
-3.14466 0.45306 1.03643 0 0 0
-3.15401 0.46207 1.02706 0 0 0
-3.16736 0.46405 1.02232 0 0 0
-3.17968 0.46534 1.02595 0 0 0
-3.19210 0.47376 1.02149 0 0 0
-3.20978 0.47023 1.02944 0 0 0
-3.22056 0.48256 1.02575 0 0 0
-3.23423 0.48977 1.01863 0 0 0
-3.25134 0.48677 1.01878 0 0 0
-3.26841 0.48154 1.02308 0 0 0
-3.28499 0.48604 1.01311 0 0 0
-3.30523 0.48499 1.01063 0 0 0
-3.32530 0.48560 1.00762 0 0 0
-3.34361 0.47923 1.01471 0 0 0
-3.36308 0.48101 1.00851 0 0 0
-3.38240 0.48003 1.00571 0 0 0
-3.40182 0.47789 1.00577 0 0 0
-3.42186 0.48001 0.99974 0 0 0
-3.44214 0.47967 0.99120 0 0 0
-3.46273 0.47564 0.98860 0 0 0
-3.48673 0.46528 0.99355 0 0 0
-3.50393 0.47506 0.98727 0 0 0
-3.52308 0.48140 0.98016 0 0 0
-3.54440 0.47787 0.98090 0 0 0
-3.56471 0.48102 0.97594 0 0 0
-3.58443 0.47783 0.97098 0 0 0
-3.60617 0.46427 0.97669 0 0 0
-3.62332 0.47170 0.96883 0 0 0
-3.64287 0.47228 0.96421 0 0 0
-3.66268 0.47124 0.96245 0 0 0
-3.68093 0.47054 0.96044 0 0 0
-3.69900 0.47057 0.95671 0 0 0
-3.71726 0.46630 0.95493 255 255 255
-3.77013 0.45834 0.94012 255 255 255
-3.80414 0.46182 0.92893 255 255 255
-3.82504 0.45215 0.92861 255 255 255
-3.84193 0.45285 0.92444 255 255 255
-3.87543 0.44666 0.91311 255 255 255
-3.89052 0.45176 0.90472 0 0 0
-3.91214 0.43198 0.90735 0 0 0
-3.93038 0.42596 0.90246 0 0 0
-3.94153 0.44757 0.88396 0 0 0
-3.96043 0.43378 0.88951 0 0 0
-3.97710 0.43150 0.89584 0 0 0
-3.98288 0.45878 0.88295 0 0 0
-3.99519 0.44972 0.88383 0 0 0
-4.00833 0.43791 0.88696 0 0 0
-4.01224 0.45647 0.87225 0 0 0
-4.01833 0.45029 0.86674 0 0 0
-4.02310 0.45097 0.86206 0 0 0
-4.02531 0.45825 0.85437 0 0 0
-4.02415 0.46346 0.85381 0 0 0
-4.02605 0.45733 0.85649 0 0 0
-4.02573 0.45447 0.85569 0 0 0
-4.02554 0.44936 0.85263 0 0 0
-4.02516 0.44678 0.85090 0 0 0
-4.02334 0.44740 0.85189 0 0 0
-4.01957 0.44677 0.85471 0 0 0
-4.01543 0.44411 0.86098 0 0 0
-4.01034 0.43953 0.86247 0 0 0
-4.00594 0.42993 0.86312 0 0 0
-3.99785 0.43078 0.86072 0 0 0
-3.99276 0.42310 0.86290 0 0 0
-3.98584 0.41620 0.86422 0 0 0
-3.98031 0.40752 0.87018 0 0 0
-3.97256 0.40300 0.87355 0 0 0
-3.96363 0.40189 0.87339 0 0 0
-3.95890 0.38317 0.87605 0 0 0
-3.94864 0.39062 0.87024 0 0 0
-3.94142 0.38487 0.87272 0 0 0
-3.93294 0.38693 0.87448 0 0 0
-3.92571 0.38080 0.87945 0 0 0
-3.91513 0.38352 0.87974 0 0 0
-3.90474 0.38300 0.87870 0 0 0
-3.89514 0.37784 0.87760 0 0 0
-3.88877 0.36732 0.87994 0 0 0
-3.88104 0.35931 0.88079 0 0 0
-3.86723 0.37261 0.87949 0 0 0
-3.85757 0.36931 0.88472 0 0 0
-3.85065 0.35771 0.88926 0 0 0
-3.82948 0.38606 0.88777 0 0 0
-3.82217 0.37302 0.89970 0 0 0
-3.81603 0.35786 0.91133 0 0 0
-3.80581 0.35224 0.92089 0 0 0
-3.79430 0.35417 0.93002 0 0 0
-3.78232 0.35919 0.93706 0 0 0
-3.76477 0.38014 0.94146 0 0 0
-3.75565 0.37092 0.95008 0 0 0
-3.75201 0.35686 0.96222 0 0 0
-3.73673 0.38099 0.96663 0 0 0
-3.72964 0.37348 0.97414 0 0 0
-3.72416 0.37043 0.98084 0 0 0
-3.71937 0.36719 0.98665 0 0 0
-3.71426 0.36825 0.99449 0 0 0
-3.71478 0.35551 1.00498 0 0 0
-3.71035 0.35755 1.01579 0 0 0
-3.70959 0.35027 1.02719 0 0 0
-3.70789 0.34586 1.04019 0 0 0
-3.70892 0.33433 1.04859 0 0 0
-3.71257 0.31641 1.05634 0 0 0
-3.71465 0.30688 1.06334 0 0 0
-3.72159 0.28611 1.07404 0 0 0
-3.72857 0.27083 1.08491 0 0 0
-3.73755 0.25515 1.09873 0 0 0
-3.74858 0.23355 1.10698 0 0 0
-3.75640 0.22679 1.11677 0 0 0
-3.76143 0.22768 1.12529 0 0 0
-3.77513 0.20631 1.13620 0 0 0
-3.79498 0.17341 1.15359 0 0 0
-3.80806 0.16404 1.17097 0 0 0
-3.81618 0.16188 1.18006 0 0 0
-3.83554 0.13152 1.19174 0 0 0
-3.84533 0.12860 1.19561 0 0 0
-3.86107 0.10854 1.20565 0 0 0
-3.88034 0.08546 1.21887 0 0 0
-3.89707 0.06853 1.22886 0 0 0
-3.91154 0.05519 1.23431 0 0 0
-3.92176 0.05936 1.23431 0 0 0
-3.93604 0.05323 1.23691 0 0 0
-3.95014 0.04606 1.24154 0 0 0
-3.96587 0.03884 1.24733 0 0 0
-3.97836 0.04396 1.25343 0 0 0
-3.98968 0.04370 1.25837 0 0 0
-4.00169 0.03631 1.26226 0 0 0
-4.00878 0.04447 1.25915 0 0 0
-4.01644 0.04553 1.25757 0 0 0
-4.02647 0.03695 1.25819 0 0 0
-4.03418 0.03775 1.25413 0 0 0
-4.04124 0.03333 1.25324 0 0 0
-4.04608 0.03798 1.24877 0 0 0
-4.05289 0.03255 1.24629 0 0 0
-4.05916 0.02509 1.24856 0 0 0
-4.06711 0.01381 1.24798 0 0 0
-4.06832 0.03205 1.23125 0 0 0
-4.07559 0.02783 1.22692 255 255 255
-4.09042 0.05017 1.19865 255 255 255
-4.08715 0.07180 1.17377 255 255 255
-4.08363 0.08694 1.15680 255 255 255
-4.08033 0.09609 1.13957 255 255 255
-4.07419 0.10856 1.12290 255 255 255
-4.06616 0.12369 1.10845 255 255 255
-4.05449 0.14778 1.08661 0 0 0
-4.04787 0.15527 1.06872 0 0 0
-4.04146 0.16008 1.05677 0 0 0
-4.03387 0.17335 1.03971 0 0 0
-4.03356 0.16710 1.03235 0 0 0
-4.02253 0.19682 1.01228 0 0 0
-4.02324 0.20295 1.00785 0 0 0
-4.02558 0.21316 0.99793 0 0 0
-4.02853 0.22068 0.98866 0 0 0
-4.03529 0.22369 0.97818 0 0 0
-4.04268 0.22797 0.96652 0 0 0
-4.05096 0.23374 0.96042 0 0 0
-4.05808 0.23963 0.95094 0 0 0
-4.07913 0.24811 0.92518 0 0 0
-4.09502 0.24401 0.92140 0 0 0
-4.10741 0.25611 0.91258 0 0 0
-4.12599 0.25741 0.90381 0 0 0
-4.14620 0.26037 0.89791 0 0 0
-4.16657 0.26378 0.89601 0 0 0
-4.21260 0.26981 0.87941 0 0 0
-4.23481 0.27458 0.87333 0 0 0
-4.26086 0.26874 0.87332 0 0 0
-4.28618 0.26904 0.86604 0 0 0
-4.30795 0.27558 0.84787 0 0 0
-4.36212 0.25657 0.83114 0 0 0
-4.38435 0.26552 0.81901 0 0 0
-4.41519 0.23100 0.81840 0 0 0
-4.43798 0.23232 0.81830 0 0 0
-4.46310 0.22662 0.81152 0 0 0
-4.48680 0.21402 0.80801 0 0 0
-4.51139 0.20081 0.80300 0 0 0
-4.53450 0.18644 0.80483 0 0 0
-4.55449 0.19286 0.79273 0 0 0
-4.57712 0.18469 0.78673 0 0 0
-4.59817 0.18274 0.78652 255 255 255
-4.65989 0.17793 0.77087 255 255 255
-4.71649 0.17600 0.75258 255 255 255
-4.73602 0.16821 0.75021 255 255 255
-4.75649 0.16105 0.74790 255 255 255
-4.77843 0.15063 0.74623 255 255 255
-4.81535 0.15836 0.73708 255 255 255
-4.83429 0.15711 0.72897 0 0 0
-4.85588 0.14756 0.72893 0 0 0
-4.87228 0.15065 0.72395 0 0 0
-4.89010 0.14379 0.72466 0 0 0
-4.91882 0.13749 0.71684 0 0 0
-4.93237 0.12450 0.71960 0 0 0
-4.94207 0.12919 0.71104 0 0 0
-4.95120 0.11379 0.70875 0 0 0
-4.96033 0.09932 0.71136 0 0 0
-4.97156 0.09568 0.70978 0 0 0
-4.97617 0.07809 0.71204 0 0 0
-4.97952 0.05709 0.73115 0 0 0
-4.97601 0.08941 0.71962 0 0 0
-4.96984 0.07973 0.71711 0 0 0
-4.95110 0.06533 0.74518 0 0 0
-4.93735 0.07329 0.73059 0 0 0
-4.92743 0.04415 0.74060 0 0 0
-4.89764 0.04833 0.73496 0 0 0
-4.88500 0.03095 0.73773 0 0 0
-4.87218 0.02254 0.74203 0 0 0
-4.86330 0.00435 0.74786 0 0 0
-4.85726 -0.01180 0.76229 0 0 0
-4.84755 -0.02172 0.75901 0 0 0
-4.84339 -0.02493 0.76460 0 0 0
-4.83478 -0.01912 0.76203 0 0 0
-4.83117 -0.01189 0.75443 0 0 0
-4.83143 -0.03753 0.75217 0 0 0
-4.83281 -0.04162 0.74431 0 0 0
-4.83939 -0.06078 0.74349 0 0 0
-4.84459 -0.07145 0.74288 0 0 0
-4.86099 -0.08099 0.73244 0 0 0
-4.87357 -0.09208 0.73227 0 0 0
-4.88453 -0.07433 0.72055 0 0 0
-4.91896 -0.09952 0.70580 0 0 0
-4.93643 -0.10451 0.70297 0 0 0
-4.97384 -0.12704 0.69607 0 0 0
-4.99641 -0.14067 0.69338 0 0 0
-5.01892 -0.16172 0.68966 0 0 0
-5.03836 -0.18033 0.68964 0 0 0
-5.05822 -0.18937 0.68624 0 0 0
-5.07936 -0.20097 0.67809 0 0 0
-5.10128 -0.21547 0.67036 0 0 0
-5.14619 -0.24813 0.65889 0 0 0
-5.16709 -0.23885 0.64594 0 0 0
-5.18676 -0.25665 0.64050 0 0 0
-5.20689 -0.29564 0.63911 0 0 0
-5.22907 -0.29243 0.63562 0 0 0
-5.24788 -0.28865 0.62913 0 0 0
-5.26745 -0.30955 0.62536 0 0 0
-5.28668 -0.31673 0.62191 255 255 255
-5.33572 -0.34671 0.60083 255 255 255
-5.36533 -0.36549 0.58482 255 255 255
-5.39179 -0.38822 0.58185 255 255 255
-5.42186 -0.38741 0.57085 255 255 255
-5.46168 -0.41627 0.56828 0 0 0
-5.51194 -0.46444 0.56785 0 0 0
-5.52891 -0.47259 0.56204 0 0 0
-5.54081 -0.48793 0.56597 0 0 0
-5.55104 -0.50401 0.57014 0 0 0
-5.58318 -0.51534 0.56425 0 0 0
-5.60888 -0.54226 0.55920 0 0 0
-5.62474 -0.54886 0.55679 0 0 0
-5.63676 -0.55678 0.55048 0 0 0
-5.64250 -0.58019 0.55777 0 0 0
-5.66640 -0.59223 0.55015 0 0 0
-5.67060 -0.61848 0.55509 0 0 0
-5.68099 -0.63020 0.55804 0 0 0
-5.69326 -0.63802 0.55400 0 0 0
-5.70057 -0.65574 0.55857 0 0 0
-5.71198 -0.66457 0.55937 0 0 0
-5.72107 -0.67255 0.55717 0 0 0
-5.72626 -0.69288 0.56617 0 0 0
-5.74676 -0.70808 0.56816 0 0 0
-5.75826 -0.71008 0.56540 0 0 0
-5.76338 -0.72254 0.56879 0 0 0
-5.77292 -0.72911 0.56887 0 0 0
-5.77795 -0.73193 0.56243 255 255 255
-5.78436 -0.75371 0.56623 255 255 255
-5.79032 -0.77292 0.57936 255 255 255
-5.79378 -0.76684 0.57448 255 255 255
-5.79018 -0.78282 0.58479 255 255 255
-5.79068 -0.78019 0.58843 255 255 255
-5.79068 -0.77158 0.58529 255 255 255
-5.78530 -0.77606 0.59306 255 255 255
-5.77996 -0.77740 0.60014 255 255 255
-5.77426 -0.77709 0.60809 255 255 255
-5.76952 -0.77567 0.62053 255 255 255
-5.76849 -0.76333 0.61624 255 255 255
-5.76063 -0.76061 0.62777 255 255 255
-5.75743 -0.75383 0.63389 255 255 255
-5.75564 -0.74381 0.63139 255 255 255
-5.75200 -0.73578 0.63701 255 255 255
-5.75040 -0.73196 0.63924 0 0 0
-5.74976 -0.72744 0.64058 0 0 0
-5.74683 -0.72717 0.64694 0 0 0
-5.75094 -0.72772 0.64555 0 0 0
-5.75969 -0.72392 0.64262 0 0 0
-5.76962 -0.72004 0.63672 0 0 0
-5.77584 -0.73414 0.64315 0 0 0
-5.78260 -0.75272 0.65584 0 0 0
-5.79831 -0.75415 0.65742 0 0 0
-5.81351 -0.76571 0.66117 0 0 0
-5.83200 -0.77677 0.66853 0 0 0
-5.86170 -0.76307 0.65333 0 0 0
-5.88308 -0.75841 0.64789 0 0 0
-5.89847 -0.77942 0.65509 0 0 0
-5.91776 -0.79158 0.65618 0 0 0
-5.94032 -0.79087 0.65210 0 0 0
-5.95379 -0.80785 0.65679 0 0 0
-5.96409 -0.82405 0.66384 0 0 0
-5.99048 -0.81745 0.65634 0 0 0
-6.00700 -0.82220 0.65717 0 0 0
-6.02618 -0.82512 0.65506 0 0 0
-6.03647 -0.83446 0.65861 0 0 0
-6.04515 -0.84445 0.66805 0 0 0
-6.05918 -0.85193 0.67676 0 0 0
-6.08292 -0.84121 0.66460 0 0 0
-6.09601 -0.84792 0.66714 0 0 0
-6.10843 -0.85258 0.67146 0 0 0
-6.12728 -0.84486 0.66298 0 0 0
-6.14068 -0.84632 0.66191 0 0 0
-6.14374 -0.86082 0.66939 0 0 0
-6.15762 -0.86307 0.67039 0 0 0
-6.18579 -0.86515 0.66245 0 0 0
-6.19615 -0.87155 0.66352 0 0 0
-6.20976 -0.87449 0.66404 0 0 0
-6.22390 -0.87699 0.66174 0 0 0
-6.23774 -0.87913 0.66284 0 0 0
-6.25256 -0.87840 0.66398 0 0 0
-6.25882 -0.88481 0.66518 0 0 0
-6.25690 -0.89262 0.67871 0 0 0
-6.27059 -0.87932 0.66696 0 0 0
-6.27070 -0.87835 0.66845 0 0 0
